205.754490148676 7.22758601483856 10.8168745352995
95.3524861751613 -17.036487714779 -7.09666352461882
204.983012474459 15.1800885601268 -13.2922209449194
-164.042392545179 2.82169124924845 15.9492306166007
-88.7471274556373 -0.760921642959103 -15.1819129054231
169.668697672537 10.5966107596016 16.1436239830982
-123.085697914705 1.69224380282079 -9.7064278226315
-191.723807672669 -16.5617922731742 -7.6404674577512
-112.042004671959 -17.0185829555994 9.69400399900067
-224.835262888512 14.1547590419038 -18.9626476990733
-250.020744829216 14.8821917646544 -2.2845474400512
-217.496107368614 34.2184827971867 9.43699422364042
73.7753212178018 -15.4964457182972 -12.2106772673302
-230.718561423265 9.57209598907109 -16.5301325604607
-231.430521267401 -25.5906291681021 15.0500104962609
195.228380991731 -33.4088546886371 15.1255058825871
152.205937758514 17.6885936600173 -15.2859434811094
62.5814677080447 -5.40286338843392 2.07721823749095
79.2941809334512 9.2032128911717 -0.202594969144573
-56.5670730952693 -8.07594402397488 -18.1972745946356
-117.903574290008 -18.5019679764492 -5.28676472566754
180.389062501616 7.76124489869596 -24.0722577514935
-183.010532926465 -12.8671026094235 -7.41044731644833
180.345657736539 10.7208560826465 22.3910306706813
191.296249886035 20.6099939736303 35.3186412998368
142.413563502979 -9.2076640731723 -24.3438008008769
-231.11593208407 -20.9828626396988 22.2825445414539
-185.144221055441 11.7926177989622 12.246505351674
201.858521906866 2.40509856170711 4.99002060683525
-39.3119928408121 -7.98631737265768 0.353487947329842
146.416577193541 2.73379584680606 -22.3091730835351
-249.645504922938 16.7169559400143 3.97578779361142
47.8193472444246 5.59660695300365 -21.3396894625638
192.513212012496 -12.7441948254844 24.5751439743887
-221.202392343624 12.1814407196214 -16.4796074736973
-67.4944491956713 -9.51692478851639 -16.8510385843799
-182.494821908771 4.01115996173435 -10.3329956088256
168.276904768675 -26.6122340702272 -20.3301740764645
112.613346149064 18.6699524758566 -7.58710066703523
170.676177772345 17.0226242601145 20.199226054933
-33.8089594003675 1.00302345667713 -19.9099772896473
-218.925544640968 41.8120571858554 7.57897863629001
-201.671528862136 -30.6318637954197 0.511321754488231
71.2548277859687 -15.2932754779211 -10.4015226285854
-19.0890312559303 -15.3176203744698 -13.9184996578617
-233.842400720283 -24.5477630904977 8.86567795356277
-212.738869053128 -0.494662361762299 14.0351228469573
-178.033795835658 -3.54844530543322 -7.53434594128939
140.888054700365 3.35603311200394 5.80185073488085
-24.7425783496423 -13.1860164544792 -17.4578344653766
-122.842480235685 -1.08329401730498 -11.1989689831093
149.678249133388 18.4738987684428 7.88196961086622
93.9794714887806 16.446619699461 -11.5518730793884
31.5313434584225 -3.14912233857353 3.36340475299776
-155.32166419203 6.43316731171742 -6.73605625861476
-167.713555656763 6.60161562257665 13.8341634048281
-26.2308332194196 9.7940848080329 -14.6298905082967
191.590059182869 -0.442930473866012 -18.3704066907953
113.735353696565 -6.08403798401294 3.63288147267149
173.123736212554 38.5864657509982 9.98188243185709
87.5539981317012 -3.61372392642224 -24.8832052752418
207.498101750898 8.75034822373105 6.43301976009147
41.4802308251647 -14.3914947695155 -13.4661173237496
50.6674583589101 1.64277217514757 1.61622475235304
-132.967054177953 -18.0681439784051 -5.1249740372192
-197.753152002418 -28.8858381831823 14.4106971836472
151.878814406667 -21.5949933796091 -18.3040680685898
170.439512410559 -23.1550065136422 -28.9325166154077
169.70651796317 17.1798886300893 -19.5759014948606
-160.17623190246 -5.37097906115303 17.491612818325
-136.996059724665 -21.4809143196167 1.78163351063369
32.031784630576 -9.67619859184306 -21.8421256623212
55.2304300996474 -5.25963445497854 2.30514713727144
-131.795233743806 4.55388925548858 -7.97739183035404
134.833440110988 -21.8249099151233 -5.40792776453294
176.621021494583 29.9752632728333 26.6651601974605
-176.945776916266 3.53724060469482 -8.7349953954792
75.8522202977186 0.252659087826351 -24.0917974894189
-160.397380430456 9.64193114216724 2.80884669406906
-223.330963083569 -29.7812890157466 15.3092769419407
192.659901670546 -10.579546355054 20.2059200633371
39.0246817724863 5.36841308520148 -21.16140680088
-205.836278454222 -15.8056890834302 26.4174209649229
176.311837952052 10.701546390931 24.5059133129173
-203.471275109621 -33.4092295447048 5.67114447014854
-139.89738602253 -11.7373932914831 15.4720497737361
109.247187533365 -15.9847621112945 -19.1135760513556
-213.024947872263 -25.0566847905845 -10.5567990403639
165.821513398518 -2.40590049115772 12.7531707920096
188.888891052474 1.71661659431111 7.26903802518427
-153.094198125061 -22.5066033150332 4.07711513925603
100.278123933265 8.4823229466304 -19.8010851909947
-219.745813244116 -24.0314150028168 -9.65376927554793
170.025924490556 -31.538572795103 19.0855186995054
-224.159752560907 -29.5944270752294 13.1209183972721
173.100308412226 -39.9329891296897 8.58608055737908
138.960796877296 6.15870896412764 -21.3492439347016
-188.4095581243 13.063235855306 8.16808454178413
88.0981502779964 7.26868663545139 -20.5854873160316
-143.334686820849 9.3075835729265 -3.27797752584117
172.043838419504 -24.8751858499835 -29.388589198993
157.697574650328 -16.251260569268 13.465349477937
-204.956963292677 -15.2840520623374 -9.40062342946013
73.9686467594943 -15.1110200934008 -15.9218477742657
172.767401864912 -8.94999963172099 20.4082789521435
156.398284367069 9.84877515061994 -20.161274273759
170.862970051156 -12.5364986552801 25.4174135488939
-202.805095862378 -1.69473292864159 18.481888057268
-100.660420442078 -11.714432604199 -13.1874722741007
137.086437774866 1.77652017877733 -22.9783257654467
-206.865173767977 2.90784162209287 -10.9589322645596
196.886885233724 31.7643522046203 3.84116980002245
188.882977460673 33.8938834341787 23.5123345947111
-16.8506094254759 15.1938095623324 -9.00183354696072
-222.921124976347 -30.3976777860861 12.2538692119386
101.649418651104 -5.26454203190224 -25.0481297733192
18.2739929889751 -4.98561855686251 0.723357418116197
-239.499555152276 -21.534816533502 1.31403011016442
-159.652942747386 -23.9882799866087 12.0149044347037
20.9256452082393 -4.92187451932052 0.974560800997805
155.67955673384 -21.0498559118364 12.0325627767396
-169.017531838216 8.67970727017791 6.63956042465061
-227.603015430378 -11.8982875778447 8.32906828078697
-200.489638308815 -17.5637691343023 24.5255759761909
179.980337865038 34.4576035256045 -3.03482338435219
-222.206373357365 -17.958072131225 23.7518904548837
-140.880652426077 -6.39315518253508 -10.3185807463302
-244.119814841395 16.9719596149086 -18.0325188407733
162.836822726137 -22.3723937319935 16.2835680710009
184.179014401933 -31.8218306083321 30.0319912602508
184.318975299836 -3.33936619373879 12.4495470447247
151.415115168582 -10.8824007541814 9.93517873135276
164.187274377698 -21.8406641899613 -24.2418548937975
19.0365674955508 -3.76656213764148 2.68980928427006
-155.151460243495 -24.2651119832796 10.7502948435247
-195.151334827081 2.74019706349871 -10.9500426267723
17.9635980292107 8.34640690679695 0.204241479122977
-158.329063094036 -23.6898971224767 7.2286622364777
159.042774415989 13.7412120501831 -18.9413482847366
185.128569485728 14.6993029573098 34.2409002740834
-89.6853390642362 -3.78991673058922 8.52575098777886
-181.674762166123 -21.7676291495083 19.118791719371
-229.705081145161 -3.17430164628628 -6.95677114501689
206.792636335501 21.0561366069564 23.6762957404036
-231.423511085994 5.01378974234183 3.38769675136427
202.389830006556 29.1325862411245 2.38949904070598
-241.372203901284 44.0174241347216 -13.4942853201277
-122.354964411681 -9.26247271551851 -11.9304563416278
-108.744752370021 -14.4092820689122 -10.911088006841
-34.6443680608231 -14.7170651201804 -15.4223300635842
29.5074346219814 6.10584493656402 1.12396501882654
112.436631917717 0.708589871298095 -23.8689818792822
-193.270870044605 -0.265843402056184 22.2376548126262
44.5826495800734 5.80406053474623 -21.135777607484
-224.529203398868 31.608506133698 17.2459054142257
-110.84425577312 -12.5641775790075 -11.8555390365341
-71.6022559183436 -6.53036846879596 -17.4568535025333
162.937734904139 -23.6283043443398 -21.9713312296988
157.192223549311 -23.1411641815437 -18.3326527479542
-212.102626801602 -33.0654849200864 11.8738121258971
-177.388137534483 4.67975949404895 24.1260505949318
71.3398189570522 9.1749046420566 -0.567327556704274
173.102220722536 -12.16105713946 -27.0633844876526
17.9522710758109 -10.2530766261741 -4.60473979384394
196.408784910928 -13.5203355789043 22.8364161022549
-128.667928949487 -14.7707254743248 -8.74308695363268
-223.159289600383 -17.1142533139761 -11.4391644341993
-178.928793945006 9.24238239601283 24.1460427296519
160.194481029964 -31.6904330604483 3.82245600930155
-167.554092185653 -16.0002117774119 18.9393528852099
-219.106393277444 -32.8439287476447 2.60747948679361
172.002403281329 17.6846992774215 21.4030303286942
-2.30947281115639 -6.92594810219476 -21.7120055456185
-232.446406768689 -10.0460309078479 -2.62008053345921
-233.678145023993 30.2626508245266 -24.7538990624291
67.2956291493744 -3.49299966818153 2.61891992467867
128.042571324775 9.47093473610029 -19.4818007226507
198.130981460877 25.8224356337024 -8.00079269390262
-224.118689645444 -8.98810862279236 -13.9253758825507
143.293183960351 -23.0191245910281 4.26083454221307
201.417154664822 -20.7124571177051 21.5245885223378
154.896520925041 2.38943838897445 8.87403271107026
-253.460843249803 31.9804775623665 -2.24134941637111
209.103132422748 23.3462880340138 -4.21416253586489
-216.626596759801 -8.68144078857543 18.6437043040203
-56.1738331830396 -3.19441780495459 6.33476175211901
-93.0373811450454 -14.4643188623092 -11.9251512440062
199.5550857491 -1.80791249487116 0.369492187439677
181.388381937544 7.77081490336841 -25.1646515185523
198.806701933567 -20.0178201854798 -14.5520533000913
186.463442946026 -23.8482152715465 -25.5549148233034
163.707345472831 29.4883952381677 -4.39712888253284
-214.79943680867 33.2432241376144 -14.970064848681
204.47823859907 32.1555725878328 21.9962858964876
-182.990600354096 -25.8619091016821 13.9147343969463
155.378588234548 25.6155887879872 -5.51356698608868
36.6791819720294 -13.9423640861602 -11.1514778542031
-217.285389231726 -32.8668713322505 9.95170357713159
-209.717997823313 -31.1772341127775 -6.6105102875882
-227.394828737453 -24.9043328926644 -7.32604196064633
-62.1182752590563 -16.7442358442359 -5.90228493315759
-212.529504010098 -9.4970881077813 23.2139214740797
111.787759326154 -17.4233917613928 -16.0450371993919
-144.562086291356 -9.60779556063068 -9.68766845941511
-91.4875954784393 -1.42063671213479 -15.1905496582359
-251.756207519789 23.1484837628645 5.15282607207598
-136.549139570943 -0.350950476012392 11.3677599146984
-119.910830829422 9.94230321223252 -3.05442670020114
-195.446653493768 -24.022828956041 19.2763244598591
-237.354726171174 -13.7330246304428 -0.844314443693622
-78.1097270729964 0.895431506311632 5.55239237732579
-222.418938744172 -12.988008318666 16.0657935075882
184.766253535272 8.66269371665685 30.1550216963649
162.719195667779 0.341012454495383 11.2921998275181
-137.106297687461 6.41055036645238 6.27939851657907
-17.7181024068379 -0.871581766616424 4.46545146289039
-230.566427689677 -15.5745818110517 23.4251871316037
-212.573860739359 9.23936614495478 -12.7402966217809
-215.648568179955 12.0986310894568 -14.5957138773722
-180.738401226963 12.3387715027356 -2.85518443147834
74.6988917322835 3.53567183472361 0.966263546412604
147.331077761002 14.1313078115227 7.91579810851252
-239.616610118086 10.1284285860005 0.36822329938471
-237.895144207141 -9.74227932050512 17.6123149178346
-153.598662059349 -23.5082117735282 9.85660367411864
174.934070932081 13.5139320302691 27.9946280119399
-124.220411135868 -16.2617263966877 -7.86972971215733
-110.400121626867 -3.33436872947001 9.83647315768183
-154.933492722012 -23.5953471293482 8.9911647138421
-148.466125554335 -5.64299344470674 15.2958484239914
-237.423841281129 10.443384551986 3.32822377205363
165.88036116865 34.0512651776523 5.00951695254238
179.745837554612 38.9723274420303 11.8755141435589
-35.3382376563465 -2.39625240664959 -20.5390899341879
191.073259921762 -5.60663773930823 9.80322528619603
34.5040772574818 1.16466034363841 2.72242081495214
201.125448489115 -34.2945010984542 12.3749879477482
179.681375521689 -17.8945828343969 31.3894055831265
-220.016114096874 5.28782018395535 -14.4533945638433
-218.427430731878 38.543034528835 -15.9845572187407
-227.531188409972 17.3179761477463 -21.7563615908718
-108.979078478962 -19.465030582226 -2.44952548536518
-97.612703852651 -15.6505200450696 -10.5181651515019
209.993673994368 26.8179780898846 1.22757190399057
188.050646195738 10.8964982549726 33.1539276262776
-242.959723202119 10.1363634658087 -5.5320007324387
-197.174033196387 -20.8294556688482 21.4293603998912
142.572578319412 22.2662297975358 -6.66276151924073
120.34614699774 13.3983060768812 -16.3100529498624
-207.359215116671 21.8134829642184 -6.52858551736088
-180.607695196272 12.8504095378935 18.3944132546813
-253.84620327865 26.1049444230472 -4.50394923533988
-104.791920102096 0.891630329525831 7.62461216637346
-154.139967860483 7.99033869268698 -5.54956898813918
27.623437067724 -8.76625378701352 -22.1081530391275
-228.576297089362 -2.54374646932814 1.796387503783
-227.13922435665 39.7427197890835 14.7871975915673
-6.46348282622577 8.63015415693896 -17.1853006622429
47.0204732034839 -1.82962867213088 -24.15064750299
-82.7231827818643 9.65964837670344 -9.58335790240966
158.721537381336 1.15556662810153 9.90185540920944
191.99218430219 8.35702473881711 18.3256132208655
-212.432221090036 11.9728431917962 -12.7928322658334
202.091534406435 -15.4335396759176 13.1740781653593
-230.304033314228 -0.155268310530945 -2.64873663424923
125.412958843001 8.83907677866511 3.16649117239491
-111.03251440491 -16.3194141053905 -9.02063740654045
78.148919139192 -15.7738549748036 -10.020792041124
-183.631808949162 12.0360712142323 7.30161485749927
-244.685813747282 30.2875539588782 -20.6276000858937
-207.896532260053 -5.4373335439373 -13.54859135928
-191.999888327795 13.619830384447 8.94487966350552
-152.061677822047 -22.7082226476678 9.36117720310132
178.691658496314 -29.6680306883873 29.0477201707245
-62.9410109531156 14.4112050659208 -4.63078433967842
-165.904668361964 -2.19139095571759 -7.53730894679527
-113.497213094201 -2.12509851729167 9.79567267629123
39.0269716432827 -5.12074848888699 1.41247862179182
74.2991999584905 10.2315356318691 -18.303689306787
173.568273496961 -29.0278166922857 -16.2468593495396
77.1926241036085 -1.55417121924157 1.92840142282659
136.571258400696 22.0395646580592 -2.11397946265172
162.297581224702 -12.0666542556059 13.9417050445369
160.927804870793 5.96612067676841 11.2711348075546
143.808006468554 -0.455344602580756 -23.2215850365938
-152.301070132015 -9.54061367569381 -9.01159502403334
182.629294493159 31.8420641902435 26.9714070145305
29.8534620627319 -14.5620421938448 -13.0841075820297
67.013991963697 6.94479045693525 -20.7312060480317
-159.476768166751 -24.6976537780348 8.34854245832935
154.539217859576 22.1635711657998 -11.0558119871811
-196.393272676084 -28.9904634298453 11.6983858359594
152.871319614889 18.9124043160802 9.99323346160869
-244.15794343364 37.310601806521 12.0803116180571
-228.44969822816 -12.7514125407428 12.8426196452228
-20.9518069604572 -11.2863947763865 -19.0984237296983
-87.6714773053043 4.83105886600128 -11.29535207733
-200.05435419485 4.62447372537562 16.6871527366619
-189.388348450917 -26.3798872284113 15.3048131289975
202.485338954587 12.141782330278 -13.277242389521
184.225015038729 -36.5521080121919 15.6317769809083
-238.666140075908 45.3069625749917 -0.365599824234367
-210.931044025188 14.5852529533128 10.2898182332884
-184.608690694185 -25.2170151352569 2.65593278058978
8.43892720586176 13.8454347153028 -11.8044843316703
195.930265801162 -7.44665208322028 -13.3341142817238
-183.090988512393 6.06899126477051 -10.4146392034877
49.6644994346644 3.44255462857903 1.37709134180172
-237.302599603149 9.0066485596189 -1.05573623614289
-113.636359647441 -16.5765476494614 -8.60642596083734
-238.139478300542 24.8873400414268 17.6565424683857
-176.328813772616 -4.9195742324587 21.962612591469
-128.390432335081 -21.2161227453102 1.8515554445911
110.660274022411 -17.2308400497798 -1.38998973479145
209.579113263644 22.362247861313 15.7296866069778
-161.618372940123 -2.80367345996805 -7.74464267901858
-232.825173133384 6.12842186567006 2.26172118080892
187.406245124231 33.8207454466578 24.0420130096544
-149.829012597754 -7.67091354864981 -9.36034615634854
192.787341385314 28.6123484605974 -7.40088726197451
172.589798259785 -18.0405384431648 -28.4164844950175
175.240979729241 14.2905105236298 -21.2426711072802
-230.042486311677 -11.6553361465496 7.97754969299357
156.803881040754 -18.2305426277337 -23.2532304863914
195.584391276563 32.5918464014524 28.7833227600417
-228.07373177933 -27.0864119828509 14.8243053978076
192.047334308609 34.7941571823173 14.8654982783461
30.7382456104983 -8.09378253282574 -1.82904080857658
179.469172322856 -9.215798957218 20.8109691715741
200.060851407594 11.6733848679735 -15.5768856365163
169.846366037366 -19.6834776992509 26.9231897797994
106.644061628115 5.07652276888741 1.8771622980355
161.997578953759 -32.3399076691438 5.52543074470699
30.3279425627794 -13.4295428113396 -9.48389746611734
-179.347429125039 -25.271090927726 11.154123108595
198.963931907392 24.72711566944 -9.25158254647182
-231.376534759766 20.2669302407793 17.1386265502876
-2.90484678078682 -12.0876694528194 -6.90840222908508
33.4724520896397 -4.03121529173661 2.70516956428795
180.794211657923 34.4932219261328 24.7009219751992
179.40775846256 -14.3462496441807 29.3643406977244
188.318806259787 20.1206609013879 35.3827607248053
131.793499058185 16.2739301301865 -14.323973642019
158.930176835278 6.49094758884016 10.363175047522
-237.787596034819 28.2407889291602 17.8916498363779
-111.810354067805 9.702854658069 -5.30922806541122
200.292376472865 -12.2157159583191 13.5864307764315
-147.687407303994 -0.286585526612528 -8.44940216882698
115.712668412726 14.9436161627676 0.0354880981756841
-138.154745861801 -13.9441789145734 16.8626045419832
170.534812252754 -13.0672976379864 -27.4725933066217
-51.5793704470629 7.19412771826824 2.15445975607707
135.53803555324 19.1878562565869 -11.0071946560917
-235.909344730426 45.3561316129368 -9.70566002648716
208.346175088168 11.0684937135116 7.44066092928268
177.479560068907 -19.1770953664197 -28.3926854654547
-210.811809631122 -3.15542752713383 -13.0530434436982
208.101180364042 29.3079482075359 2.59930316821403
-139.667962443364 -16.6499928969952 15.7257675456072
-188.216658815339 10.2556069103066 24.1602770427356
-129.000548188722 9.51643853662427 -0.612498932473446
-17.4970828101175 -14.5292159686391 -16.2859642204427
-74.1180436451703 13.1468236391583 -7.72307925011389
176.794474391754 -26.2470534574469 -22.8176546024945
-228.199100570823 -9.44103214867445 3.24559283174659
-148.574281685292 -11.9550573841358 -8.64156254611559
194.986131974745 32.814649136908 26.5849161133142
-186.553359089277 -26.4254487682191 7.3150083652684
175.977923224387 11.5456091105448 23.6211334987652
202.970911361105 -17.6653640037428 3.52898595689544
-100.568861587185 -15.7077101928907 7.21432713984336
163.49129613795 -26.7617072199992 -15.6639137591923
-55.3537921705676 -13.0710283969507 -15.7222231075929
-125.594061838042 -2.59367643831732 11.1293723217839
-37.5144641277505 14.8205648397767 -5.89826438772611
-250.862222793222 29.4579169508422 -14.1681717431267
-48.7980038833818 2.80876216859847 -17.7940048863912
129.13869418268 -8.58769728898637 5.58726415837771
66.3275735369226 14.602655802147 -13.6340137172897
168.405892786913 25.4685214105941 18.1042833376522
182.385266266024 -32.7309803648473 -7.21156263975872
174.366343851274 2.78415269859007 -21.7187141679716
198.250944559151 22.1162194755954 32.9855112192839
71.5933301487691 -13.6485983570703 -4.1847771144856
-234.324453126705 -17.0731684467658 22.1729889035924
182.462927184618 31.8187662227152 31.6174572950131
-137.134140235178 6.1205534803338 -7.03915423979137
189.588084966612 -14.2633966861249 29.2749809599087
-23.2160883173448 -6.22525276668656 0.612666723838625
179.635903049897 -20.3621976573829 31.9734419787128
141.003399836403 18.0564109134645 -13.3831676421961
169.471533018197 18.6484769691375 18.927518720701
151.28113168753 18.8772581875172 8.69840539340537
148.173364523909 25.7128458270646 0.429113443761206
-83.1702430675598 -4.03004805953733 7.92779039370369
-82.1141753087489 6.25401983795033 -11.1682958352923
-144.240967140337 -20.6741493313393 11.6894741934852
14.3961548082377 14.1279444601826 -11.0899329311985
-215.478274729526 41.2683939682043 -7.12589407083164
176.228224142328 1.41316582290075 14.689732893773
125.353851803267 7.89575272072299 -20.3694542393781
38.7434569904309 -5.07820242801585 -23.757616311596
-248.577500118832 18.128523377976 -13.8583448032306
-179.310529447402 -25.0046767566119 5.83591908840009
92.8449808503629 6.78869855274554 -20.9239536331298
177.57454541733 6.98430690185282 15.9986151883522
-199.629026496369 -2.23135003169715 20.4354056973837
-98.4710428662897 8.15011219491048 3.74791164532385
140.232565305637 -22.9097160143726 -4.07038868077731
177.864211692671 -6.86178567133257 -25.0756742610315
-137.930507271783 -2.1847473095175 12.3337527142521
79.9836778364161 16.4643951385547 -8.43970399623229
175.366998047156 35.6314698033079 -1.30491321459853
-230.504478888501 -26.7743539532822 13.0887661686479
-151.202180963379 8.92465186700704 3.61277743472146
195.385712860883 -33.9939133080644 7.34276826195185
194.834954844871 6.49250910027676 24.9478372977992
-45.3100944595222 5.79669169446118 -16.1227782842066
-172.231932286185 7.02641676094003 19.5126208400623
164.203529110455 -14.0298132191232 16.3595932840776
-239.246596264944 -21.8179221933333 -0.440420395144227
-210.050018609955 -33.2321519250012 -4.98469942510729
-171.31888320384 -11.4413056720964 -7.53107048952683
-129.069306951598 -7.43587147903328 12.982357358488
37.5294389495642 14.9451434171772 -11.3586019932201
31.9461371850611 -14.1310713012621 -11.7096670334445
-188.62115235725 -26.598823278151 4.8373903001537
200.965649847356 -34.0143286095309 14.6919945391703
80.6370758215368 7.61083299724191 -20.3123553761463
34.6886936751209 -9.41737274687692 -2.93864635206918
186.219819750724 -11.9773026398003 28.2809282722711
205.729744972584 28.5171013655369 6.6127322900918
-206.124774799129 -32.5821970774682 -5.13403814761601
130.355448576579 -10.5015117643388 -24.2992143110751
168.453512552198 -4.82515697503727 13.6474146805916
-29.3706369787854 9.80799070024282 -14.4675148812599
-118.107536672303 5.87858309705165 6.31622646690837
60.3027050671266 2.35260811436134 -23.2708298728957
166.041218867378 -20.6674881152368 -25.9328334189805
-177.705150267518 7.7262828582377 24.1352932527586
206.569311424839 28.5417000158205 3.62728514077944
-240.761436445345 9.91074564470794 -9.05856875038281
-209.566321740769 -4.44726593959188 -13.8312543618197
140.471374866525 22.9775415944968 -2.75124039865748
-36.8491717907357 -4.31939126881532 -20.4393927141569
-180.307136913784 -23.3589236576627 -0.113782936844501
170.759420157452 34.5077795727985 17.9098202229251
40.9409347324135 -2.83809892759431 3.31466834427356
-210.713157427316 -34.7402965844895 -5.66544357578406
-198.858347681917 -30.2150315531273 4.51841700194089
-21.4434241997222 -0.238065119764021 4.58443347698229
-87.4263962988203 -18.0767016247675 -1.01065047110557
-236.224308565571 -18.3201357420722 19.7851748322407
202.812383405077 -26.9085012555103 -3.28500141103217
-115.681093003053 8.39662419428661 3.82944738890258
176.23820771558 2.42651692215378 -25.1960935192296
-163.438906581078 8.81469241045234 5.18658090878935
-188.456107959457 -22.2602226624403 19.3863394004086
186.898515191367 -36.3425268006506 14.2157345665501
177.782886049067 -31.8066197670043 -9.3465053797562
35.5888784913449 5.6878044989024 -20.8810019312076
177.757278451355 -21.0673240329196 -28.7048699927329
197.407751335235 -35.9047323575418 12.8477628506561
-71.4837087725964 -4.3186092821076 -17.6528167678715
-100.733478312918 0.898832097386221 -12.8001070353098
174.795039637842 -34.7063933454243 17.3197418655748
125.631281671959 -18.3884148192195 -17.013832686656
22.4021751115372 -2.68567720259655 3.60492758034305
193.543901727058 34.4407961702819 14.1327703428114
-105.766648649134 -14.1200987304833 -11.3485139686856
-246.793723184113 38.5616164471828 8.66208976988388
18.5052858697803 9.30751929039452 -17.8850181103393
197.935686926026 8.21224742679274 -17.4718639595992
-89.8625854643762 12.5123332288306 -0.788982869379992
148.961924947574 18.3922801181021 -14.0648199792589
-242.337669561753 11.1895734951649 4.17072825769498
15.5904674669333 -9.78832293753494 -4.13166262135209
-94.8478665005655 -15.9380245079736 -10.3542543845902
34.9698136102715 -4.33656522145548 2.38333855130999
-46.0263135484516 3.26750456733689 -17.6955539103857
56.1056120348004 13.0132940606022 -3.78550035007334
76.4900322253542 -12.4366036027585 -21.1213336777462
-102.670727850104 -14.5856967000103 9.09401328409627
198.376870527415 8.82202637110234 -16.2527579454511
-180.13403241739 12.669360559147 20.6198834880178
15.2718194466953 8.64808413103305 0.208066298794024
204.684819081074 8.52053561390516 19.1648426660626
117.984731234368 18.7283274334396 -9.05852279812993
-250.954569718609 24.2351400585092 7.23761963645868
186.325064550544 -38.2361386238331 5.34757449628338
196.99081793605 28.5545172312956 -4.40669067193718
148.056650444021 21.55040703916 5.61943402335878
118.435558244468 13.293654731946 -16.294564013364
-139.669397188425 -18.6458209618578 -4.12495738364387
-230.747967735151 5.29576863455856 -9.95916668159878
184.451266692695 6.5050271171222 14.0077525809118
183.726766773672 29.5837491553178 32.9149090543835
-56.3946277339134 13.6480157586455 -9.43548602947139
-14.7020965829773 -5.16458568832048 0.725834006399008
208.781692595012 28.9831319712447 12.550133903516
201.321063686486 0.81810273706919 1.97025317138956
138.51585756447 -12.0805683078803 -24.0697611535761
-222.457598984588 45.0002179171931 6.79417866060335
183.945114760005 -33.5541268821368 26.5774341920916
118.309727245608 -5.43173668251191 4.1836918417982
-130.638843953733 -17.8760589201573 12.5896805915097
62.2753543661873 0.428627473642162 1.48025344178928
-224.08261548092 -6.85116798479956 6.8723113782564
175.847064271605 -36.0754758000987 14.9768609763287
183.955931336009 35.3214802324819 23.3684913511844
-199.438696817118 -24.0099159536 -6.91366883585447
187.294081479286 -38.6082249165175 7.92528487715613
-5.75993191679897 14.6351483006643 -5.5693496552996
-200.64947871297 -22.0436957555297 -7.94420174724647
-219.588928091173 -10.2337386418325 -15.392750861725
171.139363623684 21.3061699109215 -18.3840373972124
165.119027138819 -2.06584206439459 -22.5577143275483
204.6233833367 14.3513894593237 -11.2843561832847
173.857181045617 16.7310693495127 22.875990111545
29.4557867926021 -12.1712838889381 -7.02249646003172
-204.057063169385 -5.84770616780427 22.4667837860788
-249.349480500016 40.6515197049955 -4.17395107436035
-112.383723880814 -14.3038093328476 -10.6800826621057
-185.869602683224 6.33084726280315 25.5742512030332
134.103654147762 -18.5069890395432 -18.6767492774812
181.507586582363 15.0102841875742 -21.766094951184
188.792249551668 -29.7612640432727 31.2607486316222
-64.5535846193551 -10.9486315669332 1.96487026332331
165.090898058466 31.9402402396733 0.0287816315525501
150.87028203001 16.2185313604741 -16.1716332910271
167.188363179074 -35.3863771677617 9.78465853266465
149.922070899963 -1.66045282945719 -23.1601626018463
181.268350759889 17.3084440089646 33.3632001506229
-239.471517392944 22.9818865028172 16.86012010687
-228.872474678512 43.2685315274627 12.296403379558
-7.2626892308539 -11.850815097503 -6.12033968951966
-179.346089324844 11.9487146213181 17.4616602696614
155.271572216614 20.0213329159595 11.5335299258898
187.767875041763 32.2832027589016 30.7739736857988
131.451013214175 8.31786333473492 -20.2066202755045
-143.19175668726 6.31738467997461 7.65250816940286
-58.4596882668007 2.71399096353883 4.13086225991732
-158.174740840775 -22.5717971875127 13.5659874798925
-184.568086304321 13.1808393739164 1.45725965328706
145.199593656138 10.6137008811546 7.13689802150515
-189.582123549818 14.7510569558265 1.36587267615665
-175.568533705353 10.0762367486515 17.8838618675522
170.184129147385 32.2360669374909 17.980909548439
-25.2820880615735 14.0065366527817 -4.02072036745706
-174.880563435247 1.37447642579315 22.7547516885106
27.9392459265899 -3.05003522908576 3.47572639774092
-111.07718341289 1.65926158037418 -10.9430636425502
-108.338593935066 10.5439010553255 -4.31246090281557
-175.299282910334 11.4439893346876 0.562912268682125
197.288400942164 32.1453527976776 23.6687234616268
168.66433759834 18.8476442555272 19.9236450956361
-195.823778165987 -3.50191184680004 -12.1587522926343
171.864776984676 -7.24127057334565 17.8189921861076
-38.4485309950613 0.705050602432233 -19.6598751844398
188.637142924546 30.3472378915035 -7.09664274190833
43.889994386883 -6.68846564878378 -23.5881010063467
-209.397418490993 -1.64616314393603 16.6418810455739
37.3163448342367 5.0451920859825 1.25958959539626
131.898225174893 -18.5714482107497 -18.0892299018636
-34.0557944724562 3.25018425420275 3.56410034474726
185.542758566902 9.74882301658463 21.4588527878375
-25.472675794852 -5.14558531193659 -21.040300516411
170.303306875783 35.7945421321226 15.3871710937995
33.4778248780814 -0.984977908498981 -23.5230572346256
-74.2066596289924 -6.94245180197113 6.74960889313922
-186.427674706698 -25.9531181941508 4.96090436554382
128.01354516722 -19.7844851628196 -13.7922042088158
13.2285884524663 6.98438353098497 0.833630103105713
189.563347215944 -34.792350391926 26.15425531127
27.3370400359764 0.15978470829704 -23.1339863176547
174.155436388336 -30.0638352900175 -13.9538901630609
173.878219372856 -31.5017978565168 22.5770651412085
190.204950884697 -3.38220053331573 5.52319426541905
186.339617685754 3.68609479680981 10.3720925175331
-146.082539982901 4.83677339465001 -7.47226877389826
-2.22055154880339 6.57928937642016 -19.0090319663855
-236.762783978032 -20.4915773206957 -4.35773661784198
171.918294387697 6.10869002742105 15.1611973264004
195.782158141062 33.419524987444 20.4954569162107
-158.968327059536 1.80092570738674 14.4441516016195
154.874295862233 27.8660072784604 3.30442255541887
119.389358276124 -19.4331276697687 -9.77121993458924
-236.208728712062 11.4753658218354 9.41142555240076
-71.8844437880858 -9.50046433281199 -16.5430201189783
117.432690842863 -16.5032699774754 -19.3008871880219
131.721476840462 -19.3128557422597 5.16390939625734
67.9939173660553 15.580998987249 -11.3283973948052
141.179931482633 -22.869376002738 -8.24513978782124
198.302271044265 -36.9144531955916 12.5914515533979
116.991996755363 -11.1673975089053 4.70712098937845
-183.301145142547 11.3257385430241 24.2033832931433
39.4112448285869 6.11005431488941 0.508947879464299
48.0082085986899 -12.2790826250255 -5.78842367748723
-195.691849934784 -26.9438789213618 -0.93805280105852
-67.9517237435077 11.1131426312914 -10.5077512155068
203.175414833168 29.0852916332867 3.7642034138498
111.774572148008 13.766403066921 -15.593024664905
135.504047696776 17.1148746898024 3.02254964366124
-171.729756114867 -24.0415384177188 16.8781653044544
193.172371005946 -9.71789605374791 12.5365463948929
-54.7466190508015 6.17069767282818 2.67992146831034
139.587375351274 -13.7255121850268 -23.4596142461446
188.486552766204 25.1436061410418 -13.4788158018011
200.937848871388 31.3494109938909 19.7869972877649
-55.0242399196524 -6.4691912136067 4.5574563465938
-150.242995167234 -15.7764597817202 17.9972065219067
170.33658199964 33.5808648456268 -1.90067220570101
102.934068842397 7.4499497827932 -20.51092537436
184.038103328865 8.50661872760187 16.3600898214678
53.2592370760189 14.169250694207 -5.21144861093235
165.147614260294 -19.1243618300324 -25.9426136250069
-219.549448114607 -32.926957323897 4.97732274812002
-211.835767227512 0.640530291569664 -11.9117927022069
-233.914239420313 11.1557285267171 11.2519586046291
58.3352987447911 -2.72903328018121 2.29619193004204
172.375576627788 33.3167228151253 -3.98864437586352
-103.44146612791 11.5425230513896 -0.830792262742886
199.013794952475 -6.42875925404331 2.16725236156962
130.416189941721 8.50176309698057 3.88405016624725
-183.478447175555 -12.1808745749383 21.9193834104877
197.330787623076 12.1066485861764 -19.072363525112
78.8941516461715 12.5009988403887 -16.4521802853428
-181.848269765878 -24.5917174029253 2.3567564894816
-217.639612635922 27.1872266033474 -18.1214678489053
183.773157824611 33.2964393744114 -3.7895383019866
-180.20104940392 7.95909985040926 -9.32569592889522
163.483888939121 10.0526481687091 12.7482449673587
187.032758234894 -23.6298569919125 32.8135980122329
-246.164907803332 42.9689286555722 -9.49700490901882
-78.522971403023 -12.9495470994456 2.94370766447182
198.629014280156 -11.9732959922665 12.1786973329379
203.260610871618 -25.7640904470714 0.0901026932164167
-214.969168417605 -1.05209413350946 13.9000666319471
115.885035397958 3.0954540388473 2.75461174991268
-53.945267390281 14.384674577854 -4.98705352215195
185.505874195406 32.0592332923307 27.5293308942598
92.032109425107 16.5159753205253 -5.26307289524384
-177.341454245518 9.91132323507691 13.2837921203428
89.7487285570584 -14.6804066837793 -1.75275571497731
156.630938803121 26.9436645576615 -3.52713497688321
-211.955351887704 -34.3138620372569 -4.71981206486505
193.484711328072 -31.7180868817194 29.3669792332326
183.221637306075 29.4662845403607 -10.1848371703747
51.4462389292108 10.2807460635436 -1.81921200513158
170.953205300411 -35.0225516142022 13.1609577353935
-201.631500910706 2.89263455642038 17.0533937014183
189.793402816696 -27.0971157310247 -20.5328605544127
195.934622856649 7.49794294354344 18.1207737317506
-231.05826969254 -8.20714807236286 -2.75322593895284
16.510805044431 -6.29007065382872 -22.6617529082489
56.255304746433 -13.645213544427 -7.68426050907359
189.164652923227 -18.4271291130655 31.5900062514556
0.769345008819292 8.05348597946044 -18.1925560377349
80.0731270167763 -5.32659976650058 2.60916056737245
121.325518739814 12.0549354651259 2.09375586780559
-114.879188421899 2.60975852678056 -9.95340046404275
185.66473861194 -11.3532224204669 26.2304072506344
141.944339963535 -23.2992896615892 -4.11617768770302
-130.737609899788 -3.72069835233129 -11.1567594904806
-61.3076026780028 -1.77503034879111 -18.3831596536386
185.705492649458 -6.13955081725311 -22.3658622643667
-220.581750873535 -8.78689833919162 12.2803331814509
124.041575764214 0.271955398173389 -23.8156628452615
127.145862830018 14.4703894828622 -15.7352831835376
98.5004868318116 -2.98550885637247 -24.9093551467716
165.158379117406 24.5023170495848 14.5770865600497
-24.5401645147932 7.33846791527101 1.2989043278829
-202.446623937405 -32.339132592048 7.59370183714652
181.495530351122 -35.5263132277663 17.3627090380062
148.530367056938 9.94392984416471 8.14373337393902
-164.13230626536 -1.50819358514925 -7.60930668504605
117.957776636106 -17.351670345177 1.21090552777352
-25.3136415152564 -3.79697108878009 3.21715894263004
-191.236631200026 -0.315293081404957 -11.1968271209822
171.44005551509 15.8196819727553 20.1862067864454
-20.4180035617419 -14.5798995629152 -16.0314196993825
174.402738761524 16.395823206848 27.741409818174
-205.327540995248 -4.80189094057221 -13.1453787961556
182.04012997427 19.9785362411478 -19.3543147676255
-200.455446381355 18.1568843863831 4.86009368208049
191.417975690205 32.8536613759666 27.7283969403166
181.91818184768 37.9614897064625 3.78272852332675
106.173890476941 -16.6887233720285 -1.51439069821229
174.396516872792 24.4414026929794 27.221138469156
176.06524522651 15.4048041130416 29.7478454085123
155.750271962505 4.26834444212659 -21.5553619656137
-68.0661867939123 -16.7062873950542 -10.3425017196389
-191.722657866051 14.5395532422638 7.02572607217521
-215.596956127581 -7.975006658849 -15.3458776484067
-123.90853274188 -17.4011599556153 12.0880428094462
149.886531149855 5.33732468205685 -21.401845135518
-167.437999908103 -21.9784015886245 17.8531493448446
-225.617049358328 6.42586662557192 -14.7593233402873
0.997357401686977 4.23211624003349 -20.5158190093044
-210.109554565607 -8.13483121030939 22.6427512383681
132.646198922035 19.9238066056106 0.297928323214649
-215.140039730051 26.8747476764658 -14.7024834096964
-233.000609469807 -10.050719140719 16.998789811929
210.627837920659 24.2220944060676 6.54046277329014
-59.9493827405223 -10.7101666976294 -16.8976291230195
56.1225464179861 3.84969727450206 1.00244346791807
-29.9994279141088 -2.31780240180409 -20.8538028233059
151.973791063743 -0.779923870308168 -22.9313912221368
85.8124652369993 -16.1869998090611 -13.2171748520336
195.581168046301 -33.9059537148413 26.0816272431674
199.715126647781 -15.8735553105847 21.1801929470844
104.018938537346 16.8243757842012 -11.3946435661573
192.534017468485 35.8866441562053 8.39335019050504
98.6709504988868 1.19283129556395 1.80212238285663
190.02056739958 -36.1609036706431 7.52184932867905
-218.603357126542 -24.3310933883466 21.4892193254498
-54.9335762921468 2.91298921728202 4.04654779845088
-219.052876627537 -1.04789473632295 12.0457007272481
87.0562312142731 -8.44656053526538 -24.1985717354884
104.271025103886 9.49979761250299 -19.0676258689896
201.808422186966 -14.6649819880621 -3.62989635173608
-179.507702158668 -6.14284073964741 -7.50051807593701
88.0189997022878 -0.826701363749806 -24.4392417867814
196.064161229033 33.6029448954048 16.0587628866084
-194.858326276133 -21.8110351957593 20.6358323984202
164.576706173262 9.75941180032088 13.4919151686787
203.549411945972 30.3627614317911 26.3304215935894
-42.5212506592847 -11.7614898928397 -17.3999380951672
-104.936700337258 -11.8058942503275 10.7847387387608
-125.890053619487 -16.6486544791937 12.6412454892134
141.55037856208 -14.9627618634354 -22.9430517108778
181.996474768293 -30.8624025872514 30.1897101319601
208.262427090869 28.7882079816049 9.58577123510571
-27.4295094176655 -3.05779032863852 -21.0649896343936
-52.1106788788561 4.11881659732484 3.54130550207917
-190.832696106404 -12.7196056430594 -7.56021297981479
180.537281058769 -35.5355803058138 -1.52437526160691
-100.203367380824 -13.6363327941657 9.0518573847561
196.248176827333 6.58024887170458 23.1905648416014
-227.967307991678 29.4109030604697 18.2049095610476
-68.0301536937274 -16.6116916088814 -4.01236785263969
-9.84235953685348 7.94768943687232 0.973744769671262
133.815561234627 -19.8477265887154 -15.7492170139155
-98.3321804371058 -17.7702181737707 -7.44173192091558
165.249675738691 -32.703337276198 0.690890898926371
172.296884229374 -26.7031121018849 -28.0971291507813
-204.02505312317 -29.9417537173661 -4.01193054477896
-208.514915828713 20.5972681601913 -8.82968235744654
-225.387649596961 8.43370868090943 -15.5643506939433
-29.9907381041354 6.96251686142349 1.64762828948252
-212.85588840362 2.19189723615431 13.7013947165916
-54.0879478362376 5.73241886118491 -15.1123744845886
164.627055262632 -0.167062784534039 11.8558466836647
162.774496958245 9.89592896435805 -20.292439156267
161.830436006917 -29.3751146689469 12.082078738805
194.45909557787 -6.77385339899579 7.19422417126491
82.0776472793465 15.5394734379677 -5.17668276833111
185.808155764332 36.2765079258015 20.3201213447761
179.124369273406 -36.8770408184018 14.8202570279981
172.188288741396 -36.8077191830417 10.6253396786588
-42.6740256380253 -0.463054960147699 5.43683876477011
-216.452038372095 -0.357151359391472 -12.4958368414826
-151.653544706571 7.9421261384417 -5.45452019897744
165.630742753443 27.1607637006558 -9.87303247402076
167.210446684022 -35.4663340444621 5.8145502913767
168.997610225364 26.2250059748519 -12.6674334305737
-162.48707613954 -19.4529992453716 18.4862550601579
-40.1244595223341 14.4690972237835 -5.05366591069353
-234.851488572034 45.5092283391232 -8.86671818909909
-231.060263266261 -17.7911241344654 -10.9251396297085
181.533086586931 38.0827093002467 15.4568679309824
189.946580531008 -36.5133459849378 11.0226196630355
122.973848825578 16.8929723069444 0.120788588735787
28.8715440698 -7.05242235749327 -0.922594007417945
-150.373403537091 -7.18097405816697 15.8542613766482
156.352213805545 1.228901260195 9.12724788465124
160.840595132093 28.3970693066713 -3.92097030929364
59.592103384742 3.85092241723817 0.855054362523888
116.266095011168 -18.9114366023422 -11.7194407450791
160.83622744701 -25.7173159988896 -15.5177169939913
-107.508808453518 1.69498108484987 7.49509386881604
53.2444389403249 14.7802100925019 -12.612750216428
119.270442180317 -3.74583897139015 4.06825253295768
170.623539587405 28.4935731067027 -10.6629482865293
60.4647939950246 5.83987537551208 -21.4270861690266
-194.218408297022 -26.8995249059129 0.423501544371582
-237.484891588494 -10.583133737303 10.46464172143
168.099807771067 -35.8752287319548 8.97124232895494
101.305776074732 -1.54398827401387 -24.5769922164366
196.175480826686 -30.3174745982064 -7.44447643635959
-231.69630527645 46.431738932548 -11.7747730200367
-122.687868523996 9.311468632589 0.564965808004231
-222.275415710664 18.5936044741541 13.254761793296
76.6580315043854 -9.7984064829638 0.912824598211478
158.029557039049 -8.32441404375151 11.2710245260062
125.02772393539 13.8962545554886 2.18138721817101
105.425282957208 -8.10285371352531 3.43069367649799
-142.873269443994 1.24079222557341 11.2117453971499
205.297196190085 20.7380720724469 -12.1337868931994
199.123097646721 -36.5791938674643 10.6494321572276
-239.369068558028 -10.9264019037417 11.1369380064488
-224.928806446228 44.9491992336008 8.82649719478008
174.191696867466 -27.4328017886865 -20.3334918265712
-88.2615547637797 -5.07286302163848 -16.0469396664314
-88.9171826864725 -9.29711195127901 8.74849701200547
137.936981446816 -19.1030030337428 -18.3788861253684
-144.532808629476 -17.2760906660367 -5.55681107929461
-174.552130359976 -18.4938471215866 -5.18694111075918
156.295026098512 27.7134791156573 5.44252332354442
171.971990878473 11.4550746874353 -20.9523052054053
-209.814800669947 16.3321374009431 -11.2255876939586
-113.534612954234 0.343054454347874 -11.5359231186508
174.63622967715 22.1805742342543 28.2780903647364
175.256639306363 26.9301167162102 27.3997647894078
-144.829500226334 -18.1149637872759 14.9447068399234
200.691002700738 -31.3252439148784 20.8726274748247
178.323304010185 -4.74454603318508 -24.4349096306689
187.105043693272 -3.4435150167401 9.69524076655336
53.5171479983419 -2.87967180942919 -24.3903645731308
44.1183451351626 -0.827995451397111 -23.8641613943882
207.577280976832 13.1306272114273 19.5593530583507
-239.372721206096 44.8181182089024 -8.67752446928769
-153.44893925286 -20.5887050491501 -1.01697484466673
90.4139475620531 8.01704572151409 -20.0666140631806
-217.660631786754 4.62130136984483 11.8401363480066
-78.5247478049183 7.36959489081006 3.36952202976714
166.990928141155 30.9036738325339 15.6935113696104
42.0105426591725 6.48251109716305 -20.5462588189331
-233.508033939899 12.9358239843808 -19.0299734113467
81.154459551614 -7.84214837503978 2.14165784733797
71.1959846740186 -0.801264992691203 1.84170378989517
200.609411543772 9.73028484076679 -12.6332287337539
174.807430093669 1.68104473390072 -25.2203164827869
127.180039278142 -1.99273073508236 4.57998006329093
11.8994636221723 -8.24727866030056 -2.38611145478313
124.696920460775 3.62747373340452 -22.5691648741208
-222.350875092336 -31.5853113119229 9.31234993185389
167.079691718671 24.0396685264416 -14.1183159344531
172.860741134488 15.6476216933019 19.9800793468667
-181.740834442381 1.22407445369165 -9.24652230758419
-184.533461154846 7.19298224889016 -9.9631177854516
129.848935770167 -20.6390703000301 -2.78724274515845
-251.303487891168 34.4962643437293 -11.2483041335747
-176.271200426245 10.1054335638037 15.326879721696
-214.246366963088 24.6614950427508 -13.3277182710769
143.603614491863 3.87767290842938 -22.1013810776115
128.036466432848 10.0558587496771 3.26389108081821
88.6988292080747 16.7569413027731 -6.87076728282305
-240.268121922885 20.6778329727804 15.8831982713707
-166.969977758237 0.602041197910962 18.5523342034358
-211.88577265986 -11.082289936789 -12.3229965157315
142.383887120136 -4.19756613042131 -23.9913662397869
76.4189682492941 11.9595998039132 -16.9276306944668
-167.196720564962 -21.4993311865765 -0.643819725566998
188.36835166806 37.655412276264 8.39140333855401
-9.47469881092955 11.667068526717 -1.78881167749366
-115.200271137848 -13.3108141714322 -11.0460429571497
76.4987600859431 3.5359531676121 -22.8299772920958
194.495602806455 9.73084938953113 -21.2755809115246
190.40801220326 -34.1310747197895 22.6415074067801
145.744066152894 -21.746007577593 -14.8187885331181
-242.141195806403 24.4953908781086 -22.2684208898222
-181.944788133808 5.78806867481348 25.5892180408636
91.1220462479362 -8.68932818047561 -24.1723834381188
-178.735848996629 -13.8916337581284 20.7550209234577
-239.878243667717 -20.0008450164805 8.30721584580908
160.51737190129 -9.22991460198757 12.4364111506413
-49.4363578595342 -6.48618124551798 -19.14119919592
-169.496518712202 10.4619011960023 -1.20334047662565
89.2278742753399 1.50151823162382 1.70104972429179
145.021529486392 -0.810509580197202 6.77225614500731
195.117505200743 34.0725714573089 10.6949322206364
42.0943665150015 14.6009055821661 -6.59145721002024
190.60041493254 28.9315517469526 -8.14934098562718
-148.514855334113 -21.2810396336326 0.404488278831128
-118.560963208761 -11.6706135958962 -11.4967983558256
129.94207990917 19.6845946134169 -0.535577640346372
-155.692440713138 -18.2079139382659 18.019168479099
192.06046686774 6.80799360122302 12.6820009956754
-123.254169331408 -14.5180331231507 -9.45672767893903
191.344704449942 -34.3966989714378 27.6105456041443
-215.059833330766 10.6145047583154 11.8529253083201
-188.231176118334 -13.080382109161 22.8220512332975
-197.736499962983 -22.3506446679098 -7.13718534764927
-190.629719827468 10.6503634734669 21.2418655186787
-232.379101204383 -21.6059730674416 -7.93835832706666
-175.773511677367 9.51205520371924 21.2048482285343
-173.479539941212 6.18907830326566 21.2317360514256
-216.912408397844 35.3929815052971 7.89583538744013
171.883698533065 27.3284050303928 20.7400883226727
-237.763369102179 21.8854987413248 -23.5554446773531
-219.390897651521 -29.872163415301 -6.27576886211536
-90.9347912559744 -6.27883701267954 -15.6905477788662
201.088649987201 -25.7050892309627 -9.19051637755673
188.867442585988 36.2175065969655 13.4981045799131
-187.277284653909 12.8828978128278 15.7805045997096
202.501508600955 17.5157591683759 29.5390330518227
123.255130457049 -19.9607981641602 -8.72733059795161
124.568615130613 -11.9337400533535 5.35718857954121
-234.703072897271 44.4364603287496 -1.82832907035206
-202.784776324429 -15.6168479803154 -8.92366779932926
-239.0288166044 -12.1185632169822 9.26044582317383
83.5540294358787 7.38187021885063 -20.4600710502712
-203.725955490849 -7.68053449490343 24.2616120550868
195.514135224498 16.2530331209839 -19.0763855032072
-229.606498798991 -0.877293465659473 0.194730649859257
-221.420208398518 -12.8956563474009 23.3809326263824
-109.105168573537 7.13540822733117 -8.51811453132942
-123.566190760914 -11.5898874948973 -10.9997649588052
-177.580174525173 -24.1901406282383 18.527223102278
-244.05039652108 12.7211987363738 8.31439043631547
159.713920041163 -26.5135318748902 12.26314742455
-221.583048976222 25.6310086081532 13.7486586702386
179.96216970184 -25.3889609483749 -26.2253362344328
8.17343309239311 -13.2858403523484 -18.5371125059529
-212.629106654514 36.9902328186856 -2.05581834513762
129.563384157969 4.09518456608996 -22.2695914106398
66.4634942867461 -14.1192506636366 -6.57296586268463
