-80.8203873938442 -3.2799886727937 -4.5969966928237
-168.105688055617 -12.2715805337143 1.37251743583491
178.193707289866 21.8618898586753 34.7921004894818
6.05476307695542 -0.973576260813805 2.0547815033411
184.324781097231 -30.5045306855162 35.1802577755269
-119.203014008552 21.3898762694951 -2.2146200024726
195.473064679648 23.6015855550198 14.1488857130384
-57.6270824303422 -3.78669516159422 -16.2836172075027
185.202914939225 25.958682880901 -15.3588798473392
93.4930489696908 11.671529309989 -21.596876097158
-45.7153143423127 -5.04311080665858 -14.3745152256346
-179.791686939057 1.14590617053836 -9.75707999502117
34.9979190169049 15.0774526275611 -13.8592084785741
84.2775269031447 -13.0791430461045 -8.01475079834412
175.104400885505 -18.5118319309047 -19.3108749546564
-171.041222304012 -17.0216977803231 9.15150529995579
-71.1614812362682 5.34683239656366 -21.9925119783465
-153.634906465003 13.5896489196481 -8.07605695418233
-213.075746228092 -4.66417021227481 0.689717340850001
191.360068509717 -29.8174683794242 31.1038884683572
159.816865051544 -21.8387786329781 -11.3645550535925
-197.15706987212 3.3248757966226 20.302476438534
-194.995667264019 5.78259620908509 31.8795581546844
-210.232727092555 -25.1743453293148 -28.6883744152298
154.415340692088 28.3352333923444 9.67176375616455
-212.133603894068 3.20387016160144 1.9408977651017
19.7331710969222 14.5630174076249 -18.3515019274078
173.678759813269 29.721219226538 -7.89965267333768
153.500997916196 23.2079019099674 -5.84097382851179
-156.866091497448 4.16019223691858 -9.55940014868471
180.779256155538 26.1039544274742 -16.0385068156186
-138.919714676237 18.2987985790322 13.0979713027184
186.568283938929 -21.3121316371888 -13.1538645585748
-113.605637351758 -2.52683725897101 4.43152654662609
-192.506179328766 16.3361808505448 -4.6426517259785
165.545412476865 -12.7366323667338 -20.1586809961338
-135.431535861436 -0.247809380440012 -8.6368951880823
19.6363999678069 -8.05147560472302 -19.4087500889892
164.243171328652 -8.692320403104 16.2397966121554
141.130228673669 -18.5366887624844 -13.579179728087
160.827132678473 -12.1413842843869 22.2222376802782
143.771056423177 -8.89470500366528 -20.8831475072346
-224.949872172315 -26.4982388425822 10.2297953796634
-201.065334603024 -28.7772785432139 -24.3307029886338
-139.864736005051 -2.70572019679224 -5.3383974514391
-183.193675067026 33.4218299296613 2.99823975783637
66.7046261609263 7.61897909386709 0.697859743418709
-156.210751852636 6.8696489900415 -9.52634605472805
174.321742737316 -32.4769692995814 29.6344608352492
104.409529385545 13.4703242596468 -19.8174697998487
149.774433637552 -14.7366762686053 11.676905485009
-174.420582277369 -15.4448559018903 4.80171576289134
-144.661782625906 22.0362181673068 1.02993769487558
154.4174571817 4.61448018658044 -23.3749704093978
-218.38457739773 -4.68077274130459 -8.950234180601
-23.5214917207534 -6.32664534661475 -16.161335128073
99.1139812870929 -16.9162242055133 -12.0679160245848
191.917736014731 11.7967604715966 14.299564689566
150.592891288246 17.4482855631576 -18.6341884294571
30.6916338431244 -2.4797836986967 -24.1640570291224
116.231395746077 -5.31291645882384 -23.5527762824685
195.869044701561 20.5863886174227 9.03882450273174
-126.307656315318 20.171537857673 7.63409648236649
-38.9866296529862 16.1247363728707 -6.39180849095063
169.357678815628 17.1170439380095 32.9323032088092
-146.401322508779 -9.46824376478475 8.39229895862458
156.206167422239 -29.222880271953 11.9643059234721
-133.69893432046 0.292169662322352 -9.53401759080661
-195.145163802397 -5.57427684388183 -11.542729615951
180.955264165841 33.5275897651865 20.0817735959464
60.825739202658 3.06199172607158 2.15286362296259
-219.500202097761 -4.74695425862441 -11.2767607230142
145.152433711393 -15.2229800676815 8.11831382014895
-212.315462541234 11.3144985220725 -1.12332133211016
-216.044774551561 14.5837627518824 4.21945470763822
-183.455269426909 18.6116298271318 -3.13275146337931
127.973202028832 3.34705299010287 -25.4715293949624
147.945901426604 16.9165575248183 -18.6812576529795
-121.13667144427 -3.98661038589685 3.6159270208375
-27.489600146433 1.88708889298192 3.5705453056344
144.25472098854 -20.4476999867879 -10.7079858902511
44.3087943508461 -6.71745501357716 -22.4255547096063
166.497362065669 16.6774918462182 -26.8547885854073
160.786239426583 -19.8245598877932 23.8307885392025
-36.7733866226313 18.1414587496677 -12.2243228488701
-130.818178543424 2.31540950979449 12.5719187216979
115.043088938333 15.6896398437499 -16.4439580076349
128.431618606765 15.9711241233775 4.50959050273452
-2.69657081269931 0.385281481843908 2.94280024390134
50.2720586291386 -10.9463326943718 -11.0617745041214
129.690989414541 6.9103796958884 -25.1736501734726
98.1065554453418 0.247401716257853 1.62343460702406
-172.706121830325 -6.12013661401428 -9.38102363318592
10.9873765631751 2.09446463494531 3.07894795986483
162.68465879278 -35.8338757652996 11.3817516123063
174.795433705078 -14.5742037730996 -20.8632614189349
-164.88989732952 16.0926724117114 -5.65474818362508
41.6952955205876 -9.44497531176193 -9.30547216630988
163.769174080093 10.7149332429521 -26.0377587199733
-194.088040694784 -25.5291246002086 -7.47942334351491
184.305309259696 32.0724360940156 3.72477113688487
125.183134040029 -8.12244273641854 -21.9213221463652
-69.3118503157729 -2.65868409329473 -16.0259479447964
178.634789530035 35.8402093633949 6.38792931953385
-156.405173157097 -8.12798104104482 2.82674703593159
-202.976875839373 -14.9746071071708 10.0494022942799
175.611665017921 -20.3764745097956 -18.2809997246498
-184.388155058663 30.0025649622314 19.6989274241596
-168.306799570967 -18.2673790563964 16.7941560993413
-171.627079571429 -13.3729966982491 0.834146889542317
157.263006028072 32.8268707018019 9.64027950059269
-204.621994638934 17.5648521581612 -6.43862919438359
152.055233674534 26.2163988222655 4.79399266984958
183.538917246781 -8.54926992501209 27.9158352415316
103.006218918893 -1.06250508789683 -25.3739282593659
-187.740667397537 14.7496428454064 30.1317053814397
-117.090333277399 14.1833211016135 11.2874430784306
-214.676253799542 16.6533284720529 22.9682835333615
161.726255172225 34.38683460234 4.40560640299702
-180.129730406527 -2.83781918742365 27.7033903930102
-78.6628931554631 11.5785065805033 6.56151536602825
191.876731590689 30.1405789498203 24.6271722214462
-200.233698104092 18.4832692092984 -5.05802422933992
130.210801070841 -7.94567328695731 3.14564549032992
190.197929608198 -28.0708139495379 36.7068586504545
189.215691345781 34.2606518305488 14.9401798549798
-17.4488767909442 0.860014033452794 2.7478103653296
186.067487213509 -23.0500479087015 -11.4211677267023
95.2442182613354 -0.904886582234501 1.4271790153237
-226.192667526737 -37.2392732846727 -19.4258729804194
91.653019031583 -2.71576553557781 0.838519404783912
-154.540526376426 11.6247500302299 20.6233816891437
198.474695700294 -16.8482645067021 -4.36365185949037
-23.3832642042653 2.02538892313088 -24.3391216085802
-231.403671131716 -13.1078239968226 -8.59690362585113
-228.594028213548 -12.9490497229419 1.87634222365336
-200.750285155669 -39.5420594885442 1.3902082557146
7.70029216328766 16.0209456721687 -15.7476736054663
-155.47844301641 -1.04647883475555 19.3549760459402
129.176024737753 -1.81919527140548 -24.3978988774296
-57.1141571550694 14.0983356275969 0.041524147602925
98.5175624579117 8.12624222851818 2.67723242916033
112.177912835848 17.2427744893728 -7.36834459125482
4.3444968217872 -5.52463642561145 -6.0101540930595
192.349785417597 -7.21349671511925 21.170798633216
-44.8162903045037 18.6357109789848 -15.4165801382083
-138.951154351517 9.13871309619564 16.4529807670628
-178.821041253681 25.5030398384111 19.8341263243366
-136.47684114879 -2.90912682156265 11.9839874567003
51.1314912511799 -4.57665461482872 -23.9271276482495
-199.688361149988 4.04380979106098 22.5931005656087
46.6289266899763 8.5093897393563 -1.08593436664558
128.921952909847 -5.6639821133387 -23.1026060121499
-2.69178763078939 -2.05139488957745 -23.5832696408414
-198.118664776115 -39.903128371685 -7.63125435037012
-202.237258088204 0.673328605485172 30.9794708081988
25.0939389941421 -8.36505763108048 -19.6216128290839
-45.4830803953264 11.9717767515722 -0.149191401048244
-0.978034233558746 -7.72748753703791 -12.6163047257327
80.9099471398318 0.45912166477203 -25.595249260796
-230.365309147613 -14.3365754369834 0.499011649079261
16.9330927439875 11.0371348688178 -22.8854839697441
-167.373987536904 8.1533782094688 23.9834920651814
185.433833005368 -33.4602991547739 21.5092177650771
-222.690561525813 -30.9488680220254 -25.6642751713733
187.958216451417 32.3222490351951 9.05851809677788
15.6054869238055 7.08620018397175 -0.195484762109819
156.731093252633 3.54254033712879 -22.9927108046779
-202.421405706313 -28.4437080895707 10.0486068177781
-5.04324248343878 -2.34226999716908 0.0698013642018353
-204.896005501527 -44.3272090511136 -11.0587142867271
-193.340648797397 29.8521275415344 3.12008927015875
-161.592387556459 10.7481067386154 22.1581836373668
-186.070561994897 21.2471753818838 27.5637980561237
160.85703816662 -9.80116285078595 26.6199611396303
-191.147055388981 28.6297909764015 22.342963439987
180.181462487791 32.5316329512049 33.380576927114
-191.330091718323 10.5801059939489 31.3599172770208
195.908457008475 -30.7964855470975 22.8000246015446
-67.0648859487182 -4.17946994001944 -9.20050955251422
-66.9363184611467 0.606870053823245 -20.241704228087
108.409429039429 -9.11083703730137 -0.0870599506434564
37.358584298614 -5.24769785100667 -3.87400159140292
-154.916499278149 6.04329444569522 19.8396062854524
-25.2875987228137 8.51826669000869 -24.2394861326221
89.2629817621969 15.8079837834955 -7.93172955913141
-159.656349990317 -17.6094969515374 7.00189744998953
-192.824547327846 -19.0845470977269 -12.6273460209001
-175.025307647495 7.65693104750427 -7.17772561771173
163.66894484717 -7.78124461097663 28.7629326379619
106.978040710245 -0.0835878926956893 1.75439368162556
-145.571601833871 21.9122340735854 8.23968858538335
151.407960293499 21.3676299124533 12.9689030033938
-205.232746239487 0.686871384528326 22.743590029059
189.768257902163 -4.94503878441724 -15.7191164203248
-25.0995058203208 5.37948524996615 3.14961931146322
-53.1748706472315 -4.83113512694804 -11.5587186733197
187.58131025879 -32.2429755790636 23.7413701078638
-207.813918263609 3.81660442977655 30.7717431636158
80.626204100466 14.0902387959938 -3.27724373547209
-208.436152918472 -42.2898397903246 3.68750012829152
94.2405799772254 -2.66155954390336 -24.9464325220215
157.605936447378 4.80577568999363 10.3316047000764
152.705997880607 22.8509905696924 13.2142349681994
-212.841792736677 -43.5124392001738 -14.2332817476748
172.914267801746 -2.89653099952231 -23.1605730997016
176.749312934549 28.1152567487325 34.5044018535683
88.6961021848292 -10.7648225210873 -5.02200271115118
-121.389992826228 -1.4920531056714 7.88660345670633
-215.646080570704 -13.7999940818338 8.20679686208079
174.069922941314 37.4758909952401 14.4376440229132
-182.774939132474 14.5472451728563 -4.76988868338386
179.238009000092 4.58164116892747 11.4804787124077
-121.008796438468 -3.60019493965859 5.46440818414257
-166.25833893842 -8.87271743532069 -4.31251889621573
133.671584875711 -2.96554884908729 -23.8267071187833
143.652989891199 -4.11085003302962 -22.8188378593387
160.02955859321 -4.91040213666017 9.82665715259367
196.72438358535 -29.0081446851259 17.8532873221785
179.820722773674 -18.6771385055067 41.3456609158953
-113.490805425137 10.527449829338 -16.391054695709
125.753711425128 6.67472283174613 3.51379452147715
184.209511093527 25.511536852274 -17.5389981024429
189.722569243706 -16.081793863191 -16.3072273532172
147.934543445083 8.31553232651636 -24.0800981862484
64.2030845680764 6.20034062823189 1.86168881670979
184.586730912602 4.72657621953974 -19.6491267815564
30.833578717149 -4.52864711390288 -2.99063894480604
176.049130586245 -32.2186770901022 34.6134154527965
156.128304857322 28.6632872242372 4.3504221447612
-127.764831749313 -3.80473538449412 6.55224068634772
171.865880944264 25.9464672836557 -17.9203202462204
-190.43020356163 -16.5114705413671 7.12402838631794
-160.835561016731 14.2669270303668 21.1531635777558
-214.656563750711 -4.11137143656418 -15.1252952844364
-225.810251626821 -41.9595417824816 -4.09987468991111
-41.4956326388963 -5.19630546973677 -15.3492335910167
-157.146454096279 -6.6585939738188 -0.839285399291735
45.2991074693916 -2.16484755543735 0.728815645964418
134.25162494934 -1.55651335827248 3.53883376198436
122.331184877415 -19.3452820666434 -9.94261768773276
169.897702131586 28.0188919327195 -11.4433431336116
155.175125865806 -7.72209079077551 12.1868176694179
192.344628932226 7.24204093938655 -9.52350852958896
166.84802997808 22.6355050775714 32.8114498066749
-182.187929786658 23.3606718385809 24.1410637148986
-159.734472769707 -19.0976390128529 9.129503532888
-231.352695591098 -12.9328354713491 -6.01673068135009
-203.005521724162 14.9625868660846 31.1616236228757
186.010274161586 9.65891567955938 20.1433111068496
6.41962602928863 -7.56193066820307 -18.759250969002
161.586799973659 32.2595217187015 18.9574962523777
26.4128118161723 6.26548109990981 -24.9198558422786
167.420030249269 31.1408007239943 -3.60118389980892
-190.597243373926 1.73978958360271 30.669475487192
-161.503365457925 23.310680769027 -0.285995456543666
-32.0646992529948 -5.64143435689369 -16.4666758365462
-81.5415353243828 -3.25352625277229 -11.8045051571681
135.28192124288 17.8064930875175 -13.6977661058854
182.210733744608 5.13496861999044 11.3223841441217
16.2325081436301 3.91045041416044 -25.1057240496053
18.8955088785185 -9.08123088506792 -15.9275661591196
166.754004737696 -35.8040043611224 6.23620287636398
-50.2828690869914 -2.85317036640037 -19.4655648141542
127.739004265287 11.4962572251198 4.83253664186764
-177.739645845363 -9.39981606214763 16.6808639155078
-107.780385553858 5.77404248215948 -17.2873540101591
159.910658121987 31.6385951662374 18.2414612921746
133.527504768433 18.141218371466 -12.0995530003442
174.504238303106 21.2047737742379 34.9114396924503
186.75840648513 -15.7085799451805 -18.7441276544513
-95.8798948423158 20.2429935079718 1.59602884669217
152.035139418947 -18.2096434840008 -14.1396054303316
-119.770604462744 2.14161492639634 -13.3426749966838
-194.942900424067 -9.35446465210422 11.6121381866918
-162.482852366232 -7.38934316622881 -9.23261000340178
-163.363564422989 21.9916915067496 14.8850841551017
155.046861363799 -22.7904151612017 -7.90625091144901
94.7298152817975 8.69911535404814 -24.0695555129921
171.05713227383 17.7801372623418 -27.9620618091314
0.336117022217619 12.9452925226128 -22.0953619284874
69.6536051275577 -8.61936371292879 -5.55167827779214
-218.457975417817 -43.5593106019635 1.10922782219889
187.772993757033 -9.59267740221715 -19.8242757157523
-155.161206598706 15.8348792078054 19.189145194835
93.1441766077048 -0.275974157945296 -25.5533679400458
-201.172702924202 15.8720904931994 31.0742360621474
-201.163168637878 26.9776019600798 4.5376039064596
-202.577991841949 -11.2097612648667 10.5102833376487
-225.953815185785 -42.0358088735845 -9.36021844277997
199.329471981092 -13.2756008492907 -0.256263896141665
177.569322608872 33.4340673960224 15.3144512328395
-125.379833186317 7.77138419183695 13.5217231214719
-177.743577010516 5.36230799688487 27.9606619311039
186.514869852909 -33.1900791874176 18.6081241092977
172.341450069086 33.8617745419728 26.0042878533835
185.535255095733 11.8775737328041 26.9982471487127
-215.425170921032 -5.99190352535709 0.362064957136723
-221.041527917007 -6.51657847660594 -5.29732327669886
-179.866853061756 -15.8922148379398 0.631590074669714
-113.384363673915 7.69377508126243 11.3443678969424
-160.707861454953 5.41360192550149 -9.15495268992283
-131.79337401085 11.2605472108702 -12.9253263410757
-147.636645464238 -8.71217665810894 6.47663359651877
196.353091815584 21.6721812242209 5.90244848134843
160.4492227724 11.2377339974563 16.728989489174
-203.309721430625 26.444823704265 13.9252648338023
-222.482645383246 -6.12672769149767 -7.38000302067204
-222.614004286812 -34.6780870451608 -24.1022596682632
142.824234603691 -15.4307139319848 6.45948680312808
131.096445947543 19.9472382024844 -1.16929960008094
-160.615418787298 21.8377610664935 14.0037938538876
-12.557683160258 16.9795030311844 -13.5483738351222
41.9736563981609 -3.77211453216984 -1.99192317191082
-220.444548724876 -44.5731281217389 -13.7667669257074
-165.84816720707 -14.6246191234224 5.28905255753057
126.889558770672 -18.9123274935558 -3.52210510513594
-1.61564471407257 12.9021038087434 -22.28541312335
161.897571865871 -11.7588444376633 19.3728097193072
193.131816564768 -23.8764057877472 -5.74567864493062
-122.742470196335 14.8936015461836 12.9771135798651
39.7497859402275 8.50851175169403 -1.26116488370126
110.435915036065 5.1224558474519 2.2844699943613
-5.7114514079448 0.109530873640285 -24.3981337482127
-212.022380195325 -19.4564265085346 -28.10375209612
-169.455907673349 -4.71091425740746 -9.64334186756311
-165.677516388109 -12.3091033090104 3.77570021252886
-199.818643377156 4.12349241742589 17.498472144607
-89.5090647355739 -0.151904557712065 3.44108769678458
-182.889613126896 -15.9023829442463 6.3503264950655
-214.132504102944 -6.71559313256338 2.98497819890988
144.544468430425 -21.8353492778474 -7.94571008039885
-181.375407929038 32.5473545068947 2.38588467448281
27.2002832385446 13.4876259278158 -6.98238318425646
58.0938976477184 -9.61334048629072 -20.7801233930582
168.128872990884 -16.8163273241619 -19.0484170572691
-207.268180954977 -2.76104969798742 25.785384372476
184.636814315186 -7.98424348965602 18.2917822442584
157.69347648367 25.738688102552 21.7797651155621
-143.891367000249 -4.75819461096081 14.033710637773
-173.571182314903 26.0434362540984 0.177664070232108
193.364247958625 25.9822578969449 -2.33533273367253
194.510630961882 -6.11243534085271 -9.46232975357828
29.4499348092382 -7.53257850894885 -7.46046227066263
-84.7771971611989 -0.795914484318025 2.04623820750899
-171.549576875973 14.5129938312218 -5.27898880173815
155.504953465824 16.200194422748 15.1125697489811
190.929131525783 29.3145784936644 3.56274584375837
120.491332264842 16.9350354311193 -13.2885135968447
179.096350150287 -21.7156650287921 -16.4705931633098
80.2646870700986 -10.9020835253991 -20.3993606992978
194.795992636484 -29.4996355687679 13.2832551613974
93.9490285884108 5.16738560316339 -25.5179634952663
-212.009774042985 -7.28713281608187 -20.259321155661
186.629418645966 33.9283028182062 16.4695721048925
-216.040107303799 -20.3232353869221 13.4080837152386
164.111704487152 9.91406624567953 24.9522757534492
187.91360254342 28.8713533671417 0.203502027243044
-46.9646822935403 -3.89082156386097 -18.7616792303498
180.567750634225 28.6997201597407 -8.60959472482348
-95.690020642111 19.738371759628 -11.7887316773112
166.022264407754 14.480273973267 -27.1380978297384
-216.861976380469 11.8677008276955 18.141345062872
-177.923500181105 -3.00537332189549 26.7800752755744
-40.2708028475055 2.99495966268692 3.89810882021975
-209.810124379484 19.9717147387325 0.0222297489665352
-37.024386293545 -0.446701762246603 -22.5347712698108
155.321206898299 -21.7019503073007 -9.98275423149481
-199.794570305611 -5.18058403770215 -12.5791914047761
-61.0870414381485 13.7540709533564 -21.0634991866518
-18.5404111080677 17.0363675204514 -11.9489423950567
-203.927157153678 -38.6688839708961 -21.0302651218867
-132.890944512889 -4.77868594350171 -0.495393930793217
-65.1399794751715 12.3002139574861 -21.5283210032864
-41.2604089180152 8.43935052464838 -23.7671638185455
136.41107579303 15.0604346676734 -20.1122057248902
124.186628072692 17.6056497886618 -11.6358568818113
-226.19792527203 -10.5260392623899 -17.4991544949541
-139.573354664032 -1.66602364585907 -6.73490187225566
-48.4326337856241 -1.54688371069304 -1.42435040629734
-85.2528882036084 4.87900546408451 6.1358869721015
129.015656958042 19.6514391212346 -1.37968981278928
-100.225423283935 9.85839107777521 10.1756059790816
-131.701517415837 -5.66976344893749 4.09005119535968
109.870242900156 16.9953299550241 -8.41798842899158
178.976587462992 -30.8278063399204 37.1749411447966
-219.680472690221 -33.3333448960257 -26.0162613546664
66.9680277691064 5.62488756419898 2.22373761355581
-39.4702585663336 2.24244128279874 -23.5544772223356
151.121440826729 20.8392321128502 -10.2634841433764
182.872497143418 -27.4913313111291 -8.65220250976738
-116.00427241069 21.4377901090662 -1.2501559966373
-124.600004728597 13.3627715368011 14.6751430081426
189.422525619287 -4.56841120088715 12.7500419710888
23.144780871521 -5.0672448897113 -22.7826016387596
121.956535338959 15.7524140437448 -17.1422937271494
-141.337339269277 12.4131263684993 18.4169007604783
150.046811301366 -1.89953390179019 7.05354407946582
-188.311356617944 27.0526789775514 23.3826105972997
-155.16135105893 3.55218785171645 19.8478659361233
-218.723716024405 -15.3581776015771 9.90175903366985
177.733018939519 -37.5220693952458 8.11001638590739
-192.07155142999 -13.6610979615094 -12.8276820024112
-184.885349365494 33.5508722494135 12.6007301042904
-130.432706840962 19.7807379812532 9.69284732081753
-178.681936206948 7.88874844575059 28.2418042244241
-160.445569700628 22.4197205419715 -1.96059488107231
101.475540102331 6.50718144230348 -25.2105399330449
-86.7068991722727 14.2160673151488 6.05448536176607
-100.802522635291 21.1161658041909 -5.96436484352984
-89.5351909884867 2.38763592973762 -18.4125457762525
-95.4895494406381 18.4896668903826 -14.1786810184955
-211.035411167684 -45.0645451907037 -13.8813963907043
182.759659761494 31.6288214332891 33.0093520740007
-198.838495757151 -12.5166633647771 -17.1444508812725
-177.457434788267 30.3683139654861 9.9912973520572
181.326714426049 -34.3557912664675 21.0597359079937
-218.917817888524 -22.964212212662 12.9993539050773
186.221177883543 36.3683373705295 27.6421107879656
116.402924764955 0.867779355091149 2.14802272444026
67.9779816394844 7.47141754002687 -24.6067584293032
170.562214485537 38.8930934786473 9.37971505393796
-36.8167003955685 -5.21248109539685 -17.0873468367004
135.12735106341 -19.521049201377 0.634951143423991
-93.4467305751704 -3.44377102586566 -4.67787253229712
-136.681556481398 17.3391721720816 -8.92919479642655
198.291871744561 -20.6968342860993 -5.07415916645311
172.977694732318 27.1234909677499 -15.0041674238076
126.865132439754 -19.7433005207447 -5.52101253772864
-151.270881967565 20.0355928467586 -4.74098372025574
162.442739338805 12.0937805913544 26.3356294494366
194.757298880137 28.6415482190194 7.21192305364749
-92.5606060195992 20.9648045119989 -5.77614965758701
-227.400814914614 -20.7551999400531 -22.8369727324273
142.16019837755 22.2154908271231 3.70393648423373
-193.010806143076 -19.6798333156047 5.04177709861541
-212.616127590869 -16.1094313167342 -26.9820138772026
168.278128510808 24.563488047179 -19.4529498247262
-117.153448236581 -0.873177686772888 -10.5819933244981
118.850603269445 6.67447194893356 -25.2623501538319
185.2494568218 -15.4895383404678 -18.7598221110045
165.34721890395 -7.3432670056342 16.7220550418574
44.6264879309483 14.2501767072207 -9.05309981602377
-201.332857809549 -11.1194750765617 -19.0128824165608
-179.307555466908 4.55788316420417 28.6943706445455
185.386984087432 -12.9008281593752 -21.3910992434571
-76.3961738947356 -0.243897113932242 -18.1408674937045
85.4422025860525 -3.20632621500549 -24.7172543993386
1.45657722545794 11.1787199809151 -23.3335491130216
195.941734884808 22.5907669641093 8.32332400537913
-122.99764337668 8.62264298502669 13.4849200265161
172.966941832059 28.7307464990134 -10.8867046819309
175.705455460766 -36.206599219996 4.58361134800716
-206.501072688987 -31.0485828148987 -26.925885498209
-23.4778155910927 -5.52760412723187 -8.25533633452307
178.342348563 -2.14029285442978 13.4430328465004
-46.2949536671204 17.5208969076081 -18.0130637185579
-209.44635785116 -17.5852199860044 11.3990367492447
196.868231042173 17.5959876948451 -2.66984543598549
116.476728871434 -2.42611434342629 -24.7451654444318
54.2675984147018 -0.633707695405992 1.06976908272541
-208.910959705779 -44.665837414658 -15.1224361641533
193.598876067018 -20.1207033057571 34.3809725449071
108.662197063979 13.1382728611949 -20.5289880084017
-192.5646346854 -22.0241320283108 0.204037975233686
189.092127749113 -31.8904205042553 28.7855644167867
-174.353140418052 28.7539557741327 9.3764876715609
14.3855198199899 -5.88034200832215 -5.95690951813589
-155.243074912309 19.0908378532147 15.7077305774067
114.153839605533 -10.9965528320588 -20.5510379644711
181.221411925128 10.0596755079475 22.6611350757464
84.3518399488168 -12.2394390360391 -19.3143959128778
154.621669659726 -19.4514319592996 14.4312519342089
157.599518091426 -6.45561695741954 12.2955187827178
19.4528460046022 6.85863577447257 0.126157842271839
193.278538679526 -5.79713233788968 15.4960298572948
-175.418003273134 -11.3400045893205 -3.92134232163405
-52.2443664222403 2.35766420974579 -22.6807473948722
159.001018940315 -9.21782852385116 -20.5176365781196
181.253295228506 -32.6340093040246 32.3197240689661
150.833670581189 -24.6626325748419 8.58663932413392
-214.00593534796 -24.6472294188703 13.7871461790835
-104.586939067069 -0.0951542175927647 -13.6798893946426
185.0312428158 -32.1008308476861 0.4351846454327
200.345309199216 -22.157487514286 -0.496213200768307
140.813952727596 -21.8057893558721 1.55571215901596
64.2048361048629 14.084287374362 -5.93090921803755
-191.891175120148 20.3633530510775 -2.84759581834697
-187.565481752317 -14.3711587609867 -9.51811725739447
74.6204391257357 12.8062823822552 -19.7278596132815
92.1350428982408 15.1734676646127 -14.0110602500605
172.914832261656 -36.0990012466918 21.4612924242677
164.492486423691 -2.53554273532213 14.0125480995418
-193.639206914792 32.3377798915475 7.67431143315663
-63.5748960704039 1.75953224012469 3.82488826895927
181.623779289125 33.0406639148196 4.89365588201285
145.358721918317 18.7542034049932 -13.0917525576094
159.472309806938 6.9504229867181 11.9485576681442
-210.923707227356 -3.30621913651902 6.25820753657548
43.2042609957542 -3.47683567533177 -24.1614705924821
104.12011469235 0.673236688339038 1.75508149376897
152.493421339957 -7.15784190051639 -20.8391894189608
-56.2074218579859 16.244737179836 -19.3130911479011
-0.379388416173331 14.4312938173216 -7.72418165713084
-226.247467074514 -7.12761602410067 -9.24501476591565
-211.452940673324 -2.91399039808656 -13.9921231993405
-98.6016740928491 9.16128991345165 9.66628724249503
183.838691028944 -30.4677619834188 36.4812170826453
169.597745741517 28.5516235579582 -10.229190020861
-160.324474643621 -18.3454611317939 16.8969962033733
-187.732680469131 -4.39880160234989 19.3279747657597
150.098709506858 -11.7088122917759 -19.4137348188653
-201.888613992985 4.32791799751013 22.5954672391635
136.935711011989 15.6994231900171 6.67041402660652
-198.832510390715 16.8970998837139 -6.3328685533538
-218.230587273562 -25.9928760048282 -28.1239406685582
196.704469076913 -13.617072736597 -9.19457558757376
-214.926380451278 -4.49818491734506 -5.28471071013893
158.868459211934 -29.895651473394 7.46224323470963
14.2167647377372 15.294819285703 -12.0377204020579
-63.027606538205 15.9317891171187 -0.685069327204067
177.114957577725 -32.8280401616889 28.00413762363
-181.029966622217 -16.6358839939077 2.40229476587892
-130.89045521467 20.6969046796819 -5.06858690809041
-122.661657353388 5.94612001937916 12.0339474872856
-151.81156409244 21.7329034725959 -2.23278219616948
191.663351529607 -30.5241249715192 15.8600265922833
-199.126732383081 16.9095366943357 30.65854463775
-209.579049345008 -45.8145073825948 -10.7068661957364
155.462856084451 -12.9218329754366 -18.6972384186753
-3.94642652796648 9.29066905481594 -24.3012501633968
-208.424332370348 -44.6125916736671 -0.780342363277147
189.625172422215 31.6296162784351 7.93993425015674
30.0709812963116 0.970028583018718 -25.1367877777705
-183.413595220189 12.3424463560271 -5.66771897587138
-199.526864926103 -30.8531499916078 2.44026080083855
-181.703818852947 -1.79867022734778 28.673014610064
156.087934395753 -25.7517286137451 -2.64556917425613
183.016038829593 -9.06177032293903 35.4411202063999
-178.568148650674 -15.0393603088502 -0.743524173123255
143.330085534407 -19.8600707817985 6.24194291416212
192.773226692653 31.2029183566279 21.9949062801872
-230.620141756945 -34.5309246009155 0.442412061589229
187.617656602725 17.4086732765692 -21.9336799537022
167.343425120139 -0.0291852858385878 16.3343173688221
199.934039268252 -27.6792538210791 5.38055189111236
59.4034801954176 -12.616198656633 -14.6176320253174
-172.847205747737 -14.9219379867303 3.76914459894261
191.252394120087 12.547849131734 16.5427154779765
-46.7481850300049 -5.11834524493146 -11.2568443201137
-170.969043175831 -14.9050238303297 16.3655573849533
-199.807204012755 -8.5666670883892 11.5926392221202
97.0764573413013 -11.2656469187705 -20.4071850073642
-218.160292921451 -41.9232378763955 -19.0781832468936
-14.4180693933572 9.6397090465503 -24.0958249186088
-131.012199532595 -0.0363696995111976 11.7692655666566
179.293299164358 -8.81026638124259 28.261970384012
-30.2455824640625 -5.7103785752164 -9.96093884468905
-139.826880953787 5.74234284595012 -12.1364148131972
131.421406343441 -14.0129694342173 2.6479660610572
-222.549496385749 -27.5526692345684 -26.3753881711096
-161.705551639112 -12.6728601531138 20.3866612024223
178.212156317397 5.11881882911932 12.9511607624684
-221.813717967594 -6.3003068000446 -15.9822815440367
-126.35953823025 2.9960750294379 11.7586198461919
184.336067914823 -29.7992742417576 -4.5134565062317
68.3472955165314 -13.5402289070452 -13.080583595048
118.665928531545 -19.0011216195347 -8.55089477960385
197.760042883796 -29.7779120933752 14.0884600643254
45.4044882363445 14.5746840424778 -11.8494281055883
89.6470262348755 13.2105000015089 -0.692719175406171
146.442146803089 2.57556250723099 5.62375507249325
-176.592522009501 -9.17765083356524 -7.29025952625791
-226.012669815002 -13.7045530312643 5.20574907648793
-141.226576471101 -4.73129112973529 -1.98233001375966
99.8982822943827 1.56870192826663 1.75421890505226
-159.971862112786 24.03185991468 3.32163267244677
162.272103734266 -26.4051367398806 22.4149126319941
70.2523334872315 -5.63662403721071 -2.84983458061802
130.368696658604 19.9038847630971 1.29721495610093
86.4078996430428 12.1835946323521 -20.7934042527487
-146.75320119181 18.6901072796227 14.1980205066091
133.539299470601 16.3008998414072 -17.4821371326384
147.203873403938 12.3303217281441 -23.3668212273732
-190.162207389783 19.9777362200818 -2.69949385448875
-78.5713631845913 -3.79641483347525 -8.24859272261802
195.777151305657 -29.3802054612296 26.518874655956
42.6380564600442 -8.33589443027791 -20.9864524381076
39.7371518802816 14.7189258049768 -11.7119118073974
-131.921987862007 5.03755931661846 -13.1430728188639
145.618920249493 -7.90235129031338 -21.302958634616
-85.6095032426177 -2.83489843275577 -2.47190951754424
-182.908967515464 -4.65661970986803 23.0610849667673
113.564616021732 -15.052617120028 -3.69748581118221
131.043210392112 -0.540618787426427 -24.6883224608769
82.528085162081 -9.43194493731232 -21.6109369587503
59.4395270368568 5.16479671256938 -25.3175391867263
-25.575467100791 -5.92095911235002 -17.2490011021582
163.923196572523 34.1752380192093 13.9106185364647
-209.783068131734 -1.27796236074802 21.7649565855892
-156.440719508506 -5.81082428185668 -2.97902949059296
189.7339198233 30.115200179722 4.61873442162414
99.4194725457016 6.43327472895216 -25.1989910187927
-86.3277967898333 -1.35215506052321 -15.0255270048104
88.6577940326036 -15.4415768322806 -15.0441292555132
182.111294725138 25.5544799625726 -17.0644835065908
-191.033759207307 -1.08625437711675 28.6317939265345
98.5088963925919 -5.81607368731623 0.20938211416646
-164.553604176166 25.1302469891321 5.25750852006841
-221.355168714117 -39.1291435586248 5.86140953557921
-204.178682971402 -2.27522439026383 -12.9848996095961
-169.871900533488 -2.2846989412228 -11.3859063936145
180.267132591363 11.0859914380733 28.9017262046502
135.687154911633 3.33089974582225 3.88650407268444
110.851280607974 12.3943755529678 -21.498338666525
26.3325247629632 -3.59732165673411 -1.80220527122694
-44.7711865271031 8.63490976902202 2.69219905704411
162.866085957268 -30.6420111276475 0.840400076385982
-193.654367208874 -12.3668480166109 -13.8122306405231
160.819531855448 -28.4457661681298 20.9537446623003
-196.950220164011 -13.38581746773 -16.2077818547541
-203.267814448381 6.94218849206023 33.1744054259635
133.449416954304 -15.7341734149894 2.57625894355359
155.390744538909 16.5843231662205 -22.3547602758621
153.156253917618 26.0377512230231 11.3431292217116
-172.475238792301 18.2925744497034 22.7934506731601
59.6833739030542 9.37911818261246 -1.15912454704922
-67.2112721421369 9.98296497632774 -22.1376139779551
-166.209749578826 6.79829636969792 -8.27735966094317
-215.0314522394 -42.7233614556475 -18.8430765177978
185.797957750654 12.1496684611307 -22.5002153242762
116.103295888737 16.7750724501363 -12.9371270482725
165.54040631044 -36.9424138637694 22.7147407964542
192.815678843276 10.0274573154779 10.4770670094772
-221.570973334162 -43.8972648542735 -4.10122635978945
92.6027915388443 -14.0826945560727 -7.53736792450377
-205.176509983734 22.4592627086441 0.465463135098772
-164.835241384839 -10.8067118404679 -1.5997941403375
179.774140131039 -0.836495994495365 -21.3509494089017
-200.267107761309 31.2827181709006 13.2467661901022
136.862561842506 20.4967418903944 -3.13155241178734
-63.5274704807355 0.291969144644927 -20.5423581532506
93.9429158556989 10.3653754602936 -22.8733783747636
134.155690972152 -6.85981473139439 -22.1534560242123
-161.513442342634 13.2757145039849 21.9541070385256
-123.068727400235 0.839617349035296 -11.7219511063401
-169.995569558461 -10.025450156366 -2.30174552422623
143.755836156185 4.87262171145924 5.36687225640681
161.243616855441 26.8086654467973 -6.19851768579875
-200.284327441941 -32.9292956908653 4.05884467288274
184.050232982392 -30.176795352611 38.0818246761366
62.6956259323658 10.3608725146516 -1.58761440627929
157.145148617768 1.29677461645878 -22.6285705838911
-49.5133159587648 7.72695158405664 4.09133220823409
-183.701094645474 -11.229221151931 11.583192802371
-65.7399189617317 1.76346847470985 3.93850150104807
-76.7015034242947 16.1778945503997 2.43953199873934
162.62425887007 -7.05862086676893 13.2766825208214
53.9562904516996 11.7884114020388 -20.9655622130683
146.330135144501 9.89376892430124 7.76884123503596
-234.591112663631 -24.2794347609011 -4.80938208763061
185.418137821761 -24.9344219676203 -9.90737865815698
-189.5691561254 22.3312996061637 26.9208646478709
-38.2112931829201 10.2740783208965 -23.5188028323063
-126.568837847686 0.53582750148921 10.7353559008792
-234.222778139341 -20.4964734577443 -9.80660872157695
-216.18009333239 -44.5426661451937 0.0307747332188439
192.261372724849 17.8845162816582 20.2431000235825
179.558673173023 12.3687856853878 30.84792119507
71.9179459384758 1.59395812345612 1.57642973915711
175.088099556353 9.70164517960099 21.9176323476653
-171.984027997063 22.1240081443334 -2.53845702383528
165.823727765832 -0.281939965013312 15.2589167078139
-152.010763929978 -5.78406255997959 0.0219282677407246
-199.433382961173 28.6342889443501 6.20749407292262
77.7598777759091 13.6328592095299 -18.1726841483055
-112.740881505781 18.6645752766585 -11.6106984914821
-178.254074443972 6.8024469405514 -7.58448227392801
161.17769239434 21.577869681871 -18.6151866801365
151.008187780535 -22.426532939834 -7.77476362533186
18.8400538966022 9.92763152910612 -2.57209026756869
35.7704329406094 3.0027450213535 2.67756984827357
195.347884404143 -29.7750525059213 16.0580888360568
11.5239839390605 10.3864807957014 -23.5721523896502
-198.851119211876 -40.3604862077457 -5.79159968971196
172.740529472969 -34.4468773772558 1.11471420666469
-212.043739905233 14.5674187763341 -2.30255100604356
-74.6768999712767 20.1226350942429 -6.69257319966352
194.487464328515 -21.2585835953085 -7.87118558466732
183.512040610223 -29.573729499077 39.2368121012716
-158.058698174987 12.8028721251157 21.2734593644233
-129.376004894293 10.282531693831 -13.6616428626097
194.174896974171 31.9150640563985 11.7864282425893
182.052859718806 -31.4515136338676 34.562794952545
-24.027587989588 14.9863433359059 -7.10062243807622
-191.888027689087 1.07048225835002 -9.95136717481001
-195.761285914298 -31.8207990439404 -16.806048987114
195.643766427142 -21.5030899555223 32.2899845861434
-211.079479116602 21.3965781428347 5.07857607473503
-196.725758451211 -33.7479604503611 -5.66504402659225
-205.332747702435 1.28627095794187 32.1646960985078
-160.483171787778 13.5685207427431 -7.16969863748044
-208.747953924509 4.54982337389827 10.2618529978085
-200.386066161539 29.5897994167207 7.70658459404819
116.111287173221 -14.5020995182934 -17.9925333990324
164.471873747359 13.1517696155063 -26.7629312918094
164.19108459212 13.5595110847256 28.5161443496157
-13.0301542462127 -5.67094364418992 -7.46501349824188
-50.2095838206779 -4.35780889491072 -16.7812984946264
189.61029457709 -29.8143246338723 35.1874334150613
147.362221605456 -11.3399846660163 -19.5348299256753
170.534006920359 -7.13027103033051 20.5154208395401
129.164642202083 13.2803803654019 5.22469103893942
165.147213848483 27.7641134684636 -9.10660811736463
192.256671863259 25.515806665107 -9.26417357431976
164.124916655674 -9.81662810698599 20.1063126904434
178.494165491683 -8.82805846857795 -22.5513989196418
153.906584273743 22.4866668430991 -8.03536097532177
-94.5993753750162 -0.935195808359384 2.96731690008561
64.6102695954822 0.960482994410951 1.50968380629371
-1.26805693047241 -4.08451107541086 -22.4031985420225
88.9398764319834 9.72039962459858 1.71419030214112
-169.347004523423 -6.72261694089087 22.6071784588779
194.367954769851 -26.8691100017343 33.1143300514513
90.8416260032336 5.00646663150547 -25.5125606736214
139.367689431568 12.6183522741311 -22.7415243028526
158.140512664413 18.1778338540836 22.1422822511337
-195.609271957104 11.3342634962864 -8.43481384473526
171.016016905131 -7.8596599062606 21.8011268449439
-132.544322724756 21.4705694328634 0.157687629804229
119.938133808726 17.8817326827174 -8.28814367770571
130.325241349072 11.7265737128599 5.25186280061534
-28.7865133605623 -3.96774959641604 -20.6297948249564
-151.206910880661 14.2861703546494 19.9651466229323
199.704244710212 -8.79767437403465 8.1514391912709
40.963213288163 12.5350157613057 -20.4723912668183
175.81587197284 -1.78990196509083 -22.40682009071
-130.689425140314 15.2374370938633 -11.2763721621024
192.568212034357 -0.0580372409995357 -7.45774473819684
196.569138474816 -21.9792972097154 -5.75245656203376
201.936792364748 -18.2130392173209 14.2049510923052
174.237770190644 -30.6179643535588 -6.09667401988803
-37.3330449776293 17.9407781811472 -17.5320422787221
-85.2447455323414 -3.27969461247015 -10.7977386541038
73.6893666572719 -9.43241595528191 -21.5633338492315
194.656723936388 9.689163349935 -3.66542097385627
-86.3495757334077 3.03596831953381 6.20321391308349
183.274034095226 -5.68717953003857 15.5813226284974
-103.496829706377 14.7516770533234 8.31197184577701
-126.802362680377 -2.17070342723476 -7.10055053396496
-215.462224294964 3.52807389609978 25.9830733795407
168.82502340319 30.6589688953306 -5.10615172690287
71.3053983533711 -1.98710659612577 0.198646038809146
181.42572523932 -13.7837359124658 -21.5091240142201
142.708270951887 11.3077528214437 7.46685690279184
38.9130712383361 4.122607402198 -25.3306858238365
170.733164520938 19.4343104032671 -27.3994653281631
197.404352369384 -28.8259126703638 27.27867449336
-225.894401282669 -15.1225838879402 6.87069426101325
-75.5669429727164 18.0614218526218 -0.370315047833752
152.450467641501 6.07790357482058 7.87680913216116
97.6401812732201 -9.32864286243186 -2.3151422380548
-161.352841168364 -0.635723061979412 21.7655530927823
-157.274147815835 23.7130925839888 5.04442806631249
-221.36900231935 -7.63436222574 -18.4660736059878
-172.53632273002 1.07231615941287 -8.90552657912245
115.868407210995 -18.5609925535592 -11.4982394714361
-102.039585013817 21.4382624031093 -4.26546025428479
-195.631734975574 1.89753525728524 20.2581425791629
154.789197384812 -26.2749252899814 0.315202433134849
165.676065118655 34.3253610971457 19.5280778804634
-164.096020974284 13.0781058128919 22.8270017427102
56.7323446905469 -3.20927059988981 -1.23298932336986
165.454754542416 37.5305114308078 10.9563133092816
-212.587712905679 18.8576056285687 20.6607024071226
-151.949788557097 19.6683731236374 14.1544942003399
157.771166626817 -10.3995873176746 -20.1719445649229
82.1378173079976 4.98869682636009 -25.5380512406413
-12.2324661919166 2.17183525662498 3.34881847782748
-99.2341580429377 20.1613288630563 -10.3271937185556
143.334648404216 1.35859359767007 -23.9255199906849
-98.7209342833458 -3.39253592489798 -6.99576668829098
150.344353581626 -6.52641351615864 -21.4085235729832
193.905120789306 -20.0496647354396 -9.64526022220062
100.727624958047 15.9657767457221 -3.42278566467503
-174.369196030257 -1.75352818986457 -10.5848132159639
171.310430268944 28.7442769894013 -10.4234235727011
-198.150938085705 30.4465844059373 7.36195890918429
-66.2610816685362 5.06718967847342 5.52992163071819
172.295028753271 -6.08325026183144 18.9142853142572
157.753349444648 21.8292579629258 25.2327309763144
52.4464447519854 9.55528276317086 -23.1741763523246
112.26110339512 13.9538106600689 -19.5022812024096
-230.738996371949 -25.1434918814835 4.87709466255754
-25.6793531723908 -1.62067921272294 -0.794143307670413
193.541595208929 1.80283312630152 0.595436475125169
-71.7651105318201 3.32989857598973 5.19341643151926
-85.5590816661858 8.86567775759466 -20.6842139070034
156.7929485496 -23.4374541683143 14.9240116020504
159.118251393475 31.9871642449601 4.33247109941482
-147.454159312814 -5.20257964014069 -2.39986712746504
126.950571679357 -2.99377436003851 2.80218012483788
-117.661054112082 8.59788410189184 12.7715954555529
-176.390282168094 -0.56486749244447 26.8443771211963
-146.477693344302 8.12338124858655 17.7502189256358
-152.736484624135 10.4173938652794 19.9615500252286
-34.2849909928786 18.369769726421 -15.096494526553
185.924934689831 33.3741334790367 14.4997851227095
-115.722230798922 2.66396260764651 9.53084850281902
-71.1013979631176 2.08981870527617 -20.7236397837939
-126.177425998866 -4.19609339014858 -1.75456508692909
-133.667947169139 13.1109501925879 16.6266638082971
174.153615635612 26.3625074338895 -17.1952483417764
134.38008678767 15.4227019099553 -19.3526689540161
157.333488892024 16.5741112340967 -23.2714671473229
-35.278178434605 0.285267063682611 1.94489289120367
-182.340203558292 33.513880561957 4.92463517663735
194.759340068555 27.5847823005421 5.47746396914647
64.2248155654514 -7.98427733430547 -5.35079536741816
-95.2184501256577 -1.06676759170112 -13.8571507233031
-153.114112908653 2.47201686222556 -9.49323309057787
144.974836844791 5.77492656756246 -24.351017740644
-208.805424704419 -40.4903543448499 -21.3368042273369
112.463967900927 5.1440024403643 2.36351405142003
-214.117244555985 8.93344885385237 25.9989150179761
-133.569664569638 3.16135836475801 -12.054592964949
13.6635775531544 -8.24035584172641 -10.6918306138833
-69.457890845491 -1.38716091546164 -18.0648043257358
3.7484313899134 13.7788265415576 -21.0307276332996
-197.564406692586 -37.5988663191565 -14.1715663766416
157.014204374653 -14.3491197314633 -18.1320577112306
170.252292583437 -36.5593253507697 5.51696710731059
-133.272448131869 9.83494117485524 15.6534889808245
-75.056313450566 20.3441162202794 -10.5925032311842
-186.635185038531 29.9379413371132 -1.71826746901468
-164.464577476268 -10.2906497227075 -2.6160052178766
-131.153327441288 -1.86638861149561 -6.90230714196533
172.712716351203 -6.39217642585592 -22.6622724786283
-194.450997896999 -18.7910897860869 6.5898901760194
29.4924648216154 -4.99270693588864 -22.9556637274841
146.149825823749 -1.63314748689287 5.5585150352186
184.494329345297 -20.7472122346336 -14.7418778242878
162.663982326488 -25.0042636835154 23.5208867900072
166.910650961115 -13.7538273839583 36.4561064097179
-106.712855197521 3.62547742956701 8.77261297354042
189.889147283646 -31.6805651783169 25.7295985054439
-164.351528575638 9.44922509569063 22.9299645392502
191.649444191945 19.2067527693253 -17.5052935857612
120.08355265543 4.29548534307462 -25.6610834458784
-202.954947607521 -43.1685874682662 -12.7171776523785
171.053699525292 33.3537860233357 29.6037100424483
-200.697061530545 4.07250380607441 -9.62430465677407
-174.731590195661 29.0900277458633 6.8445433593888
180.098074493447 34.8776687015845 22.0813970634641
-153.338630434261 0.96310973844284 18.8321085227026
-83.9196905305388 7.45609438106194 7.6126545190114
165.537759757215 30.2649634552906 -3.9434668313754
194.722686960401 -18.7025896662907 32.9182953477946
-219.824717019222 -4.78697291221627 -13.9167066358995
43.7139072816383 12.0454230203495 -21.0950545108666
158.281114536515 -1.47113891708288 9.54412267751901
-162.400532536899 -8.55331029064459 -3.62774671700257
-30.7881649613918 16.3844108711061 -8.59612729289099
-171.076289654109 -14.6213044638361 3.97242278787891
-192.578354047282 -3.00630377948842 16.6714641627461
197.723542128398 -26.3123463205099 28.6108494398706
163.481222456804 19.1271958661514 -24.599305826534
-144.443585993556 13.7913136364596 -9.68744294211126
-201.15684042522 -26.7261128661825 7.24540546236945
-86.628751972854 0.744254847409513 4.21876578568655
140.772943250482 10.8495112638094 -23.7940715802948
-204.39208670924 -36.6528000222082 -23.0428082911072
129.133721962044 -14.3722515837994 -18.2165058808906
-154.538883139738 16.0616215440417 -6.89743444943865
-70.236868873609 20.2722468101048 -9.66674271834885
-186.808212660923 33.6892674995858 4.04748925826284
200.356951259684 -10.1814799483941 11.9935436890461
178.478230520134 2.40435415097966 11.50604700816
-223.03082175458 -15.969180432834 9.42380077429123
40.2790426237437 6.96441834178611 0.0631161388383878
189.282686862838 32.7557451727713 11.4744361944706
142.288719685285 -13.3856202413265 6.15179813625817
168.850055350842 36.2707165506371 3.49864246818818
-231.853961042755 -35.3216268790139 -10.1089583316099
-114.858037776075 -3.3825963923821 2.89086841388099
5.32935771465643 13.7158297791329 -6.7833223094685
33.1784892371655 14.5407933574047 -16.5163427637003
195.33273019367 25.2870992698788 4.3930361996189
-204.280670380074 -35.5014581520149 8.5615785228013
-219.370872604661 -37.8118072018253 8.12434101135039
-209.183311139342 16.3146447744675 26.7656713058881
164.212619274231 7.87952413029892 -25.8597564231349
195.865352114653 24.186780419401 6.6973799284279
167.970316485652 -25.9292436994732 38.1285103155959
-163.726948696111 -10.7720930093294 -0.322003537577795
-185.574530825357 -2.71168108023271 -9.01379109376012
162.292551512134 26.1120845207154 -9.31546484954263
140.591077304944 6.73790876711605 -24.7072265277605
191.821095049143 -21.7551678992786 -9.21998188406875
195.19138139383 -2.36175965627437 2.67944317992818
-168.436721377315 -14.2618004378919 4.51948401798702
-216.487297446489 18.6536395364706 10.2791494564075
88.825976012389 7.0025984773283 2.53549166902806
197.188009113599 -16.5713845592921 -8.4819745159647
122.82218721319 -13.7679122772117 -18.7863616130412
54.0783122356898 8.52332536477713 -23.9160674241151
103.514333103328 -15.8491402336308 -7.06199730298783
-84.0406254932736 -2.41701346128619 -13.650261079537
-124.183154901869 -0.461444196616052 -10.0880220568804
-223.680874738586 -38.2410854330493 5.17868562825047
163.725833094991 35.6617582988517 4.72793190342583
-201.760776748832 -9.52488885313534 10.9818703610372
78.5342857596305 -11.6144586445076 -7.35436927394316
-96.156396930067 18.1179820321823 4.91781113400359
-140.705270637611 21.9405683978362 4.90861854254126
179.707424173575 24.7319947597593 -20.2204167292061
191.197462177769 -27.7067509804224 -0.746287178518896
-226.323115911041 -19.0363141771726 8.48147909933568
