185.830665776384 -13.671722849981 -19.1827936698476
-61.8593661529346 7.41200850360543 8.98506082427216
-52.9722983175274 5.28143940661094 7.61908034472984
-169.766234801484 7.11231500926719 12.5206377202024
11.9328834583049 -0.337236277167022 4.00190338515884
177.570172381379 -37.9605374831761 10.9550658484559
-206.214139144676 -37.6669387132728 1.00799057578972
11.2534365023489 0.0997607859812189 -23.2972134264052
189.151407391697 31.2564036016424 -2.3915998745618
-152.245250732648 27.704068428597 -6.43777162942094
171.107618347074 20.6893495544492 -20.3633743071222
-91.6211674846057 -6.60858033653192 4.05993711276336
-155.908759146151 8.6558420906318 -10.4924060266574
-42.2968887540434 -3.76361635308768 -19.339468813925
35.9649858430927 -8.66650812859704 -7.07069224119321
-30.5711051685804 11.0432420675146 -20.6625542980651
7.3551211196262 -9.59498327234285 -15.2290224842021
-151.249705363796 24.6053759361637 -7.12565457556788
-180.585940765671 -14.5308113985139 11.6122475798819
-51.4796043886309 -9.05960234323943 -11.8744292417006
-182.60861059362 0.320365346342093 -3.14339165238076
169.000700505421 23.0727393417339 21.1672890462935
142.069857058787 19.3450350658953 0.246383655283317
-176.285966917978 9.34146600497463 20.9359779151789
-175.817866673479 6.7444928206119 -14.8392261966959
182.890546872509 35.6718471529167 9.08361635529295
-174.09317143451 28.7722677983628 13.5220357759252
47.4308431025973 2.97153122835106 3.9354343743617
189.235114236557 -37.8054511028363 1.50610349667373
205.792645763924 -32.5344022491929 13.2143119382132
125.505574318984 -16.4691139325787 -11.1947496117583
-201.623029571541 -40.9456939830318 7.72149157162475
127.658711598093 -4.78206918920447 -20.5633770114011
-1.50388988284696 -9.71380236933948 -12.7999769306988
180.683141897896 13.5405936487308 32.3828946146351
181.171395345068 28.3147198611716 -11.4316733680541
151.919963665146 -20.6200956993661 -10.0831287799979
202.429280327683 27.9902729150944 0.901718212723367
-170.553074299898 17.6970903221737 -14.2500243304818
-188.443108920834 15.1588079757604 6.57779495821256
-118.786623989092 6.53585278004202 -11.8909489564265
-169.544060035212 -36.2968538890659 -11.7514454370361
-186.335005569572 15.2159595578276 19.7153397192914
-205.800108955852 -20.7373671257152 -4.61575113524235
11.3191830824645 -3.7341385571598 0.124893833930903
-43.0096463706783 -0.135532334618296 4.78865063989337
-175.80638958686 30.2369904822074 -1.41143411583075
-113.594046194489 -0.987218158339746 16.3852338842018
-150.254905952767 9.27300363598942 -9.39888769149591
-124.830760724884 -12.1624681970245 1.12631971739174
-203.12388311575 -22.329773483988 -13.6746519680147
198.267790987252 -13.4979325842581 30.3025782432933
-10.5827467879818 18.3308145959587 -15.7635580430554
183.753579160062 7.38444059113191 28.1759858143969
-40.4723859742687 -6.7643503338535 -16.7615733831398
153.173439202399 -22.2837330444891 -5.60065794193844
199.055421151862 31.7317139736379 21.2452365627946
-190.195872344486 17.5667185263669 6.79612968116513
183.16983211406 23.7563267938045 -19.1602140704377
166.87731417032 26.4512805968339 11.0076366556789
161.280408221694 -18.7439385255017 9.593948768417
-76.8177981573789 5.00404831309261 -17.1064909024683
25.1178511784996 -6.85136666470281 -4.55596968996601
-154.537427076296 31.7477737448282 -0.256402361473229
-101.141275867769 3.11199290176746 -14.1445462022175
-154.246682420823 22.2191998232346 -9.24309728935483
37.2281746014732 8.73178783989715 -22.7146691094831
-116.95360089607 -10.3692257280854 -4.7908751290026
-185.63622280566 16.144583109919 -0.641149450135492
144.246401115009 -11.982932241808 -17.8321307778322
-14.7862208014654 -0.210730263401487 -22.484757095464
-86.9676014846283 -8.25922778744188 0.292654355310215
-94.1164647829023 17.7011202525292 7.47356679527684
187.308404084543 35.1365102878501 9.12431334231281
164.007780231189 23.2914414730552 -9.81938180826886
169.685239240574 -8.7851172611648 -18.0838635387649
90.2440482779899 -12.3941560196075 -8.37189606494355
48.8127445743835 -2.71052551329245 1.98816990112083
-156.117485230043 -3.28016226020307 15.4511380424642
183.513450961732 28.2153708404351 -11.8309890662018
-178.179002808389 6.16877537389479 -12.9731644640129
-63.5829746880938 -0.769852259132761 -17.8945571686048
-170.147063060769 -25.6608632511527 -13.4006460161917
-189.983195617946 16.6492214609834 10.9723811073871
-160.833572144709 34.8209645503535 1.22967242554249
163.81305878837 10.7670514327095 -20.5086912784236
-201.424920755025 -29.0843365137573 -17.4842569674291
129.222181441862 -1.77508658743981 4.10156831407525
-54.5804479808629 9.42593368119675 -18.967867835285
-166.44505522499 -18.8095245760791 -12.3090329198369
77.0137866831076 1.33821998747341 -23.2972133553798
-201.218595278185 -43.0630700078696 5.83243127031015
-184.852680999266 16.4451806915916 -2.76975453280367
34.9809871776582 17.1995789472228 -14.8612911936981
150.547580683781 9.13523793379327 -20.4536417831763
-189.795892108798 -49.382681701387 7.44155590152245
-47.0493805391069 19.4523958868615 -9.68391555472447
40.9039114683545 -1.1452164133774 3.105120012615
187.602730175998 -9.39190178970349 15.7574511431533
74.0629320651281 1.75987235600246 -23.3539235865797
-162.133911375012 5.00319671859459 21.9493283195323
-96.1746190627316 16.3297386550571 -9.49268052640842
-149.428711451949 -7.6033060027738 15.5863225599151
27.3301310308833 -10.1130314224709 -16.6957944058057
-172.843549735811 8.022600585711 19.0113456621474
194.762888743814 -9.56722986885163 -19.3353495895901
-181.977558336017 27.6553267764395 3.26606637370694
-189.614606283709 -48.2156594695653 -10.7996380600733
-154.652644873992 16.0091798781788 -8.44999651100052
180.492175978127 -31.5399965414109 24.2622800067947
-172.327584326215 -28.1316012348904 11.5794559572082
-199.696742896748 -43.7813758639153 -10.1242936782253
134.658238284631 -14.4566733526523 -16.1962077866296
177.581039010004 15.1099250752598 -24.2382341704773
170.845093862017 9.1633033479223 -20.6407226009882
155.158239123295 11.7999631353705 -19.9748436202312
-160.674649401623 31.0729155196646 -1.95679605847242
-149.187442487659 -13.2987281179134 -8.73493432209451
-127.393095612468 6.54346014672538 -10.7834909365895
78.4608764974036 9.59134434025752 0.301824370812015
203.922707535901 -27.530760963836 31.6170819444022
-7.16846057760781 -2.06759962191349 -22.3630380707953
-153.174057623748 -3.650719813811 -11.7872142485119
183.838875657764 -0.656146536661728 16.4979017867535
192.029951636968 -3.75866452735187 9.39937044907505
-10.0568298493946 2.96274192861831 4.73247773403188
197.14265614473 -3.80336298872598 -14.9131210268866
-171.134148248405 -35.3750002717495 10.2382843005314
-115.664920392415 19.4579616245477 10.6119249034406
-202.60714299618 -16.1683619491681 -7.18848490079681
157.939389759465 -24.3634261770781 -2.23663078762136
206.255933114791 -24.7261711574381 -6.28457385787183
23.7099354200569 15.7327508772044 -9.1961962749642
-173.104180346435 27.0967796234868 -6.87955938898
13.6285310597242 17.1466839198804 -17.9562507740712
-184.515525432195 -49.3929274910595 -10.0769093195729
207.647427073819 -33.0596503712251 22.0987812446354
175.712586065898 -37.1802696494015 9.75319523548621
-127.501259977338 -1.1322678085155 22.2441498235669
186.450726383111 -39.1872427185011 16.4573416656194
-180.929680346595 -17.279976698786 -18.8223057096141
161.018258270948 -1.65217898725227 -18.6158296652249
-136.691993996766 -11.2165447464257 -8.66881877585782
-35.6847273300047 -6.11341705406965 -18.3395757604211
-56.3290936708252 13.1627634409475 -17.1418628241974
65.349796015463 16.3281285838378 -14.2750907494896
-129.502880195231 -3.40302670293703 23.6327275844183
-123.927533983955 20.9739141011598 10.6040790231427
-177.174414143834 11.2389848435766 -17.5460423093291
204.654085627638 23.6822256425361 4.27382708429894
-196.965691476732 -45.6382352984766 7.95103981098389
-105.99877550033 -8.52891470611258 4.61844029222975
-136.025618423572 -3.84403124035408 -9.94188000827994
-77.3601141300067 11.1112050014063 9.61083660093315
-156.756855403443 29.9812725479359 -4.12048487967319
185.568758738119 31.8988517092092 -2.34256977939769
116.017441501978 11.4459040941374 4.5586136149552
-85.6276342555779 -3.50398392605556 6.64486947302397
206.464500611063 -6.74469843702504 -0.531944354655059
180.685782387697 -26.4115128657921 -13.9370564065918
-46.1689220906348 -6.19261049915135 -1.4117842034045
-4.29488740602378 -1.6214764022472 3.50886834100152
-162.621974637986 4.360538078056 19.7323979769009
201.869580699195 -34.381937841401 19.0807663876759
-86.0930946236953 19.4479614125296 -3.13095570137478
-173.807080546631 30.2669231727384 -2.37433955013603
-59.2176057046874 19.1002460635463 -4.72894552797498
-177.093811738737 11.7258187231299 10.605093076715
-158.586596653774 2.37973287668191 18.1877561125464
-139.311109333161 -16.1771987222264 20.1391138620178
-174.229234471202 11.7338437653898 8.06383749087301
-101.744833588204 -8.20646201669459 3.62200707925564
201.219836940146 7.48876759014026 13.1915098625385
175.466831352561 -24.9711762417267 -14.2551821289169
-158.384707459061 31.1467332482748 13.2126939211303
-82.9077878225965 -3.053451769519 6.45955042144663
198.102995663136 -35.2405661568718 19.4063848244568
185.809248355967 4.88776909197211 21.9548427358005
168.552678922106 2.59712944301041 -18.3467587998352
204.819738293914 20.2323566717221 13.6977391925854
-159.323878599922 19.4285666071154 24.3201264944065
-172.801558600226 -9.63304040272776 -14.894743365172
-129.777492699892 18.463671298326 20.9024934390589
118.388312385295 3.93719013174018 -22.2721083653658
-182.989048535543 19.9246276426115 -9.95456950855129
-91.137732698505 5.73841566979728 11.4284916375981
-179.176645915254 8.62199637415168 4.11467025916289
103.443851908819 13.0973930738652 0.749041585749866
-128.638078652148 -8.53968470175106 -8.55133476464796
203.042479027327 -31.1379702491837 31.3583144182766
59.0111556929764 -3.2558840963209 1.42883912462137
-63.2127356397825 6.02707725373935 8.17995634119242
-158.614549509764 5.92835451972641 25.8245192948298
-184.807402658212 -47.5796067319925 -13.3965357132768
-33.2174571344542 19.0806014620844 -10.5059743327339
18.3736708116131 -1.62354325003054 3.89605581392405
154.354193377625 -20.7462998604672 -10.9567709820695
203.932223606649 27.7519899210345 4.98396420844756
-156.578454696212 5.502998045315 -11.8114914423265
36.9555659524424 -2.69294136456325 2.37034857500074
-99.3641988506316 -3.75559491364533 -12.6567550430268
179.564361701115 6.12680880148141 22.4771966963083
55.4297778710362 0.339800528666904 2.97778854891129
155.555918956411 21.4932115430794 6.29124125462104
-10.7145938655182 6.61457281104926 1.29179462041306
-154.407080837361 29.860363344656 12.2154982983729
170.325127134084 -22.4657376652522 -14.4084262598368
13.4877026532893 12.6037315156618 -5.12447586754655
152.874537250974 15.3778970767942 11.9349202284921
139.347074772572 -3.87786204712681 -20.1080544162779
189.263880307625 32.9090679199685 1.90030772549352
-159.505276563262 -6.0798286445996 -11.2583836711368
-19.584049632665 -0.854762324778149 4.28543119203929
36.2959396293701 -9.98761236314995 -9.84109530107249
164.087119976795 1.95213058413324 -17.4272887293633
119.015893797522 15.3318023813426 -16.0144082189034
-125.446434160201 22.1722813615433 15.1127535112075
-49.031012644781 -9.77410651418577 -10.2237774477077
-131.469036122188 -3.3144429297 24.331074276842
152.052931133243 7.23153889539058 -20.4047268417347
-76.4182231140529 -6.26889829719185 1.56986287257306
202.679051692675 11.6996928466358 -4.97309320821591
23.1430902252159 8.0658776454494 -22.8548731829878
182.765848876602 -12.2295636211991 18.9015805503693
129.09739591995 -7.0270620697615 2.49707900114679
190.920286506114 32.4426580207118 1.6765790576454
173.732877208134 32.0101419528968 6.57871441520169
183.467041258565 -40.1023646708059 9.59812083830827
196.116593471999 -32.3972736645383 -3.25178015214378
125.799546375048 8.5018075246241 6.26975814571346
-51.1084933828282 9.6438782242536 -19.2686548598526
-188.819689661466 13.3358635976229 12.2308394649379
-55.3451973620182 16.0708387660677 -0.730719148730518
-115.406450500419 17.6615878594856 -4.80426206707062
196.097017383923 0.140565899085439 -13.8548646271842
152.860846331719 9.04552253133766 -20.3333461777346
-168.641112137747 -37.0837659591418 -9.12789553881816
-86.4394306765266 5.96251716944868 10.7487874912515
196.396653664792 31.2612412467494 8.30770555334605
-137.898610359063 -15.8888547467259 11.2418181279474
198.378315253788 1.89156609734357 -10.5208601068485
177.676851634296 -10.982172608805 16.6881568235852
-111.002874743929 10.0561119543043 19.9856825959441
-171.866496609421 9.30917686897989 17.000752225488
134.326152138854 -12.7816660754378 1.47682228169591
-146.58902156625 19.4969805907856 -5.95751842207176
-152.912488189113 27.8311425270071 15.8277985903311
-21.8603980194107 13.3052231708642 -3.37692511120516
-8.19647644368851 3.9355662211463 -22.9698273588932
-121.293060441131 17.8037968558457 20.4076175801936
-133.269607263533 20.8276948789698 20.7774598212659
-84.5393112711302 9.56766703328142 12.3567085525415
198.72707193262 19.9814010499573 -15.4938578514742
73.8024102269528 8.06160010112982 1.22152605724931
195.920410912587 23.7206041950083 -16.7964445906804
62.37256511235 -3.33349737781811 -22.6027403958949
30.7258848620567 -6.60597079338837 -4.1559462077817
-180.550285518522 -46.4708490121998 10.1053840031555
202.218283845519 -11.5218810663552 23.5065486216794
-171.74409989061 -12.7075294457823 -15.0583108016611
119.280901000093 0.812540652579256 3.9824151842281
195.502961629134 -13.4832109560656 30.9614955025945
171.176621879706 -4.49964188844434 -17.769041790826
-162.458169364409 29.272501347602 -3.45596790776634
-139.6977690206 3.11061497791815 23.6628426772258
15.3486622673963 -3.7683585250202 0.106742891972887
-179.492455355911 -35.7387086431459 16.9213520056784
-178.448625038095 -6.51802300958746 8.42803261078335
-186.516053368154 -39.4118323078234 -21.1061432360507
-177.185478672568 -26.4014888301306 -20.5741878589048
164.505671489328 24.7301753491 -5.40299106383071
140.566454917398 -1.28493439837788 -20.4708040796149
126.120468751255 11.3398944321624 -20.0368436059524
-199.412657333408 -43.7507890582429 7.68989286171998
-51.558318372917 -3.15358710157661 -18.5866869041725
171.084283551539 -29.9227894983585 -5.85612602976727
93.2172684719637 -9.13112288090704 -3.55916779005125
194.271648986154 -17.2800154375928 34.2638354146137
-138.295946965273 -2.86151354447123 -9.9333851524386
-180.554889360641 26.5946247435985 12.8492066371585
155.090668296853 17.7712232918164 11.7554141866021
13.185441191401 -2.95822362930339 3.67731239006745
208.786306681566 -23.9068429488073 25.8265695338393
175.247111409355 27.4675897209579 -11.1067604284652
-21.97999794711 -9.38566150857455 -8.10651919626367
-169.750244599014 15.7607678608309 -12.2024838978962
0.0384916890222309 13.7045193319684 -5.45180033687293
-203.138428053441 -29.0229712151909 10.900697841323
-142.487034335117 -14.1178131497644 19.2879253722321
-182.827991516178 23.5986904516674 17.6954581102576
-70.2744668250039 -8.8014897555816 -10.3784280618917
172.087380464785 31.6983940608891 9.18826050851493
-203.346333745308 -32.6802056109708 -15.0643991611976
-103.786632754831 18.0919805872682 -5.46285328379523
92.2922433615967 14.6319532454413 -17.480825007301
202.404799611056 -34.467316943664 16.59322688948
114.274356698323 -15.0257403522346 -8.2833624992969
168.411814871175 -30.8102107318761 6.39540468920743
-107.986421319044 17.0388455894291 -6.54709498249093
171.741674310523 -31.3637075938689 -3.72331076276161
171.312493790978 -11.6549097211387 12.4528192669926
-48.2887212537697 -8.06854610445381 -3.34691246503556
-168.566828171471 -32.0892557487203 2.46191092166644
-157.773530067687 2.2367963896681 -13.5572462811964
167.472537817679 20.3073452798646 -18.0614986308881
-90.5572144175866 -4.02963078258199 -12.8876806976342
22.6092176072701 -5.16955818965101 -21.9085420612485
-170.664916490787 17.815604244143 -16.3332001246736
6.05216480242632 -6.30482660392236 -3.88470713162449
-47.6597619640215 7.52882627882525 6.38355416995256
-165.879552329506 -24.0641354720646 -9.77526056204524
-171.696719155106 -32.0939271179671 9.56653924381397
204.336114111005 28.42976926775 8.73041965171112
-27.0597749389623 18.0936399791988 -16.1155274234324
-113.54402223912 6.35497771680181 18.0212224515008
-189.717792709359 -12.5142842088134 2.15357342302422
-168.62652129034 32.7922074835984 3.79837063339528
174.705246966357 -17.9095479876195 -17.7348444773041
175.540224762855 4.34636067848676 17.6799889577444
180.200918195437 20.370744124206 -23.8936122551479
-122.057759918075 9.65740041834257 -10.6427806878741
-21.2354796523877 19.0378671080116 -13.5060565407084
-164.904654666782 -8.07979912309019 -12.0111425770093
-202.588667646246 -26.9649024645559 11.3056111036772
-170.881532757785 7.82071083615824 -16.9970275541983
62.546931460573 -0.282359588624298 2.74530076309372
159.555498472124 -5.18142657686379 8.84942644465809
-181.109549795455 -10.3991562406087 8.7765816421788
105.899984552736 -12.8449464515802 -16.4033035227341
-140.63878784057 6.30741218827819 23.6563636660452
-147.875688955311 11.0793650207193 -8.83895847903852
65.7370801937933 -4.10834540241582 0.374392966382682
-88.3046755643518 -6.5783597883982 3.30955251214587
-158.373841689053 -11.1622795147559 10.6865081219194
53.7426115485666 -1.72817090254415 2.2699077867136
80.8952559948345 15.9016064378696 -13.6196752234079
-174.928176798709 -3.94328620939637 -13.7394236454832
-92.4415517348672 16.2636319772167 -10.1560050329348
-170.668993516677 -37.5495385841942 8.82266502942363
-168.289613471268 -31.8420100507326 -9.42753084715984
116.949374495253 13.8071284933432 -18.0234589289431
-165.835523157972 -9.55199747035238 -12.524756239459
-156.360386819953 4.10256689595157 25.0589771294882
-103.928307683756 0.272057592038521 13.403707738781
83.905996725642 -3.91757272940425 -22.1447646569363
-177.728898609883 -14.9207450484235 -16.8063337180238
178.590163576589 -38.6236077350514 7.2679984682143
-182.481012185582 25.0524659758516 13.6661462644244
142.672852528313 -19.0387827985322 -9.62333598510725
168.192625469669 16.3366591695098 -21.0743908921525
192.22043993853 22.7802478509158 -20.4689426131747
-169.406980431842 8.59770081728306 -16.3896064047648
192.481386701213 32.4804226018337 8.05627640907512
124.728113502983 4.04573244150578 5.25758460935083
-167.293209842683 -26.8690100232875 -9.81274700981813
39.1640677333949 -5.22590491493605 -1.49148135935314
72.4805423335863 14.9076326179418 -17.8271932064707
81.9522971221837 -4.68658097145834 -0.430966393473124
-169.809610360603 -40.6020744441191 4.21112763476223
-111.105744996382 17.9198541331524 -5.03822242655809
196.997576699884 -9.16837061892436 12.7442022124959
179.200819803837 35.7012054379142 9.58128333989288
-178.459658330752 13.7318549307981 -17.2164422101269
-196.752275640979 -43.8725857051292 10.2570616910679
-91.3270371510992 14.8196949115851 -11.585001845541
113.618866236361 8.75906298815456 5.56566481592026
157.426723894831 -23.5663622060881 1.12172525812019
163.730874242 19.7709331493587 -16.4574378504112
-180.728656587002 27.9179907168519 14.8808175646402
170.709738929501 18.2541174198937 23.8629067540862
-126.551432478149 -2.8910024289099 -10.0295454596981
93.2315929636571 6.10066963361796 4.58913946507635
32.4586991646626 8.56260096414465 -22.8709710888778
211.261983856006 -28.6511930008168 20.4552814247887
-181.336469268303 -50.5550226444063 -4.53868222420736
-174.126421876599 9.22141738826021 -17.9363011344365
179.769168479132 14.8598907363423 -24.5969869193964
-95.9264779993937 -8.87566688851394 0.650548886754516
-98.6370058820594 17.9898023208151 -6.31812968379583
-70.6765700370378 12.535748221426 7.21119483870275
-134.37253916954 -17.5245604726547 20.4081172691098
-162.936067560055 3.69392084303453 -14.8479196585395
-180.345787904693 5.09484034906946 -0.547754085569359
-131.206209187074 -13.2613929150359 -1.67260066804909
128.520195282806 3.52146682539191 5.45086767313946
-179.184287536978 -49.9793911924179 -3.13342402627924
-133.285661273205 -13.7976657192157 -2.08912760042413
173.748557706054 17.7336888255421 -23.0490417638962
188.37641502753 24.1212398931607 34.2825759509464
-176.441048440411 -48.5156984663583 -5.28025857788882
140.019767593001 11.3167234177738 8.46812777495919
119.293473169106 -11.8261148821693 -17.9949976274557
-4.65344611177534 0.146556811731405 -22.927358867382
128.955926339305 17.4820357308826 -0.972041469957093
167.585660794077 -1.85149068332727 11.8467745142224
42.1736822697241 -3.32326092410712 2.68561732291069
-84.9317106180499 18.748584161222 -7.82138217818443
-177.134890552067 -21.3954490244095 13.9699540343324
-180.253772108816 4.34933249321724 -10.6385313274623
195.635363232964 6.06790006376669 21.5106654834296
-187.960738008988 -35.6100445183181 18.054266600477
-168.930673752061 -38.2242006020242 -2.46317542116508
-146.607307150257 2.10592388197936 -10.1395582075363
40.3858974621095 -2.71576990406997 -22.8004657270009
198.81737039103 -5.1850830739532 -14.683017424088
180.500901138382 -4.58795210490226 -17.4174666321883
197.99610919202 5.55395634965269 18.6878836040488
-197.896079171627 -11.9602103663393 -5.73830320694419
164.010122161815 7.88429623764923 14.263282625571
-174.734568010773 21.2859205991907 -15.053079470266
-115.406021327784 18.7957679020673 -2.55610229339721
-204.618469360286 -18.4151453506793 -4.71745406466808
-178.134915563082 9.6677674270704 20.968779828094
-62.9828795193489 3.2498543699179 7.64975971757185
-163.999552168368 34.1507690565139 3.51760913488562
61.6305899375588 -7.38179935471214 -4.52733157702861
-38.0793889763372 5.13665391583743 -21.1459400804314
77.5432109976231 6.12354292310029 -23.0775814028734
151.931063612901 -19.0279662944319 3.08768415446958
168.451782569203 7.84935788173666 15.673741868873
189.331895217576 -9.19082061188847 14.6662423392705
-170.061971090313 13.0603299299263 -13.9647792120366
116.300827812906 4.36652424830237 -22.3097172885751
-175.272786166047 23.6786539142521 -12.4872100862558
206.013220092164 -7.4194004269365 -3.58781939672445
9.13473198534321 -0.256577291295343 4.15420807974656
106.660635587386 8.42854690922407 4.83475727366845
183.971184949951 -16.8937005792609 -19.0149946289719
-177.768254903528 -20.9378913490323 -19.3064518263497
200.40972819533 -31.1228621236739 -1.78602840708266
-79.7250493916098 2.09238556749582 8.93201432672346
-95.9259336379631 5.65408984085104 -14.8020029834084
-84.5597839442497 14.4357950520225 -12.7460360102968
-193.541289237609 -33.7585506707875 -21.9244772295871
175.912723182208 -0.511297504128924 16.2985850198146
175.526033490706 30.3873881071111 -4.1769565124714
-171.174111470835 31.1326132045715 6.87259221717744
-80.0432026696426 9.62423620611018 11.3563497096051
-182.170410345884 11.3391216284007 0.770039833328495
-65.4510184662807 1.60248304560753 8.20427877469359
21.4733485958524 0.182521798823516 3.98208374210167
-146.584222339186 26.5600904222353 9.37611624725919
193.704314699631 21.0761510126652 -20.430464762072
-137.261077969457 7.05280833269384 -9.52791087368474
-86.3440241542754 0.333226887250694 9.1957942571719
141.461106102187 -5.60834653178251 -19.743857951964
84.1610861354648 1.033227849894 -23.2581486748448
-40.0820534282633 4.61810630950953 -21.0469631072382
167.423467390236 -7.53637464887123 -18.2054580735432
-153.653499808295 28.16107263674 13.9602357910543
-181.85134005549 15.0068609224569 23.9642700970631
-150.187589852158 4.199094414477 -10.5132963104023
-181.17600992007 -48.4863671758934 7.53975814866862
-175.858108934524 -1.66398408722101 8.65136048973829
202.179630298137 20.1079210754989 -9.74693250467502
123.841026458014 6.14314664363712 5.67446548335242
7.53503089522051 18.0893797081105 -16.0914901134537
-70.8477029564491 -1.13715140184144 6.10565981681237
42.2116642952353 5.19731698252472 2.34126444909396
-127.155901422936 -9.75917006278202 23.8297943345872
131.91606096843 18.3690902865524 -7.90653746650151
87.5869273944692 -6.27502804955728 -21.2015411077713
-170.074996370296 -11.1507954113643 -14.0575371262836
-98.0853950578427 -9.43993802930217 -0.45707686405378
179.182195357223 -38.8883770549982 11.8543415033007
191.183294603077 -25.9878728512234 -12.8846658572317
-126.900387759524 22.9276137119517 14.2172739669225
-204.236493662741 -34.754148203739 8.36944453552271
-180.20149782616 0.341196175731627 -11.0192088531027
-92.8735157434039 4.19825113547291 11.4315038489045
185.582969897385 27.0191318513262 -13.8879790974339
180.759664544273 -32.9700122587767 22.4107439080017
197.018603643911 -17.3741429640325 -16.4233323063547
172.754341917804 -29.6435581908473 -7.97241134820297
164.235600443638 25.4280565079894 0.789837211849461
190.217404451575 25.181513959578 -17.0462824220384
-121.427390470062 18.4351376438116 -2.97790825359545
4.202194880666 3.72873849935544 3.50504935119003
-33.4590730128119 -4.28309782307599 -0.476820468932406
166.274298447885 16.0508352105979 -20.3298962491623
-196.208687433462 -47.2960886622328 3.54478774278492
27.9399931782575 -10.3643556038291 -13.7249691939297
-193.619695610711 -46.0749284929056 -11.9265071333958
-26.5580425601865 -9.77230641908391 -12.0569478429615
-114.539841345209 19.6421701095432 0.0641749679864553
163.307142706684 8.79594272527041 -20.1695690009233
-184.316082463665 -24.8148280172882 -22.8635812296267
126.367128091949 17.2755868401259 -11.9321673707346
175.829844923197 -17.1328546830373 23.0817460552213
199.988831586212 12.5784719668414 24.1479001383198
-187.33299306219 24.1682289730459 -4.19073439641474
-107.444207946268 -9.50832576976398 -5.98482531828252
196.484677797302 -35.4158068613799 22.3999727485049
172.567803945537 24.993041725669 -14.3483507726049
144.60654668396 19.6049535519541 1.89528144498845
-180.707061842511 -0.372562769469595 2.08981000972515
169.252855319241 23.3024874244225 -14.8823432360017
-163.951882685615 -16.5644378746738 8.60342753553884
182.834589049226 -1.93438329230871 -17.9427291232528
-124.625902721189 -10.7882909216497 -5.69898400547495
-10.0508222757333 2.16630223046128 -22.8961676632146
-180.296845813633 27.9719909191424 6.61242093424906
-10.2163551569907 -2.00190238551715 -22.2713592110889
-145.789825681585 -17.2477131543942 4.62622978127446
-150.921404310637 0.269052679159302 -11.9173455554281
-151.964919381421 20.1038177509972 22.9076688926183
-41.6251595734629 19.2128476080394 -11.8317408977542
172.472701273689 23.7319596178932 -16.4026213272995
183.069955632207 11.5073808057651 31.843706028585
176.775596108768 29.4492201460619 16.7526699623134
-170.907654963499 4.4266646597566 -16.6445040541665
29.0659854976852 13.0676535414535 -21.0737282871969
-203.271111502335 -24.5671106614514 9.73056415619432
3.06588660004998 -5.58965684333946 -2.99155482872175
-177.125802571037 25.2884325500599 -9.74861455244157
-45.2899855633836 8.72460179143447 4.08920809498599
-141.098358529295 -14.1180032412573 -6.44965491107872
-96.8591422926531 8.9611491369579 -14.0344139375659
-88.8698068647265 5.40656395208252 -15.8028341658324
-199.829503500754 -19.6673509029794 10.7947033002891
-176.170415371813 -13.4301579829254 11.1846392637614
89.6265366747079 -4.55160050595156 -0.198745917670548
90.8152892700929 11.0598540376637 -21.3226867497537
29.8623817364002 17.3454219306811 -13.503487465097
-3.82668894584179 14.4001134202253 -20.3216757559226
152.615454450382 21.1699811309876 -5.72365162581211
206.692273516187 -8.3552993898128 8.59246770232869
10.0919877111461 4.39322438451772 2.27797279857476
179.888648332956 -26.3394393975557 29.7274203200912
-71.5454117323397 10.4362611176748 9.64027437288386
158.56337962552 12.5097927212424 14.5755534305496
-155.444867885448 -21.475980210245 0.0303968187970541
-112.4434316177 9.90589270804904 20.0140132072812
197.597014077775 31.7084654505564 18.9526685691974
-123.511918290293 -7.98921240211361 21.6600570814184
69.6863518529507 8.28849936183494 0.557055279281689
-174.207894420422 18.0566722274313 23.1012102192907
187.797175354756 26.7588268510773 -13.718585028989
-171.675953462249 31.6390548120623 3.26774272433659
44.6960276831457 15.5250309257828 -10.0331101240108
-171.915909669475 27.8132492753503 15.0080128539693
-18.5536784438868 15.1927907402563 -6.26894553071856
165.444650494469 22.1835960435809 -13.6126823508145
-18.6719714800317 18.8489741051784 -12.0927043400729
201.296811662034 -0.759681024105973 -6.74100151465527
-94.6881057303731 6.42133987223468 12.5382071792812
-37.3189270637056 -1.13226378214362 3.85765873905745
-68.9553906190211 7.54463133895784 9.95831736670083
-184.220399953172 26.0382217418988 5.6839960191939
194.459993026357 31.1335649321589 2.91126360880756
199.677909677006 -11.8161070583487 18.2063786940283
-184.193310910613 -5.77790439254919 -1.26570504013078
-197.718350782119 -46.8652109282826 2.18916653829324
-78.3467565568112 -5.74975393969769 -12.4423998561386
-45.4489913300489 2.64734245890126 6.38855391648682
-183.482811190755 25.1449479748645 17.335616274653
-94.3689927468872 -7.73608532830862 2.9310780745912
-163.618823870051 19.0706123187914 24.3248992087611
91.6011575468729 13.1715199327777 -19.7200487259293
-94.3278773657044 0.206434173564775 -14.5929699035879
208.744641083335 -30.4681300134709 9.4791239050113
-60.8687570144491 5.72032994682337 -19.0421824487457
-98.4912560141038 -0.104365014821776 -13.9313272929507
158.36948313832 -21.5965227120251 6.0154444998752
1.59642121924305 -3.85842134640133 -1.08864063394651
197.365598627928 -10.4821788545944 -18.5697077729617
-170.904635453266 -43.1632711965784 1.63286877331048
-145.878952207857 -3.8298535540228 21.0839175251112
203.975803856546 -33.9173291249561 20.2050050372108
165.308920326278 10.6469994229834 15.1479472582261
180.480236380869 -14.60884551321 26.0365142851136
-135.623782311148 -12.5881048652115 -7.48850763859099
197.915582812643 31.9549963779952 24.0258417160661
-173.345097856036 12.0697533465999 9.20730666622641
-8.75733278012395 -2.49013518373842 0.897173682771319
64.7588538126553 -8.13676592182034 -5.25487900625706
27.2657195540571 14.3362623907181 -7.37325992280349
-28.3900409804272 11.1431609968897 -20.8013621559748
-66.4420327317877 -4.99440051301899 1.51842662698245
165.058269681979 -11.9358336787534 -17.6500892351386
-16.2621472194304 0.828331960231885 4.8897166332535
158.923858926869 -8.85877948047227 8.85904032237774
-46.732223294928 5.6753907942711 7.89297236706985
210.545059424148 -15.6836407828619 15.6520738954389
-91.7130031069053 -4.94696069909411 6.29505672496745
25.9958824660454 14.3126770390423 -20.3811455127292
203.07676378199 -31.2900334195481 2.04545368399606
-123.066415539013 7.88306924646568 20.6847248680553
124.168447354282 -9.83882687856727 -19.1175359361933
173.691392609058 -15.9662386230357 15.0414663190521
47.3750855483766 15.9982572287626 -11.0699858075117
-201.929606539392 -43.99981701515 -0.612899220634156
-164.449096452202 4.93476900856227 19.3531492379876
135.462553231068 -17.3965176102958 -3.91717418684955
49.6719004758645 4.95696825766301 5.56393223584519
-144.772112573499 -0.429461196515314 -10.6668168356422
195.323311264845 30.3825317877175 1.65078832053448
-183.708783763471 19.9161500147644 20.022011704989
185.88092852757 -35.8067671979988 27.323637832064
-25.428813981159 -3.04422830751449 0.229095785988209
-117.231100070293 -8.79064888359597 10.3307119214441
169.07737094137 28.8103728574502 8.9963706501154
160.26458676264 23.796736128613 6.73239998772232
-137.03207185952 -7.91056750189642 -10.4129675673369
33.7890061719702 13.2764036908702 -21.1330387292203
210.363399231511 -20.5641451748873 -4.62628681119454
-159.899304645553 30.2241446412888 14.7310297625019
-183.154377657158 8.74484411792914 20.3513279107626
189.341582663253 9.43836268391957 30.2079140454935
-118.913511255133 13.5855349431696 23.1852773047134
-93.8498741635716 9.64587388792094 15.9922594437961
-100.456814304997 9.14369165254797 16.2199647273963
-175.106317863691 -32.3329432445463 15.5570537019129
30.4675183938345 -10.238860320703 -11.8852087509124
195.178062021748 -25.0062949374696 35.6559139263934
19.3324573509738 10.7843311750452 -22.1492826758783
211.143293346606 -21.3377963482694 -2.14710651613929
-108.570879074607 6.82958636551462 -12.9506272868805
-34.3744059855301 18.8065912728804 -14.0821615072886
-186.23962033986 -10.790978764784 1.7985325703649
101.705644467464 -4.6873363144676 0.327152459199043
-133.318889626933 22.6760007608925 12.1228829844719
-94.1523376336799 5.12914230291139 -15.0106390703642
164.162823932091 2.25156028100491 12.0018515123046
187.756570532824 -35.7305076805706 -2.0619372274555
15.6793725309678 -5.10404211506642 -21.7276044337114
-182.438338534933 9.00262443563453 -5.15634113900601
64.0441449127811 -6.09881004952851 -3.15347879369091
211.311390085596 -17.1561020377987 0.74525968041894
-191.272001748329 -41.9911397155283 14.589309677406
-171.709160111898 -40.9242230460604 7.59516695283541
-38.6352163500812 -1.0957863440295 3.32490413735375
141.327600644636 14.7154930117339 -17.792425701116
185.575721060819 -13.7728653890921 24.8247114918383
101.229055910874 11.5862663944129 2.02168024472425
101.769889368383 3.06285814747624 4.03501542887725
-198.714064922422 -13.4168640021823 -9.81739661461041
-142.554175619372 15.30405139147 -7.26572807397756
-176.666094635142 7.84326895151974 -15.7825111035527
197.685879366557 3.84893475992578 -11.5257417078291
-2.88012959509055 -6.52113430113241 -4.03615630509046
198.374766338016 -5.44726638855093 8.49559030914277
185.461432541521 28.1122875378086 31.3245756568288
7.44731745240346 10.9109191566538 -3.12009104644012
154.040630316507 19.4613369958627 -12.4294076372593
-170.888419275905 -25.0811393676133 8.7119564410878
-131.273699268603 17.5200242623554 -5.38181213492818
158.440080451704 -16.187557445822 -15.7848671216651
-27.7653185093839 -1.57454290110364 2.81901509379862
-193.163010079136 -48.3021968722114 7.40604380148609
66.4699120679385 11.5344762390309 -2.41659309608452
-196.37201730948 -35.2799772085538 -20.1994901563394
-202.669357391272 -18.0437266451345 5.31608365815402
-173.171049657896 29.1564167960456 -4.39750967627645
-196.284491232432 -20.1267704993038 -18.628754311885
-59.8347573728943 8.26964887185899 -18.7676857964783
162.230654488545 1.32867016622183 -18.7070981269212
-33.0292078007937 -1.10365671705254 4.72923754600627
-186.511200743315 -10.3692786436289 3.64848150445658
-100.234468960143 14.4342946137972 13.4813942755355
45.6626788595424 -10.862794549198 -14.5667071734382
124.595068671292 8.50859386127417 -21.2594891036866
194.545381771072 -1.02909098233073 -15.6434597029006
69.7825428544482 8.93147893841548 -22.2980502613205
-84.3731561105588 -7.66582131171034 0.937712393497682
185.285748456226 15.6614914591393 -24.6312731916101
-70.5003058983491 0.750424284571702 -17.7260056059476
-188.129861205795 -23.480967519476 17.779096805167
155.747359271333 20.5424234257075 8.54848906743673
-98.2057451539294 13.1723553812441 13.9314217022763
2.38459362127731 15.0867271129629 -20.0418607109714
53.2083077094808 15.4805864007987 -10.0995157230772
167.12706599351 3.22264298534392 13.4477623357508
193.467639791796 -11.8620901238767 29.040371270704
198.289111502879 4.81595447930014 16.4512564268367
-187.475602816569 -9.99674740746708 -3.99141669030242
-190.444721956091 -44.2700705651158 13.0262838252125
-49.4275643208711 -9.40806824470195 -5.76267137882938
-169.706212408644 31.616160124775 -0.0257823107239097
200.054727115195 -35.2534211627629 13.222121002205
-188.570741414651 -9.24709393920392 -4.74312179009943
19.59594095605 -3.9001663895593 -0.413697333550063
172.046754181753 -6.24989223664063 13.2193737111416
175.521179973845 -36.3146850031372 5.21091479107907
-157.264674971232 7.31782392198498 -11.3871871114713
-24.6950285259024 -1.07010997023744 4.20837833989112
-82.7294358812574 -6.26415691822176 2.55975333286462
-168.292548293137 17.8146788754307 24.0380424101676
-176.785516968247 -46.7680542280618 6.31167364131682
-136.645406310466 23.6200693749974 15.1939487300299
-131.700907324813 -17.4956078707504 14.8497210358935
203.69796788207 -33.8314170953549 18.02648166468
-67.724684464665 9.68792501344794 -17.4094801157863
-82.3265685877246 13.2026840139043 9.14008995096851
-90.8115527595975 -9.66837781612298 -3.84927791976383
-177.175352745568 -11.0043878906986 10.2643155663533
-48.4242594992095 3.52833789703653 6.94768003792126
48.7815380801879 2.12497159234297 -23.6005712911253
-26.4136926699544 19.0628214958179 -11.6402129417217
-50.1585074457718 11.6217726364106 -18.4852677752567
-174.473489189403 31.0704001502275 4.80618553294701
-152.689596786618 27.938829291125 17.4828537349663
-108.577409620048 -5.60684132764516 -10.7541595830575
-169.326437858006 4.55931495436994 -16.85244636685
-29.9151428092093 1.49480145038614 5.26131986030998
-183.232773593025 -48.4508138631857 8.90981174267433
-167.473191632003 23.0003743755975 21.2659472236867
122.202911042062 14.1218410675024 -17.7751397569958
-72.336555929057 18.9270215231457 -9.33298492908291
-164.534988363494 -5.79780711365757 -12.4978738173318
-164.087615969251 14.7393888897651 -10.5615092252328
193.663942856784 -36.5066772294718 2.51718590527527
199.536389494209 9.82436931059925 -10.9702350133466
-156.070205309523 23.3051501353114 21.4944205661733
-147.382012261373 -7.88402240811136 17.1423360984946
50.5642919080074 5.97191009641587 1.41643886966482
-186.281636220776 9.81157846515793 18.5423951296292
-26.9576705711207 4.35929983972198 5.24906843847611
199.792442554209 14.9589317453869 26.2512268797999
-39.3222637267977 5.60906093661401 6.44679284187159
165.750292702482 22.4611737814231 15.6764776517349
26.1203366327557 8.07488603631435 -1.24177417156466
-182.005071467979 9.97711148991886 -1.17614886137811
-70.3832390029549 -3.92136658260446 -15.4887132729071
-169.975405075898 -40.4359050416004 -7.39953273430072
193.720058747833 -5.70725037377991 9.08721552385571
90.1656056371211 9.62371659198936 1.7735788208397
-188.371700070646 15.2586267105843 4.95623596893464
-188.788211453717 14.6691910671725 8.47422030967192
-174.744892565138 27.1611817635131 -5.85987189939706
-164.345662875672 -22.1879839163628 5.98235907703074
191.428953639406 5.66405586476071 21.5163285379064
-63.7362169354382 17.9991134576288 -12.3372742370944
163.554570011494 -1.74358490864326 10.4867195466107
110.446710972937 16.8211633527433 -7.27015547149772
172.258643907995 30.7510590132414 5.35437163551686
-25.3788760043036 5.80383867388079 3.50166234441796
-37.0182560118842 16.2205743776066 -17.5200850243484
210.711769279023 -14.5918808735985 12.8917635505838
199.519188196146 -0.72689078953093 5.77802753226246
205.680332399216 -14.7153670280241 25.6611477690512
129.308337237184 -15.6033698411027 -14.3623144114748
212.047632001171 -24.7141195554954 18.4676946415991
-54.3975155118811 4.79559079501377 7.58827211686748
-118.294928475029 -6.26896823102078 17.2271867591599
195.231818294698 -35.7673353090933 2.82607284560473
172.947671802776 -33.7601569719435 11.5320585110291
187.479712754988 32.1231200740729 -1.13720540696158
163.812274837638 25.3456485497427 7.45461847280868
165.675861895667 18.0063434214981 -19.15149383927
-175.50183148151 -43.0607658387033 10.2336383654481
-137.476229183601 20.2413152978751 20.136904595357
174.755210697209 -17.7012533823668 18.4342842725697
172.785271520278 -2.53689891052532 -17.4789432550499
-73.1497254973004 15.4325195754131 -13.7219556803765
174.442469009224 6.01144000522997 18.1431529763699
-27.1833139817866 14.120510863438 -19.434436224841
130.383512542988 -0.196693719149909 4.70052992100879
189.437806439255 -8.07198089974986 -19.5788386272635
-96.1271267944086 12.3618582040637 13.5064258899018
54.1879451981517 -9.83033038132096 -8.11679692946502
166.029990726163 -7.10692657239549 9.71445587622071
85.8230190408624 2.88044261508175 -23.3477135012154
155.129538997439 -18.9240503128072 -13.3381458700908
-185.847022729271 -50.2208896308085 -8.39975930542623
-164.256646672101 32.6894372289223 1.401456362063
104.724365683122 15.2079823515026 -16.0492050778678
-124.610078493522 -13.1423545217918 18.9495219753198
-95.5951786092754 7.59196219320987 -14.5480619013024
-132.195258412709 -13.3903460864433 -0.105340067131934
197.929571808893 6.55696122725603 20.6623846850911
-16.6990270795151 17.0911695134363 -8.45612693428351
-163.051051336146 -23.9051256356564 -7.14283740015291
-199.397023647478 -45.6492572883112 3.50531499289175
176.187064706044 -27.5048421975348 18.0608523485484
-139.935527890802 8.38006450198794 23.0737644094717
-183.526831171053 -51.816074887003 0.794183665668916
-77.8926721738966 -8.06643212226692 -10.4086302476672
-143.293525421649 -3.67974820683199 -10.4534727107767
141.941725438388 -10.5646849239172 -18.518085689216
-23.1052553715768 9.27503725283537 -21.5654754803904
-207.175223613067 -32.4875741763049 -7.33076180474522
196.637994530583 13.6718611439053 29.1445805699126
-64.7553656381875 -1.29854317199917 5.36484350307122
-133.915871134071 -11.3237958038061 -8.16788783486143
174.203401112859 33.5106540277829 9.94113981309005
196.787442199585 -9.07512710034956 -18.4668057106423
113.432848626557 5.11737746412515 5.04214301543227
-88.1551024324479 12.3126472687648 -13.5706922821478
198.633389138945 31.2226383488148 7.66094970279506
183.938787925279 -16.004094834195 30.7512539521293
-35.0990236591706 18.8881361233052 -9.53798415116801
-54.5434102332974 17.5614860792854 -14.1200002034354
157.290073176966 15.8560159927098 -18.2810098665652
190.852888070391 -9.71189090638908 14.3408656492136
134.952290190262 17.2725429615935 -13.5074845475312
147.281736642951 -20.5231620542887 -4.01188526560926
63.3841863631509 -11.0167545959927 -16.5848141126069
169.411252851061 20.1945346489247 22.4503269359986
121.748366624084 15.9247113536044 -15.0815585606148
-143.167188313389 -14.2321760692559 15.7772959343831
161.471494517774 -13.8331601861549 10.1335657911685
-194.073025290304 -48.7705809251332 4.46991430863432
-42.1066077009479 9.29342051569128 -20.1587572730847
-163.49949608063 32.4572164289983 8.20807148314053
149.932865629351 -11.6781906253937 -17.9097654012736
-128.715519550426 -12.4440013089066 -3.83260217437617
125.109437844371 1.48141357712584 4.63445267248954
-179.414183512894 12.7584305514189 23.1013900936619
149.974096530436 -18.0164999866381 2.8870278451768
-40.6394206824089 4.561789650608 6.61512569844037
-103.65457271218 19.7427376053724 -0.726658267990705
189.42731069878 20.5005479136165 -23.2106187943545
65.7468968475713 4.63043606734759 4.24864206675744
181.06871722131 31.6659244790285 16.8429988154457
-79.4310447772697 15.7206945325253 -12.4774917024882
-104.164288421558 17.5706925277485 10.5962193857344
-199.215740224514 -46.0065932254877 1.61356881144255
120.669178225721 3.5199195289387 -22.1895997714039
10.9196007840511 -1.79916919453482 -23.0334758594101
92.1834924767429 15.6112662619557 -6.18906207642295
139.024781096198 16.3180550249698 -15.6981172843749
-160.737996140979 -19.4579694907808 -8.889626112382
-13.6672411583446 -9.51648314788429 -13.7379695071294
-84.7308199284393 8.18673058099124 -15.7689187611371
-115.12736719416 -8.80722526061393 8.32793512815404
-186.201300476152 -13.4491638168963 -16.8199232086428
-31.9566353772054 1.62202943028552 5.29481317809555
-113.14487771225 15.3455041834347 -8.14767632726642
31.8043683864346 -4.32846187639972 -22.2932381239038
-181.54827592431 -0.972745670548787 -0.632713091145258
-184.090895786913 -29.6573060725373 18.6460725576459
-19.4146583388499 13.8050595192213 -4.37824845011732
-179.68675402492 -14.1707299972126 -16.754510866454
-200.590334151675 -45.0716395157859 -2.02242103343123
-163.076687333085 -5.53446533472697 11.9219046726093
-184.40828969646 -18.8497792090643 15.6610086029816
177.132227442461 0.794409425891445 16.8978845053921
178.010297164988 -25.376099325564 -14.4795231462039
-205.478157264678 -29.3662726393362 -11.9524833432016
-167.928575419418 8.06761778477211 -15.2584998448189
-157.82048524852 -9.06688260023226 -11.1619295833273
-12.8986235974802 -2.77371534226138 -21.8246768361238
199.352755282047 -7.41868534983695 -15.973712313751
-116.349397691252 -7.19937584229332 -9.14304697378329
75.762675287707 -11.8328430736302 -10.7987809795599
139.034417033862 -6.89663015434415 4.07517565462512
-127.751762111566 18.5424939048687 -3.32318432122426
-105.239822998337 13.0551634652162 17.0679422880295
-117.00325923032 18.3601599193699 18.7187326417715
184.346468370938 -35.0575245341024 26.0486298300304
-114.138718226491 0.694146922537201 16.9873136899112
-183.132086606071 -26.6172655072961 -22.9992410509103
-97.5708835366961 -5.3233230781881 7.60912010864583
-190.954796005726 -16.1888750703926 13.189639448015
-32.5489457342086 16.1557692146545 -17.9238193996777
-33.5174640252095 8.26064906200365 -21.0571665933014
-178.093140784896 -0.376746565747613 -12.6138993577735
180.880726882509 29.7315617152555 -8.00538840992295
-126.041848589561 12.9886932175291 21.9752786908414
-109.172607458735 18.0262316131843 -4.94562198131965
15.2870079966152 1.13259766165154 4.24577646703187
-81.4247475693988 -7.71445113903148 0.380238182919833
-36.545222937709 0.379288322883837 -21.1833606798336
-70.1248787556567 6.56343599785433 9.0355500061837
-9.64419399205851 4.88257683832447 2.81418590169979
156.535405740465 18.02011715111 -15.7705280297989
-39.4221886580162 12.6565236396599 -19.2365317194042
75.0209948897232 2.95415191926757 3.84920250704894
-147.353594190967 -9.29205729868141 -11.0361550453151
155.518838904019 6.74963191289507 10.9759642486629
160.768168807983 -24.892108021058 3.77227405964856
93.4289182461575 -12.743107296043 -8.71393482026994
188.857108398133 -1.80460782470466 13.4528461864512
170.560066859317 -2.41614454395918 -17.6465607060009
162.587473177027 -3.01613587984648 -18.2262182536941
176.788051311887 28.8846593534497 -8.5896025219191
-149.220144649571 9.8473928543982 25.0609180378949
80.1327038608746 -12.1735785873264 -14.6889540968365
-161.043264156684 22.8289563336906 -9.24588041261625
-62.935171163216 19.5410599992981 -8.60708460504536
4.3786906527127 16.9939724702886 -10.5070420758313
174.848025967099 0.419350388344288 -17.6988877358587
-8.834102142159 14.8808327066713 -6.57843019878895
-117.023266703052 14.9449464166605 22.3650963714766
162.939168035729 -24.7916054230431 -8.45101334638975
-24.982481512889 17.0959240484137 -17.5821391472793
63.9264471487068 -10.9021242819622 -9.78892147955011
0.441057575191188 -2.63377424806645 0.696939553415719
185.055410713396 -37.5243487064404 0.621752447831405
-39.998579454987 17.0686717795535 -4.96100506040571
157.603247975816 -2.01571402174404 8.38822530992328
173.288584917246 1.83593292902337 -18.0354468180567
-35.3042515297574 -3.26974634496963 -20.0135842306057
181.582762455808 0.577620749065557 17.1074443318362
-169.96383307208 -34.2472867478787 5.52641651678812
24.7578170783426 -3.56942592873318 2.02864756971587
96.5027439640844 13.7491551299357 -18.9200072367671
-44.5522801757544 18.2013110619413 -14.4524710983777
166.195999033636 -8.42546514234288 10.7999822562416
197.110333660427 -2.30729418183959 -13.8532353934871
188.782972206782 10.5548197676855 -21.7712122840226
204.812144730322 -9.7049932779213 14.6248222795262
18.9470067438017 6.30244592236617 0.431081204153555
-123.371455056429 16.6677676929937 -6.04225839116963
-26.5174574620153 11.7321347471213 -1.18798534066664
-26.0574889536609 18.1520048082943 -9.11751207544719
177.949706856681 30.8235574605764 15.0804602227779
116.844457840898 -11.1804405839754 -18.4217712760074
45.4895486563047 16.7705922128488 -16.2777416738103
-170.896270359995 -42.6896220886426 -6.4862264459581
-27.6618832757593 0.964659934955335 4.93199876845353
-189.066639867198 -9.88390868995789 -10.2509402664985
178.504186856664 29.9032299182451 18.8809226340788
27.5068184795866 4.5792732578016 1.790184643745
83.2550843727945 -12.2126977370342 -15.0515349250852
-185.257605388684 13.5795701909665 -8.33430135507568
