-196.43750232247 -3.55496819802568 15.4163469304275
-186.394181912211 16.7519682725664 -4.14265535225369
206.05567761183 40.6169352989854 -25.5561369790445
106.589794874411 13.2876347465193 7.07768253719453
186.139564370916 -31.2921599695707 -15.5921861100142
-198.344303199756 0.521349121571353 16.39427743538
-81.3785639890257 -2.76964328945805 -10.1002840250785
206.995061556017 -36.3055594367151 2.49981069401652
74.0595650934112 11.1502834536741 10.8681548471709
-172.934654216314 21.3892554488454 -12.1591832439699
-164.093085518084 22.5278420507446 -3.79663169308439
184.023653760578 35.7421875199974 -14.40792005443
-219.274750947013 44.8311335798105 7.89733045555034
221.787196773872 -19.9497240387204 16.5424776600307
101.290575468648 9.57106462380171 0.177369862877945
-71.2115848621364 3.82031876044516 -1.489428320136
113.285611792556 -6.17511951533461 22.7616914987045
-200.027518142096 31.1880813612831 5.91010276021258
-162.009660798046 -6.54962211947948 -23.5353534689551
227.857366473067 34.4698002351265 -4.13689751295718
178.833805352002 -3.75916008464716 25.3085417286522
175.394802241236 14.6205914935136 -15.2759031673223
91.9779490938074 9.96690855920631 2.38398719595126
177.734173194567 3.22784800638003 -11.2843136254714
-108.979837683758 4.40436632513015 -6.51850025465534
170.00462323423 18.9154121298365 -10.5117877762643
-176.4494517251 -32.0670762219401 -8.80277871309672
77.6751166212374 -11.0484474805864 21.8231228799438
124.012385984646 -1.06524575881649 -6.1577031789955
214.515523480585 33.8149870407646 6.91211691351701
-164.605547227404 6.28440762591129 9.53068724989018
-79.641757285247 -15.5940247901001 16.8857184935353
142.1734504148 9.73135865803476 18.504475627677
22.8740606051045 -18.7141054180606 7.32514514100854
-194.365865831918 -7.61940873188846 15.774358984429
203.334070939265 1.96739880077407 -14.9433104693692
128.093925083475 -12.9102141876954 19.6737008856366
167.470765223793 18.5507855200935 -9.43397897880442
-106.556250601015 -9.45475635947339 -14.7603394177837
-215.819506171728 -11.5030118305619 -23.4857575060487
-156.788702930404 0.142155401550467 9.94711169630389
56.4143499753033 -14.2105482608736 2.88367068332472
206.318053951934 -39.2072301084747 -2.99275658127831
39.3407228311077 -19.5453488981134 10.6927385801921
-122.372659258298 -2.47939715707456 -14.8197821804336
152.597436952382 -18.7064856864579 1.4319965103487
184.133758629749 15.5774763105563 19.9761869738073
148.526317671941 8.38030380268104 19.2932912537071
206.472169528096 9.83926601915959 -18.1435679132044
189.870960806352 1.9634748798141 23.0499218633807
224.671847780174 -33.364191773984 -22.2564248040335
204.040429790094 31.7959722137154 9.9150814216418
168.372050757237 -18.9328913735063 18.8343566509751
-214.911832174759 -11.2646426502384 -7.9577568692279
-225.460827202494 12.2937247616486 -8.57949297863529
215.035179393392 40.6706895982009 -7.55367943016271
117.074696491865 -7.12793645653445 -5.20660826158653
-182.261657527168 6.7676395377622 -17.1442665112682
-190.126461371109 5.90862769404257 13.8252794917331
219.930799249738 -8.91766289896789 -11.5893122026843
-188.894296222268 21.1204432212086 4.79455678971209
-184.503150726722 17.6044409344935 -3.09961651523029
180.78647769282 24.9485793600687 8.62400425700814
175.312039137894 26.3949804092066 -2.57896330752856
210.881947661545 -29.2565338704487 17.1930673342073
-37.6015811277679 0.592511074495562 -6.16126301504518
-205.295369380498 8.82671603628277 19.9988274540262
-66.4772129310177 -2.57936049262106 18.2024840041819
-128.869669939751 -7.37372214956417 -17.4693214977883
-137.504028931425 -20.5540801797784 -5.7314657743134
197.090292304174 -1.61577146847414 28.2391882927883
-51.5753225322204 -21.3387131613053 12.2785385297637
92.3787956548504 7.24288427791172 19.8749194370719
-191.433316569292 -16.2554532814824 12.1963984903834
-163.789794312707 -21.6676867444857 2.46005656555462
223.759350798037 -18.8928436872577 -20.3038511494183
-207.920646615037 17.3208469194391 28.0329992232079
-175.644067191532 -23.5691212508495 2.75071997543735
-178.944653850406 7.06364682127636 -18.9659949853108
-7.9377825067591 -15.066898382419 2.16042661589748
149.988775400959 5.78346549744896 -7.44775055900186
-207.907275826113 -4.88096128765604 -0.214976164643727
-99.5736503725366 5.7494024321932 -1.57652242478949
161.04640239563 -17.8043288660607 -5.5345494668052
-156.440108455939 -10.1684319003478 8.51538917561306
-130.536415377935 -19.2910911386866 4.883937302395
178.613357626547 -23.3543790520399 17.9021443062975
149.050261511585 15.5431815076447 -2.72309107852858
-224.160846103761 37.4500147878682 15.4043295962446
182.540601477783 -7.79575264073504 28.4113556046541
-16.2113080854942 -17.5792618905445 4.18174595581911
-188.961645443962 0.52444230629534 13.811869914092
-201.81613738168 31.2936848388593 22.7923963753461
-21.1937724591784 -19.2824298464673 5.95248150610754
-200.836695012019 -19.4191187255972 14.4622501971543
-228.265740421585 31.50915263823 -9.04041982319035
125.304733786238 -9.81898014509793 21.5222131934425
-211.054310318046 -25.639652296996 -7.2961137687905
-236.852356170097 35.9490904123937 9.74210476521137
-154.780094950562 -22.5532470909165 0.0336567646108744
208.685696402364 -38.7197623693924 -1.55907367989327
130.953208680059 -15.7914976738665 16.7340500207535
162.139447692296 -20.1707151247927 7.11267397154675
206.502662963938 37.8795266275348 -32.5383261928431
-148.324112446814 2.8299885346283 -18.4377384858279
-147.579691780553 13.7161800423422 -11.9805125726236
-90.9406573967271 -14.0767722171198 15.9246334428885
-162.968454341438 -18.4400918007371 -20.2799049720378
-28.9310185558638 -16.2561955306688 20.3885959576631
204.167050940195 -7.556051442906 -21.4765973077605
-168.9545605189 -24.8233671523869 0.706631920212844
150.277997234753 16.6394612377487 12.2583683681745
-173.379993775945 7.1242024612269 11.8702414873711
208.626481323696 37.6774067698253 -32.8573154826628
188.327558828938 -27.5576831113631 17.8443771790899
66.4926139403531 -9.44312064437686 -0.755143551237678
199.591138473528 -40.6611081112223 -8.82101973927989
196.494661984579 -9.82993492226873 -23.8026501771959
126.954253304011 -18.1442336602975 7.07498169285879
-77.9356193815135 -20.7804722279493 4.08854481979104
103.703390039859 -0.131991893418838 -4.76776680807578
164.365513632247 -20.5251610655539 -2.101011988931
-201.966205211995 34.22773002337 21.5621589906818
176.17149735003 -16.8336852428009 26.6131279205378
-154.651788333819 -22.3390924357183 -9.71465768415816
218.760105343249 -37.5398347831213 -10.1947244834188
-134.495613903733 4.58247788261547 -13.8518019057334
-166.565000224959 17.970978656261 -18.4045601649652
227.900778224041 36.2287959181869 -17.6013518018007
202.477194849901 -6.96317788498788 -20.1651526656805
157.835098057532 -11.8215044253832 22.8556500854562
214.08438307915 -7.28867190486742 -10.3118602704739
190.065745136842 -23.2039094563467 28.1989745377344
88.0134273257624 12.179626969492 9.59322986692207
-210.190938804513 -21.9315891418709 6.25794252572036
200.771997772684 3.97421229479904 24.2434525523854
-177.167083391125 12.809782737439 7.33876253452706
175.083578237595 -24.7550100248674 -3.6613083348983
-238.98779875925 20.8340611268646 2.43482819028954
-83.7114704038198 -9.53506552967301 -11.4316947290094
215.285457332214 -8.48231475632173 -16.9410192878662
-234.38080289741 10.5045162544661 2.12012958212143
209.10981166651 2.42928987502504 20.0977413154962
193.440629502675 -33.2876740633994 5.19378931287198
97.5094849765671 12.5318506460979 13.3387379809567
-199.875150394611 25.2942018126917 -0.304973766932967
-220.494461191405 4.56635171356601 4.01653822272389
220.123941412256 -37.0746433593788 -6.30742579988124
-200.557602229022 31.5826428750312 20.8793436757529
-73.8969403905127 -10.7164206513983 18.9561391205375
-183.98415455084 -18.5647502029055 -29.8860887284344
-173.055520742303 -7.12943600855624 9.88459252047528
-169.6999119089 23.4420800301765 -12.3231060876331
223.034693412035 -10.9462038080359 1.23704087158841
-234.149651302845 18.5846788480241 24.017814837985
-120.15610113121 -17.3231487157247 -9.34476776105715
213.801038250788 -10.7477960478638 -24.11068961593
-185.348198724976 -34.223209801706 -18.9747798003556
-53.3323940768016 4.7142959759634 3.57144422001724
25.3647196126765 2.89306585538439 21.1385001395511
216.855268022302 9.83858546280497 -31.7779051838673
178.862507209784 1.55104888174723 -11.1298358500333
-49.887580444518 -1.5342505251423 -7.53996911341309
216.958158359298 -8.02516205315601 17.6383148535709
-224.861399267391 15.404592231555 -10.2269658968873
223.20118998027 34.4810731564574 3.4261467337234
10.5179968495557 6.1832595648762 15.4120044244347
222.724912108749 19.3680388699908 -33.2931483460659
-179.220366923166 2.82118710104921 13.4597884487014
203.736555138753 11.3808899181985 -22.5891433550309
-91.7381252316341 -19.9950868500466 0.514857919577909
43.2360986344835 7.90653896394461 7.42189167237226
212.652072827589 -28.5497031290025 -31.9062682732074
211.940974074249 -13.8507861824401 28.3474708551446
151.69636338469 -18.8394762062439 9.92948046806234
105.644187865863 8.92688492832883 -1.27016072762837
203.851876540357 11.9344642625578 -23.7155451524069
188.046159010842 25.4086259176044 13.3254137510168
25.3190529469394 -20.0730132355659 12.9766791392375
201.85808237347 -26.3404320914409 27.3592807408344
-202.421662191126 8.20773494406275 18.5341193888001
187.200572144287 22.4728904003244 -22.6278905054996
-215.264639690302 22.8288157529242 31.2420472618921
-177.367982994203 -19.9598471925038 -28.5144797535054
-5.0916317272589 -0.0262716145398375 -6.52012469829112
112.83708690526 -11.2547285747664 -2.47222059967764
-206.797947800879 27.7722946441718 -9.98260393004881
76.2867852645221 9.95149871775472 5.45137769959218
141.350095021283 0.944881131073998 -7.14560631689438
216.540841069586 -8.19794681504505 -8.76302613709849
192.85991708654 10.8326741955626 -22.0114850462079
187.201397243266 -8.07906041162595 -14.5964980493964
-188.535367960155 2.54945619281895 -22.8215030181355
201.707797374867 36.2995756911513 -36.575584768423
-175.369424375099 -30.5626342316357 -15.4279751697379
-211.331942105799 -25.8621422922625 -4.01434425330664
-135.962509633179 -12.3348040569601 9.57784130420057
-209.094741904305 -4.86019532244505 11.7044916606507
-218.882165405444 -1.99506731090562 -19.2855600135796
-78.4663281989991 -0.200922402436671 15.8422252256816
101.155653106332 12.9862320726105 12.7601085379205
216.771435153567 -38.6555448541924 -24.8289550784328
-176.254679225687 15.7090712824731 3.73442937867336
-215.304555758636 0.725765027618856 15.4450475378662
138.737008294187 9.10984419317828 -5.50591460712752
-190.549306099921 -15.0128600731615 13.6840372926533
-104.514927510963 -18.2796416907226 10.531213981501
-195.846596767175 -8.97596178273358 -11.8952046174458
-198.765726670682 -8.88225019902758 -20.9327971514679
179.51349282931 2.90802768688275 -11.655643317298
-206.122804744269 -3.95242309693077 -18.2489687189923
-64.3103085780758 0.606594282491916 -6.14970024375145
177.164781066689 -3.4763114287162 25.0303388525297
-140.231193722376 8.09870918906771 -13.091687360555
225.827260305046 20.6378300779552 8.32578233876287
-56.6632279917954 3.15760431880511 13.995394285507
-37.5843570739149 -1.63836200219531 -7.7359651762614
-201.188751724814 37.3501771440742 0.593782200346623
-158.9250596365 24.8222400346082 -11.4800816439367
-106.823030638526 -3.67117505112884 -13.1735852521001
216.541037748163 5.37322282039257 -7.3495635860948
-220.629286058284 9.42736975355305 -7.31348561508773
184.488431979892 -8.0319356455093 -13.2938527060582
16.9338183168982 -7.51242167491842 -2.16744356395426
-195.724218562719 -12.141572615998 -30.6497791291766
161.59527401931 -5.92900451158228 -8.69994088312773
73.6204644832552 9.24191355135705 4.53026654343153
23.7616636988578 -3.21029104209669 23.6185991304964
155.847273367097 -7.00031583686468 -7.92169101859409
204.044948331107 10.9115288184786 -20.9821936383914
166.091779746087 21.6822367654615 -5.47914237680908
50.2576305991892 -11.7049649942457 1.019300316025
-92.7031657594454 -9.52226494288626 -12.8328964276775
224.927484253352 29.1098650521437 8.79648189246084
-196.744867181047 -9.23182288888412 -20.5381569601096
190.758757176124 42.4650929190748 -10.5125548142267
43.8541883717909 -7.69242447385026 23.4665443436227
209.688241349318 10.5091994326478 -30.4038950487288
-42.1763424535376 -7.18902322841096 -6.76154874974325
176.424072580512 18.2379627376571 -14.2093853422052
46.4194232286215 -15.827727085826 19.6960046785907
-178.541218192523 14.3630004319004 -9.81643934891202
-212.809019474671 14.8476754267724 -11.0873876131378
175.792838749612 -3.10208495691166 -10.5658474321667
139.647716225923 -16.7504844220358 0.233986775491189
-122.987042845756 3.20225378782017 -11.8431412526704
-192.679306126923 21.5817550854708 1.46537681063943
205.632498603531 -30.1269374452843 16.2043471628645
191.947123366152 7.39148004054877 21.6032978856467
-147.558760585553 10.6164087341716 -0.206871322849087
217.393701414227 -5.55084673798053 12.9524667455667
-170.046689020819 14.1043501308083 3.4701101352376
-146.711765650858 -19.3587581520798 -12.6370101779081
224.264484903837 -37.7009636770134 -17.9943367842417
226.005519806249 -18.9100168506221 -4.29469153906497
197.43067188224 -36.9980600050203 -19.1030864642205
148.266960753114 12.0322766615879 17.2396920293798
218.213513243889 -32.5613893993506 5.0216880805557
173.788450855187 -20.9157666682564 19.1784323013064
-57.2938547491506 -10.8778136698066 20.7258027561616
-197.935296139064 -5.64452731621038 15.2634511428418
-128.038215757185 -18.5585725078421 6.03768536792042
216.564569460097 -16.7451040849994 24.3338398913853
146.276440654362 -13.1034589534864 20.7556755487834
-154.301736760783 -3.40955697695628 10.3040287762923
-173.614144209022 -23.496573630346 2.43905427285233
-208.872635555888 25.5524442088546 -11.3992673729672
-160.34694701303 6.59764636668537 -20.734321882713
196.141793781606 20.6208364032556 21.0091451311137
158.941245901505 -7.49612175271538 23.9360076680875
-93.2175567363586 -5.0375218456974 -12.7308526706004
-126.965415320683 -19.4476406442897 -6.55008405730974
160.774220359242 8.97961308314125 19.4133517861084
171.93883949962 -22.6250441738771 6.07844159168924
-223.056135323546 38.5516677939933 13.2073147226232
-199.147227047059 17.9550586202684 18.0682479343251
147.050892034426 -18.8100452615302 7.20880682736704
-205.834124231443 -0.346356603489397 -3.36322064708567
-215.918236070096 -8.53369079916561 -24.7475623125301
-150.948634522842 0.477389420107826 9.89897265959583
-222.000760851434 45.5210849286711 17.6754144352565
-139.124390980146 -17.8773667846932 5.50941670998711
-169.827799168733 -23.5461349780143 1.82615852612008
-142.43445397685 6.20450796763985 6.46815028531536
-196.562667798886 0.726626583561442 15.8022731010625
228.905699386782 31.2398552078802 0.0284651170286446
36.3628176701893 -19.0410763906196 8.4930548464117
-172.214728194533 4.37246422059616 12.3678368974851
-44.5354696950997 1.98934191301009 -4.3586343767982
167.899294089626 5.56301715765328 -9.86887894817264
-176.695613833218 -30.8273598729876 -20.0236743691259
-212.073132235952 43.9347420266674 19.5656827398887
-224.515022361369 37.3818473250475 9.76601062286838
-201.039414976877 11.972088681268 19.1115689867826
-172.485483801312 -14.5588111396473 6.8885340145004
-46.9136589172853 -6.1214987633179 21.1893283160273
219.027113256217 25.4038885815588 16.2142739118245
195.85916290779 -29.4429413020152 18.2264763899384
-109.575711265407 5.08662083089233 7.97286362446202
187.377908870893 -6.86213078584147 28.6359717208133
-138.822006464814 6.41567553455528 6.12398532785298
183.866909477689 -25.3669905356283 19.0011279486065
-215.447162556535 -0.0544745093393146 -24.1742537682617
194.141043689099 20.516673055361 21.2263411904314
-185.548867249461 -27.6029601172341 -25.4012022897191
-142.34428306326 -19.7086759099245 -10.1299775911213
1.73554361330719 3.49630899394533 0.346085075110087
158.970239878031 -19.4141787964119 -0.245647513247529
-225.618671660639 42.6375893630619 21.4627020415143
199.656572859804 16.2279233592259 24.4420189763794
38.5957382754639 -8.66033105624397 23.2952523800141
-174.333197762819 -30.0151408624346 -13.5497234979582
-174.654356351236 15.1880668427168 -14.4740147357322
207.124341984838 1.92306435466996 21.6712141118756
227.041950478009 29.2112238227547 5.38910393270774
-201.983696736078 -14.9347538658966 13.6849073887419
-25.1594712233965 -16.033060314264 20.6407864483245
192.256497598613 35.1587771049008 -26.7351622033479
-13.7574217795096 1.66372904260285 -5.45989751486638
188.800972225485 -18.1312022409975 -25.4886857133267
-110.121204997274 -7.54039992793194 14.7043608551413
187.276346779711 39.9506570916428 -13.2895710247287
189.070239900956 -15.5513495530141 -24.6785268660421
-59.7016324520226 3.62138834707312 -0.904457975023326
176.931425221507 17.4828985263559 16.3632122588686
204.713986714737 12.4647821574857 -29.614465445522
-72.5462461619814 3.67972578617621 11.6598762700716
108.724479252519 -17.3287906473664 5.48777374508484
-22.5315232596633 -11.7025693221651 22.8370136308261
-181.286212619193 -29.1585646358655 -24.5962379158469
186.836816196823 25.6319252932904 -21.8207533518857
5.28545326135035 6.36123879914585 13.5623437691313
166.828132843454 22.689107693296 1.30507733589208
202.33366559011 -29.0325146316133 -31.9432474360576
6.29365635993033 -2.91465206495371 23.1344320643545
-205.590191918978 -15.3313002743663 -28.4404274986395
-184.721899028307 -8.54347857586794 13.5675750620317
223.418710331513 -32.9548981410242 -24.1183713281516
-177.852893319321 -11.6457059479305 9.37080705521294
-181.221148234629 -25.3629657865562 2.91740980726692
-162.913804947695 7.56784627197808 -21.0959399418853
216.687150604405 9.09074121647623 -13.1220376944119
-100.307768965567 -6.11418679042502 15.7442611648402
216.183060198147 -36.6865747517937 -8.16584008199098
-220.656237891543 44.7910611262096 13.9961404571999
187.443626139126 -15.69555821579 -19.9087193701627
-208.748750867584 9.21303885847608 20.3758225669901
-203.026546327727 -30.3196740131988 -4.35844680708619
215.713496976546 18.1893025881699 21.2501362227743
191.454725255041 -27.6802146283957 20.4322019139304
223.994175124603 -12.9631617599262 -0.234656514743746
131.538281254792 -0.90238426727858 22.7822939037235
219.477175776703 2.90960590910833 -0.360282567804276
68.7096178118056 -3.06138069582558 23.1991109544974
-185.489435660103 -2.52418276662207 -30.5128687726846
-39.3187028806828 4.7206378825677 4.95306415982069
-181.812080318393 6.2154909752562 12.7410670493663
-204.549913741105 37.455992576152 -3.63023134937079
148.654033291373 4.21555194058999 21.0632221401369
-166.029965690548 24.5356833192983 -10.1531201540096
-32.848345784919 -11.2653044213297 -2.59717979650791
8.84193252145101 -20.4959652643743 10.6239377904101
228.167530624385 -27.6279300063821 -12.7291329358271
209.224325105951 33.4028291102368 -40.7089839162491
188.30446926208 0.540101952099318 -14.3021779417702
-203.716525980691 -5.76335308391731 -29.1282947273116
139.613543864381 -18.5218792614254 7.21237729567105
180.225864338031 19.431838956073 15.9707114186594
178.533757934888 -5.26083918143703 26.4014162476399
-102.838146049805 -6.7361809911604 15.5566927545123
92.5165609314087 -1.36013551703842 22.9657883944775
-56.3935015671764 -19.5014211520252 2.99595380148892
-172.996652469646 15.0011892530763 -16.4202016023584
-187.995489818212 -31.7832358541249 -21.398089280103
-177.387713968773 -24.0248617777638 -26.9686551663563
-159.275145286424 -5.77473354814202 9.69213937498511
62.4815021853739 10.1833782557035 11.8127265600097
30.2680351169362 3.11821905779557 -1.73010409189913
28.0504495241788 -14.8365178063519 21.0090722951529
186.862344715823 8.29170541325028 -15.8864590869611
-203.420914451482 -20.7656364011875 -27.3267492519673
181.064080706135 12.4374230259693 -16.6329127728227
-111.147376637617 -10.6324762132132 -14.5488545479395
220.007924419403 -6.5795819913097 6.83294226722272
-75.9018552260132 4.89450163355599 8.28588341278822
198.68064003927 42.2585383246642 -5.06656981487458
-227.567669660582 36.7340857227767 13.4029896579757
210.731201340685 5.62001180159038 -9.75962505234997
-194.227016157255 2.23281837724231 15.255056064217
98.2209836927288 -7.73014948826546 -3.24262614235702
-203.040461767425 -24.861147295799 8.45464096835542
-214.451527412233 45.2914308714891 1.32290025502866
141.042084928657 -15.8624725056962 -1.39468535464996
0.879462503441137 -20.3066933455817 9.19096352861777
-218.039769922843 7.91959711737574 -0.805831566618866
-182.706277748221 -37.0913187228638 -11.8834370616614
90.8615297362725 11.2036703700988 5.08524615562472
191.164091227159 12.2472786805611 -26.0760014612578
-198.893606059592 30.1744763883946 16.9279882447158
-64.037308048451 -10.0505652402936 -7.61886238868451
129.849659058657 -15.4935724300487 -0.179903923883301
219.285208757396 38.575566405158 -26.4113249881564
71.5188983902825 -7.02683027076564 -2.44109151836127
102.139718151067 10.0600716052469 17.66204085083
190.616804244801 28.0378560614308 -28.8154868002887
-232.917647197094 29.1417114009814 25.3612375860505
-28.8115090058276 -13.9803669310289 21.8819119772686
-213.946256261184 -3.64901123800859 -26.8375622634155
202.427521355241 -24.3319959406628 30.772941081587
-206.001707712141 -6.35329820228106 -14.0104181592089
132.652671226373 7.27674279455569 -5.42850473062475
189.763983033022 10.7224688645137 22.187047315256
-160.072830277462 3.98387180623516 9.20543285904789
-202.21489075503 20.0495694670896 21.2211595829992
168.029718114058 22.109009012007 -6.9276091664055
-86.8525298646033 -11.4006455525953 17.2543429476689
-155.562692290838 20.1746107454482 -5.83455422313842
179.593006677584 9.70678958537069 -14.9952185146858
186.655524498469 -27.9482356419565 12.7151546213634
207.483013256761 1.37900409740625 -8.45362004153234
225.195158616622 -17.9115271901772 6.39151604027417
-146.202495844301 -12.7852550593824 -18.9192545593983
-218.768442289481 11.7635735601477 27.8232522070043
-128.969181649005 5.17793514076137 7.48179499351243
171.025396484274 24.4614370386924 -2.15011047697718
188.015249847443 10.7265882337598 21.5722764194694
223.278152731564 36.8040701389138 -4.60456869861622
-212.401757199963 -1.82660264866127 10.7718450995415
190.908204880206 -1.68515367004385 -16.2599210305695
225.78505811161 33.9428945761243 -30.066671927508
-203.026064379425 -14.0090845903208 12.9460486532875
-131.9321913077 9.23371170157997 -7.20303628112613
155.825669054025 -19.4425654006469 4.88640202301012
-26.7791601543794 -21.0970574780888 9.42727220311137
211.792321737729 39.4585521976683 -1.43444533650751
87.9863915526161 11.4591158502499 6.47689578254496
-205.173486534394 33.0942375291556 25.303587649349
-233.124708821435 18.1874476709082 -5.93459251552479
123.354230423219 4.61508125003243 -5.51281974812977
202.641911754144 20.0609580948033 23.729386742921
-218.7384163907 -15.8223260780668 -9.2034887842013
208.576512468496 -29.384092084101 17.545271616007
23.7269578707935 6.32842769938759 6.41347280903932
222.167660629053 37.8384052778769 -26.2290134130171
228.106617878802 -25.9169745615917 -11.1298212291258
-140.355571263829 -21.2267995430796 0.0718581399559227
61.7620089346137 -17.875798064779 7.00685396045682
185.099988208462 9.38643237969167 -15.5200372326256
226.66981662965 36.3639882845731 -22.667540964235
-11.608102234938 -13.0934646526089 22.4866541983099
-191.132315882132 1.11204212359712 -19.0599938892082
169.318769290349 22.5020027585734 5.41343245717246
-177.541339342288 -2.65057444225583 12.014228505558
-34.6220811139193 2.41227883437011 -2.50764939622475
-211.480162375443 -25.1743370002251 -1.49946730163002
38.880889875527 -5.33770076922865 23.6658195732436
153.513389723545 9.3199701848014 18.9707677674866
-224.293299496157 41.164258202183 19.7461987531596
-188.709797253319 16.2628005442324 -4.59742458514451
199.642015533984 27.5503970470888 -39.5671095503988
169.910595138911 22.9898597033653 -7.55871912899771
-98.4662897952045 5.22681393450238 7.70718323530572
-208.165138642111 27.9512877333351 28.468435792436
175.739114187184 -16.6630235100652 -12.332380626983
199.420445907292 -4.54611007899251 29.3837077038416
-49.6349634188361 4.8042503399525 4.75719242068112
-220.162692480736 7.06495976100646 0.152926899137275
-40.7954989502495 -16.5580730635099 1.02513710617999
-239.114785032119 27.7851626985804 16.3763671592729
186.827387724964 -13.4926108051111 -17.3927782357788
135.832362469033 -5.37010718441847 22.9397677369819
216.616137294509 -27.1950734462293 18.1565950134175
-77.6278177435427 -21.2105209267275 10.0265214028638
185.598555916366 39.1140444062225 -14.2356450880429
-18.9922463558765 1.03292643605534 19.5627259681997
32.6946071378289 7.84535117782776 10.1918866161969
192.388235778903 -21.9655903541211 -29.3368509839113
-209.456176253293 42.1837478912969 20.8654294388971
182.509956170972 -1.44855152256344 24.3883134247064
-170.950905291896 -25.2849778616693 0.756290560675842
200.022535294651 11.0248019209126 -22.7619839194073
205.07403791449 -35.1835297018474 5.07063147026406
-171.02241948378 -3.11545589178472 10.6536694800394
-102.994617795754 3.41309558830394 10.3653372509882
202.029356523863 39.0436168680902 1.20259769166007
-177.745714487702 17.7118256475132 -5.28969604381928
177.312577861353 10.6310206531127 20.0808878632665
-213.550741097237 4.07917424154318 0.82830748662867
-209.469695945868 -20.3644771550669 -23.5979161997992
-41.3218988558699 0.523480246644219 18.5889273794457
185.967929488939 -12.8215924018328 31.2842372145106
-79.7947623082622 -20.823777608387 11.0411808495404
226.644956785758 35.0908252604572 -2.62852368030752
-116.880516702388 -19.9502307395782 -3.13969174798662
153.482499915878 -0.320424178670679 -8.00787897948483
188.997416946643 39.6132211061208 -9.09068380216176
-192.979884286054 -5.68695791342557 -13.675924371109
188.302228743931 -29.8269282022001 -18.7417127247738
-192.375751902404 -18.4427908705446 -29.5371469281472
-182.228103196615 -34.5068485415795 -1.23451613958526
-150.572652505541 -12.7988677362317 -19.9276861201353
-160.150273551684 13.0491185357904 -19.8338207217298
43.1681784013647 -19.3937124456275 10.3930071708013
-135.517112304657 -20.9167625910055 -3.54126095927574
188.73474462003 31.7619793459727 -23.4974281483694
-204.220012450674 -28.5692109670995 -10.9844340280116
-209.864460612212 -15.4067393204539 -27.3773023305677
193.369709031993 30.7885946477794 8.1217035877513
-198.884532376805 -29.4173473989994 -0.699319018329543
-66.7397112184231 1.83555300483091 -4.68652493770687
-203.501244884142 -0.37930302176349 -22.0065623184137
-33.0992901336032 -1.1547837888426 20.2673928002796
-163.916744739073 -24.2623250493364 -0.381923172134463
162.796273569701 0.313684195519735 -8.77552717106321
-154.760163949619 9.82292641118792 -18.5548637774543
185.689150190214 -2.53224503476365 -12.8451508932666
-182.25870197754 9.64247844515207 -12.795139083177
-140.146266767192 -20.8807811805159 -5.4481057784443
-135.801075863484 -15.0076605313523 -15.5547755947036
214.682516431316 -35.1620336005809 1.27892603465382
179.665444978602 19.5767668888884 -15.3271070514109
-170.922774566034 -1.89959484770276 -25.8099553034745
210.72908105148 -33.4017403910376 6.55689139848701
103.991904650078 13.0684301967288 7.13706973911118
208.005843691939 3.16338146049718 -8.70683850698553
216.452753979272 -19.0955973004878 24.6859995568525
184.875677011364 -22.5186916068782 -17.3538477969778
-107.676971983402 -20.3129405007736 6.3338434920366
-107.239561738203 -18.9735040652648 -4.03953924005946
-82.6763507786885 -15.9503233797395 16.262007099269
188.328215647298 -33.8714846667272 -3.58376361365211
-15.6156886828543 -12.3197634224411 22.7749875251304
-113.613605492011 4.60418356200406 -8.39334302632812
184.119787150299 31.8041898657575 -15.3089731828845
-185.953618969433 -20.9128458618243 -29.0722444490545
-215.768071346093 0.918312629655611 7.3462899747726
198.540138643212 43.5173452184422 -7.18251782064265
-120.36027658564 -18.8486057919739 6.68193189546832
-100.140783122214 -13.9772540883095 -10.1103169515343
225.351025964406 -17.30773799555 -3.8457255106261
222.513342356703 -11.6073282940931 8.22682558712317
191.879678749839 -10.7085860685439 -23.4547100940507
-197.531400911818 -8.6374564338831 -11.2564489367674
224.886700230134 7.95916690637177 -5.40591322981
-206.76502070892 -8.70231599353076 -29.8784188769797
-221.058806476046 6.18144218192171 22.1574070375302
191.292967171895 6.39259368656226 -18.4486369173461
180.764343414111 -16.6292712019493 29.6665030751614
199.81355136266 44.4023481418918 -14.4565164298996
-155.863864580136 -3.5583346942293 10.2353961610681
185.567671451796 -24.1804414129597 -17.635801327594
-106.752278586772 -15.2792876313007 12.602056013686
228.96918213205 25.8049291217874 -23.0473337110341
154.136399602466 11.9229076817252 17.6211399452248
25.7105224553754 7.35125393260705 9.89975172476452
-209.923623784683 -11.9180498923223 -28.6332673056269
45.6822831976235 2.40162564849722 -4.14242075059408
-170.50142568058 -14.4495126799224 6.76710946047019
177.174774280108 -25.4350183827336 -0.359881822280926
94.0915031162523 -17.3506582150911 14.1811956553551
224.916894667317 -38.5515090341606 -10.9199245614959
187.749614422597 -30.8732521332277 3.22474572067151
-192.330460727169 0.919262634815097 -24.2719017943599
147.607573607812 7.56724547992485 -6.89558193402775
-205.668278164885 -26.0642577855239 4.10131612189126
-28.4004911207399 4.37299354743372 3.93316971904549
-148.261208068948 -7.47999677863477 -21.9200610205392
219.906278054026 -33.0922856296592 3.56513915527233
-202.775280776551 -8.0914290085219 -16.2601781613297
32.5021319010467 4.60463580484152 1.51628388955585
220.637221590132 -10.6675831333361 -16.1660976254663
174.591504673784 9.71542692958238 20.006958075345
-36.1436429849093 -14.2281684536734 21.4205732147367
168.889936640202 14.9399698526384 -11.2480030700438
-110.606573775361 -7.1027380024402 -15.1528099934193
-196.059407671107 -16.2981708194592 15.8301508554895
-209.64863768966 -12.9444888247245 1.31190341404592
-25.6650602297754 -19.7974061594134 16.5620574448368
-214.2424275291 44.877803227316 18.3338009425816
-179.542933414862 -8.61225824953348 11.3074216045907
184.646211876169 -21.0923403782916 28.5385107751157
-83.1811221694034 -18.6381375599885 14.2388572916908
-190.568144890289 1.25414228518892 -25.1412544951404
-83.9684921469766 -16.6348573988585 -4.77490346899105
-210.18153578176 -14.2765048644407 3.10652521561739
-175.034484207101 -4.60805257020041 -28.0773249266696
-233.23433290245 7.72371935267152 12.7445882803635
105.346554719062 10.3817275373473 0.78198409949687
-146.717405823747 -21.5779972153724 0.508993584292446
-167.441783823355 -12.4849820678847 7.38754495097769
-103.289993199959 -3.29083325927596 -12.4546028293205
-24.4083299960712 -11.730998854181 22.7400572377976
214.971665595791 12.5416628574182 19.5068236644853
121.400778547924 -8.2850723170185 22.2309782337834
-200.925362824784 33.5405306115424 2.19544938143883
194.623076285737 18.042763359688 21.4655012476881
52.0088184202578 -2.45285443905993 -4.5510134459979
208.141932599236 22.6640825792793 22.7585482780446
177.332779653177 -24.845476338344 6.16241483380827
-204.356229405335 2.39645211125233 -7.0763740719477
-162.162167493592 -22.9497751833405 -14.3678372703667
-205.606375633946 -17.8195797437946 -28.0091319646633
-161.331767592928 12.4345356517192 1.5078093268669
178.291438555081 -20.8327068166039 24.2223098667522
-223.191929609624 10.8718660927787 -8.45056256996638
-163.785271569337 23.7856086626617 -4.88269871180724
141.057204153477 -14.0240528759175 -3.48820306938367
150.350069005453 -15.0680331855656 19.3877700208819
210.660150018103 -36.7253264859187 -20.3311564649295
217.805303938478 1.58015957139099 9.58753385354615
-196.229711945816 -18.7999911292256 13.5882936263463
-235.585201935886 10.5580277333918 6.11953032417654
-201.242767538187 -0.527304938560426 -9.06771346995526
180.470994468508 -28.3950678064811 -6.37596002012141
-163.246952755169 15.5566650777368 -19.7545573143826
-155.879310085397 -19.1417149779829 -16.5143620289542
-114.830831877946 -1.75336870460346 13.0012866139028
-45.6747526345549 3.74520242028305 13.5126847281193
-129.409216514975 -16.8027403523318 -11.9789265174149
195.081349713044 31.1375913937298 8.58977406608244
-202.843036300843 5.78081433482876 -9.02264918138668
193.356847269111 33.6897962034379 -28.4364045270586
-103.03778819476 1.49785592383905 12.046352914088
157.4789053304 -18.6549311601753 13.5501340651631
-171.70238439666 22.3769612653844 -11.1867860693134
197.9624009356 4.34439072975429 -17.5162566525609
-224.764167070078 40.0751159561717 19.8522056729359
105.983744469737 -5.90089126946972 22.8806842795631
182.22258042015 -10.0611693548507 -13.3737501353219
182.105605036399 -12.1660073123129 30.0783144617983
216.753856126974 -35.5644049233363 -28.3829177240915
196.724448674022 31.0937392966319 9.67563127087099
-201.054803688886 26.0895444979465 -2.98076477282936
209.502701867323 -11.9398878087003 29.4444173348242
-213.177622967257 -21.6794333801863 -1.34083399258246
-174.835377973612 -30.8003286866037 -9.76070992159185
155.282940625665 -14.7201626015756 -6.10109855576152
198.277752351945 39.5601049468268 0.528138573573987
-180.965347245432 -31.5112221958286 0.908387028284924
-205.956017619164 -19.823116111677 -26.9508536534936
-66.9941089960686 -18.6159362162243 0.269502259351434
-216.396770469726 16.9620428711625 -12.079233782274
-214.87680302428 38.3034359766322 27.1294443155438
227.688338450786 33.2065987980915 0.239712354546348
185.033270841683 35.3462836930966 -16.4995502390108
209.727796288728 -3.42149770882485 -11.2699840889821
195.51181470631 43.9261714346009 -18.9929132361978
7.9686484225861 -17.6717945682032 18.9427898440866
-121.264441836398 -10.4065118879235 12.5656307256644
158.706169698825 -6.2065504422923 -8.3201939047906
-217.778006226868 -0.304380889754042 -20.4150934152757
-165.291452117125 8.38100765849166 9.08119957007773
213.146922210215 -5.95088082357404 -9.41288055284717
148.04058434225 18.2865856501519 5.50923569037035
51.0088416711993 2.30179587241143 -4.08266323710489
78.5343374224263 -17.8577403164872 13.9369982509661
-33.6295838875674 1.2278191499439 -5.70926956770162
181.426183716225 -22.2211164279638 -13.8586412284191
-30.5356902249699 -11.9996353981468 22.4255574146279
-230.056726811399 37.1423639098028 22.151088520094
225.299814878385 37.400278874903 -20.5655443523508
216.312419897742 30.6794692092655 -39.3027023848482
216.899867880242 7.05420134950768 14.6109042917268
-27.585029688321 -21.1136298056598 13.503742105179
227.516072994432 -28.4516657246208 -16.6516752464594
178.715428593274 18.0564959358534 16.640421433069
193.105253346663 30.3483264724912 -31.45160028044
131.110174054561 -13.785772524227 19.0444298849311
128.622799276143 -18.2360185807574 8.73149193565201
-24.0226465661175 4.61468639686687 14.6961745086592
-96.7946605787559 -10.785928216881 -12.4011581264701
-72.2130203008114 -14.0873697899242 -5.94344584859212
-161.934778141304 9.06561799539411 6.4633337551039
-109.714197495948 2.79710991345117 10.6686019232298
-4.20830185244378 -8.18738170482819 -2.83159994559269
-217.269877712356 45.6398175099618 0.503307670197457
-26.5859527563582 -12.0534147904177 -1.4849316960573
-152.527072041988 14.7450429492916 -16.6585689050244
213.749281413293 9.96953486878296 -17.0191347357768
-138.442356736888 -5.0394131696059 11.4678989384597
-223.507245839153 44.8977171246917 -0.63606437420699
-215.561572735051 0.0771773888691139 9.40716815541245
-1.82330638383798 5.28231796885687 5.6898648964577
218.59273901573 28.6832425092688 -37.8557722688267
190.224916685064 -11.9458067592969 32.2803113555118
-209.7061813108 -24.8882513325219 1.26753801942329
-114.189233260465 7.18334226398783 -1.74958081895804
8.40037693223028 -0.698468374785323 -6.71974426607331
-170.435944789101 2.5130219319041 12.2676077867176
114.316537168956 5.57783492298486 -4.37095197476956
-4.78018692702349 2.28918324299416 -2.9540510738851
-151.958821098104 -22.6477737689946 -5.14616254430132
-173.427872252909 16.2049178716872 -14.9410502474043
-68.1426649002726 0.919916473247637 15.9799740937837
144.363513311953 -18.6322643216008 5.45610358801395
-73.0289523551257 -2.13758768200163 -8.70341851976162
200.064758939222 12.2010428793251 -23.4420676299998
-174.187109903684 -13.4755248810515 7.51870718390963
-147.389888878533 -2.08773459670473 -19.8749407207437
-150.677886383963 10.5607052352343 -16.5931978256692
-173.275705259484 19.0779319901082 -4.23117826241873
148.978769577674 14.8143803295394 14.7757263179425
-178.366044647169 -33.2461036178833 -2.07152027540923
10.1922243647291 0.505945374194407 21.8232477741188
-58.1280042627217 -4.32596411772002 -9.56993240803327
-188.54451351358 12.0025208010202 12.822110078348
-154.082289295922 -18.5551424857982 4.27411275031972
85.1604671930791 8.7985554216897 1.66700993837129
165.215755053901 17.0828689525825 -8.92489147252524
-187.87858365452 -31.0573005885526 0.566019735791306
-171.338364525249 16.260930529273 -16.8245422655699
-209.609756411288 12.437023633675 -10.1115282805614
-24.6462728559982 -5.16833833054102 22.4713515365092
-172.847717848618 -4.30698873961762 -27.2440909913278
198.18043627678 3.3691724938283 25.2897716562584
202.477936531346 43.914163225581 -11.6846218731493
27.8964426456729 -16.1953415762913 4.35599914207755
231.322805191132 27.495690620962 -8.79368526552599
127.009316151429 7.76972327881957 19.3567076332357
154.991615419703 4.62983195248136 -8.06084147597561
148.649468271365 11.3435964813302 -6.25751997334374
-70.7252200379041 -11.0840549910962 19.2775202025228
-210.511399179496 15.1777931990693 28.631413556491
0.31397966979066 -20.7949578399307 13.1973799723084
76.010050044955 7.20431819378012 0.930872692799298
-158.747080981873 -7.42309189859778 9.3171979250154
95.6033836014008 -8.43321435845576 -2.79367963608597
5.74308247408149 -16.4393302564823 4.05064563293146
150.359090570344 -17.5327719985001 15.0511623292848
-103.109171163672 -10.8795033697886 -13.2252862669702
213.423411277106 10.9428342513119 19.6992874345152
-192.684075797024 -12.5546234301228 -30.7836202984278
-209.097613317886 23.2958509038157 29.0370190576555
-168.472832507865 -9.49785606367516 8.57174457786235
105.01535533902 8.41745853031064 19.0762908938947
-128.216992974169 1.08195187369078 -14.1833587060302
-87.7222724221117 -4.86952473252602 -12.2823311330378
132.797071134232 14.8332196149098 13.4682364942516
180.837760529613 -13.8487115007055 -13.4501681447983
-108.003882871448 -20.6386127674112 1.26287405483454
-178.168329233035 -33.0128315935186 -10.0656664711968
77.0414970662376 11.2447541459644 12.6710633487764
153.489217661398 -7.43582834958 23.4797386412004
66.2997340377812 2.69509719187425 -3.35944532936742
-123.416174920053 3.65821933106241 9.15049125103582
140.215623371562 16.6091758416222 3.21869447066467
-213.633284025798 30.3137769235758 30.849064531994
-220.803886532022 -9.91987552111648 -15.3359051231476
84.8939380524868 4.52127933050962 -2.6530668506458
187.507292895305 15.4499763758041 20.9985145208682
116.938470562751 -7.66443790575214 22.4439578223355
81.018475524884 -14.4113904421329 2.54247426469199
-20.8034113305169 5.23240109541674 7.646821608284
-184.401101668975 -0.214146506338615 -29.2066290067367
-82.9652507953053 -4.16747670176141 -11.5814156912345
119.789390812066 -3.16024491571265 22.9534219343007
115.473904709942 14.1585725800054 6.87649090118987
214.970414374078 -7.90733679237275 -7.63216203033284
-147.014631580228 12.6953977295399 -5.06197998182781
224.872137420259 23.011016829886 10.199419606428
100.327699937952 -3.15811219519844 -5.02617042869761
-215.084521100161 -16.3122878324726 -16.959025628294
155.520241237505 -11.5437584781159 -7.16887912212212
195.812563011643 -28.7161146439673 20.2686876838247
151.094354491411 -11.9076239585591 -6.36378678226349
-200.317249415069 -22.3592500233925 -27.033846278837
-165.958765999391 -5.23040503136668 9.69621631815012
21.1453256760808 -0.00100430523155974 -6.24536716153673
150.350028528081 -1.89982566477349 23.0010921395967
-49.8256377194224 -18.8331884421841 2.71861001797858
221.96128563418 32.7931745401598 -35.0741660700586
-240.194875273531 26.5537741034047 8.43383811636113
182.460369336575 8.04859222914174 -14.3682485679402
173.067907122199 17.6144728773351 -12.7081962961573
205.166973537796 -24.2466321999023 30.3597447783049
178.935249078469 15.9134265706587 -16.5091972342836
127.000326637694 -3.79569196799052 23.0253112413395
-53.6602139040028 -3.15694071921212 19.5887961911212
165.824349033326 4.59902886439614 -9.4309383887796
150.917107031877 -6.87251610265765 23.3566178257975
180.56505714433 26.0488956608014 6.34549700721987
-71.8947852184538 -5.77814284043844 18.9387954071098
-195.483452166604 -9.71169502918678 -13.9680696943067
-232.236571789905 8.86362244256956 0.448543846531747
212.023346694023 6.99709527591484 -11.6896239103776
-173.569688088718 10.8592012440861 7.67146383937049
-130.404935180521 -16.0194388125009 8.08979442532268
-199.868384796794 -8.73084965851732 -10.6854142711808
-197.676972839417 23.4912958934182 16.2179806514249
-201.39977267259 33.0912110117194 -3.43198114516403
-229.969918251173 16.4824890925577 -7.92873306632308
225.092344452941 -35.8007454555373 -3.38520958138402
214.725515218129 39.594992938155 -20.3284775560248
189.972993706768 2.18778249512091 -15.1701576967094
210.100381238692 -12.1036151585426 -28.3339351751494
186.635972218165 37.3857941227706 -19.7771145214684
-191.424151359384 -34.5832224827108 -16.6603341184827
207.265789879111 -0.327644852285877 -9.16944359745954
211.608209694595 -11.1615247159112 -25.6186980413188
-70.1635010050551 -21.57512850177 7.94083748733888
-219.612281082948 -12.1906469436182 -11.0842702207833
-142.544569092036 10.9765974445437 -10.9202139727869
-101.22432826503 -4.52835010304349 -13.2061748613088
-202.242506612154 27.5179507803343 22.9441194542345
-200.685961572861 -28.3477795553528 -11.9539113443244
223.558531529191 -13.4511378194309 -9.16082826932068
219.471497518802 -7.78002774733985 -2.38668879672655
-202.944752026212 25.1051966108547 23.9246512469755
-66.1531624473851 5.06701394374921 7.01846744313733
184.383615253082 -31.4953944998759 -6.01494974434828
-40.659197064157 1.17665157240908 -4.79610407029617
208.917529105703 11.7927023304568 -24.0677031273345
22.4135075135971 -12.5150118221111 22.3079701364289
0.48210633254151 2.61131688417834 -1.73591481201195
74.9130592699577 -14.063656183421 2.48032060177066
-7.3953290984909 2.27217199629807 -3.13364824606501
-167.941106729205 23.2457599373657 -15.3548286229358
224.940842883513 -16.300528800823 -11.4046824614075
-232.258568631637 32.7312225606781 -5.34391460871569
91.0572204296497 -16.879934433313 15.5125331587056
-199.138193176373 -9.68502451065693 -12.4609960975323
121.008541773773 -5.39145987894361 22.8685291740418
-203.357489825866 -28.3487390766851 0.124166044910539
34.3361889960361 7.31542102277074 16.5702827038125
151.498142074164 15.2036464245713 -4.18270817728306
-77.3614868829974 -9.10071564296421 -10.4948105657497
20.2135902444724 -19.580346021425 15.5615659903383
158.234135383331 8.79537485632256 19.3995372210087
-173.613189831459 17.4400898328988 -13.8920534708756
-195.998379181947 10.1042353884639 16.6334875202035
-180.13562392231 -9.2368545090248 -30.0013067279937
118.954997307847 -16.709726241867 14.8003346414962
-37.2884565392125 2.64051703839162 -2.11509137378696
-236.377785973889 34.1815490568368 1.73443909439233
-217.34021912058 30.835172369938 -12.3631054518741
171.84759225389 9.8211984173404 19.7322112267416
205.09208572712 40.2232073296142 -27.5939657286555
130.926051471515 16.132707886529 8.12371447054236
210.361871702157 39.3661315037019 -27.7724076395811
220.602238091003 31.5854158389806 8.85770802500823
-108.912199548343 0.378600421568294 12.4518902122121
-219.793432110214 9.25160816701633 -5.25613882814599
146.291684397266 -16.124917969 17.462626976439
70.8912196338092 -11.3171976983071 21.9074160731413
-238.437953390511 29.031762336179 2.00638919309145
-212.769133326394 -16.7205494359412 -0.641655309616607
193.665397727791 33.6807388001147 4.37715872145025
-207.655978226731 32.945117653392 27.5235052985468
162.422723692757 16.0608117888233 14.6346159489687
204.342677071962 41.446737749593 -23.4912794657854
41.8104051633172 -15.4330390166843 20.257998141511
-136.215341732868 -1.16672823800261 10.9227379127201
180.248172211411 14.8411506680274 -16.7633162601952
196.085596458754 1.43265035994203 -16.9701699853966
-181.982206701206 18.2583461459978 3.16448168964388
-145.500420991173 -19.6777202399591 3.47424908341178
148.098736991129 -7.96825760436749 23.0590151651524
231.238566079917 31.3820323423875 -14.1761000968112
-47.786313705089 -2.72434063928646 19.8900995493449
-228.022606293108 10.7971723367038 24.5938072363773
203.700905890487 37.3702308405632 -35.2428437892539
-169.579410234682 -16.0399862604106 6.0835688898048
-163.207512875029 13.8057578312691 0.697857141492261
-154.283091648431 -7.1270128050828 9.69213542616704
179.153197712499 -25.0698566016064 10.3304249974614
155.163876391893 -19.1549051909993 1.994522259429
222.289952206502 -10.5817519266125 -4.7232979575615
-228.962923555811 5.49046150300992 15.9093962518526
204.911036482037 19.3071137610679 -40.5144934582134
174.134774247772 6.70990110900724 20.8084797348314
48.6394138220792 2.1440031733312 -4.26998344812318
132.229401676945 -5.85959725920205 -5.93808807424414
-188.076528838726 -5.08910795624236 -30.9192070660492
-215.092127015565 8.12345886917593 -3.28357875298628
23.2462533329304 -1.89970363394341 -6.24868659955129
143.353593178215 -15.5499776165771 18.0592515127335
189.709573428188 -19.1727536489204 34.1980129825655
-12.3487157635671 -19.6742049892972 7.04453294529464
223.540314882323 -18.4691666549393 11.9111234938298
-178.252291252154 -8.17379122208811 -29.33097629864
202.266040600683 30.6008616130734 11.1432181198552
156.923102879688 4.18475573399055 21.1723926741517
-150.922802667004 -16.6126340347263 -17.3396404987557
-171.893150643316 -24.8576738858284 -20.7574405574054
207.274924776443 -4.95022584849851 -15.9638427819984
78.7003267021733 11.0303091057536 7.68097815035855
186.131509030772 -6.5240857331456 -13.5896524398356
-185.738679594387 -4.7694378014304 -31.0932956171254
125.159595478928 5.58933534319063 20.389311504047
22.3738489667776 6.19570210245597 17.2121664629972
205.89621478571 -34.5826009480953 -29.1142370839036
220.173897068083 38.6983577728471 -24.6999563791753
209.223821526924 -2.42760554119035 22.2024226532539
-124.701310018825 -7.95920927140577 -16.9567651361651
198.265307353976 42.6801431312966 -24.4173241137531
79.0588716292172 9.99257242019431 4.91953865060994
215.459114374926 -37.115682997193 -4.4399643487788
-159.918757729134 -21.2027890150895 -15.7629878751718
188.741749043589 19.392461097369 20.0684501512898
-189.6676307124 -1.14728898999731 13.5844677445372
-221.451595020236 43.9505025511682 16.1810797241584
185.872141170333 -29.1187631966622 -15.8205142398625
-228.088853824668 24.7314963161745 29.7945600207079
-215.889684627841 44.0004222300666 20.3109322457539
221.334492300651 -8.68949109813856 -0.651226710489371
211.700530013605 37.5930175718047 -33.7042125855439
186.257646334229 -4.9223956825135 26.4973585874455
-130.526060796862 1.74224661561467 -14.2733944003045
204.844192431129 41.9257686518232 -19.8477898458517
-209.984774355847 26.9919465106565 29.5175100102273
115.364001345859 9.98821973659979 17.939294818386
-74.5135799132677 -15.3519550565759 -5.04097819745793
188.967310128098 18.1575697104129 -26.4913643764036
-141.063842428838 -18.7201012556324 -11.8054918805994
123.68083184427 7.9478001690831 19.2829599490884
-221.220790843579 44.6290074559887 2.43042213637
-221.137337709183 42.1023663836384 9.01337010438916
-173.043045051119 -7.42898657201217 -27.1210339124624
