-218.361088651257 17.4017832935892 -3.92631848215234
-185.423622315974 -1.23337708542813 15.8124367357152
77.8803099136492 -2.70423963124151 21.888470857421
189.991205098101 -29.6992036991227 -1.1635338344987
159.696049206809 -2.0901134063831 -8.25713084094313
191.114309045635 -7.96690240627187 23.6485653024095
-168.988932661263 -26.883872001238 -2.79175947211899
-145.46827027681 -9.45404420516681 -20.9453166570705
0.042444713948362 -5.13599850073406 -5.16496599535081
112.926910715201 -13.2968226241329 16.5715292626148
121.38745879849 -5.79762418571664 21.6747034667285
206.158431259044 17.0772882778663 -12.319126144103
199.744740740164 -5.27871274909123 6.72301262975232
196.467641718759 -26.8482742034986 -1.50776329387114
-149.200117974251 7.07096928964963 -4.60464648124986
178.418941728384 6.1933761925801 -15.8713210559662
37.8345060897367 -13.5470025533838 2.13075046420553
-132.456747904983 -15.2473421031458 -18.1952712197556
200.692948172153 -14.182842289534 -8.85710473890851
203.520805872016 17.5467179906343 4.55114092719959
202.137928453843 -22.9641062825349 5.13724348518868
172.2592755874 -28.9277559716494 -18.208514741082
8.41949036197657 -7.54091021997673 -3.15096731147687
-222.88395352711 21.1432191772112 10.4229165392341
162.403261501029 28.9539578555281 -1.48914519991724
160.206429853025 1.15614774237581 -7.95031939412298
170.53932807537 -29.4205671036263 -5.55525081862478
-217.378479402414 26.5633405647807 21.3845750569606
64.3249234583472 -15.4388406273774 4.9003636783627
80.9331358136195 -16.0539968735895 6.63120237856384
-44.1608237332279 -18.0766887126504 12.9075836205544
142.967504667754 8.35230445010094 -3.34735629465521
33.1709546006347 6.06808444789626 4.935711774091
-79.9700292392654 2.96906549862938 1.64911551312923
-15.6623978082149 4.8186273430341 5.82909260662986
113.544259515143 -9.89965445068986 19.8754454821321
-151.236796779321 10.1140143879549 -20.4636625024529
176.65856705169 33.6805361269796 -30.0987158007606
171.675755754384 27.833836303398 -22.4863539695781
197.763187719186 13.8158163727489 -24.3424471270854
187.243178913309 -29.0244815034877 2.72084125549939
164.210693432876 32.7673437397111 -13.8494878594286
128.6324862527 -14.9536008656891 -1.45170175661458
-171.374884117115 16.2166239883491 -1.01822781944763
-25.9577458420039 -18.8114923807153 11.1699303373078
187.001831866681 16.5705043191806 18.7667833922993
-212.003115646645 44.9857808971158 19.7605473297279
168.467017284607 -22.9027157980946 3.54598188212165
-199.273840270163 -24.6484142217686 -19.267570844226
-152.205841549909 -14.4935832127006 -21.5298926655024
165.837400783833 31.3408717953307 -1.8679947540496
-88.4362258610316 -1.39278839401842 12.6474090879397
119.719450347298 -13.7103449475536 15.9461529851672
150.053822604365 -7.13063000804564 -6.88830726132098
-161.495043825802 -3.02525952933123 7.25709515306522
-59.8288491372127 -17.080964543778 -3.34165065561389
-114.990967954457 -15.4705842028308 -16.730724261289
-208.815709218734 -13.3316932677366 8.36505881057131
-102.880139932603 -7.60767360569513 13.4335467799118
-216.66666302865 32.3472586055325 -12.4744792128177
-45.9924624942309 -1.5532868202419 17.7641816635122
-79.4193296888467 -0.667155072230414 13.0371698192287
-152.770266976644 10.8849522953004 -21.8759424541853
188.529550727638 12.2938967821688 -17.4594901440273
-21.3839714889103 -11.546734026177 18.8686282130583
128.004933346383 14.0766913335796 2.47918774415632
45.3876713717478 -12.4171001863037 0.712688256009857
-121.495501552586 -17.0622952271664 -15.9474612993477
12.120872816897 -10.9360629757252 19.8379431120839
-139.905584811968 -6.6832050825775 -19.9410603664531
174.421428350619 -29.9012140439876 -21.0597799642817
180.112736908677 -15.9225003607516 25.0050120515765
-138.683047832647 -1.25975373639264 7.66949543423943
179.095983241674 -22.6124568668452 17.2983426281593
-110.004036848421 -21.8331669008379 -4.74116924603101
204.281834353187 13.5957948061183 -9.6794893108654
-178.134980420833 -30.9561023694172 0.93082526160907
192.106895269942 -1.78929902977696 21.1164149114461
197.754805893259 34.8459746947603 -21.6762795530224
141.367186999365 12.4916617609077 16.103022615887
187.591117575313 6.10823651945563 -8.9068311648549
50.4903244732569 -16.1715876854339 8.93161458422832
-84.5765973245171 -2.26237342925496 -6.00125412755629
191.509132007502 26.4674184315158 -35.4104611890868
-201.145354903696 -3.18298744913497 -2.9276375659616
-164.233861444862 -11.2027622293269 -24.1886686643095
1.1956320365569 -13.4631447858913 18.1480307216724
196.928607042904 -1.00203752939905 -1.48393953017383
153.835126987642 24.0605792886539 -2.42357494762781
-188.998955540855 -25.9959082843199 8.37903170552661
-121.821743693073 -13.1546788231206 10.3015058628019
176.142498415961 15.9220106307164 -29.3944777657578
-176.120558629848 -3.9614030784349 -22.5733394851659
-192.856976035637 5.57549028572531 -11.1120090270914
160.507502248529 21.4890035683652 -9.41271125729789
-160.591853684417 -10.2814109629084 -24.1524330405039
-51.9377261605192 -15.7500637803246 14.9737816335415
-171.462727802226 -8.8140930749834 8.90378134355664
197.917304091263 25.4226361999321 8.7350262500043
44.2545824627082 -7.28969244131613 -2.29584657905193
-161.526335956446 -24.829142275422 -1.98592132858965
103.80659465943 -9.75998325847398 19.7717274189399
-106.197058997229 -13.1472894519793 -15.3347976995207
175.656713267286 40.268783793944 -13.3379816441951
-176.193010925925 -2.49679603924172 -21.7348543437177
-206.967538239301 -16.5111811870151 9.58722442270954
-189.395788964179 17.4355437272093 13.7119841355595
-145.062669176544 6.33911664683531 3.38991658214048
-21.4704605510737 4.85164272735371 12.7507713610451
-215.871045164147 18.318104509611 17.4373757593371
-135.304631879241 -19.2942477766566 -17.4335507409897
-69.8555512894726 -5.20521382852416 -7.30266241135689
-199.77290810155 -12.1820539181872 -17.6129816726831
-29.8438917389808 -4.17105539040166 -4.82095516113698
-201.303110582935 -27.1085995021567 -15.6850162483917
-223.483746418607 34.5972627910057 -5.3859149048292
-149.065605431279 8.94827186375499 -22.7714469913472
-180.69427210317 -5.9229814030853 -22.4895733361252
142.664989349906 13.4002138875908 -2.17535714486612
-180.839676997544 -5.95197993150072 13.9338729343831
171.717042407538 -0.696076009186515 -14.9054520445131
41.8220276568628 -12.451174422635 18.634176029209
179.19161407044 -31.3957032606238 -17.1448105150154
90.0755895717027 0.516512564859421 21.324059186342
-51.319818114011 -20.2941375897 7.49607942850424
169.147252879613 8.83406829544781 -10.9496912022422
-39.9549176562031 5.23208762927318 8.00647244027208
-94.2846402720233 -2.66389972422084 -7.45714921622056
175.873330276151 -19.5279791102133 19.2125871050137
-94.1986313197818 -4.63087676997249 13.8702605921648
200.174422904784 30.5624354753134 -0.221989226228896
-168.296598087166 14.3095255911204 -6.47542393630853
159.647218691733 9.40496541664899 -8.37106777230717
-222.078788609487 32.9682284553648 -7.72682058485758
-188.822135064612 23.9352342128375 13.7057237828858
-105.113724565804 3.74139375064339 1.78312227666292
151.262961724964 -4.60288990641747 -6.68028162074697
-149.364441036767 7.67095163383159 -2.13646961786214
-196.345626175198 30.5520472012337 23.8610169783355
-194.583078146573 39.8559258282457 -7.05523800811911
-167.104458736568 -6.1312708922076 -25.3683848024011
190.468809548979 -3.32065739163672 23.2386354410563
187.797584866368 8.36805009679709 -10.523311656548
-159.01623348738 8.16413438438856 7.42792955358748
177.85087788275 38.353947213318 -2.28376298411961
-175.091839315196 2.29944580422801 12.2079985582824
-178.241837258091 8.1669205392858 10.0881499020165
183.821006685127 14.1994668082315 -24.1864034760482
61.3452968917715 -10.5530569766104 19.6795745956642
145.309890336246 -17.3869732757781 3.04274277336513
-45.3268031493318 -2.95583097772151 -3.83439644447219
-144.551162617806 6.61521882846105 -3.48069915199176
-87.9090736798663 2.57416075835252 0.205998212118693
-205.152005598659 -8.97036190312102 -1.53953716088805
149.025569708786 19.8667980543284 7.99892690534725
-166.533133313732 -15.680767191114 7.55240803019337
202.149741957187 33.1160244658279 -23.3342272042442
131.778466545496 8.49335063029173 -1.51548467411884
-193.372085507216 22.1502208968323 -9.50573717021217
-197.642502198663 17.3432597572845 18.9508798017623
-204.979302299524 18.1521635105986 -10.5026334191308
170.502736388976 -0.266446141801809 -13.6547139807498
197.948716425222 -23.5312053668476 14.0820068673599
171.933993502854 -14.2793435528545 -27.3950738268106
163.171459625571 34.7053665014689 -11.8635750434007
179.124308411802 -29.103881542779 -22.8222157730243
34.3450206196166 -8.56537770998607 21.0049199914714
167.637194936491 23.9550131862494 10.595094899252
189.537722279028 12.7011269634762 -19.7107519369791
161.266571379758 1.81962837256758 22.8385548062747
207.169200600461 25.3946255312049 -13.1459017189434
-160.979017453758 9.9860839822004 -21.6887934047033
-64.892301527142 -19.5437243950278 -0.130888562858258
167.977673602429 -14.0474931499543 -25.3256585254843
73.00337377407 -3.98640511987566 -3.20166977720552
65.2713217224866 5.17664893022686 2.61941329643513
-204.991620832751 5.64457987994173 2.79920955983585
167.965177881563 1.50104693690139 24.9973404389279
-206.694585951091 14.5592336343575 -6.39132991185667
98.7511493273658 -0.712526751937455 21.6863684660999
103.640580412906 -11.5824984398419 18.2739352772983
49.9508028320058 0.848789978036559 -1.77321746054961
166.375661032006 17.3569633607326 16.0051250732207
18.2315553710357 4.13499623474236 3.36409799737709
-182.928088795619 -22.1649825721381 -22.2417933014938
-211.242286193849 19.8237815939061 -11.0709661034268
151.055949365066 -18.360819582322 -1.32462826070736
-208.745019994538 -20.3154752133578 6.36460850256368
-192.26880386628 47.8823243152462 -0.121118279264783
-176.419856276207 -12.7608563440842 9.28224930553603
-109.865426892303 -1.4668140318646 -9.25435747557623
113.330225313203 -16.382647966822 4.90539576520858
-207.920632156052 12.5907543474482 2.40809334050665
171.921996749812 27.9494932072343 -24.6365600897318
-218.469727104519 20.2955637143566 17.1619695488894
-164.645942296936 12.6783270211817 -4.84875535730322
-193.724101526127 -28.0324726228468 -15.2686030524811
-121.659556300162 -3.70186790813334 9.90814435691598
-185.957876308335 2.72020266495683 13.568554512983
-143.172910254015 -21.4216309175107 -18.1904104866213
-3.08602090796757 2.95080890939325 2.62435073410822
73.8560797342059 -10.1735856303321 -1.37941393036885
-152.397020046677 8.84564157396268 -0.185460949654234
-201.684210455274 45.7030507643019 -10.5160002737791
170.095059765745 38.054955354639 -9.05370457160784
78.5880389123309 -7.9093907545375 -2.41459815422085
-72.4369975209313 2.42223127945861 1.13393502255866
198.040868227564 9.54270206108265 -9.53230692810697
-17.4222197383114 -16.5420348441746 14.5482213508031
173.966496526436 11.6361225229315 -15.9803904270468
-203.778429704546 4.98924548706713 1.70827680244773
173.850382572534 30.7361401211236 6.790919827387
-190.026188101907 15.4427189721951 14.25541684668
-101.265331359885 1.30881360824106 -4.09582606582712
180.265721867756 27.4711083025861 -34.0021071267843
-114.570695919033 -11.670931831828 11.4845386559122
-77.4180662542335 -20.9791900332967 1.77688077628474
202.216410622745 -10.7266303680034 2.10823647422001
-191.288364316273 -11.9178296931357 16.1771607817857
171.58671136053 -5.60084293007476 -17.3038053068028
121.692514302041 -7.62304087739446 -4.06677712082775
47.3104081628524 -0.518162825707172 21.3387297877969
194.524163899117 19.1295926278809 14.9043454335594
157.469565895375 25.6957032401295 -3.30823650895431
184.696661486045 -10.2765218975848 -26.714643383251
196.248161430937 31.7566364803534 1.13600618374985
206.704702684552 30.908955034134 -13.4182278773391
-21.5860231419834 -13.2799596939351 -0.991161183701399
-213.093050716615 -18.8825268203817 -5.21153442991384
23.4983588583871 -16.470826235168 8.06569196527998
-74.0682585070459 1.41223925265624 -0.775177133737525
109.458971763439 -14.1409904785699 -0.870921605817425
19.8970687183655 -11.1381609581858 -0.426158473659153
109.018759352303 -7.20475700503808 21.1499485547664
-162.920575420815 -6.9032481495733 -25.4010114349614
-207.559590096152 50.1034282422244 15.2584855654897
-169.090803911752 -5.70611256892537 8.78338375738617
28.2053279013973 -16.376530909374 8.09126712872916
-73.6614020561145 -0.0692783424835874 -2.86228188512157
163.945685968456 27.2206721693534 3.41491951749141
-13.6517881381982 5.6452553805974 12.4833632049596
-68.5108047168088 3.77829041984012 3.5791765615554
79.5840278081622 -12.7411543191817 -0.152854424095979
180.809561827395 -12.6655274339139 26.590830110093
-18.5439182171912 -2.33980588448713 -2.90072985117101
141.945953304008 1.28618152529374 -4.28790477434388
-74.4088611124679 -2.96098041001902 -5.64572954549368
-143.508908683324 -22.2438962963251 -15.1814204200538
20.9023555420831 -1.02847624907763 -3.56920717159301
-40.8353193847536 2.93986809113555 13.2264958756146
-191.703013769338 -22.1174316640822 12.0528906822785
55.6779755431306 -15.949238133391 7.65757230952311
-204.70686727727 3.58688273911727 2.34559366742022
74.7610893832132 -4.43549830792491 -3.14833723961002
-175.601697739149 -0.774571511758105 12.8838667738181
-220.492038162626 26.8887591294072 -8.69522083484185
159.046497320908 26.8171495785424 -1.25263238368265
156.41294527635 25.0759709798552 -4.21676851021349
-204.198755992747 -10.5998711343606 -8.21779116152892
-141.138594220722 -4.00948322410058 -20.5155539256685
165.604635920895 14.6801329364946 17.4642359740129
-189.565826740203 2.30002114836228 -12.3078917609769
5.17883003568091 -8.00674467352748 -2.96075479121882
-176.326294734526 -5.04231764059516 12.0305600330854
78.4670287913447 -4.10057138364298 -3.33277260696305
132.90305406826 10.1858131959058 17.6698511385832
192.247009967199 12.2837153284942 19.9262364385319
199.195400380962 -25.8389114730435 -18.5868399226605
200.528390066475 -26.8927816519727 -9.28733508267464
158.207046848496 -13.90704463973 17.3820510862532
-202.483414206354 52.8712155058875 8.25862587215953
-206.275423550409 -9.07421813944856 9.42259905624826
-196.879910026748 -24.6755194410186 8.94279762092149
118.20412401632 -5.45767054517229 -3.3671692368275
-60.5681207350006 -12.3460245136062 16.6306002743989
-167.815247675436 4.17560779664009 10.0595644051733
-189.885621737079 -30.6011415257147 -10.3344408036409
-193.357950780944 -15.0945476667569 -22.4806038992709
196.95638706668 1.11588805046294 -0.207380998296685
70.215000591603 -7.840096849525 -2.29382765267833
-188.459506837914 13.0593165161899 -10.505968088933
-178.441892354605 4.47473598325241 11.4501753992501
-222.72248311107 39.3169102488005 -4.24304491579627
170.094551626018 -16.9649612397814 18.6144556789577
-24.4624588611821 -18.5440970907254 6.60227714050634
-188.725090310365 -23.6281607015624 10.5576631571299
171.353490986232 38.4224630819904 -8.21167365414668
180.639394522182 37.9150805981271 -21.074286587114
-176.80590681325 1.90088754715739 12.5677637109981
-200.355471822363 50.9849558159711 12.7148758589897
-187.796478590274 32.6808025702916 14.1229280365524
181.912636156077 -27.045801686073 9.13760292054133
-220.110670330228 46.9128330919669 6.52008301295475
-212.474874546527 -13.8758562936468 -3.54858319880113
198.485219311274 5.8867424579883 12.3861182493679
-165.234001294466 -15.283291284649 -23.2283304207763
166.891850120409 -11.5598729016456 22.5766017716651
199.353203446533 28.2505067964419 4.8106730397721
-111.200773559365 -12.6914063931989 -15.3451232549694
-191.892483381061 -28.635596485998 -14.4395433437654
-202.780602878063 -17.1842013672089 -22.5760316598192
165.412799807515 14.2732762786655 -11.4830493611272
19.2839464604106 -9.03992689127973 -1.91962017377474
-44.242555013552 -10.8145614717787 -5.83034340579874
-36.3984020088083 -16.0135309392992 0.23577966948373
-66.5463864930728 -20.5173259655045 5.40959474753585
-182.341329331131 -32.2002221998632 -5.23531763623408
-201.963601544665 -1.45484449210103 -2.49528570706406
-208.215446706574 -24.1430283801358 -14.1723847034351
137.979381557235 17.7326368127891 3.19355772308339
205.981440561131 30.5743445449808 -19.4852265395135
196.806865139181 -12.8438779820636 19.6691469692752
-144.621832107343 -20.2355013842683 -19.5039086789639
148.671638845492 0.298104751287438 21.7047003906722
50.9509753138205 1.91733571620727 0.113051424061685
-81.1154914258364 -13.5749946197191 14.2889873675636
201.371004710138 -23.5116256006477 1.20940933283054
87.5119580459263 0.375324787768368 -1.83213960411789
-199.150958436339 52.2250652732468 2.00762550731931
170.845900205394 19.007266014723 16.7127551673264
155.621344944549 12.0173863156074 -7.21647483716159
38.674350468079 -9.9427241966577 20.3855301896893
-190.883888708216 -8.72717045475726 -18.4475597216499
-191.80662848008 24.4580992421006 -8.1172036077095
-199.240232409407 0.261582520741078 -5.97357444883623
90.2670978134482 -15.3516006705753 2.22035974949598
-121.764390706994 -10.4805772488688 11.0013979060573
53.6266228882865 -4.44841131677344 21.9652860904362
59.8474200473537 -1.41075923801404 -3.27724587529115
-24.1065940713419 -8.52436972700755 -4.86762544141661
158.59198508508 19.2783296668546 11.6143642924993
-145.125687816666 5.8785111680377 -6.70480439195251
104.677050286198 12.8334033031882 13.3875275778973
-206.801691417428 -15.8540090024163 -23.1146599811519
158.59212408916 -6.78608727396104 -8.77794966442907
-203.561444040316 11.8221269433979 11.4533872850291
-183.963519259115 22.2836062437235 -5.78946951986032
-46.8982429353089 -4.56411388355619 -5.61594959431994
-182.453072881266 -30.1881624231627 -11.2198417608659
118.788500549676 -16.4226110782102 7.73968632046674
-202.288884719356 -28.6015318853709 -7.68133428043117
-44.8993132959624 -13.548133338916 16.8204757898442
191.63045206062 -2.36020813980477 -5.75071628107545
-116.384853284613 -18.8359343894903 -13.4209717526064
184.746671694989 38.2546883445843 -14.4072587467135
193.967442796341 -28.3495028618238 -2.9222831141816
-71.7666855952225 -7.72315185152558 17.1055713502907
-165.77966172722 -2.65621853621022 -25.8860635770031
172.912497489996 32.9290791313043 -22.1855852227576
-72.4350083092312 -18.2823525445788 10.9248195260915
158.984119887671 10.1692484960383 18.5477753347208
-211.463294188479 -20.023017015045 0.951605536598204
138.038997125205 -13.6655145586633 16.199448029565
-215.261316556458 49.1113715101788 -1.18770554852625
201.436316805045 33.6424949174504 -15.4193449770459
-205.259437855998 13.5330227293991 16.2377558859497
-221.798320112068 40.8815697878124 15.4164893433082
195.960860089231 35.5673441630059 -10.049900320271
-19.766292177842 -17.8414810681054 5.71688355623917
-169.085157073996 -0.943040174771923 9.57905477410383
187.64550276205 -0.348570817420448 -7.15061877685351
168.927571343531 20.8941588370595 14.4143695950651
190.342574535089 -31.8282603786539 -22.2300492402174
144.011335268577 -3.68331415369166 21.9918349255748
75.5787562550817 2.46668779688908 -0.0398041769688436
-195.387577672634 4.93603966745723 -10.8262786828175
64.7891441196544 -14.2580752929998 2.23599734197048
116.892546355136 -7.51854206639682 -3.99968814818857
-109.370377237453 3.53052415689502 4.76687500071515
-205.938829912344 50.9212508431812 9.41673147013632
184.092399697494 -9.13117288754613 27.3582251435461
177.278162172935 36.8150541672178 1.07245955451657
140.308941797582 -15.6282010374315 12.1111492140886
-118.376759596496 4.04126866563418 3.97526473343522
-187.987652928249 6.46980179284277 13.2067185051086
-189.379316436017 -5.70877889644838 -15.9837577393558
-189.631556922266 -7.22779306312953 -17.2917958078723
186.014343002624 27.2691976034247 -35.8303385223114
104.687129996224 -7.14592200911301 21.1127251859707
-186.188803333107 -15.3952093077434 -24.236269913479
186.086242103889 -3.99858230332399 -14.2189253301259
-105.314543797857 -20.2773222454137 -9.05231246436922
157.319650310453 19.1573648743091 -8.03057901511524
-106.177867290801 3.48076581068178 0.138791222735658
-182.653632010057 1.72121835521226 13.8348313125417
155.010068465808 13.3939622121333 -6.9789171722864
159.73795060131 2.66652145939476 21.9592286278732
22.1233118310533 7.67380632428829 10.6391096451012
200.464396475222 -9.38742851033659 12.4623932908644
173.999438510692 12.9764152617352 -24.4498951826986
196.081000144057 35.1706055880688 -22.594962812787
-200.695401534719 22.8207791296473 22.9905128006858
-208.864517107142 13.6853124119151 -0.881274910021199
192.478374451791 13.9023414731675 -30.5848793265219
200.180799439619 -19.9158064955442 -13.7109666627997
121.027385561551 10.3641087906493 1.08662465482074
-209.294632074723 -11.9307580378219 0.211998495801401
176.493477033763 35.3373285128853 2.99547923783083
-56.804214897986 -18.6175541640109 11.6717408877361
-121.176578224971 -2.58132844959838 -12.1267075065287
178.352895356745 24.6205094987877 14.3828498856721
38.9812221213874 1.01897654062566 20.6030131028778
-188.724184163792 26.3163646387536 -5.27645924101892
-118.653996110198 -15.3704500489696 9.61514697554086
-111.775751328679 1.43570160264131 8.22083590045172
-19.145230395396 4.33004950799746 5.05309792584884
71.5728682950535 -12.2628059211405 -0.209542826413435
-203.088012925983 -10.2690481550922 13.8796129835251
163.183339015324 32.7453955900371 -12.1054980008713
191.654297919174 -24.2906408720284 -29.3417414308729
158.34242360265 -16.6364111881021 -11.2746462558108
-152.689905079828 3.51288756074421 6.23546857193924
-38.438284720656 -5.59364761151297 -6.31127466494096
170.239122013202 -27.8666900480471 -18.972495419027
-171.34649421971 13.0776404830443 7.00207724588539
-61.4394707065754 0.6595551568295 -0.759370394898294
-221.626555401353 45.0947446867479 1.7517328714318
-194.46416981309 -22.2566589132317 -21.0050004698847
201.152065162633 30.7998064180049 -1.47833035176543
200.584452615408 17.1277381182423 13.1685176024345
44.1498645398974 -9.4205393631246 -1.3523323375441
-200.432305569021 -29.0403318957146 -9.01527911468742
-90.6722048932483 -20.2808522625475 5.79797787405234
207.062291165641 22.7349722619354 -11.3776353110287
-154.90110810819 9.40318018136184 -28.786586066758
-165.490103851509 0.432532184180963 -26.6687302410691
34.2201274664981 1.67340840142478 20.1776809597881
-207.611949068621 -25.9728841387685 -8.02932683454811
164.741903570848 -4.49280109228046 -10.3227801539565
191.502108103623 11.1385996903129 -13.7469348727057
-203.872238921218 18.723802772367 21.1381891820101
195.40967411648 -27.1523850725865 -2.14556436335398
206.392820993807 18.019700290769 -8.04548154363313
-206.642240884073 -11.9598761684017 -12.8705032272746
-178.988910974548 20.4345201393481 -3.54791230761248
-116.873970406469 -0.38756824132678 -9.69273658506208
7.60747422411831 -14.0103640855502 17.6131897401136
168.488157790137 19.2602655690422 -12.9546905328708
-184.587766149122 26.0211280547228 -0.270555933077653
158.363130354401 9.30981645136893 -8.05118657457804
-207.284843844933 12.2114494654475 -1.27548036602502
-166.758706825974 12.652976889058 -8.09682979686849
201.539849770708 -9.44458484981238 9.94326968479502
7.21711095972583 0.401528843532339 -0.979336561891933
198.423940434477 -1.95049179907032 8.57626984941048
-191.437491714388 45.5823524098586 13.0810639588869
-213.611257352461 -14.3472093617738 -12.3533385968848
181.219769758784 -32.0113731270285 -15.8648208001732
-211.26942955043 -18.6017007981616 2.75201711864677
167.272299565139 36.8673442595455 -10.1005263343604
174.072532132007 30.4002025937983 -23.760793128478
162.729555212002 24.7519372374257 -10.0474203953625
-116.453874048261 -7.41635398154805 11.5341504533852
-12.0919678484792 1.60838211121346 1.13658065762285
-182.589891971504 -18.1151760392542 9.90822369984194
-55.3300490685255 1.21569983573479 0.42326311660513
167.678849740515 40.6615827110971 -11.9325037786889
198.650440484302 34.4776568771923 -18.4830677515629
-133.285632211365 4.98903729723335 -4.13643735246881
166.790959686308 -4.55540662807433 26.2520783391814
185.334645070133 -31.7446062027204 -15.4552394077976
145.311845698329 -6.13717151484932 -5.90136445692652
-138.949731992285 2.28969552786945 -11.8841358057369
-160.424936117172 -4.89230465777082 -26.2954264125725
197.754154659199 -7.1371162589177 -9.75478219290257
-89.6050986713925 -13.8843936530168 -12.6139468004374
189.161634451248 12.7740151854309 -31.1622876263572
-92.0263084748298 -10.9478697770044 14.3463505201276
-29.2281073804965 -0.628073975716748 -1.28294239689504
-120.948654990455 -17.8622216315161 7.60174598170353
-158.302118262904 -18.9352678401647 6.3425151813561
-210.856782616192 48.4543117711606 -6.63175972429679
74.1363581767609 -0.780589888837987 -2.60484199171173
-199.994689122603 52.0440818991309 -0.179725582524743
21.8456015113456 -5.45133148512394 -3.89691187169596
-158.304963542278 10.6334666103522 5.28947202703097
35.4117286757607 -13.4449425056748 1.95777656528621
-208.130247894093 48.657035279609 6.62916713887661
-166.708968803039 7.92142066358243 -18.9657653745232
203.142277517418 27.4313432830933 4.50549679569121
186.176474293089 -28.586431996913 -30.2504755514388
-65.620702173663 -16.7231701888896 13.1897866227734
202.378773464689 -17.5217469809977 8.26427863168587
-147.213215598293 7.41165928746457 2.05838681241051
64.9079352731546 -7.66110124601143 -2.23543391587607
94.5262119438555 12.6092649935383 7.78779418571655
-198.914037909527 8.18249589021807 -9.2499034789705
-40.7704686405342 -15.2913839886985 15.7151476828611
34.0646647604896 -15.8436912531741 6.60273594041179
170.783039963462 17.7272969069769 -18.8557246873185
-182.79358783897 -29.1711127683178 -13.9445272361863
-213.258851605747 44.049627303787 -10.1346755686995
-166.685874007703 13.8949527700888 0.0612629913832146
-59.0712092478604 -3.20267799476764 17.3745528073839
-33.5805448297134 5.30326032886526 9.11384976945349
187.076519330761 -2.4717979650014 -12.0667127420876
-183.546055117013 -1.89952969722785 15.4026794915871
-169.304329693406 2.59306532541107 10.2287450126816
-140.139690607433 -22.5397028206685 -10.2532848573152
-188.971673595391 38.3452236173584 2.7876111769381
-102.121407466968 -21.765852354461 -4.61937399083428
-196.8150082293 -14.2168823048204 15.4046260392257
-125.503081240557 -13.1908907504734 -16.8083903946692
5.50051684030604 -15.4604516646525 15.9948070523177
-122.129555824599 2.24978168329854 -7.77839298690851
202.14030784367 -10.1173627602895 7.49868572772571
-154.507469218566 -0.892712127540128 6.89612866553599
-196.141903043511 50.7769944068497 1.03683980900313
-184.735442218128 16.872377699981 10.6192096408532
165.462119941388 -3.71379367511071 25.8144221738103
188.477894148534 27.811646257996 10.992510389965
-74.3382638151568 -20.4799722749101 5.64604262594272
-11.3550622680217 -8.59726948710659 20.465712123121
184.868828408807 11.1528095221917 -14.8886842458067
172.432053962681 -25.0146584842115 -28.8227978024233
186.006674148344 -23.4359786834618 18.497411292316
-186.301924159351 14.89746027961 11.915816215002
-206.854934458467 30.1805922652488 -15.4472076396488
186.562749600593 -24.794545721677 -31.5808563023156
195.332412046759 -27.0505336719612 -0.314037625273805
-155.488292995229 -5.83349509207452 -25.6526186656788
186.75100900384 35.8622354117326 -28.907354451777
-189.61601268588 -25.3765494801016 -18.7213401005956
-202.054240871146 -6.48265186089415 -2.57189804675356
94.6724386486394 10.7030062895041 15.1740625216011
154.479912079343 22.9065519530521 4.31738293451824
105.327957044433 6.5273078410147 0.889936782929458
-199.93661852006 47.0384438922562 -8.78039782366362
170.735821663519 -28.4808872624683 -15.0403904881964
-184.591480536509 -2.1630118281712 -16.4263561616577
-191.657950010319 -30.4737898156844 4.74473895398807
190.230767974293 10.1181671507541 -12.351410535981
164.547690388984 36.0541837257088 -12.478363472821
-32.344265098091 -8.55145316198466 -5.68510301126055
154.735053100508 4.06730858434151 20.8141659628584
-197.04897774459 -16.0013171443469 13.4252938848236
201.196484133346 22.6422126133388 -28.283565314705
-223.566014323892 39.1387697460614 13.6059814287399
170.085678324443 -12.6112064000743 23.5922365154826
-91.5963947440614 -9.73216572946079 -11.4639280208659
163.717614884761 -9.12283702381213 22.8181233798553
113.992105895973 10.807622737425 2.78165879640052
-36.78385861808 4.38503544832948 5.29039991303318
156.34354697474 -20.7309709510629 -5.82954205635354
-195.196840767963 -2.18168726831935 -10.0703353660741
61.4283433351844 -10.7424012685593 -0.776996420295351
186.352545463977 0.124877755927631 -7.57764713805222
-137.163668815072 -21.1076005764568 2.37504170488798
66.2260272467135 -10.0052009460791 -1.2136329407287
202.589763860545 23.5260127273684 -26.5390799879266
-82.9596779978488 -4.56420019288257 -7.71429744420373
-146.232519118246 -11.2311483412679 -20.5939885743151
174.358883463817 -15.6853135446728 -29.2532807388322
174.31513969404 -4.20466310881667 -18.013884152815
-187.06181876077 -2.64165274878716 -14.9533164066048
-218.471480330329 48.0054440586054 1.78734537367375
129.163604337868 -6.8472341635792 -4.06411350358261
-206.690603009259 10.6259081497112 0.810931319327074
-9.44109503223971 -16.8752690531497 14.1722257490069
-164.896447681531 6.64722359513713 9.63498186963155
153.961849522419 22.5549275461036 -4.45488583665589
-202.968284496498 10.104684220007 11.0639418678408
199.658779431799 -23.8710167486381 9.96974200950776
149.868172332179 17.5591398555701 11.7363577358055
192.58674376181 -12.39187442601 23.3536933887109
132.807506282136 -0.601434338146694 21.7524274433454
164.984254678028 -25.4112897544435 -8.00038740185996
-195.168492253925 -29.2766256609885 4.68575417523286
198.35302706018 -4.00281005532466 11.686870227346
187.262506388493 38.267414462197 -3.82168336120999
-183.064813149912 -6.62793573258296 -22.1444144480889
-191.822810822183 37.6801294911085 -3.05355887502109
115.232984162479 -8.39587023892126 -4.06583082323769
-192.278502879969 -31.4338337498804 -6.27046258772485
198.916986183494 -29.4042794805535 -12.8791922346131
189.42332495807 14.6159579401687 -32.4170397532101
192.95210360357 -16.4305909774809 22.0287384194941
60.7972037473342 -2.95731266437555 -3.29776394116335
-209.226696718747 13.0583050222308 11.0628225909324
-210.841225846993 44.5829948270966 -10.8252895337423
164.727820086732 34.1057130173338 -14.9164795476979
196.835857392839 -4.29912363427147 16.4484759055929
195.710052382626 2.8353501629157 16.4832226905756
-145.859004378267 -3.87191438480247 7.5040984057765
156.609480265706 19.0151356381946 11.3654045860507
-18.443194049961 -1.01980908627249 19.428009931526
159.158169386582 -18.9549159595294 -11.0880893604939
169.622151808127 40.3717099712933 -15.9781920797018
200.367328711309 -7.82509905503981 -6.22091337491648
170.891711328004 21.1577426190896 15.138699881511
-126.763733481101 -5.94870020816903 9.86045887910192
192.317348912608 -29.3750034722852 -18.2385448133985
-105.924461286301 -4.90556431606277 -11.1614753349827
-209.527053486572 -11.8974343875745 -11.683646268723
-189.234577224039 40.2360968012996 2.11755605950813
194.142334170836 -14.2442070598766 22.1576069707814
166.327821975446 -3.05471643199888 -10.4263144163751
194.901728446222 -1.72131701881899 -3.69425975149395
175.571886645595 12.0684083648256 -17.5077003093269
198.50747675437 -5.56834987387759 11.775944600398
164.620901115664 28.9320168024961 0.830811467589759
-130.017670773757 -16.6599664711987 8.01558974408745
35.4290385805299 8.16051368112649 14.2293119729315
-85.6178730296144 -12.7924803487087 14.3012556597387
-97.3436719928291 -0.955234545894969 -6.22721968969791
-198.861662229531 -13.0665615344189 -15.6746146463392
-181.090355423442 -32.5038649883619 -1.00191623235302
191.054010071889 14.1986731290902 -31.6031955715953
166.76224699069 -22.4424920568529 1.76171723200799
184.48188871022 -22.8286820199546 19.4200871863801
190.963634962854 38.0651366215758 -8.17458206123084
-218.62183375406 29.152553085919 21.0112869774968
48.1448318368552 -12.0184670159686 0.181192487513333
150.791234445915 18.5723893545275 -3.60690452727929
-161.455180986603 5.24178148699356 8.6178090675069
-172.612489648262 -13.2432308149256 8.44100262198111
-180.5363885864 8.714920538182 10.2824316064801
194.225942340062 -10.5855468969049 21.6704567300303
-186.013317015437 -28.4580559709253 7.3237861598803
98.511905477514 -2.96494746255258 -2.72820589958993
179.295710323839 35.4804746022168 -26.726716720196
170.688754604771 12.4361716288846 19.6272916989161
175.363761482727 -6.69456284961975 -22.6025222754541
175.899934368862 7.07031455730383 24.8251662716045
179.494036580535 17.1996152912195 18.8452028503469
-198.847414079337 30.9067138532799 -12.3489156215662
-188.30897057698 -9.18828318329305 19.3976100860719
-168.114772612368 9.68214842413131 -14.4983681598844
-208.858900658341 -15.3262972950882 -22.2296024865629
169.327272103207 24.9773387249905 10.4996949036535
-52.658097785916 4.06341634658681 4.07714601137433
45.8525098679551 2.65386642422255 0.986381982005081
77.2675844049361 -2.62116179928493 -3.1894325392607
-203.678380867094 -22.4114711341353 7.38889931534456
30.9497515434487 -1.15120279754332 -3.80906848196626
196.444063564444 18.8561471611399 -31.6773204205237
172.210303497388 -3.54831682605316 27.3882313553051
115.980575150643 -3.32350791246276 22.0334667981739
-192.633925886215 -0.525748175133131 -11.7312351183992
-211.019916759689 -11.7684053153769 -17.0209754892087
-198.348252618373 47.9100988216592 -7.05119193294734
-212.645987606681 21.0854669153638 -11.7487644685846
-93.6878873483483 -21.5953389690317 -2.40399061527726
170.912963759868 9.17408446216929 -12.7907403719802
61.00324208672 8.91119932642344 6.59325655818623
-157.635358572768 -23.0219045183225 -18.0320413239884
35.6118803427526 7.15264977302417 16.2158662389817
-134.87804908406 -21.227021520359 -14.3475138523025
177.505919508192 -8.45161548830276 -24.7311250739218
-224.004941873415 25.2444180614129 12.9273669966499
152.883330232508 -10.5147774584242 -8.37578114038268
-63.9324210914688 -7.24152286215694 17.8400772527385
176.605769580194 34.3121933128019 -27.5681554671117
201.905460653409 -23.2227082367596 6.88340672682514
-76.9338731575241 -20.0934065464665 7.16151444626517
131.544001241907 -10.1513598136091 -4.88286372004453
172.433747958636 13.4940973287306 19.7678618119434
-141.425424586213 2.93130549487961 -11.9618919433578
-146.772206816374 -6.68199098522445 7.80301323342647
-37.9846894658032 -19.377049388576 10.2399552156876
80.8272609946234 -1.75849756317844 -2.79872073412708
-199.072619668729 49.2425957485154 15.196320363267
-197.315305762815 14.4174399379917 17.3292979591337
-198.128525730086 -0.575466881193746 -6.88784421401527
-108.335109727528 -3.7691680229847 -10.8167266015562
-202.196533433932 24.6768074462081 -13.5615340302846
-2.79244630187487 -9.51838068155557 20.362900325767
-207.460212209279 -14.3199147464729 10.313792653288
-171.959477487741 -17.6067520076079 7.5528696256399
11.5106556668854 1.88353935728511 19.4717659927474
-180.872286196424 -25.8848471588509 -18.8163161296951
-175.74141307801 6.69133047164632 -15.5481560762786
172.790488778162 40.1799567219736 -14.96559831203
-182.41022951243 -6.39587253330303 14.7932934559668
-187.065913137999 -17.5284232819201 -23.6776493251185
-221.236422361475 41.348880833879 -4.88575117054255
-206.645747928566 -24.9223854044037 -15.5034106908492
126.219393329086 -3.71090109317827 -3.2904963733959
183.782333334276 -21.836165655309 20.5867429004171
172.983797889865 -8.66315958627344 27.3587236266417
-152.508964518216 -22.6851107923229 0.228841234807557
-222.342083413765 19.4390394489435 6.42025756328579
-8.78305253123228 -1.93160467131929 -2.95376501688337
169.680622714422 -10.5664206237605 24.7582202547618
99.5154992911375 -13.4164014459697 16.1641120416554
-210.541074839209 -13.680339237712 2.66087929942026
-206.462305735259 -10.2792782025229 -4.46631002510908
159.157198660779 23.7925536185225 6.02919837859279
-188.337393075502 42.7310768323686 5.26620173985842
-223.727150274965 32.2492369202774 -5.37958584136591
-191.806279857671 -31.4490506975988 -0.297725963427837
-58.9043046284742 -4.85656484017695 -6.30809842807995
186.574479917803 1.47751703535012 24.8944952162222
167.579257049109 9.13627065708365 -10.6660469916729
-102.088179948382 -9.37483509390953 13.5024929233859
-70.3997212529733 -6.06583834858344 17.1320934861156
201.80655166215 -11.0365948570082 9.93633450699207
-69.2171067576671 -16.6242852117867 -6.3800680114128
199.613925912175 34.2055011773969 -22.1466863907481
156.667709514997 12.3800807557666 16.9589291994628
-184.468480178724 0.628245514133232 14.7943396181746
-196.647030420423 -8.35648233913864 18.232978886268
103.871775725238 13.632742006401 10.7345322931985
-196.624500703179 44.4058704434509 19.3904452593122
179.838845399302 36.758125031753 -24.0755688172044
194.394045319288 -18.5492838664542 20.5680101275442
169.806683188077 11.3458315715156 -12.0643004213963
-201.925929685214 14.8679933943991 17.6669119458757
-155.241237579632 -8.77616045898665 7.56098091273382
46.6122742800694 -4.37658087134373 21.9100431351372
68.849838609832 1.12562857479812 -1.29040646679791
-66.9090888150712 -9.22647534363066 17.3351005774905
-222.989039131071 41.1846413371829 -1.94082484317109
-145.563280881178 -23.2887143376383 -5.788764706432
173.10439404172 14.2392714212386 -26.9002022548567
103.547338840758 -16.282603625454 8.11019018836362
144.775017669649 -17.3827850944249 0.453935030967216
206.080080574431 27.7049000242333 -0.202040244634044
-150.365503561882 -14.2680390659693 -21.0799659104075
93.5159671431884 -15.3231633780417 12.4942016546388
174.320639494813 -12.6336699090628 -27.485281198414
-21.8726766204611 -11.0295426349955 -2.94108892346673
146.374523031581 14.0222516157805 -3.13128382013923
-178.94466940153 17.7596227678542 6.60057739863797
191.31620168701 -5.98255794325039 -14.2807220383684
169.854422232077 29.3090300705098 5.76836671947329
22.6676061561421 -10.4402821467395 -0.905669195946297
-146.623752244744 3.73604805877533 -14.9074261216944
-211.634107474996 47.1232764611168 -8.18485188113366
170.084917131627 20.2829976617866 -14.3635716600805
77.4311230587081 1.38251099370834 -1.19469726464805
198.702004895265 -3.2183364775467 5.78565525869338
-179.055603571384 -4.42000053659541 -21.6835195233754
171.74159256387 -5.33148065253103 27.4742051657087
199.945801528886 -15.7575702159777 14.4853460867863
-115.9818481744 -14.9490849444916 10.1055327380751
200.262579289229 -17.6717107606266 -11.5354952400796
-81.9272786893208 -13.23722628059 -11.1429434564321
167.279109052028 -13.9012732055112 -22.2664961556387
-20.7655245073635 -1.0168211306792 19.2827803421447
-4.92083260110492 -15.8491480788003 3.82688457513481
149.20117357863 -17.8985800943202 1.74757178847816
-62.6659351038207 -1.22341498067149 15.6675978168931
180.627137169223 11.4202826918098 -17.0448448165396
-193.226848626046 -9.97621445046458 -16.5791592026654
53.712630024655 1.17186760081644 -1.02369739384818
151.692513314136 -18.8044268046278 -5.79191337686962
-155.686877804608 -24.3410761764125 -5.96185724899831
111.819189475179 -3.79812393253598 21.9715144941396
189.134625835257 29.9462197310106 8.64227272775254
-223.786953494595 21.329017187206 4.83877312029668
164.348674790791 -7.12440083195696 -11.3990911425658
198.347899864631 18.9052233393723 13.5645230444141
-3.02580142130821 -7.29585981642046 20.982607253695
-182.783619422194 10.1893152967448 -12.059252070476
193.378466176288 33.7158665512543 1.05524751559358
193.191648064332 36.7929894005347 -12.0297490315622
-202.246351318561 -20.6931106562523 9.67022725494578
165.543989825267 16.7601458311605 -11.1089689951331
174.701622318884 -13.6293795229658 25.4125787335951
81.7524141025896 -2.15872649615248 21.8441894364659
174.719408376391 -18.0582083912299 20.5528198680832
176.628165121206 40.0815869310688 -14.9001651981609
-66.3652108627372 -9.67457124885082 -9.21651189705401
102.259700543971 10.8581296053448 4.30988653860176
-189.844016581152 34.5486806068668 18.4455357433571
153.449209695458 11.6431614728518 17.1687406967893
201.383518250437 -15.2276974803907 11.8670741537806
125.70428108891 3.28896288041707 -2.21387318785622
149.623348710877 22.0276278079684 -1.36525757554359
-147.288959669729 4.7300755556651 -26.4427531766103
-200.132951391276 -6.88498753620673 -5.01970675568384
-196.366257058479 -4.83512358728818 -7.71410677227623
-224.966986031133 35.7109890879029 -1.71674702473758
-51.324629296914 -16.1007300363416 -2.50931399542809
197.683667553456 26.7634516697432 7.64286632504355
206.05228418716 22.9637219508035 -1.15312825219649
-91.4618632202007 -16.6475676750574 11.1557852758313
130.971956317904 13.2028777906091 0.396945894198915
-204.76609311154 -11.5333906202985 -9.88088101857222
-222.287555459666 19.7067096992764 1.83431971322728
-30.590511075853 -18.3731117465058 12.5220138232985
93.7434810068172 -4.66665438252963 -3.2315596037305
169.242467892525 41.4234219977712 -11.9003867055446
199.727806519916 6.41394804421198 -5.79421020608025
180.400886564517 -9.05204033537689 28.0609674105281
-175.440484416426 -28.6075141772521 -12.2765387814057
-70.8238674791735 -15.772847874644 13.6754002642308
-224.778713656574 39.7828252404018 1.67517318080801
-152.452605162043 7.3788351150892 -6.46612905674051
196.829015715102 34.1737246084677 -5.38830302154898
32.3824442695971 -4.09066870713567 -4.08316316190522
-207.995458605197 32.0214360041663 -15.4025787375566
188.548302918465 -0.578371683260036 -6.58257962890962
151.182323374333 -9.55397513443487 20.6163150161753
196.608105419833 19.0263885689083 14.3532918429887
173.925336300228 -22.347393902052 12.9719617287892
-147.766182892646 7.1270550475485 -25.3173068209225
133.177820365468 2.40525610201145 -3.06278199172455
-101.901706425475 -14.1081022758766 11.969625641405
-191.465093703358 9.40924487921834 15.014641646749
184.435923399532 34.1312107375555 5.32856114192984
-99.0503115716042 -3.38274748567878 12.6050817511912
202.548299617611 32.0592700761318 -6.70081721934006
175.64603137312 8.26073734134299 -16.1107995883157
-73.4379809172347 -5.10348146985103 -7.44392397318588
156.87156104362 2.11218067463647 -6.78571247066511
-38.8487501263797 -7.47196748861533 -6.6573273721617
133.122423993663 -8.82460363031047 -4.80953438722221
178.703143111649 -32.3616313998283 -11.9523332797552
-171.076905542226 -26.6266545300598 -16.1345800726272
190.525155694787 -30.0486442269181 -20.3411014478792
57.7043866395738 -4.83693217565836 -3.15284142210031
203.600357885004 13.967802663264 -14.6841578540671
-171.051779962428 -18.8511586225898 7.57016805296343
174.294526336729 5.16816641297056 25.8808635144279
-201.429217997237 11.8407745478293 14.8626535183891
90.8228040789782 12.3735010147242 7.92561184958058
-157.177652984492 8.9915051492771 -16.020482507907
167.650474026634 36.5442327174598 -16.3679031158293
140.514258865562 9.04900908500403 -2.7042722672702
-171.994353730353 -25.9451820532216 3.74122685020415
-199.410812599581 -12.2285845748749 -19.0136919356171
29.5971915309906 6.05865133101358 5.15165640054137
-111.457516468926 -18.9783015023321 6.84984029661926
78.8550640967568 11.0569444233447 7.86145177394239
200.124393751462 -28.6193204035271 -13.3550599308326
-218.396574816673 26.1721522252269 -10.3118099588076
-154.704969692854 7.7538069561306 -8.91011767237808
114.483871555111 14.228167259793 7.10255444485068
-189.232362625552 -11.4468000336936 -22.8183822633741
-129.387258521927 -12.783682057819 9.72057070893025
162.931765759586 -10.8114979165764 -12.300764728533
191.057230444192 -3.20953789017732 -7.62358857749115
95.9072428275824 -7.3849553281503 20.9765149250852
-103.422988835344 -16.1011497721255 10.5382273046401
-171.697028189423 10.8074642078382 -12.7092775476166
116.548449725269 1.33717219850157 -2.15785709968153
-169.547134193264 -10.9594962269302 -24.6951838455852
179.347066516488 40.8987905052231 -7.47268347727253
-181.849955989661 -1.02504012534919 15.0471741823118
194.036229877434 -27.7138860919964 -1.21714563667836
-185.448888063415 4.17730149485708 12.7151456051737
-90.8194679328967 0.612192172819635 10.7341643615544
-185.804727204751 -19.6158542725489 -23.1056107067924
-205.78305548816 -15.2239075434012 11.1994209901896
-185.313101351809 -3.40917598124324 -16.6980533882957
185.747994858377 -2.04970187250433 -13.3198315907935
-116.898465954891 -20.6918309556431 3.43935611952567
142.661107944859 -15.5617535957142 -4.72638679566774
-104.003498994621 -12.0312133099804 -14.1005517363858
189.046763859766 35.8661510291115 -27.9601571155408
-45.630723068508 -15.6708124414146 15.2759794672093
-168.548288008157 -2.68688063371818 9.26094842846372
188.559082286197 36.5262537644907 -0.431588989835108
166.183355373977 -13.9697933626352 19.8821869113719
-189.355780041338 35.4183362315878 1.20405235242071
-193.868561759519 9.05732703362298 -11.1750605136664
-211.877839823673 -21.8128936069058 -2.56355285239779
-201.600396189633 15.9148840954525 -10.2539431723238
-20.2000719083329 -16.4864808346073 14.8048451356848
-179.896707285222 -14.2715745732991 9.54746987563478
127.868078496736 0.602363667846129 -2.81781012263055
-134.230052388217 1.36355621936134 -11.5272411114546
201.146035264497 -11.3729443698822 11.384367654816
-190.422745909737 -30.9599077856173 -8.38029973494599
182.30765422847 7.15037106127482 -14.5479492728477
-56.7485911169414 -19.8884559415292 9.43133274081078
152.296728744195 -16.9647879330398 9.29928388234687
103.265647762065 8.45763921074414 2.3561330979053
166.023892637351 -25.4202588520362 -11.6982987578304
-180.21241084653 4.36110083922596 -15.5574782078139
-167.8640570688 1.91402507383053 9.58803398338169
195.316608233394 24.4026112025741 -33.7487855556881
-9.98765368357534 -17.392293859383 5.8029851311834
66.9408912558197 -4.84083466099485 21.9021454566071
-187.439750625593 17.9191793519032 12.2093185157648
176.20781213945 -23.6512695646099 -30.9149697411999
-150.966077169381 7.82877333359355 -2.7940209872655
169.970961654691 39.2868113498786 -17.1947041718452
-172.744654836387 -15.0205394245608 -24.4395240045447
-191.857122552418 -10.0363799010927 -19.7448868008147
197.657432692828 2.28403302163019 6.1094841282797
91.9470189188951 9.00904217676066 16.7048563865916
43.309788578821 -3.50973527012288 -3.90013837211605
-220.028508319618 44.1868262946279 -3.63820901659586
-213.806582223842 13.1237574576541 7.6360765032317
166.564944314611 15.1415146190177 -11.7520811931172
-160.101144536409 9.65830843497663 -9.18245155513274
158.138399966163 -21.0054993356351 -3.6179109750207
13.3119943696096 -3.15434712357347 -5.01797203077123
194.759236373443 -28.2719425085983 -3.606577472844
-208.992350504554 -11.5343743016306 1.25105385297208
181.68574545984 -32.9851254361564 -3.47170540047872
178.608776827271 10.9005094682674 22.1720918726214
15.9324099848005 6.18783463713618 15.4672634570107
148.353111575261 21.6218567572577 1.91514630817971
-58.4090424434994 -20.2744182185148 7.84043127709916
186.656654061394 13.3233326652257 -22.5218344615285
-59.1948007520429 -18.2990303011148 -1.31881145567613
-31.3709159648981 1.70992519860194 16.2712119493225
195.157184984146 -7.57756241809952 20.1679549613521
-100.719704894051 3.34618659245652 5.25751287522641
-210.537784611844 -23.8407092571474 -9.53345260313844
190.306763465099 -10.4733120696329 24.5237289399487
-223.647236779775 34.3571731503314 15.5484186747729
-124.448528085927 -6.73672470081084 10.4265129006933
13.8850029921186 -1.45050961041138 20.9567680385767
73.549945311273 10.8055663025483 8.74013568527843
165.055961470307 -14.3085086010946 -15.3752122530905
53.0195321855174 8.40986978901421 15.5858062898523
-92.4903372746179 -18.2521095066563 9.3557395133213
-161.869848176737 9.65438336914796 -19.4479675135841
-107.655575695492 -6.69993283809744 12.6167474118711
-130.326888256081 -14.675932124541 9.07609916947227
174.343225510638 -24.789207885728 7.4218901760406
-102.115289621655 -20.6978253647476 -7.96781552521579
