178.011521113167 21.3328402893209 -12.2419043766273
207.185546824663 -12.4915873663437 29.1548381904934
-199.278990128622 -9.98409406654171 32.2226277953208
172.214649847372 -18.7704211313379 6.1372193962421
-125.214879658814 -23.5770407761528 -6.72017415293271
236.898453469618 -15.131267736331 13.019564490578
-50.7103337000508 -17.2110309306705 -24.9595322468439
40.1916050230655 -12.8372274106623 -3.93947891476181
163.919056690941 1.43578553917001 -22.639880168812
242.685544368636 29.8490305361955 15.3987256314061
-230.824487130067 14.3072645145926 6.86562133599683
-92.9998881087202 4.20748761365131 -9.81169627623424
45.2271530962378 10.4636703299252 -21.5843128581981
-226.232302648045 -13.9588713578297 30.7262649656253
-222.021412918424 -24.7290877434507 26.6240144967237
-146.408141272508 -4.62745571802709 14.8282332964868
116.239205177782 11.3215361573589 -6.45952136902441
229.937612717811 40.871158857951 18.8275780313754
226.946284160786 -3.82179906724628 9.82240980788549
222.28216904225 -7.73050340459602 -21.3235828421442
199.901677837652 11.3166928125981 -20.3055193902956
29.158573351425 -17.760302249051 -24.6586231344071
-209.347297057344 20.7359857392542 10.6251488403548
212.277515900963 -6.68243759099491 20.3388622807969
236.952097078427 -13.096284516066 4.09668276227276
201.021604071032 -19.1832546377108 -23.3606834993786
67.9008882447609 -5.34054196360216 2.50870577015859
-144.454033573357 -21.9785690063164 -7.66896486686471
230.228884633581 -3.97598967063109 8.10516106678875
-85.9817097082065 3.56030417080015 -15.1426346654169
-200.726835413202 -39.4158452578247 12.6620678954162
70.1415074806537 -4.31479733925801 2.67405970915493
232.784898178821 2.90652775064894 0.579312073623023
226.428689977411 -26.5512762776041 -19.6882879979845
220.626946723888 39.7113833412873 1.26905578688788
217.619743384315 2.63264357652985 14.3888393627856
169.380591440086 2.37537996107829 5.4970409815568
223.409456083922 -21.8729292123885 -25.9927235746019
213.612410225898 -21.8587644401322 -26.6861677518586
-246.482240322571 37.762995274189 -3.76390392930185
-182.035569321915 15.3561216354566 23.4515496511855
-76.7227110211352 -10.2035582646037 -25.0906418456075
-229.531326670447 -24.3218610897638 22.5599820768296
196.732841650263 -31.8786768327285 6.02064763174092
-207.188811940777 -22.0317879040878 -7.74773881864466
211.150621579508 -38.4844237966776 7.44449099094587
6.59080965399113 -5.92012896617205 1.26983984566529
-212.466568099901 49.0659922180961 -11.3434842292396
17.4311210212199 -17.0509371911974 -25.8285034154218
-227.994363479514 -20.0319690373758 27.6107681306666
206.554890254405 41.9957105048123 2.77546751891667
-91.5496582468271 -18.1924587530454 -20.2216684507039
-96.5576416479854 -6.580742924868 -22.1748820885655
-211.68435083578 21.1407776149536 -19.9045211946754
91.5463052579485 9.42281254294667 -23.6421019246169
200.036546368142 -10.745106136367 -22.0068212739345
-165.304732705337 -27.4983796010755 5.10464536336753
-235.467567186115 -14.298147443838 17.4388394668601
-156.649574716563 -16.0542170424789 19.1864563841804
15.8216212769317 -14.4579046210311 -27.4478636897654
-199.297225601364 -34.7890499041292 22.237228593042
228.728576220468 0.601986852300141 7.61778918091792
87.9916909417915 0.951354217482947 -26.2305200931257
119.142335469008 4.72379594141571 -0.468629976686713
10.4025015693433 -12.090295893476 -28.2789174260089
235.876206299035 15.209400930088 -9.93090377341483
-36.1285826722427 1.23223892871314 -4.04258024742908
-118.540808821457 -2.97142293522049 -16.9967567256115
81.6923434134208 -7.01325402933446 -27.4043309022778
129.525452504221 6.14637320235439 -22.6239411343431
-96.1770360491668 0.00205861072227467 1.05538493225339
-34.1117651576655 -18.0362508866209 -5.62353941747258
207.638925824903 -23.4265293454821 -22.6624126556763
213.047693228095 -18.3208647972989 -27.0607554230623
23.9728181475547 -13.9449832619699 -27.6104209405574
-75.9292974002179 -9.183258209006 6.53219023188676
-195.828176077283 -19.2377633038872 -6.78327346081177
228.39227602123 -27.2912395946808 33.2109930382968
-246.12654367531 27.4394541637789 -12.9242671775806
-97.3176053976267 1.74435697398328 -1.05828852662301
-95.7495114609198 -21.7033963252972 -15.9279707598498
-125.017084865985 4.0197583604967 -1.45915339995086
232.948049120419 -7.56018187207983 -9.43970996152857
187.034941739601 -18.9774994169646 14.8365670257396
202.562139269114 -32.621497676277 25.4018641402102
-38.1855549115706 -23.1457576525488 -11.3924926344117
-207.238129210448 -6.21939049226289 26.3958912222532
-228.116135795666 -29.3830648745938 15.4920702684177
33.4457758503876 -5.57101608023312 -28.7756910651675
-222.550706603569 -2.90275559717883 -8.64045555263871
238.731034846774 -18.4779515706436 -2.74132450246153
189.000685972722 6.6300011201554 8.87657117943967
-206.411510027992 31.2101526746709 1.37674836811535
196.969542533977 30.2538512194128 14.327844526773
23.868741716747 6.21709407848944 -10.2569526197986
-205.403689107603 21.529567846602 8.63410413753447
239.309275938657 26.1628425833065 -5.24701815938062
-107.010879158789 -2.07776248934627 -18.1631296409896
142.015167505446 -18.561961778571 -3.9944583469805
-187.365857936887 12.2757386831505 20.647182943098
204.22010836304 15.3247591536894 21.2037072189629
156.155558496295 1.44483786213412 -22.7331055356426
-222.914114570351 4.2895294933237 8.47540338855414
-217.454230589138 -26.5921214808561 26.7270717519262
-229.577525047854 -8.16634439557678 28.851907469061
-228.015262720287 5.66962087684631 -7.08426732324653
-207.817433024292 40.2273415504721 7.3740236814313
-221.222664845778 51.9749393634035 -12.1191565507841
-206.013474719953 29.0586198257523 2.73551480003258
228.139879640019 18.3377858851857 33.2785028209245
221.436124214341 -9.38665526845852 20.9807535379085
208.117020705791 32.0040127499793 -11.0239735105535
233.672705845912 -10.6898927125183 16.5159749772808
-77.1363786494324 -1.02031993961601 0.419270939184326
140.850029239007 16.7947863401584 -7.99524535750717
191.51796584677 12.7139764217802 10.8413016482523
170.628030674107 11.6939907510728 -18.796644794043
-241.823435228155 35.4940359515062 9.64201881002825
-57.8861828676658 -3.59294026513819 -26.195098079343
210.192424531967 39.9802994754891 29.3446691628745
-226.048933505587 -9.4418482142759 30.4684200408631
-231.159317079301 6.87922308509103 -14.1868377438943
205.02557291736 11.0449946440222 -20.7528957417931
-224.902935241332 -0.0278323768857682 -5.53725369334011
199.06176178759 2.07881505448101 12.1745813246941
151.904193670507 -1.83087022094487 4.94921018675753
-240.228522970186 25.3563685234046 11.0970777330636
-229.12891469189 48.7952993980367 -17.7822697123024
-178.911072286787 11.9682921817987 -2.90512912333781
-238.038434420187 48.3945359811594 0.275919264053672
-71.1638945496508 -0.583354458796971 -22.6016567424643
163.253585753663 -3.40428440933795 6.53932077907779
203.296001168463 -9.96979358064551 -22.2863369026015
175.455827597707 -7.87467321882432 -22.4320611581465
-36.5646028353797 4.5752031238793 -10.2472573326968
-170.255184026288 -25.5963684120237 -2.03917543513806
234.235317818929 -10.8711398705803 13.4939549260329
185.172757325817 9.18799044019879 7.30509474801199
-232.054867944996 21.2112614330897 14.6896463780191
-144.347706225479 -8.84148775261915 15.1830666342989
-195.813038350553 -22.4119157947708 30.2002495991037
201.961461086529 27.1850544362584 24.3562532447619
-180.111614201705 8.17966546550674 -10.0986231286128
-217.691610422255 -29.2149087849602 -0.133513437280584
-204.694289957392 25.7632673179089 4.61116880426247
-64.8175367307039 -15.8372298515892 1.49420569403799
-180.957060772614 -1.22022300013005 -10.7750640405511
235.601823510737 -23.9629140776526 -12.67309969942
70.5594616069417 -8.33820203172367 0.702456678892732
168.597745702449 -6.66188942320986 -22.9569255164898
-192.067861250516 -0.740921573610323 22.9334752171632
48.1496577710857 -19.1176892341089 -15.3735116100716
209.465204156405 -4.57585195691797 -21.5037652444915
96.8710758538149 14.4452821745555 -15.6629105008236
231.942136686681 15.173927987047 21.9530726665116
-216.483267886295 3.13806280631746 12.0880761088212
-166.452023077425 2.91360447341335 23.0944175157314
-205.04206414294 36.6326231531875 -4.41650992527773
89.5573522324814 6.68873019497002 -4.92308725196654
223.4035252455 15.6745869955002 32.9637255351978
154.703601859496 12.0504240222242 -0.160864778491082
220.799193157867 -30.2610150241263 -8.84800159034072
61.1718688449253 -0.108637666192401 2.92406151110278
-174.222381997545 9.43115401449746 -7.27136123833929
-18.8598326868933 3.46563939873876 -7.73454669951065
-114.547151642278 1.33784947923437 2.29434619635704
-85.0818264405726 -8.61248245799206 7.02924744455385
238.592459931641 14.8102949283297 10.0918231143295
220.548006494735 40.8938187466021 15.8426149762109
-132.430016155101 -10.6259920741887 13.8257405901523
-167.799936302913 -25.2627619247516 15.6735169885329
203.664524146015 -18.3508112903084 31.1564704298764
-167.242287978835 15.1814431388466 21.1258356965278
170.043528237312 13.7902036849238 3.05364390638684
-208.546247594307 23.5440851423642 8.84029482878218
-80.4538796548353 -20.5393495681177 1.91750094122857
-123.506053568763 -25.400868179434 5.52134924822684
-97.6662657236369 -23.6240419300291 2.74579702253423
-84.3723332193834 -22.3719352839039 0.819917009892868
-234.498198229706 49.8254824301339 -3.87367724064834
156.088582457652 -0.820835688967995 -23.158673530023
-198.727251492319 -34.7022072111742 -2.15005962534871
73.67863377304 2.19578402412067 1.12687832424862
215.822978057089 -12.6511995625983 28.6398532826505
243.13320799325 24.3254994702862 6.87845278846952
-185.363759506999 15.6702605447652 2.35609911838229
-222.601863507271 -28.1912888420515 23.0444788158653
-199.382339555416 -31.0464911728213 25.9279208282769
210.172496759029 -28.9698507416442 -11.3393594459516
234.269463462255 11.8943040951524 -11.8617020788571
192.359809024746 30.388247251779 3.46582496120383
230.286787700695 -37.6120679878335 20.1179854001226
171.021059864208 -20.974530776118 -6.19623135829361
-215.322862174472 -35.9619052146709 15.0425297789218
185.657510068719 -22.4268831994216 9.57795302490413
140.996594294744 9.79494420548616 -1.23528037558544
235.638963829425 -13.2711564638248 14.778071860419
197.841969754841 -28.5582199754109 -0.0451484941656285
30.2993879612988 9.47727399314865 -21.0975438043089
-160.473827681468 4.953627040555 18.1988585623673
169.493389629525 -16.157746686883 -18.6864351726957
-51.4042458351007 -10.2637607843744 3.61628721144261
-127.882627371209 -16.6898287458394 -15.3091338919264
86.4959686264998 -17.5703804033074 -8.55386401978831
166.827311743752 20.3582496168967 -11.4774052831769
225.485523161337 15.8816043816238 27.5544799025607
185.267762065232 11.6461490796669 -18.9956663681514
145.253774247192 -18.1837107305871 -1.93383713946282
54.6758140836917 -3.88461507016474 3.41067149353529
49.0149664783748 -16.5497976002433 -8.07507211551758
112.603155931579 -15.5553749244751 -0.729052574222255
-30.0701493165254 1.86994041265721 -4.94316714141124
169.797071272457 17.3159973195668 -15.7157027920153
-208.358222461366 33.550791335705 -19.0911615473274
-215.053324427884 44.1115158675725 -21.3136170462027
-232.04079962608 -11.8274154738834 25.4125934428321
106.064765837787 -4.52433616975282 -26.4178903231175
105.237321045298 -0.6452287658474 2.12489141691026
-62.9924132248279 -17.2607831971048 0.0903670368618934
222.579246048919 -8.25008191988555 19.1025105862698
122.271543270598 -7.47613323550694 -25.527503112612
196.970803775825 9.37210225975617 11.4714710310642
-147.708766543494 1.39295523635589 -11.0261708203191
78.0073623820109 -17.7145580036299 -18.1461536651051
199.841840208853 29.8902879909709 -9.79486095449671
-229.889517946459 -28.8849662477386 8.08345581052822
226.186617432144 13.7960844424956 18.207543508648
-208.822249120562 11.9596733278691 13.4192317125256
225.322632179813 40.5542519090327 13.2633982481981
144.918281057955 -19.0054903551015 -8.65623312684865
-150.009556666993 5.49742735229328 5.31415324837535
10.9615726305116 -2.2338998645484 -28.7263857238941
240.059560597225 15.3967444547899 -1.44015888491525
157.259005203803 -15.4749829687009 -19.1811515304001
107.895213121233 -18.1173237859127 -13.3953478762872
182.770950730003 20.4699428158145 -13.9608895439435
224.415655849756 -21.0500320415759 34.8582818298645
161.028479173562 4.56560721354426 -21.7681823349547
-205.265930917551 33.2746428819794 -7.19856883626068
-185.458827074838 2.61923861167457 25.3038673247998
-117.651576434323 0.788128451637619 3.86072001925818
-226.087934781264 -9.85027867517439 13.6723014854544
199.840415635042 19.6289498063157 15.8177686440475
81.5870128665844 -17.4208950579144 -8.45547013952903
2.2171043925611 -5.40609391941004 1.99109255650148
136.24993828241 11.7476888734908 -20.0799217392973
116.838684232624 6.33737854016106 -23.216211019917
48.8898837156949 10.4819310813993 -16.876251069517
-213.859815641216 -14.9704780483738 18.1232522520261
77.7998294706726 -16.5932338577707 -6.4597733846415
-219.506442018813 -24.8984637660775 27.3446191287021
-203.157810147876 26.3054002774973 2.32143224065369
-167.00511162954 9.6901690634761 2.83942287575142
-195.610837017204 -35.7699003616834 0.456609590849916
-116.515524296034 3.23035011771199 -10.6774146838667
-199.774090030986 -0.0163839274391416 19.2727706982003
204.207749826944 7.45071335923891 15.869125029066
-195.122141941876 19.3426801795982 -3.41085775504526
235.144861272054 -9.7317910130132 4.25711957316274
204.066763077009 39.4391617803132 -0.629114308163245
-61.4990618024063 -21.8407069050508 -4.5337364050858
-225.559320163996 -25.1543638770802 -3.90575106818875
177.85869462144 0.628134075619847 -21.8227865185607
237.443738290018 10.1482953355037 3.01865952273968
208.251923302974 7.03546663009573 17.6643210568277
2.75455339458457 -1.33132123608566 -28.6385511649417
-82.8263878677929 -7.09571432541921 5.93085168431244
-211.943087953324 38.9215944691983 12.3814002345808
240.783962668263 19.4151030897399 -2.55072638443711
-191.683129841344 -9.1762550603305 30.3201658263126
-174.642559176901 1.75491427977842 25.5233908257352
-210.670736933895 -24.8228035971876 29.1199324820927
-217.002394113737 13.7398174117278 -20.1998378201005
-189.694229743796 -3.48082715361199 -10.4859112592114
204.273912759761 -26.4777078184591 32.2741761078909
-228.280525905975 50.1364429656302 0.207972221626403
181.865435294921 14.2503337028279 7.15012937366664
234.125670554048 37.2858918791564 32.1499157077847
-153.827306809789 4.68633805661185 -7.99367396999092
-212.862624721092 50.1641580480558 -7.50686076558789
177.453499787034 23.0613546292604 0.803589810359395
-46.6747334093778 5.459447143338 -17.7276376012321
202.569894980715 -3.23522562087297 15.7124529438716
42.071694271405 -8.44082371651756 -0.620942743867724
190.99852286478 17.8826380355807 -17.3704395676875
204.976125201355 -3.07747787909504 -20.0676704953552
-224.968817141994 -7.65158223087966 -3.73558766043102
-48.9024017248953 -7.35944805504292 4.41798565456251
-223.16209438113 -2.12403382499188 3.6605938482166
-225.472871434483 -9.40845278166715 -2.74027970886942
-218.114591610193 7.36467531786949 11.779794410418
157.618984223008 -18.9506178643236 -12.1566831764115
224.765226792198 -9.13424565467453 24.410603639815
-112.98373351558 -23.3280798754401 -9.60615287549984
-176.359909846775 -9.2129609822492 25.3396366355786
-101.128051569082 2.87043662295165 -13.0535187693582
236.153999080854 21.8135727135512 -11.4576241156189
-192.14736679445 -34.34622646036 16.3333940230386
167.44307854855 -19.514831613983 -11.9798022383663
-176.290429711837 10.7311560933373 -4.91008405225204
223.027128435671 -0.524089643863075 9.2185145740606
-114.606145324083 -22.6505833251437 8.25161084091209
-212.065841628452 -32.2103587975328 21.9091092709537
-231.964362614186 15.3696568090442 6.4165956930276
-83.4143868974233 3.85092010200513 -6.7040361666851
195.589944831888 35.5596551096938 15.2194656904241
-168.549221112717 -14.1433465839956 22.4108353348207
91.2020039899359 -4.97486374716255 2.83552563901789
-219.376650281726 -5.11780970072748 10.7308677183802
-2.44660520275882 -14.3667649309519 -27.6118236319714
50.3188155337676 10.9279297281016 -19.5189057914626
93.4640094076688 10.2935424619852 -8.48147821777903
-234.219927153661 9.21387803608767 -6.38321736359812
-199.124135506456 -8.70681328894239 -11.0208097925273
-110.196971818872 -2.23123924802179 6.18875877232333
201.36690896904 38.6999810010748 17.8541769883921
-158.430035443983 -1.50985170285106 18.3863875381329
-178.206931970579 -26.8337896527617 18.9711904669096
-233.672583438432 49.5142584509916 4.37064295960783
171.010311274031 -19.4725182601568 4.15638174429268
-81.5698673734855 -24.0562874328988 -13.3066615562457
-118.966664539489 3.01850433989067 -0.0183204553887269
198.688189905856 -32.8065364605419 5.25632412297541
-213.780616434978 -9.01833633164054 11.7855879863186
-205.097374201027 32.5753791507771 -4.70384773541
74.4240849772196 0.119207704195669 3.01108397060482
-217.528853311403 -35.5779641273831 8.91045412216886
164.442088317324 -19.7321438234082 0.0733341256565108
-171.391192983649 -24.8087220325198 18.9630249400418
191.485932226551 7.07727613141494 9.65266222435826
233.56367013263 4.91396318241623 3.3946498028183
227.876826266481 -6.34928557744592 15.8959657767012
-185.327967550836 -31.5474411104968 4.35378404445328
78.2185372018795 1.02292951050594 -26.6215993005101
165.533292389354 3.86209534927827 -21.7641342007459
-163.587673757674 -26.9966313399473 9.5983756035828
-222.295196326833 2.24517004281801 -13.6379795140664
188.485220625683 -25.6264635790935 2.20321976623011
-210.433957381703 13.5801597195903 13.0722845663733
224.816524047988 -24.5762115926469 34.9836623967224
238.518021077805 -31.4112651255821 11.260518868603
-23.6657694947971 1.58170026315331 -3.97624894619755
166.389488258014 -4.78255173114015 7.28661821569899
-234.095064896358 26.3456095373251 15.6659994827674
127.759656185162 -11.1196572318058 4.2208967373791
-220.0590132752 -0.717495429093686 -12.719062414742
-43.8164775638234 -14.3561172954033 -26.6106073936885
-23.2624320266432 -0.684268889755119 -0.558819933507684
213.164898706827 35.1266729366145 -8.1127502004129
-225.981339020618 50.2218093515001 -6.67585043368878
208.753539181097 -35.5377914113376 2.8276191990857
-95.4645173663252 3.52129769220892 -4.45518604147567
91.7666347750981 -8.89439517701146 1.74952616502645
-228.685354544292 -16.2294625012131 29.0769317945836
172.631595579544 -21.2437781229535 -4.74644267038154
208.647893430586 -19.3519576526756 33.8692416208324
183.683776828845 -8.24992690658797 10.3130125601685
-222.829319612101 53.1603052749051 -0.25810798463683
-50.0511508276008 5.2239713456385 -17.7189997390957
220.46219082582 -39.3395513980104 11.4314907386005
237.731811361286 -23.0599842560863 -3.33302140529723
224.150485277748 14.8083243811491 30.4720278591444
190.369827998857 3.59613600704014 8.66753457553906
210.294042950353 22.7503869312205 36.6797713004224
-211.786662625247 47.652047420467 3.15792579148649
147.925460981988 -19.0411018518808 -9.73414315415145
206.603773275653 12.5243057141967 -21.1911913761233
-8.05376618659195 -5.72854189462868 2.49895803958003
44.1985344501549 -15.4432793310693 -25.7750044802069
-205.899009905849 26.964511934165 -10.5886089312045
209.892002678935 -27.9678457765821 -14.2536618200009
-189.515595567064 -13.0495072913563 -7.6965021073648
-169.919826177476 -27.917552146311 8.81788498425317
-154.772764097192 2.15677110531567 -10.0574012165224
43.77082668326 9.38687004748348 -14.017742274196
-205.979456099229 35.405455658789 -0.81914395498591
145.151655729464 -18.6047561547317 -12.0511008725822
220.116800912692 -35.7406510553866 3.22111941044242
180.538662112918 -6.31202463383973 9.17524375251814
-155.257515241821 3.63117360763349 -9.01113224344401
-133.177194544221 -19.0465492995036 12.0385585716598
85.280461401407 -16.5107465880487 -20.5520801937433
179.229796930979 20.6110846283748 4.84179113115557
-206.872206099705 -4.96108241655289 -12.937260464618
-202.191850109772 16.6516574173514 -12.1507092784081
234.027262824249 -28.2670860451226 -3.43130230381969
111.99125591964 14.2809918794856 -11.0610103836489
175.28983389179 8.65156249140733 -20.0013112154674
-241.323552548692 21.5139625688224 -18.9117340228214
198.955970741748 -26.1640901976368 -9.63857346670226
-91.4654382361938 -4.92986240613832 6.28405467112567
10.9744540172556 1.93444495219818 -3.02461938627782
195.458976231672 -16.0988303488454 -21.7213620090275
237.738228058648 -19.883710083166 20.0467868580921
-3.58364834521246 7.28266573955387 -21.3909408614537
18.0843571845872 -5.70818747848307 -28.9044858970158
-224.072687217842 1.0063867064655 -10.7204244464377
88.1175285323614 -15.1531010658715 -22.637930691182
159.747684758473 18.451847574223 -4.27582229309123
-61.3243116529924 -4.48852141650209 3.4787446545054
218.618522354386 34.3868357981316 -6.9990142745681
-242.343466663552 15.2348961403408 -0.581325394128943
-94.2904569030926 -3.2381045221935 4.41927792007142
222.243292045057 -37.7249316805565 10.0178927103367
-205.843718906025 -38.246470576096 15.3673630451182
-213.087561389325 16.4012304756894 12.578486749478
7.46587547860204 0.932957712811126 0.389967975614998
-83.7403763896278 -16.9939359103856 5.18481061738593
156.652090324414 -19.4922893967189 -9.19502613982007
-187.346939210127 -19.6372615055018 28.4685132276716
-227.646691290876 4.47984378547131 -2.40761546680644
-129.614590160568 -2.67717784357634 -15.2475544405536
-208.920356233884 -5.9939265209242 14.708715361614
-200.25919240359 -1.73833060816975 20.1063636685964
-190.884401696542 -27.5644341892811 -4.63815401199242
-188.617264523483 12.155728784122 18.663064277327
200.375000609065 -13.128238418138 -22.599776614926
79.2367536136418 -7.35244329303419 -27.4586061341629
-181.378382471932 15.5732229835695 8.13371853255375
227.413767703283 16.5478048315681 26.3657060968083
-218.308843284126 51.0937849860752 2.61702240604567
232.912063527793 15.8697281823536 23.8889157872151
210.683564706841 42.3964844427788 4.40489382327477
-154.393144327672 -9.87997185760575 17.8698521835393
220.428858518138 -7.54980783683362 16.2112781063841
170.120031030686 0.803973391578873 -22.4010532608673
-219.438041851283 50.9058947623951 4.36294968407436
175.087978374133 16.0156987451675 -16.9565491513119
177.060930891851 14.6808953271397 -17.7256909426116
-187.355143558724 17.1321216274132 11.5318557500769
171.077202512137 16.8573054541569 -16.2688393449221
238.502562550027 -19.3607504047047 5.12232100744437
-81.0994783957894 -23.5041771357342 -1.8074439962966
-90.6587861899035 -6.71920168207435 6.71746250374893
-158.059043525057 -7.0333521623112 18.6797763223398
215.917545993495 -5.9467342712582 17.9740771918933
21.4363208807252 2.41799952525018 -3.65070249331588
201.056871661582 18.6420423717033 -19.337768394007
-245.590001200791 30.1959811230235 -14.6568770855205
-127.563570290548 1.89139445468704 4.90666719913531
-187.871051089056 9.06439386604 -10.4212184470076
55.3863833571538 0.67677579619817 -27.580444690989
170.808844439673 9.67616430171824 -19.9346736719137
134.727321833733 17.4527941371951 -11.2925939874365
236.720471684507 16.0291537758364 17.557676088255
-92.0916241287227 -7.56113191040951 6.86839225945112
105.563601052795 -14.9646723555769 -0.827121085720364
-115.293881085903 -4.40561137082529 -18.3066413027959
220.294532563446 -22.9439125070621 -27.0606865969493
-64.1267127689295 -22.3682098142101 -19.0127167408182
178.640464932992 -10.0299543519002 9.95326103888451
180.51342901244 -21.1042304471758 -10.2431036769263
-222.584866927329 -0.62148914095492 8.1847612998634
233.887962238553 -13.5931740034447 21.0859166511947
175.624837473646 -21.31201441415 0.91247331197314
226.916307989903 -22.1981397630972 33.5801359028453
-243.279931611047 30.8268156487469 -18.5896239774426
-212.097553833569 32.952411712238 13.6190503099494
-210.974684709193 -38.4678893226318 5.18948287184177
-0.968350216680336 -7.36765826454895 0.430086857128119
158.987221176218 -17.9996121533416 2.12245158120028
124.664993531375 7.60318905004208 -1.85736605622961
-43.4740616036316 -0.636277404644236 -26.3128452354344
239.708961064806 -23.6263192784176 13.3888758759766
120.195599374963 -0.847183879887674 -25.0362250512723
-246.698953596312 36.32559313121 -7.51212255051419
-224.980519634311 17.7306995523661 -24.9565773902823
215.897972542147 -10.0785354746742 24.5925827841399
124.441071247293 -10.8881488917259 4.05950294910353
163.415774816652 4.33220890167604 -21.7074129595085
187.609477959799 -21.8191574062542 -11.7614986031562
-147.694946823614 -16.3944972805335 15.9851936195165
226.026244829537 -16.3599116150229 -24.0797643190667
-209.342628183509 -39.3078419307615 9.21131432393409
79.1941255668246 -18.2197138999642 -13.8816026158831
180.687241612683 -22.4028720375614 1.69472011296158
-157.878093207404 8.05116640877659 -1.34841629207222
147.191931335839 0.461445893640244 -23.3079644839837
224.213763564245 -37.1796352941721 11.1893494710583
140.026114729515 -18.8366699852524 -6.79253547582673
-169.550003044146 9.65438374159137 -3.67295879652722
-209.853633008399 32.2128232290926 5.88256153881448
-199.377328820779 1.87525693809898 18.2036634674802
162.201952830823 13.8743760760003 -18.3147915972109
56.4823815619477 -4.62070242659745 3.13706895477674
-214.743513831956 -2.00306719787709 -13.5548152903932
202.112661962866 -35.8547315538999 5.22271146744611
-95.7633149869539 4.05945893676769 -10.8971628927594
-101.567385376205 -3.92508973352988 6.48765287372071
189.875401761976 6.17705398999259 -20.0604285922147
-211.743102612684 6.0102178393535 -15.7177038138784
-129.514046054259 -15.0189312595006 -15.8654898897553
-222.088350336064 25.4369776955607 -27.6857789735211
151.218395254496 -1.85446639917442 -23.4570468796325
-199.857369467155 -19.7617752818213 31.6845505266336
-95.7488454903864 -8.66825576542801 7.93955874519075
42.1385255143331 0.193509512702542 3.62439333018729
230.080092277243 31.6709340718218 -6.91700470098729
-167.093268020181 15.0287373139461 18.2176280236303
-164.759245178644 10.1451986735339 12.7925135676142
-171.029695513627 -26.4022181735468 14.8872117545501
-183.948287090459 16.3063988171631 7.82178918067643
233.943776348339 5.18419296089545 -2.70093983260266
210.293281226286 -33.4979339284495 -1.56204022352447
-24.7113664902646 -7.29596303746985 -28.6073986101845
174.069037360644 -4.39177142511343 8.06996331094597
-232.764443122059 15.8903834996887 7.50349942078516
238.549689828234 12.1289474879029 0.290094894600329
-118.661635708539 -0.453203043497248 -15.0458371999117
-229.053931185581 -6.25887616390363 27.7274152823233
-210.879311118072 48.3284873427853 -0.726103787894573
-38.8350074819699 -16.707712046398 -4.00351033931129
111.828221025855 -1.28655510779186 2.25104467766031
224.12991846449 41.5241076367533 10.4770871700578
-210.589822966222 -32.9026508673484 0.83084094021014
-193.367974136109 6.96373012118427 -11.7269785971374
-139.67157224259 2.13644973490483 8.25263971187599
-208.6752937 46.8920057093801 -7.07021305883964
-229.402426859453 49.991762673434 -15.1312431961152
224.092697577022 15.7018703387737 27.107048689282
-232.069498620334 23.4293906672273 -25.9485024935412
23.3044689019247 3.20588466302531 -27.3102227886901
-177.577699984326 3.90916467853019 25.8512091837926
-180.908840201539 19.7208478686017 16.4647442304815
-231.301337248143 8.47836595840866 -4.59467805823341
153.447397410867 10.9593303786185 -20.0169397700764
-205.945389124814 -4.97401266534966 20.7137581330668
-10.1057847958596 -21.5305648671319 -19.6857892337498
218.076419383214 41.7252012767765 23.6795409546931
233.248566604966 -7.89612952867143 5.92923448253003
221.282673189615 16.3971791006178 34.0791397971965
83.9819100951058 9.84260681349526 -9.18084726173038
-225.390899841822 51.9802246173775 -13.4279125615998
-222.959128146485 -28.1858513521791 -1.76119937473875
-115.914315860042 -10.4834901951388 10.5536616986517
195.597535535841 36.6605946078183 12.2366456064355
13.3055889876479 3.38588158277187 -6.24092642738682
-158.030840339415 7.40901729198309 5.30892990137746
226.933461001292 -36.8131241565028 26.8874881407627
191.294713464339 -1.76977171297168 10.0155663932006
-191.131498526201 -32.7869009975736 18.6789952530138
-178.404707047894 -13.1438138549951 26.0603627841333
-209.502157260716 -8.26264166406316 -13.67943904243
216.444444941557 41.958327064644 9.27280719825966
41.4038249567937 1.67530347443062 2.62180441875925
72.6496167824906 8.3765477499599 -8.77493820994744
-201.525433053016 -30.5686419896849 26.4641060820454
-137.882857217029 -16.8817581769431 -13.4999333720407
-185.335241499528 -23.5894788698472 -6.07084509072247
185.315336257034 26.3425725635431 -4.01918290852605
-207.347569557906 29.2287817286714 -13.8277267261667
-223.488247452404 -31.6034734733868 13.7833147474309
-167.571212799042 -2.9362005572143 -10.3403073711042
-142.253972802555 -10.5395990709688 15.4609831504808
181.889691283172 25.1099073953869 0.801382128773794
-136.776346501803 -2.13139225983396 11.5855393370291
221.59636179728 -37.8488422816297 7.65569509557033
-141.914847683071 -22.9766955397973 -5.90129408437678
107.895567138123 -13.5995124207545 0.661834085969224
187.162844681321 -13.2806880215179 -21.163788607455
-202.880347214167 -4.91413642520607 20.7574401612106
153.478075925491 -19.2690532053921 -9.64159910480915
-131.910092232917 4.77180520850889 -5.43017193158051
-235.1147269761 17.640820213098 8.93158705479413
176.353372236529 -0.988339252177361 -22.1575128585316
207.23784635995 42.5320978111629 4.52854165266762
178.061844535657 -6.41316963879478 9.07524239567046
-90.929562809255 -8.99695845670147 7.64896040466726
-236.151477166618 28.6956312639896 14.6026450305101
237.801411146766 -17.0700160955041 6.07030789071198
191.510463576505 -10.3563123577791 -21.281015223129
-177.502340729476 1.45271938457549 25.6638879172209
220.336371517243 -9.1636688932106 -23.0462746756291
227.30998956647 16.0373494970693 28.0335568213429
-146.439397304776 -24.8667462410893 10.8137426586919
212.9028025706 35.3904292544672 38.3348488975197
214.483894685754 40.9994844903934 32.4400222535211
202.707045160393 -27.3732778445623 -11.0109937685606
-28.1060223577834 -17.3496264270834 -25.8783444884307
-185.356856728271 -11.9571860532795 28.7504977838328
-230.051909738668 -7.13469966286966 19.7453731142353
-233.778262331737 14.1369626801545 -20.3022479155989
-230.866141017946 10.3450710886975 -0.572426641629433
-213.520128595195 -6.66953583897135 -13.3432310572014
-208.722398666299 -39.7571303836668 7.13376975159693
132.95370524034 11.7944970704825 -20.1657993154656
-225.489526478941 -11.7467124003193 30.9348578376199
-84.1035967981294 -5.47515428070503 5.2617755401971
159.805848377138 -19.7821782661485 -8.35658489937951
240.292404563889 37.4794325531535 13.1190128439936
131.86338787044 3.9639954024581 1.08492634378986
-210.804126147831 40.6965471757937 10.4822286005013
233.488924502644 10.682604923779 13.8631353902667
-100.530557978051 -0.164605525884909 -17.2151710566595
199.524585871701 6.33765742371957 12.4806171700987
-133.16759185066 -25.6822797751444 0.655860301211196
82.6680616410616 11.731005552273 -12.0553628279568
-92.5680024219735 -24.4685013007098 -0.480936113376524
193.097893479993 29.4233093782403 -5.04344494068764
210.076892983313 22.861729324552 -19.0803290274448
83.0509372905011 -18.1342943958024 -14.6377599052712
191.206154363055 28.3206305713528 -5.57643287801695
193.192430432585 15.9999082906495 11.3474153327385
197.138953478806 -7.19147420493003 -20.526123586961
-88.3320538467651 4.2439453196172 -12.4958549899421
-6.94934292902431 6.7862985575365 -21.984106877014
187.035473379688 -8.52377766613178 -21.3162027451024
194.634111084909 19.8638921495063 -16.9143462303301
-92.641715776355 3.41617372029861 -4.53877628622613
-216.324649164283 50.8918023223799 0.817999736406935
27.2894670959012 6.64986065051867 -10.7709923115509
148.623569137585 -1.9589257225596 4.6916858710162
183.96675715491 19.9324831047366 7.15405493429353
33.2611811884817 -19.807002956976 -18.5510874802189
197.242936057194 3.38663095605621 11.7042816487012
21.2335142349741 -6.44033150552596 0.612159349346929
197.410236768061 -17.8953105241282 23.8970541482517
75.1568558363587 -2.1770694108368 -27.3605752605898
209.72581592386 38.7228410827795 -3.83664319575951
240.629490390495 16.3672345773699 -0.0490373021303395
161.844903268537 -17.2961331684067 -16.6437069435545
170.171279940261 7.37727175851803 4.36440954677015
-181.77903892664 -5.0849990207694 26.8659380456474
136.926531240157 -9.64466561267797 -23.982475996121
212.196439516901 11.6185586504693 19.451645452221
149.841026240966 -14.9733596886464 -19.8205631010949
204.776897537163 25.1177835484549 32.1455039917303
-153.886936238597 1.76004955728773 15.9366053380649
126.14226840473 -15.8728878454493 0.33884001999395
-219.497989537096 -28.9220065223398 0.256178474503835
217.28376412799 28.3630825002211 -13.8896557808624
-226.594531579611 2.11718255287968 -1.65578630205242
-122.083407852118 -23.5730479941318 -7.23808831892807
-18.7172267357935 -21.3994235203858 -11.4555300380309
-224.866628784311 16.5603095593898 12.8562998200836
-194.304595741949 4.85969133236779 18.5735144456813
8.05459726113678 -20.7939081356831 -15.5627677101728
-26.5451780307847 6.74949636684559 -16.7110690981852
-125.933954864673 4.25273138783641 -7.9305675318149
-29.9028499679178 -20.2542549547331 -23.2906059335896
-163.452444368513 -8.77147498403141 -10.810561271483
-231.868203781716 49.3200210662673 -14.6515922647067
-190.885301946191 -3.29209687728975 -10.407282114984
201.617834507787 25.6750229830259 25.8631718878889
69.241055537706 -15.4471823411956 -5.18616532810097
-223.94624178459 52.7393833035155 1.27797110472113
-197.311204963922 21.8701358835091 -0.252527456715137
-26.8656519644687 -19.7753044022878 -23.8552125392456
123.703737729301 -1.603882883643 -25.1763394722882
-214.747620176437 -26.9124574226339 -6.1288080971235
217.094564615557 -34.2603290897623 1.69780187042313
195.952134277377 -24.0013467093189 18.5871159563575
231.901553231619 1.53647365551047 -5.17564803804019
-130.020361230654 4.62993164698218 -3.21164965923211
164.499072073019 20.6977942003102 -6.95649333848814
-202.279008352931 3.20261033196223 16.3570898611634
-152.851270661966 -26.6646202422486 7.71231440383488
114.140045016464 -10.1003760070441 3.31458393959698
-202.401317970797 -33.6409103360341 23.650181442512
122.001079259731 -13.0126666625883 -22.9282896506029
209.718178515675 25.6783352668707 37.1820427827692
-232.294714049193 20.4003374587158 -24.7900558800777
-132.194200737718 -19.282890337998 -12.6767578005801
-165.397328149837 -7.54098140346557 -10.5992823987148
121.702063608883 -18.3031917463826 -6.18826424790737
-230.815058750732 -14.6051356395868 26.7973479460714
240.161678486352 26.3103315439724 24.5134091632904
-202.868412271406 24.2331853908256 -7.86356971220892
131.450639838502 -18.4353402647954 -4.83812716347895
-209.240061468866 17.1731929272211 12.0430105744363
-120.690135302518 0.474295850652284 5.0940903388546
-75.9479490124115 -3.38674607270245 2.71916360253075
-71.757448798102 -24.6783040732327 -11.6280821834178
-184.567854001988 1.04870000534779 24.4640753361431
-172.28426178012 3.96546192028281 -10.8750379954387
163.613537182882 -12.4096803524674 -21.7290392176247
236.861905835472 -29.3510615697822 23.4216631432614
-213.656518452101 -4.35004697040857 -13.328623573102
-175.191370502854 19.1522899795439 17.4688668980896
220.014181197813 41.936029840597 24.5045353123823
49.6926120747007 6.74691558517683 -25.7885837879649
172.493681213427 7.0959641018934 4.80074030839178
63.5643232023852 2.38148188164116 1.17851070743994
233.805626790271 -32.3641990696715 4.07389040318783
-24.7428644868261 -17.8396023978808 -25.5813743298342
-193.824677459052 2.80707868017781 19.8713851606204
-227.29368029176 -12.8441550822922 -2.06131932822592
-39.0869924200714 -23.3941032697465 -16.9848645267464
72.125777958107 -18.2649888285194 -13.1482501699618
-112.908892482477 3.50424900264535 -10.2965866067006
163.909306084343 -10.0826313248021 7.79499986455632
-243.740372085286 21.0939420914284 -14.8114330713508
232.692295594447 23.7133307710489 -14.654935265465
-179.896171583577 -24.8413114735472 23.5916510655096
-187.499959203611 2.36032834754305 25.4812494538012
-236.648124700574 48.7612366513345 -9.67365535306956
-36.9477955179081 -22.3087801568921 -9.84358411576426
-234.672212162117 49.9013892870566 -9.26388259055132
-12.5794957114102 5.68808176979617 -23.2392547283385
186.748580416456 -25.1041725759971 2.82166764090876
-221.621394134369 12.6802981054566 11.4847350946492
-229.912725190967 -28.2272328327699 12.5727547192003
173.247117148917 -15.9061694166668 -19.1010202878747
-225.041120444982 -5.39410974425413 3.27070270566651
206.605712277838 14.698001629987 -21.4254056228406
-190.820752989783 14.1799726177724 14.830417897444
-173.941545393144 -24.4550874839301 20.9126291663882
-9.08047271237531 1.91626962327651 -3.78700081959954
-155.400660226116 -21.1894882759469 -7.93127304923458
-225.883199889257 3.70225758571213 2.6380236680797
165.55880530214 -15.8060176629345 -18.9382225422517
186.246417468031 -5.61298484014521 -21.1379594295907
167.997596348418 -14.2659135292776 -20.4954140647938
204.721706276621 -33.6298081862225 26.1913180932065
154.706073194204 -16.3312243111481 -17.9713250489818
-151.746894754164 -24.1060799174772 -3.00257580629156
214.166443150327 24.354718927789 -17.7682504006208
-201.600067431258 -39.5364117167578 8.98010300132957
44.5299257931394 -10.6823691671151 -2.07653682364049
235.921259269224 -14.6731222908345 17.5051689069834
211.476526514835 28.979351502178 38.2306128829317
58.615868295991 5.11233606791938 -26.3993110587456
-192.084095168189 -17.7430342313656 30.4388834461054
-53.5894012789388 -23.7329858599043 -10.0800679404025
147.827447004035 9.92592932295595 -0.173057916135232
-221.500327859515 51.9106713640885 2.76516485589252
214.6487913985 -13.7827923216473 -25.8551321011053
-188.937777808832 -32.6315382219848 14.8084371826393
73.6253125356099 10.2693651798596 -11.2050251516552
183.710557392345 -2.46396524928642 -20.9831468282159
101.952453370481 -13.1462014359351 -23.8702370770606
40.1910087982503 -18.2114093060991 -22.2860168768616
61.5547464084221 -0.146129583152029 -27.4537563218308
179.469603424054 -17.7298869150382 10.52753889765
223.028121307862 -15.8941927297779 -25.367212616306
237.506345178295 -31.5787306216056 20.2183475164664
-217.418376917997 -27.1360454074157 -3.71954874374376
-52.8415581502499 -4.31802526422882 2.94774057993082
-162.771825121708 -23.3753500068549 -4.98089523178493
190.410637619718 29.2193333689169 6.51637944868365
-206.307079654777 -9.8557937093624 -13.6551431345833
203.579580115729 9.27544229911683 15.5030088310873
-234.414625602444 -23.7602521620536 15.6127684372558
-59.0953903117195 -21.3176822936994 -4.45784641975881
170.284542449023 -20.2890666221703 -10.0257266715354
11.3257377838671 -6.41201207407254 0.642705273711541
203.146295174312 40.5182668228061 1.30309784853937
184.04226854563 -10.8766153446857 11.2320971343624
226.158683798918 42.0176846854393 26.3374949525394
93.2732866020258 2.02484244000984 1.09582164372798
223.141477606257 40.4576275130159 4.5025048055632
203.829782652378 -36.0629405875851 14.387391879426
-53.879351416515 -6.37277402644426 4.29394936959223
199.966324256861 37.7105506578209 2.37316580076209
-185.596456605091 10.2703422173422 -9.03623110487656
-45.0186572637398 -18.1992083948301 -4.10689157307999
-194.316017334981 -8.305591715182 31.041069993348
-200.14912884986 23.5451863824569 2.96555790668847
-134.861955196929 -14.21569182584 14.4502596244085
-230.607971446097 13.3667650689086 2.28953771849151
-144.671285232303 -20.2791503207728 -9.85650321896673
199.579643296431 36.6261035781219 16.8109328966615
184.938131676893 -23.7526690097227 -1.21951293532714
-162.043895792409 8.47296564945771 15.1375683840338
152.36146999361 -17.1532048434802 1.59419104627538
-220.844842891472 -19.0367074332942 -11.3129186764178
-231.609923086102 50.4961770576352 -12.5106947763772
191.86085386287 22.2750067774942 10.3627690745441
-230.378127282842 -17.7411978198995 26.8475010220895
197.955468470623 2.84531669302388 -19.8567788822859
208.836315870366 43.1022165242773 6.49892566200748
-154.987514286235 -6.00809387217469 17.7748625493479
-175.840249545052 -20.8173423077587 -7.13418950323009
-216.418779252217 -12.5811064168397 15.3969280173103
230.688776293881 -28.9383003021144 -4.77875558816766
-198.193527677002 9.46882908680407 14.7733811748393
197.347138780801 -17.2999039403803 19.6479194347923
110.607964822645 -16.6986376160935 -18.4252721555769
229.114199740271 41.2200268171552 24.3415982904414
211.681251237604 -32.825276817127 31.3556402709365
-194.6507381638 1.59242707942187 -11.2803329294117
46.2519774130463 2.82840636490991 -1.77940610024543
139.98573720369 -16.8890766630475 -17.0461683486391
43.3415175844307 -17.7424382696816 -22.8588724186741
-201.401796109038 -35.3161898123576 -1.36909038816815
197.574162099007 1.74240335593189 11.1451545014854
225.808203190531 -23.7626777192649 -24.1301236009041
-158.817229430051 -0.152920205479654 -10.8269816369155
86.7409999792781 -9.66247001023485 1.06411368416153
-205.29491916668 -12.3347199994316 -12.3743588417951
164.563571026168 -16.980289988727 -17.2348537003497
232.616645546519 -35.6087539986924 9.77414144041869
-140.193251728036 5.43862087063081 -2.07177838170527
-32.1563531332224 -13.060089718337 -1.71221445901713
-154.261004657563 -3.45943242555231 16.9127778801802
-203.600350808493 -39.6598955940732 6.20214216259819
-191.545756904847 1.60020112233262 23.2131987438094
-220.377561296721 -11.3092983901791 16.3334968360116
154.566888881343 -8.34450614358637 -23.4550512845649
-108.086113098787 -12.554861768489 -20.4499707345456
-233.689465499839 9.60293173307371 -15.5567327058348
197.050057216151 -1.61897649312185 12.0125698086554
-227.87257012958 -21.1418696334916 -5.59505239298472
-209.84332566964 45.7155115617523 3.30101208759834
-43.3341314713189 3.60486024988789 -8.01672450070371
181.482856831817 -5.29430883548913 -21.6640707439804
204.690113259397 30.302558993129 33.2941094400303
-145.987429238168 -8.49706428015963 15.6352172864942
-32.7972992351551 2.95110316859236 -6.99591989263128
172.624576141231 -10.8681761080317 -22.1607823779067
-118.275872755746 -17.8762019689867 -16.1869999560856
-209.391602116107 -15.0848845466517 32.0178965928626
134.752405282315 2.13272851807134 2.14334376904254
235.741665125747 7.62409559798025 -1.08130012032267
199.065842620457 -29.3114658457222 21.2531169365301
-201.444685460784 21.5051964576201 -8.5041655258422
-179.638505378284 -2.90482050062503 -9.60070340755522
-229.034189632944 19.1948928672766 -25.2776990672334
-161.125020041258 -1.24618170775747 -10.8811307011615
-86.0098092035513 -11.3229664774717 7.68893583981629
-172.148122097952 -11.3363335916107 -8.92007574375354
-155.565230490181 -23.0596533815464 -5.289471469618
-120.383861298602 -1.15144648464326 7.52615425694158
210.014811777913 1.51941394279019 -21.6720552182119
101.587444302192 10.2200922664859 -22.7365163019164
-175.917543477217 -14.2765874866349 25.1922241509765
66.8873386439159 12.0740566663998 -19.3590257856513
232.076581473348 11.6991777231037 -14.6853229058726
28.9320079421866 -13.4724744895586 -4.72676500172242
-235.377447972237 45.9328358404773 7.87608097891505
219.709261272508 33.244269303234 -8.28149072654373
-69.6865864185974 1.68794964205363 -3.80933162358968
-155.100884734623 -5.90725861613984 -12.3009760759854
-211.985400651022 -0.35800166902945 -13.8316231576502
202.398993807703 -24.8987476632636 30.9913765512108
-192.784115732806 -28.7851386624826 26.1814070215581
-185.776660174052 -20.378433669847 -6.83463603415764
-198.21781116274 -4.94863635537513 29.4501718292488
-14.3765422892528 7.26096136638036 -18.4525414688892
-127.467730605046 3.3512523749325 -10.1678889695639
-71.7420465905654 -13.5413847416134 4.57316071772046
-245.586352832378 24.5133152684945 -13.1275029609237
-177.559300254347 -16.5384797223517 25.4919703208838
197.807035496358 -3.28999617562659 12.5797535076041
-182.219877710368 15.3594216019954 5.38570651614971
-196.766711631507 -39.0007105475486 13.5353970699568
220.436480297072 14.3094879087018 32.1003444937772
-126.287778836136 -5.28319562316981 -16.851955991482
171.223788732974 6.00468387683746 -21.1079880992545
222.1534210239 -26.0046872373045 35.6822519008648
-194.087728246763 -11.8886413750526 -8.26736157973392
234.613806966669 -10.785840330787 10.3773607026841
242.651714529585 34.4598106285804 11.1663079653641
-177.342039022901 1.19785556708821 -11.583201971978
-144.412308162756 -21.9411821968357 12.9034212375057
-218.933775488014 -7.68044679905253 28.0758434002007
239.066333315383 16.3222267727784 11.8357375729852
225.832455220053 31.1983429961162 -8.94241910598418
191.17602374869 -4.30789025518922 -20.3975926678595
143.875508859929 -5.25061008209618 -24.4749177651411
-79.0890004516362 -11.920084607642 6.67854771576588
-226.211976574757 1.93944283583824 -3.01719497116443
-185.257020950111 7.72190589628264 24.4177271614837
175.753481204061 -17.9490378637094 -16.679297702505
228.664944596238 -11.3446959703329 -19.1992081819532
176.79040979254 23.5305572898681 -2.8281501599952
203.215187892668 35.1763223312318 23.3687089893515
51.2998691847924 3.16583643472064 -3.00179580335598
44.2639482039743 -4.11769677651215 -28.5302979207377
228.558870322859 -19.313403207093 31.4628463383601
14.7923654464828 -15.6785261937243 -6.82593906807809
217.313388277623 -39.5281837703553 10.0332948754156
-188.590542196065 14.2170965765409 -5.66495056455101
33.5466497505494 -19.0059457013023 -21.7695073001599
234.549733724025 -33.9635143813356 26.7395479822171
151.010540362503 -18.9817181608843 -10.9869566321093
-60.4276516354798 2.53131401424906 -5.6093217295729
161.609648974719 19.12033395574 -12.8101649493784
27.1495554522681 -8.76679944447222 -28.8391435240033
237.826937484301 -28.231275310606 20.5983633709474
-162.917174676617 -16.1019782637546 20.8341701384711
-116.559585367675 4.20040526336001 -3.78553250170401
-119.89853733933 -10.1382836107289 -18.7159995830226
194.228651491409 -15.0431365855341 16.3915549469647
188.837371910081 28.2604206110087 -0.484418566156668
-213.776059364516 -35.6693618215297 16.973779173764
-25.3941527892868 -9.60216232611721 0.135439005746282
-150.712814435213 -3.33654900500026 15.7363414642261
-228.558091496942 51.010336839173 -8.9589981422817
-21.038314403969 -12.1821261357967 -28.033691304198
-207.0016715667 39.8084248243253 5.77415621068537
229.671898168158 35.4708511003764 -0.249715417494671
127.486385201836 7.36252368399541 -1.35015927076546
203.026691440402 11.2498325255523 -20.5987569562585
-18.9076403120104 -5.45858650374692 3.2084260575573
220.911394064806 -31.4104911677363 -5.387273058276
-237.441923071016 34.0641499237343 13.87304511363
-19.9481451401437 -20.1907934615376 -23.1788994566835
-22.945875522629 -15.0686823297613 -4.22117427986941
78.4609303955297 -17.6508095070264 -9.47991400458578
172.299033433083 21.0292350534969 -0.41113227286874
173.905516631919 21.8155189499541 -10.3499713945594
-200.506560053438 -32.74463847614 24.761147154569
157.673650839096 11.4254820445543 -19.7288427543293
-47.2131121096675 -20.2510791319852 -5.76666304298489
184.183478508354 25.2107115007418 -7.01977538085765
179.960421587132 -2.42291261419553 -21.8194041568161
164.261764996393 -1.35728895423718 -23.0071896866386
223.092930450264 -9.61595756203972 22.9013642947583
193.903356285322 -27.2633702038674 1.24499482330836
-239.464017963881 43.8918572944142 6.18215487702085
-86.0965286249691 1.3355819191529 -1.67835521535355
213.123732085668 29.1652229638212 -14.1507236183909
220.343075619553 12.1591714963807 -23.0424991576417
192.305212075895 -2.48611528456244 -19.9743386887041
222.531261951454 41.4014659708307 18.4924809620056
117.174648112721 -11.8972283074019 -24.023731523067
