-194.59636260434 21.6522588695737 1.79344527083937
-196.145930228062 -12.040350964644 27.6755168357896
191.110924925555 -35.9046710948479 16.8926954568442
9.68356583044393 10.4472661394359 -21.6356386392057
210.179676189113 35.6585646629428 16.1466714724283
12.0643339980687 11.2062682934797 -19.9659276631996
185.766540742775 3.43057667219927 12.3702314550443
203.860929376071 7.33923733544448 2.03511051907839
-115.095600048611 -17.3519049125765 8.50061613225665
196.524896783294 14.6603429136736 19.4124982114533
160.322280923556 -9.1970832520277 15.072089427117
193.424028305084 -36.0543130572489 15.3649094052209
167.658906503638 37.7294014613104 2.15832540578766
-206.18260228219 -17.4828969210213 17.3573077481784
196.441763912746 41.2550985329678 23.9831628918312
7.61813969929544 -13.93557005211 -5.84030194179134
155.921208617141 14.4317984821366 10.2238592287553
164.207843568807 31.2406151054483 -5.91556720410372
44.4626407272728 -14.4700645574294 -18.0351031674631
17.760568601712 -14.9967362909542 -8.04498627332068
-203.498738566994 4.67547563593127 -10.9686759444295
-168.918154130528 -1.61408207673786 -10.691524591748
86.2568768648311 5.86220191510626 1.88822904159654
27.3192428056045 10.3119058270929 -10.2567614369479
201.4472908313 38.6107188847751 8.91779944430058
64.7743335077166 -7.45388248263153 3.25477906472405
-38.2142818770102 1.53712750512296 3.48132408979473
-239.197107416687 16.0886050369459 -11.9369516300136
202.708503209852 30.4194471478419 30.9279626799152
-189.139262850944 18.1030443326603 1.51892955314811
-196.405717775025 -34.8187220699851 -6.05414500523338
84.7782084750889 1.90676508568986 3.24972793178362
-124.383006207805 -15.9125941314346 12.1296408032041
24.204282766013 -12.2157373378306 -2.40969896173629
-214.733218366184 -34.1274429867816 12.6824735847119
-217.324842133268 46.0630614317218 -11.1697813654448
32.5456559108921 1.35521993358142 3.4120782032742
-192.743700186939 -2.22994560925921 -9.90072077503819
-177.73987252802 -16.2247115038422 22.9815195192855
-207.970870035329 -8.14957388190928 -14.2310574131584
-218.513833944989 32.0636197915973 -21.0122689197346
121.872895084603 -19.4804454105103 -3.80121648676479
195.287235640942 39.6529656119196 1.23079620707871
202.533899225148 -15.1285717880274 2.13675068957189
157.498668180201 -10.6678850490333 14.7262296635256
184.585808663902 -18.8425582832912 38.8806314215907
88.6174941150466 12.694940898533 -19.765792138577
192.306012324286 3.4870261046367 6.78229076038876
140.839682265323 -5.56892698629378 -21.3011439362599
166.350952644995 -37.9338370460958 13.5570184670396
-144.472437094716 4.37071140352882 7.64427944815149
122.173351896545 -18.8824293839041 1.15994786772609
195.014969880602 41.3307674018137 7.89084636205243
179.304922227792 -30.1169064010641 37.1974234275008
-184.228452624618 -1.34559243507624 -10.3609147456318
-169.299596833083 -24.478540290769 -5.89927717564901
-84.3216335808091 6.68868590563266 -5.71729552035667
-211.484799878779 17.1646841787798 -17.4238637229311
29.3140401052711 11.7363161923588 -13.0571281157424
161.319766211194 -27.2850020330426 -5.82911345170576
-187.496743559023 16.7303170941996 -0.160875424332786
126.847106833063 -15.3496283824987 8.15291466786781
-103.256210677338 -11.9522418382886 11.3081499421876
-244.953389659879 32.286005007017 -5.69506196267387
-206.305055612065 31.2628174116522 8.953651166561
36.5980062378287 10.6571613547491 -9.4066063937542
-210.522160558972 -21.6476302126023 27.0084371419667
192.986766120785 5.65743327613309 7.61291520267029
-218.629987358196 -32.5643660472449 9.66018328621509
-228.388019995495 11.0577782785871 10.8213224089526
92.9404679463599 17.525857221308 -14.0826458538183
174.401204869179 -29.9715317328984 34.3032557395494
-7.43952383415856 -14.8691472088141 -7.48113484199241
162.578658818368 -0.889207908948324 11.8024807060793
-219.578564992855 -29.6737022927191 17.0338837655204
-117.358453806186 -13.8064349894793 -16.5896714712968
140.71654314281 -21.3849829293067 -6.60159609793198
-96.5211748635835 -9.30012592445947 8.84969751935228
20.4883369181375 -9.15176295576495 0.775899549660594
-118.919969871303 3.46066882412718 -10.9252326813056
161.432360607255 -26.2809421570022 -9.51682389756621
194.99174774141 40.0504778067255 31.4924295856928
163.271413233071 10.3487579481941 -18.4909923972919
198.522032364929 40.5951746630448 13.71253575507
-16.7125571138316 3.88131988664057 0.733440594364809
13.2494062154133 -12.3865053833462 -3.07691237165662
181.819365562198 41.9572161307985 24.3937262246597
-190.239557758432 -38.7816578392163 8.59891185107962
-47.6786458654651 -18.3179279970418 -9.73300140071121
198.918563223957 -9.22696698423518 -8.14467730079663
-36.7967459036599 -8.15851307863053 3.94943159742653
62.2354630801538 9.32064917579461 -3.0591701225953
155.705223936396 -3.72988281661362 10.9516918134372
194.421311675145 38.5498476968887 33.2812007601018
50.7068187088829 7.76130942339999 -23.5962795765061
-184.748712640417 -20.8350091285253 24.3395781179074
163.977286228013 -16.5043043540466 23.4880471553084
-238.657934232805 13.1153831439143 12.5252862819287
-41.663783980302 7.53402073430623 -15.2821346606499
193.123018270661 -25.5487417210754 -21.7061780001958
145.724035308566 19.3608829207228 -14.7760776530382
-130.932553317474 2.17895445039138 7.39661016505552
-194.173214237116 2.50464128628727 -10.5888315182977
168.694490218645 20.4697025082901 -17.4920187353908
-174.70129736437 17.1889831340556 14.0479719603458
-22.4994039182519 -4.14823122694817 -26.6866039399836
175.906902572999 46.1685963619057 9.05832519863601
-193.958522626617 4.37901623276449 -10.2054652814112
-225.183037375679 40.81684596804 20.5458016025107
-194.433388451692 -20.8380553446648 28.8157673952192
-244.666326120949 21.7261870674224 9.61033528650945
122.037382490261 -4.01270902094959 6.81944944162251
152.715101570588 -15.1202425819915 14.6997091773535
205.597024336158 10.1441481785688 -5.92163018582602
157.385377690062 28.8738806136299 6.3471251969476
-85.8442112595939 -10.4249006292803 -22.2490030050085
171.033633477094 -32.6445733236324 27.3085130789609
49.6233562548068 5.74634315710199 0.529887164615412
59.3919418627994 -9.39779882834407 2.08597748724019
-241.306075528415 12.0871365365261 -0.246082818696413
198.091567673493 -11.207526382956 22.0868611691912
178.585612412122 -13.1130652622986 36.6719285389503
203.575405692645 38.8541924075965 25.9057984821322
-14.0298406356589 -16.1210147148367 -9.71122507993156
131.6860279998 -19.4443793596241 5.6771923526674
175.004215239531 -4.607911012987 22.9640822704795
175.562747401271 -29.2704462950006 -16.9830015772706
58.3571405929276 -15.5127611988968 -13.3061409133293
18.4725793559215 -0.534433532301174 4.43222554023371
121.451720551352 -16.7555137354083 5.46104384309829
-195.368736423044 -36.0766497012069 15.2872669899094
-198.88841900281 24.6718356399891 4.51308424641356
198.879964888492 18.8182051379721 -17.7094053070176
181.722555578818 15.2702045715654 27.1164953128947
-128.082211845859 -8.04401002512429 11.8528437538638
-35.7652024453179 5.83328344322674 -4.88683919100388
198.841502374094 -19.5083999248997 -15.1057157869032
168.711179022903 9.34109125714398 13.7696462882557
176.971135898222 -32.290131938242 29.3463937509233
88.7911753615776 -2.7646010414126 -24.0430721460031
-228.654431312725 5.4321197884555 -10.7091198383508
-203.780182403579 23.799078287662 -8.56389523448191
-180.236161122764 3.99778853508198 21.2169823922658
80.9534833097657 5.25002558741997 -23.0264482230721
-127.930136538364 -19.1823535345197 -12.2295098364159
198.300847919126 -5.76322563244466 11.288988819073
-23.6282125260586 6.45293096846877 -6.71085572038628
194.59238308892 -24.1117647020845 -20.7929053052578
-122.986237931043 -3.1781519841646 -16.2372017905062
-209.66344901127 3.32710895033293 -13.382634585107
-213.73021079748 -10.6857461885216 6.58724207821619
-238.634286743043 38.9069904406845 14.9557473563761
107.88455626762 -15.7828587882879 3.66732634600232
194.158263524617 0.726145111425682 -15.1981891350133
20.1880511456153 7.8706714343202 -24.1496493812066
-161.064533778639 11.3399976100996 21.8684116775241
173.184786587842 26.4669908737722 -15.4668369080068
191.227263950172 -25.3133719712724 -23.1938253616882
177.185490690136 22.2958653131896 30.8078041654544
-232.098702399334 4.21197916593554 -5.0828428637873
169.238957787427 5.02033275601794 14.3877838945921
176.168866015565 20.8477100974666 -20.105734498562
171.808201696956 19.2890184324152 19.9334003730908
162.700785265979 -20.7225288549299 22.0571250134313
189.433091778668 5.30287399527865 8.85605886018
135.446838193041 22.7334835063917 -7.08196537821908
-98.7144619303507 3.37785642202587 -14.478505652543
-200.092816716612 -1.73008492931702 15.247916419355
2.71640389894405 -14.9681265322539 -8.14362475990935
189.38117479941 -13.6664595387931 -21.7347687602618
-225.769722743109 34.4122224139473 -20.5356003195698
-221.777144831915 -22.6921314238954 20.1431181414409
132.003962881703 18.9268275588068 0.209782777209542
165.790144323423 7.98175096351115 -18.4316482960688
-46.5850531600418 -14.3747946376988 -23.2222906687899
199.518605828004 39.6639862001498 8.40779544638666
203.369874362081 -24.3492640210415 2.76126812393397
-171.497703048225 15.291373985103 11.3459477416735
188.99768315877 -33.0770515245764 36.5511323163458
92.3437782276833 5.48060269648318 -22.5649219359417
187.998686352162 13.5356563510809 28.850055004693
50.8868185119939 -8.30091492780907 2.26773789981937
193.119058711861 25.6670266636897 35.9125414957771
167.125654695128 -4.92035138236802 16.4798970843408
174.851908042454 39.0560840218955 26.2304373528467
-14.2023525459158 -6.72684040038448 -26.6439460137047
-41.4792869128939 7.46003903489915 -13.1601012882724
203.693727289177 -22.05873660873 4.74442040836398
-82.3192833407862 -0.0280914793876356 4.88085240436514
51.2948722748432 -10.6468872455931 0.933055978030299
-239.561796107478 36.8391758750501 -11.990461465221
-243.222596215412 14.8589762204957 -1.17287315587591
197.569345080904 26.6419178693064 -11.9872577548732
179.01472865869 -5.7637823408256 -23.217340417495
161.344176537972 -31.0294654748844 16.3982890604827
151.931892786698 29.1310015301938 1.70815588556618
197.326486896448 -7.21408340441107 19.1729397002902
187.940000017543 17.5117472617348 -19.685500191725
64.4899976971076 -0.586502821353038 3.64079892352104
195.197165164334 31.0370671552239 -9.01299463683853
-198.983388914038 -26.4332291295486 -10.1687390796663
-20.2517315102751 -15.3939054879683 -7.53955157386976
-237.994835909115 43.358802349491 -7.37422925118264
193.744620189424 14.110923175064 16.0492629452821
113.624937414798 -18.7946453065341 -7.56196372212039
199.732369989472 27.0070820313148 -11.0707816115072
171.292353920419 -21.3698304166869 36.7226148275081
-135.439088103281 -7.11611073748926 12.9827915304494
-3.70159354991146 3.6912525220138 1.31254321176942
183.540338381946 0.455877857358276 15.2849013806934
-229.169749350767 13.3714632023746 -16.9239908989688
8.50537583332607 2.70929088429538 3.16421580385491
-80.982708393921 -11.5817557015433 8.15817044523934
-51.4921797728204 -16.4659231768873 -5.00623787577485
-187.867324914113 -7.93699615784594 26.0766088761129
-220.433731828954 -7.94711877942404 -0.0886040009490756
16.89029502555 -6.09940955342974 -26.5200344382607
195.28497338028 -0.101349425376094 -13.7307885355958
16.4382339829376 11.7671283115356 -17.6333824601854
158.538208018937 20.0832091287764 -15.5144704539288
-83.9530698806 4.50495893097976 0.479080680785471
-208.131721426489 -36.734657011778 6.32438464197363
-127.748049048663 6.36828304703479 -4.45841064737441
-33.8140570182486 2.01846212675801 -25.9725985467513
-228.481984578493 26.5935181689845 -21.1506032416302
-210.540803471575 -15.4497553968072 15.9484073969833
-102.012968430227 -21.3086464955546 -11.4782822146204
146.157822579471 22.7393613326512 -10.5997348529002
-38.2079444208024 -18.3147172196119 -15.8933526900963
212.552428615407 23.5475632368157 4.21686426897878
-175.32887671936 10.646408496585 -1.04322319607105
194.489742398789 13.774191241468 26.825822925149
153.30776698914 3.73732531025979 -19.1580016817505
-183.933588136037 -33.7815226794076 -2.08829059215671
163.153676974301 28.4322321089549 -9.15181102647646
64.144607516305 -7.5979665801127 -24.373077919215
-53.4373659241449 6.45383170795528 -6.71236818922627
189.388136316101 23.7223490663337 -16.6531373520904
-215.792563200586 45.152121004764 14.7129872823908
-219.974947806771 23.7297025003096 -21.2561356478232
-223.768093032994 1.17074674448928 -2.78029872643976
-144.390461270309 -4.84915639971869 -12.9746203655518
-10.846837927059 -2.27414931343429 4.74370939249186
138.344238855166 14.5237535672027 3.90215835909142
-48.4536920104479 7.17185094745987 -13.3994611398013
-192.739968643001 -22.7419269724429 -8.75036572486214
-222.187896034551 -20.8099805490867 21.3369934434448
-46.9418529907293 7.1666335434219 -15.7002052288436
52.9726143347189 -15.7552290367282 -10.3987268347114
-38.5603367054609 -12.6104820120284 -1.67533167944875
156.017581116995 30.5606436448806 0.931055489833202
-197.140780792529 17.6019206477425 -7.34929831570413
203.421122102475 11.4960744548049 12.2200439621919
-215.169126339128 44.463190900267 -12.3102576800209
167.694333425946 -33.6590173952018 1.59185685302765
147.165979694688 21.1303460047082 6.80691868441766
-245.178135847645 19.3553620985963 4.67544766754383
-238.248658682172 44.5831273387176 -3.00120571756643
-209.289815273725 16.1169493971768 16.699105181785
-170.017802434879 8.64203385191709 0.918748214147989
-219.155008536897 5.36218913479723 11.7806708259494
185.751520565265 16.9669763712333 32.7314585828381
-108.161291962319 -12.3464551592547 11.1791496849704
-221.463939087386 -25.8238352293556 18.1048068357544
158.354380094211 -28.6571955347684 11.5081910594579
-162.92634087687 -13.1554732914689 -9.59438780531415
-28.9493460729251 -5.83694434828874 5.32157809423959
-211.364694728811 29.9997855933105 21.6454924171518
-216.666383782063 -9.40115008839275 -9.68358224315746
162.537936393271 -29.520877003478 -0.105139317526983
-122.773489002236 2.76914612697775 5.75455487143243
133.722032227486 22.1536407666586 -8.7700411095031
-138.99637069993 -15.8085722975848 15.0392431855904
188.591158883947 25.1068014358423 -15.5659853733133
-219.70282312781 17.682136120429 -19.8196169249271
-245.339873938553 29.9196704915882 -5.76619155518968
175.123740172024 12.5654509599626 -20.4086473756414
-221.321174455939 -0.789650752138335 0.239307974860345
-232.612319339275 46.9568368431718 5.66637918776844
30.5998633026859 5.40382799952134 -0.450021627171551
-229.401061676568 29.1290897164523 24.0676471664943
-86.1439440709271 5.82013662442309 -10.8954597567936
198.960974050153 -8.46079989331755 14.2707968377538
69.1782081461202 -13.9086026997382 -18.351650677005
114.508605698684 6.38122623552541 -21.3073006766076
163.608471788704 -31.9709904488161 5.28499712880619
142.886193771637 -11.4999871563103 10.8057252720173
139.039591346963 -0.843229280507392 7.43558492569698
-198.342550994575 -6.77729505649514 15.2505390333018
153.617524352801 11.4994653695405 8.71805154408821
163.386610825306 33.0065634651793 -1.19667915423295
-76.193653707931 -12.2151549083655 5.58032477996904
-191.600615826536 3.19398704251712 16.1871704532838
190.084866537358 14.3249812439574 20.9338784814661
95.8853573285858 3.83650551326746 3.180848404232
-205.871774792812 43.2442903588309 0.745849239344782
-197.912060339712 -29.9397365678899 23.7607973136303
37.0931898022518 0.648801021344089 -25.6103621846869
178.540509832689 24.4000310117812 32.4920161507965
134.876850939727 -15.4334985246816 9.71798299302782
-178.040386991797 -31.9715052433404 8.63778663494895
29.7482226682906 -12.8466922846238 -3.03046428783598
176.474100484085 -25.3272726853263 -23.9088198119231
56.3302337509637 -15.1719059697511 -5.62721203775641
168.893269612736 -15.6540237301309 33.6943914812073
188.104178842155 36.9924111686698 34.9245556937906
47.7377012946056 0.900385169108381 3.25650260711216
-166.578942753902 8.23288054979431 -0.719724184850332
-17.3664034385396 2.31046630722129 3.14585347478107
-130.004611811348 -6.1342302947016 11.6271513289519
189.997689768778 32.9162254901919 -9.18610462747204
-154.448998993459 -25.1089349221831 -0.757635220080508
54.5748828928672 4.3462553279325 1.52595203021879
131.009955252775 -17.7002244882008 8.39355832166202
182.483261305956 -36.4372721637397 -0.349386079918745
-39.4714059152933 -14.2659551729114 -23.3611321611369
-186.691771295167 -36.7199896907662 11.9585553625032
-189.325474229481 -8.9130847543896 -10.6992720082143
1.47225019824829 -6.68745389566044 -26.577919037795
-222.308280730473 37.6239155513764 22.5977254567942
194.62194804099 -34.4794114899689 4.1777681730172
-117.972007067693 -11.0522232879652 11.1404681032702
-234.505278791073 43.8558202521385 13.9201940213178
-207.195480794795 -15.5360564065917 14.7129419713396
-173.512707991754 6.62381110666386 -8.49900282798653
-241.275173990106 36.0910306454064 13.7653277180441
-193.317754696666 -8.46387880748851 -11.7417720743383
-40.7879693789585 3.99966824368517 -0.00337456705331968
41.7430336603691 9.58200181229351 -22.9266654213763
79.3478200159511 8.04932358122268 -22.2525218764197
198.483093751649 38.1562373064786 1.71833762040775
-228.079801925609 32.4004774830702 23.9196097703421
110.790911091368 18.1465958267241 -14.8444198128131
-21.5635136580312 -12.3294711178835 -2.70942340925803
-151.092047544371 -25.321016266546 4.6570195117836
173.137295054404 -31.3630985869119 -10.0543287864561
79.4389293032937 -15.8562812556213 -2.29656554332413
156.939569931532 2.80203966339341 9.30408872494644
169.226480607535 -32.5150983435316 25.628319716087
-215.867239107489 14.313630571295 -17.900410985903
37.2094343726254 -2.53060462457782 -25.9249324195757
-21.9295587569525 -4.1508642508314 5.37525804551946
-206.473627720044 40.6806056661023 -7.83940391323623
210.890861278142 21.541173146111 14.5038735842248
-194.126773478394 -2.71627284577041 -10.3830035306666
-96.3693721730256 -14.4540850004541 -19.6422326889897
-175.380508339584 -21.7182982271488 -7.39310605510529
-231.548339551409 26.5089583211756 23.4322876196378
-199.569911742594 -18.0239656177584 -12.2185855715417
-164.811383004193 8.26278134876262 0.0451885747459176
-205.251546342611 28.5871905085768 8.56798569014377
-206.578600477341 25.6633981250508 -11.7533336157083
149.260827412947 9.78552809375765 7.10283110071279
-194.81157663246 -29.1801083927276 24.2637406043787
-39.6782925463278 0.118493982873526 4.22515551587263
173.593955222804 33.3109413977026 -9.33955726207357
-213.581889661232 -34.7505606957246 5.6840400523342
-225.592957723883 31.7886805544015 24.4429643301834
-215.041857491305 6.29590392220208 -16.3368541581585
135.503604995442 -17.9364929800337 9.90987405481558
-6.74119193209726 -11.9345931399004 -2.73000152247142
-183.062755462862 -3.40201311881559 -10.7945004498476
178.245231401995 26.9160062815442 32.6879039458218
-177.336998176552 15.1406301562127 14.7998209269386
138.244753763726 -17.5186929566448 -16.7448686013473
-205.115276907204 21.1650408008646 -10.3868912943877
-224.078587125296 11.4365383489868 15.0253615141336
-69.7195759032653 5.42760992363907 -2.72336800705972
-69.7845603441905 -3.50143232222964 5.72838072302893
-16.3515898017485 8.54861621045718 -12.5129117079801
-232.753457915704 9.76235551182808 -12.1757809353793
203.378844374617 24.8774777748924 29.9102305642267
-193.824353476284 -5.39069477945581 19.5558450840952
25.2773659908664 7.94449859532566 -24.0789491526114
-107.809242675303 6.60595500422853 -3.06282570168572
-229.45364855498 6.09817972185001 0.650852584308988
38.7883576690483 4.05246809357054 -24.9181009770708
-150.292702155358 -25.2016041717361 2.2922974161875
188.855605950261 -37.6672074894971 10.6115635603134
-1.87195701431431 -7.99192679034518 -26.3646624346899
-51.1650723544528 6.503291136623 -6.99998366096307
116.931402822958 18.8497479776865 -4.55428340078179
-116.417201478786 3.73863864097097 -10.8413359088234
-109.516761709306 4.60660575246536 1.83185677989358
111.059558279746 -18.7118451334139 -6.33200662607534
-177.085733263557 -29.5177709951176 -2.41443230192314
-239.207362223904 10.3919160760034 -3.90781117012184
152.358386458116 -5.75034312727562 -21.0879403265926
201.787245426483 -13.264361456293 0.921799531554987
-91.0693229024016 -8.84397516527175 8.4147459824727
117.008594111926 -16.8157251201559 -14.4240287632198
113.948878727624 -9.01158514432164 7.13234471409159
197.036414970771 -36.6767530048253 18.4802303094002
161.768620633659 10.0522077985853 10.3374279590734
-162.607154662036 12.8856033539968 22.0352968686278
170.527602093837 -36.4817643930971 3.95808838473634
90.8530276917955 17.4324233479309 -13.8376083011795
-199.958372271428 4.26857268468921 -10.9913326933429
30.4125976121191 -15.9038816720373 -14.6722607868751
-32.1798294743113 -3.55611748292345 -26.5327032404227
29.4299249542899 -7.25416770124614 2.9377815539169
-216.077713747504 -30.31688735564 19.6743797306655
201.720245044083 -28.9213904009906 23.5367614188185
-218.081725284689 40.937416479816 -16.8963179098179
102.675415112711 -17.5356805758479 -10.849819386965
187.71214658096 42.2003743252903 0.0906923311599918
-212.137095044947 25.957111814638 -19.0070119881452
189.288573672055 40.0432338484926 33.3001291469597
160.405751052648 -26.3503146595579 -7.47791228071203
-224.795612886919 3.20606686377368 -11.3309826145952
56.5033699792372 -8.7765431076395 2.18860748300317
118.065211910641 5.51375721037227 -21.2506909568083
-117.158322264687 -3.01165998729867 8.60551414864184
-163.922040302148 9.02033343760909 4.43414580081394
107.815191535739 19.2767186382812 -10.4986072244896
30.2763038629035 -4.89613285581908 -26.1472947097557
163.74582721075 -1.829576529406 -20.0687925331328
-174.835625985486 12.3366040154024 22.1847366288371
186.308679491833 -25.3875021782169 -25.7011773316021
132.265875180365 8.5312919361909 -19.9381971904277
152.282370149204 -24.9832162576012 1.09836031326703
143.898986060318 7.96061449997945 -19.2533730149896
193.652350351685 32.8457105508886 35.4784028216743
170.086500077368 27.3047646357122 17.380101430257
-81.8655627178513 -8.44480013893927 -23.1002518800031
-148.098163735049 -16.7757147075105 16.1798943914901
-67.7374167356547 -3.62014606136227 5.78994948775294
27.4845710631414 -14.2445443276728 -20.3302788308904
3.61467185350871 9.94249282004539 -21.9207836686798
12.9680879038331 -6.90359103747527 3.94774422879485
-223.620257015205 8.38409271294479 -15.7986956610619
160.554406502343 18.9403868311492 -16.6709259742087
-27.3308228372528 -9.35745624272713 -25.927755644279
-204.217984980665 -32.4145133494337 -5.26961493022195
27.2613721646015 8.34530941262646 -6.37410567899875
201.603749288867 -20.8348287612144 22.1167764519819
-13.0844418118494 4.18760022404761 -0.691441167297895
-236.693679810617 45.4880884805059 2.68575907498077
-186.937724641625 -14.573102084898 27.489989807326
-107.919244989465 -14.129157840342 -17.9475234295637
170.457808595277 -30.905191913661 30.4934741925512
193.605764994092 9.6882551154512 -21.6691910907255
-63.1755111020097 6.46673699422641 -6.77343222051086
-210.39875548265 45.0119256761679 -7.10007824262106
-212.214517156366 25.1390865982248 22.1765855733399
160.326202852567 -4.628408509157 13.251565292405
-243.51202963342 16.7029728808241 -4.65108259874589
-199.873497790317 -5.66400192787499 15.6776521774942
-216.627607004265 -33.3323586182169 6.29431030524599
98.5098113518495 11.6804498129622 -0.775131945869648
-155.480802496555 -16.7684118435308 17.7372237414754
180.972137235152 29.2641272264062 34.3360053531275
-132.026025796226 1.33017112069383 -11.5329764625152
131.277346825649 -7.55082185665065 8.21323549937779
165.19054286935 36.3438557631856 3.72104579700694
54.1900008862876 -15.3803507394439 -7.24909367335102
-240.095858367661 43.4993684779689 6.26606870582825
-214.319675802683 -31.5888207088774 19.7639913377021
-88.963851739892 3.08937144617768 2.2571937768232
-212.313926190855 20.7884540417962 -18.2440890512088
-177.637577823036 15.1891617191568 12.8748978675761
201.161245294497 39.1477173517285 11.0895239477917
202.836225090047 38.1536856165266 10.7503033258024
66.1109400194258 -16.0185454568346 -10.2511202858232
-204.71657837465 -35.1045608128278 -4.28781559027061
180.762517992387 -23.9166983758282 -27.8372402734482
169.786475468653 -23.0817677814424 -23.5718762812986
106.872041548474 2.57296002546471 4.30314302093686
32.2360618464823 -15.1389309456113 -17.6934751841114
78.7144702238323 11.081038279455 -20.9326694414076
-206.06739565596 35.4509420609952 14.3910368192707
205.566261573084 27.7438147136434 -8.28662446518353
-49.987931526529 1.64299139504019 -25.1170984577904
-244.072472619962 36.8490060103139 -3.6900627440843
193.686129538093 -34.2719631651088 2.19031395283478
158.66683548805 -28.6121065187952 8.13828559581285
-112.177582440368 -9.65183636125329 10.2292669599218
11.4626788140018 -14.6580798232084 -20.6154173630841
-239.452471141696 9.99680591137468 0.752170061232698
-11.7119480024466 -15.4928217228038 -8.49063928376881
-65.0357974416886 -13.0834764942038 1.65978738237652
165.236380600294 12.1353784189597 11.836102527512
183.459310906708 24.9481103038266 35.296094635987
157.191417760751 -6.39469612219389 -21.2217120774557
41.3094842217192 -12.3971177949449 -21.7836360282069
-59.3818835926088 -0.568620337870693 4.47182283742023
136.525490307765 -18.92337810286 -13.9985377671714
-206.618275133585 -29.1449840128782 -7.42577820950519
-168.228005550255 16.8452587664811 17.3684299558433
186.722737711075 45.4043062905398 5.46525868843529
50.767744651743 14.1093266278365 -14.8550883412231
103.892998414992 2.32560921007667 -22.6112336727267
101.939533207831 -8.00481892145116 -22.1822874625957
170.100257013035 37.9575755981341 12.9937243760276
-207.152195915987 -36.9432157300335 -3.16749777670372
-211.675760713349 -10.5244761915231 7.43373058410946
91.0172658097054 -7.67681739426662 -22.8509626191581
189.818443040589 39.8082158553017 -2.79060594162722
-161.014208848368 -18.0215337806662 -8.8301790275063
-194.523724837096 -7.50358402618054 21.8729839597204
201.612388247176 16.8541261234928 26.3335599643137
183.568807638645 11.2458643056405 -23.1352009893939
11.0581746977972 8.94090195425141 -9.67956901831661
-32.1809017127633 6.54600848553352 -7.11897949690433
9.1556037934802 -13.1493104721186 -22.9190081837004
211.175457116837 32.0194700155394 2.55311295048973
-186.707355914905 -22.0748218228163 -7.91514924534779
-171.253487429181 -28.6959121494794 10.2517538991935
174.073861835093 3.91362530592745 -20.3848753678054
-172.436561205936 -20.5557396351482 -7.62980290407555
-55.3251379393583 -17.2473648693252 -5.49970378488094
211.700189828888 20.0591120055693 5.67515321336098
193.469795936465 43.2577295615929 6.14143604102402
193.653360464199 40.9337794014952 1.89090950213852
-233.301376329312 31.9992853942408 22.1124978108301
170.910741228448 42.1168867252161 4.0838122459657
-123.751097034853 -18.0125525849479 9.98871837267839
171.825914415384 37.0508336970449 -4.59952116335537
-237.420438343421 15.5353223766012 -13.4077121436196
147.077928281893 -2.84432442172057 9.04845077481189
-237.331464953831 8.26212377346252 -1.94003580801889
156.096844824015 -27.0954476028136 7.58739909107212
169.787241789224 -5.52068238380924 19.3591672328357
-64.3584888808014 -4.21393443267521 5.43872431778545
189.201767528648 19.2848181215988 -19.2921112659178
-215.458483620441 20.5272672398597 -19.5433626254538
-21.7907493049343 -11.8804805333139 -25.0198873550295
-77.4420875837411 -4.41419566548393 -23.8279647892263
43.596134116146 10.7208419141304 -8.34386778699417
-87.0380206590653 -2.45226866670156 -22.2648246630796
-143.766955954614 -21.1079876273417 -8.78670909663763
38.288947587868 7.73841628634736 -3.5684431691282
193.404107652252 -35.1597256153456 33.4288111129017
-104.026052395239 -22.3020952016144 -6.36909573158597
196.761118914879 -6.94334944649577 20.8161667704958
49.7139163097008 -13.1408199384237 -1.72161158226984
169.464595740395 11.7164627686224 -19.0581456041906
-198.898060798472 18.8290923634872 10.9222521762894
182.980984398565 14.5191449514905 28.7474142735589
-172.672752292932 -1.19336035774954 -10.8115010063812
-136.189954985209 0.732344426523495 9.47498886141404
-217.305492732943 -1.65518792497866 7.3903859172212
196.416754342948 -26.5983867810169 -18.1263920573585
45.8110450264137 -7.17493235656228 -25.1313398343177
58.6015873497609 13.3410082273723 -19.9819025242878
-20.5886559694378 2.10524903202639 -26.2303260994916
193.737997360941 -35.1981945428048 6.04202600873782
90.5837386069881 -3.65724630960491 -23.8938117080982
-230.003838043358 40.9506874828479 19.2009724088432
-188.297890989079 16.2734114145492 -2.6134282626913
199.338486106736 39.5874579524716 6.49646843750435
194.191332124359 -36.0580263013398 13.170276619579
-179.347633142326 14.1495535971594 14.442004142606
-244.331268502572 18.0955300088811 6.50589956569464
155.453557133467 -13.5823438100582 15.8024972250753
15.2548003166953 -3.64181379325019 -26.6390428354996
-221.115803202162 10.7218436702231 16.495645276609
172.170873307962 -33.6487347959879 -3.2815782567315
187.265976033058 40.5218346903183 32.9014177967519
28.1406900713431 -1.02617152589675 4.1940228812783
-13.9648458367747 9.24123521252781 -18.6985701761821
-242.159738406855 39.8405624330359 8.49718871522062
198.117571684975 -6.10142030841306 13.274986464026
187.721396533339 31.4885984643966 -11.3749692937932
-220.922739053922 13.307214787243 18.9088827800648
-108.50659124892 -17.4010134808257 6.93283967077849
45.9854417534896 5.57328462435353 0.852259008580276
177.321075347095 -27.8672663778141 -19.6373242593957
-209.362488604399 12.2680990920531 -15.6285009293788
-235.405350613769 41.8602919883489 15.3695342215377
200.83449053431 3.7471239553395 3.86410887873569
-97.9574565000768 -0.898072017856407 -19.6718910590048
82.5709368564239 -0.0480495947567485 3.79921370068952
-38.9126578504191 -18.3614154268663 -12.7528552582711
96.3571842642612 9.84413053781464 -21.0107005532127
195.223485921328 -4.67123066248415 11.6386796122133
-217.38510635251 -32.2289003352229 0.243892761885142
-177.708664268106 11.9780694045306 2.30675554826504
187.514866583931 -11.7331090850835 -21.8517631596312
150.733015071391 14.5512122679198 8.03952905380455
116.704744993125 20.0082065927797 -11.2459723113289
180.54848574693 6.17474668888456 15.5551965782687
-222.718311779792 -26.64478676077 0.952014680806854
-134.002148964895 -9.63738322982575 13.0503772962305
167.82290098669 28.0495927639466 14.058771753186
203.756018474632 -25.3033811459455 6.08560861475224
157.336604880029 -25.9403546669037 -4.08305697082483
164.098484348036 -14.0702612901818 -24.2767806844679
-87.3900858804748 -21.0463117061791 -11.077906927183
8.52079718368004 -7.30927608094291 -26.2660646333794
119.453304062519 19.6132385607726 -12.8183305813957
-215.684979434907 -12.5722963066779 -10.4313625054068
-34.9678197748422 -16.5810873355902 -8.0571809692209
191.054658659074 -34.3843865175775 35.3036362803822
58.6527435630773 7.70495283104142 -1.44299698883608
16.8235525049493 10.9261975958577 -21.359830170506
-146.728904583873 5.84991860009554 -4.5316418747443
66.35708231652 -15.625162020085 -13.551124592496
68.8681624539206 12.0281072516879 -6.04325665486837
-67.9549944836543 -0.243294524774351 4.44298155867206
82.338335029794 -6.7023605503032 5.0279525975257
159.579777642935 28.4077428539939 8.36804477101877
128.189659601921 -0.058696706778041 -21.4454125649764
190.785934029828 -1.71856568592427 12.3539431013048
156.854756953212 -14.6882010814543 16.6768396952132
-7.2620265798267 0.647968444426702 3.9460233210306
172.2326839826 -37.1843421582929 19.3037670513726
80.5280832063664 -0.730261943884931 3.94493417137015
-235.326911538604 36.4793014253854 19.2103352891108
-167.709539148898 -5.90329972708281 -10.1004817185344
-99.4374697228548 4.51565836757147 -11.770330864835
169.712013289554 -7.14544749520033 -23.4368109506882
50.0131677098806 13.2951860682007 -19.6551783534654
74.0453731295603 15.9096075045882 -13.112034349589
-241.2625009014 23.716056166726 -13.135431075207
177.434679116687 -31.3697585501761 -12.6606678227806
153.074223505769 20.0877200980429 9.88373640074959
72.5743929683833 -16.3439017663068 -9.70201688400386
29.6410901293106 12.6636278773607 -16.3101560419826
-186.325639198599 -28.0517378011942 21.5565674606745
113.65509087843 9.86252377861325 1.96849355630778
187.579811178127 14.669249081809 25.4349305464844
151.467044049067 4.76569072504373 7.69337040018968
199.951567441698 3.38932500859271 4.88608947017812
0.603573932074568 7.07278093398423 -6.34789581792063
171.534891644132 -27.9010882749204 -17.5508030315259
-195.278049805847 -4.19418922432088 17.9353717039868
-65.7975263825066 -19.8918685552363 -12.9405849454941
-246.34922714186 29.4041198133078 6.23305524201993
163.788940888347 32.1092462732927 -3.83870116478849
-220.072564731236 14.7973778970804 20.3474483955212
176.566744800675 2.47320885995011 16.681826201529
-213.344906593189 35.5883813919504 21.2963276017121
-21.2069372146975 -17.0754503113531 -11.4180921645984
-141.911705465333 -1.92850983508229 13.2788175636359
-174.20707573443 -18.4847347361511 -7.92377781730724
-121.435283710662 -1.41222552937135 -15.7407349168712
-37.443324158959 6.91138961884305 -8.80989938686408
90.8959383376359 16.5189208693754 -16.2067640941542
9.29992269039291 4.18804877950509 0.51550264150407
73.4631190859988 -15.9984176188602 -12.8709116501136
168.201760587766 -23.7085398923654 34.6761153560995
182.647801622913 16.1482347316977 -20.5243569880087
-159.74749070845 7.2775482020036 -2.26802716432937
197.727575334916 -20.8737488261265 -17.104010188485
23.8064901965701 -6.6875358732613 3.96858868993072
-28.3310461604214 -17.6547458494611 -17.4025091544289
-176.88739103702 -3.57429929477422 23.9299938564147
141.216541489676 -20.1049886484992 -12.6279812367554
134.024997222397 -19.4587638938817 -11.8192835454373
-178.325183059782 -19.0674126456653 22.1557405843906
165.573983901776 -24.3564845002131 -18.3590790634021
153.441806726678 -20.675567251357 15.3344941660254
-219.474858177107 -29.8005887366029 -3.32263233213638
-99.852481795048 6.22135040531109 -1.81268457257148
82.4356805029172 -16.7066856364162 -4.57255750206235
118.288655689268 -16.0796372216836 5.3719259693778
191.379353391978 -7.30669963332146 25.1362185100975
-216.549236255055 36.2500332235661 -19.227141643166
-245.129331275878 20.4578758622079 -3.94235108311334
150.599352842774 -24.6631392178252 4.0167383459893
-142.886263161625 -19.211349333399 13.5276348911111
152.894311543646 -25.4460573012404 4.90391873144847
-85.7650623435979 4.49057432602475 -14.7574985668825
-231.301311999453 13.5812480098964 18.6143743258374
195.013116677006 6.91092080330786 7.78056798602979
151.189848433604 7.2195067327981 -18.92310900079
35.050611693713 9.42723691112453 -7.31975866621665
-196.458198230015 -4.52047989704096 -11.6115100160513
183.735323223751 0.62475556758787 -21.4596056909252
-204.271463606188 -5.35421858098958 13.8434220607318
149.091264518174 -19.5847398822896 -16.350937626003
-227.282474108431 48.5043074461407 3.94086871024763
-223.387790473483 2.57244647431837 2.76777009715849
175.232709260491 -21.6679406669909 38.3899015899729
208.265942266228 22.0834092120002 -8.25692525779827
188.486744343954 -7.43359124801296 25.527960099068
-214.17801989834 -33.3320391407065 -2.99766437180679
183.943807457763 28.2983450550661 -14.9251761900125
161.610097051556 14.1116710672416 11.3447585216698
-194.417896735755 -3.70796288117701 16.5063296209723
-244.901675935839 35.3763892335243 -2.67481949090714
162.576117550061 -5.29787794592295 -20.8085258792134
-83.5613930109985 -20.9248776737095 -9.35625311594309
186.852910491499 -35.5544637281166 0.204347498707717
-156.629308166478 -26.1920298014751 5.39922524478601
180.214212649986 41.953051092313 28.9186127297553
20.7479822849987 -0.984344685874654 4.44072393823038
188.403822470059 -0.0769308512321204 11.1126977394352
156.782021133565 -19.7903490303609 16.5722598987966
-156.429825787513 -24.7787499298702 -2.50532930006744
200.969423710376 33.1291963502875 31.8912137870213
46.1815322177017 6.06171992667141 -24.2649198810008
162.194793363538 -31.4082742393342 9.64848867583534
45.9982477511897 -6.76946860864494 3.61042492005723
-177.127885210465 -20.1548262171843 -7.61304083726373
-178.330579196875 3.9902450581169 -10.2665395688407
94.0809809142499 2.99851200846776 3.34184651891125
-186.531609210459 -36.2401262178906 -0.550154568098787
95.724451328023 -9.62302844377905 -21.5619311119059
-214.248967198039 -26.1311610065847 24.7701914308006
-11.7770569183036 9.10339055671053 -14.2205992790011
173.787773785849 25.6488553139573 28.3191867532149
152.001982158154 28.0913543694537 3.57622472206328
81.853777990765 9.88959689603097 -21.4287849277273
-189.80904771338 -32.0214323107986 -8.27774164473592
173.205351761117 -4.34746999777563 21.2325190665772
45.6163015842695 7.73101546751919 -2.78096336928863
-178.753975915408 -28.6428384610555 -4.64507208395419
146.257198426806 -15.4409998258115 12.3122586451145
184.574322245091 11.8488541293102 -23.3986408140383
188.76752519227 14.6476940886997 22.9240355003823
172.817358438647 18.7367498062543 22.8192327307237
-48.9880524310514 -13.7892761730382 -1.81978446132925
180.416369275608 10.5081536165515 16.8172278038721
5.38775484951347 -0.866082138748882 4.43405126753727
-177.161217399795 -26.3316444009808 -5.96691964245717
-184.095605146279 2.8200951590704 19.0740056283609
207.893818154573 12.350841784123 5.46363798630433
179.034523373385 -35.2583920404651 25.6971315783561
-70.0297667254349 -19.5877290688901 -15.6993647775863
184.371800178779 44.5381807501112 15.657182628494
194.394822401916 13.8049508323139 -22.3526615649724
187.070979472761 20.5634445088393 -18.0025841923901
203.704666963889 6.86399174676394 -2.51366664481167
-29.644881984662 5.96829198567771 -5.30747359472668
-100.779021335396 -19.2196098929912 1.92254083500287
-49.1175170955671 4.31985173711443 -1.00315367410146
203.143379412122 23.1018988187769 -12.5890950621662
160.696341464177 16.1095888896139 -17.8731816805787
195.130095655633 -35.8465695973239 11.4867379862368
146.698474718959 5.04356595185297 6.86896468835967
158.725327219133 -1.90973270786167 -18.7916701127189
-217.13623808593 2.39646187676155 10.8579605700361
-162.505974558593 8.27074359018356 3.10299022112817
166.347554674417 -35.0357534395002 6.52801417569549
118.642256744036 8.89222590735349 3.00923003261638
45.4345247127192 1.71726392680173 2.91804413077696
-137.035595391267 6.63393106255359 -3.25016244671478
177.383855283528 -34.3952509802884 -4.87374108560663
83.8639953457412 8.0131704755289 -22.1287527435486
150.708314265835 -23.8290232031132 -4.36100751526922
196.118345607881 12.6322418657772 12.354327016502
199.048802513469 18.1991538392998 30.4967263250138
199.070695517999 -31.9594230991956 -1.73668702489549
-45.3222235479912 5.50795031366821 -22.8864159884186
149.042342816678 -2.42191146751538 -20.4323212780269
49.560557037226 5.14427186129933 -24.4368356374348
-241.253761151256 19.3552936452915 -11.5014099225041
181.798445349227 -32.9498710207649 -8.75473034002276
-205.282002848199 11.1288820434541 -12.2862853752309
198.360414262944 9.4862544520878 9.07662151582904
-152.079798661901 5.46050147610911 -5.37316571890268
180.57968625938 -27.3749099925841 -20.6928851942762
199.017862787293 20.595447110793 -16.5509496129739
-81.0030640864775 -9.60541118016634 7.91343252296104
188.068421126824 30.2159696094955 -12.1261848555274
-243.048577889267 16.321248838813 8.14578136700976
-107.402269767773 3.6358361848742 -12.2467217759809
-49.8919109935169 -0.229047975665404 3.86267720448718
-11.5517179491428 2.88471781200874 1.92458088669355
180.560487585645 45.9847441236397 13.7734843046696
179.715181341267 -5.04055677789508 23.1836089125081
-213.745443766205 -29.0551900820629 22.9667561645965
126.231418092284 -13.0874192175756 8.37107995159544
137.592723329161 -19.8803323874267 -11.7896851271655
-194.055447570496 -38.7371912892437 10.0356015867918
185.521478280449 33.0014434133232 -10.5911722317444
-202.75209692521 29.7632742298405 1.02038974802194
148.462832092773 -20.9524422263134 -13.5138830500217
-186.9719629285 16.92175336652 2.38831229573837
-200.670854063229 8.70774615642691 -11.0925263565662
-164.008272037463 -1.30854944573309 22.2832906209712
-203.484800232831 -12.4089837999119 -14.5799910897308
-230.863490589783 10.3756377490284 -14.2632458490079
86.4131996797447 -8.24443554756971 4.74864368300133
172.487495892834 -28.985451086547 34.7257457506312
-78.5562162172822 -11.9271011815156 -22.6749201526637
204.222281763468 39.7195045116586 21.0011345648738
81.2071405448209 -15.621886844749 -1.20868588079547
211.449420368588 28.5407776691396 16.2192976698382
181.511576438917 -34.8491169874522 26.0789038175324
50.5955416070172 -15.7847308024963 -10.9206398380185
-167.269505958718 -22.2128641503087 17.553529913973
-226.461455490947 5.0237898695668 -11.9465253917726
196.658130213186 34.6047154199407 34.078993911838
198.200254263083 14.1617316249251 17.0708849895554
137.327274960852 -9.16136943627689 -21.4367161419288
166.781762895916 -28.551796290687 28.989400397727
43.7710977790839 -14.6453921134762 -5.65368944621636
150.528814075593 22.9137948476894 8.07343362913872
-197.371575198888 -40.0608702282498 -1.37500351340414
-226.669524575556 46.1427828209451 -11.4450302111196
124.277514271931 16.8732485871436 -0.474514504734446
170.90929096507 -4.03010917902743 15.9360853626722
-181.438223388668 -14.9629456406568 -8.45955713779572
-211.793990278611 46.748566022463 -5.2742573537683
-161.751456873542 -8.28212007225524 -10.5022148765744
199.363655495544 -2.28847417034127 4.27563937838714
131.326240992134 9.70581804391455 3.90993260620052
136.095723848475 1.74691768878406 -20.699193376923
-205.20766121811 22.9607090894601 12.1056514630097
-116.675414914701 0.67727115594382 6.70815668088019
181.296609560178 -33.4202319307065 31.3526321327907
-238.427927242473 22.4159633208373 18.9941189757656
176.112597460835 12.3170750070722 17.3278167272487
165.411850039786 13.7494340153378 11.9304878728038
181.598121008797 36.3806895043525 -8.63861862385799
-116.513137666059 -8.52720132175128 -17.9005218228538
-156.137683664615 0.982999754406859 -10.8591605001491
-170.994335711678 -17.3878230200556 20.4641387883015
155.871780063914 7.31466263501084 8.70205075206145
-240.695447993626 24.2225147987804 16.9761399688577
-121.330165565962 -9.93888527604004 -16.8518949556596
-182.19359360394 -13.1725141704396 25.8529063912842
157.433937603673 7.65703099737209 9.24495920631018
162.031462695409 30.730516283694 -4.66506233512809
-204.328345706417 -9.54703613423874 14.0771948495649
174.031043094974 16.9143141489374 -20.2935613147925
-65.68288080573 -8.42813250787188 6.90760234916572
197.208889633971 -37.1312248694937 24.536995540682
166.61941740254 -19.4506536275704 -24.7578434547184
-172.297784224869 12.4903802734279 5.80486278623932
-50.7536472370941 5.80199170940605 -21.5264869253504
138.619404454843 -3.44576945345066 -21.1731812290742
-195.013628793749 -3.93485690925802 -11.192198028807
-162.94366963816 -9.01912984238097 19.902821324947
-194.732548590505 -31.4585995415903 -8.02507696261943
178.271969545308 -36.4134058611634 23.5047011196054
-208.45081728074 37.8951370121359 -13.0062394857096
52.4772140871622 -14.8054243797625 -16.2649785701286
-73.6984198197424 5.63624944337433 -2.72185249836884
50.7302900595482 -2.87983976259991 3.9746921689551
138.804491671197 -20.8030714372457 -8.46000773913424
-190.676258394549 -7.55752167483439 -11.0646721190445
-22.3427881761202 -0.800236576756865 -26.5808245862799
-205.490854553905 35.2444698605079 -10.6674193725411
202.526004098251 -32.5900866361757 10.2132785456111
196.244503017918 22.8853914749821 -15.4780728460479
194.436216487224 -5.65522742828894 17.5113663237818
-80.5831316764546 6.47250403753613 -4.67899487011077
178.328765261268 -26.9821500233712 -21.6504843276141
-230.361426082912 31.3422261606456 23.4186387837896
-220.385866665668 8.37711318846852 13.7746822127586
115.616880091269 4.19356872406069 -21.6517622293818
-183.660623073364 -2.01580358635464 22.4989953802053
168.835509822885 1.18196478607116 14.4410225069287
84.1562272773196 -15.6393201213776 -0.634310121057932
-21.7693960579799 -10.0384835404292 -0.0892727209791527
180.61170834685 -26.3027968080092 -24.2741197956021
-215.174066482681 19.2387066408843 21.7719522660433
168.840137795674 -30.7259396821722 -6.72597737830385
-225.877890841649 37.2977716109277 -19.382425122397
191.952887954364 2.99781076251087 -18.203630842547
96.4042523111891 1.00766545628634 -23.2670299007552
178.976525790847 29.4609707834255 33.1713566247997
-174.245202985766 -0.461745230245794 23.192464041315
183.688727865726 27.9928189621246 35.5773999369304
166.034320009832 14.8910566633636 12.36534126959
-166.594871291878 -25.0311569145396 -4.65814514498954
-205.68484210733 41.5979940901148 -4.60922592504324
198.602808206827 11.2100774706767 -19.0649357542784
62.0372621604751 -3.98106999337297 -25.2524513780342
-177.834482881592 -22.9688766447381 19.9919726102754
171.091773189555 3.5778523135094 15.8126327260858
-30.4930779477154 -15.5185792400829 -21.8840743127988
180.867444351716 28.6867890209264 -14.9974936409815
183.276860803082 -6.55836966929274 31.4587179596503
182.809931530002 46.2077291745927 3.78236666808624
208.088977524061 15.228443530458 13.1859589006664
-240.517948083402 17.6168638708513 -11.456160677328
191.239507332911 40.1484584723295 31.9158965251795
-58.1698694274556 -18.8901452198957 -8.82719946686652
157.983493772531 26.7340110845807 -8.39694562059725
189.248073637661 42.1690492498361 0.377453153866341
-27.4183707797025 5.55669059889671 -3.91615195382115
-100.073000133313 -20.4889501947296 -1.02832378662758
-9.3198106214384 -14.4263798067143 -22.4609993163354
-179.810311970812 14.7898783931619 12.6093978069262
181.906773071702 9.45048746678433 -23.876674596929
84.7511820610051 -7.08645984377175 5.1592461598457
-204.439222958927 -38.312479982044 1.10564313354272
-179.742439883906 -30.6100435087845 -2.8087871334716
-92.2322379967662 -18.4731996043823 -16.6940176613823
163.779038012947 -20.6235162584383 24.5552284341605
-194.060540430107 21.161695287205 4.51378802802614
-198.699204951164 -5.87147443835152 -12.3596432605891
200.249395806211 5.20828996875081 -10.2114511398761
-212.500308823614 45.9424293573254 -8.12519307728829
211.149039629358 18.3399582436045 6.38345610965487
163.770494268442 15.5790727589206 10.5511584204264
-91.2752499013089 -14.396099505249 5.84197190314184
124.750771959636 7.78402709140734 3.80417908574329
178.855692871383 -36.7683436802725 0.134011503725258
-144.612619119924 -19.4607759120358 13.8657397332235
194.03827034079 12.6930500868723 13.294163103916
-168.585512227113 16.9245197995208 13.5431314383223
114.155778656588 -17.4641599563682 2.53756037563182
-246.169571561766 32.5708188089268 4.03415736249188
-122.32542168312 4.88106722859472 -8.27566523712832
166.628102690264 17.5227856317052 13.3148988252234
-213.299134411325 -14.5012156797299 25.6346378097416
108.157009699095 -18.4979816779503 -4.80308958522854
138.446861825429 -21.373341648382 2.03696140818983
178.257525352264 -32.2811910721353 28.8817746282727
-66.1212651283729 -17.2655851896616 -20.018166631858
-96.3260331962228 -19.8298831262068 -14.5034417233695
-81.1319560601575 5.28943246998638 -0.904704207626297
85.6227699024014 16.9794354402579 -14.0715389438217
187.058360038805 -37.6577488171298 11.7633890626556
137.13929948291 18.5684355397205 2.26361067658572
194.510731870326 15.6208936211452 30.9170917880199
157.787285439605 -2.34869205311596 -18.5975983662112
159.712523617852 32.4375058237838 3.98870011459899
205.337465175732 35.8356092922767 4.04175168097237
163.179089465334 14.9771470480598 11.2750748285984
47.140479276459 0.00921795297297366 -25.5281342396267
-160.399687696065 7.4112262614296 22.8231680083001
-89.3487298683052 -3.88224903271684 6.63826342877656
