-204.213035122993 -31.7428550110714 -18.2290051673596
146.485600118737 9.35723062537791 6.88951216509498
-23.3915551027157 -7.98169386037515 -16.4025786366862
-160.879906175822 34.4252486296466 0.843554107249687
164.899441007102 12.7067454709359 21.0842005006131
149.406108031122 24.7892847478703 0.759954442523692
-163.167786245352 18.1687894317775 -5.08744250847524
157.95175693155 12.8176214213051 14.6419773595879
-192.953295978199 -35.5621989479974 -21.7130663580508
175.495408187983 -7.15554789111183 15.9423980660104
-43.2402465610286 15.1033254470267 -13.8439885948343
192.12182435636 -13.5683297795722 -5.13374227437317
157.261192179478 -26.2680885124041 -2.1393246027416
-124.246134890706 -7.39042733180631 0.118345596260495
17.6089342699134 13.2302119723507 -14.9627105317211
185.8010641266 2.71272864732023 -6.60032299030931
-80.2073280423706 -1.80569613303228 -15.8030804002924
-198.879414418322 -23.862377716496 -23.1874775347316
-80.6308791582235 1.86849492754943 5.26795408630414
93.0840574422275 11.2986217579061 -20.2346599960303
121.027777033159 1.51288224235489 2.11414007435363
-149.230883786676 18.6918169269908 -4.55232509947489
99.1416146213243 12.7839142450301 -17.4073851220893
-186.361224990671 14.7506066256407 4.46253453978983
88.7597908086561 -6.8589197235751 -3.38085411754213
-156.1808254762 19.9050306648406 22.1871095864231
106.421563024207 -13.1192547201053 -4.46520350148883
-173.681305513603 37.1004351669621 6.32377967224701
44.1475085948857 -3.26986820764788 -25.159693672627
-159.982820234506 -0.993250767870857 -9.59397689008392
36.9189391832015 7.53246696613377 -24.324977449971
-126.032038531707 -6.19332698404864 3.43695622337108
-134.605678284582 -7.73378947889086 2.869382992892
-187.502157637755 19.2354485636837 -4.36659137265196
-137.12802458727 16.5786490702928 -5.66037226443547
57.3960294762096 0.323800904403983 -26.1329905185431
-152.255146441956 -8.59370611110454 -6.56309756832418
-57.2973210851519 -4.76151342684022 -16.7529565773473
122.027965198915 14.6363008715829 0.733972566833195
-179.242301316391 -7.67820591331524 -13.8517289566643
152.541839422215 29.5962590692082 10.1812654665988
-186.632835134684 12.5892085985933 -2.70307954532038
-166.858338107945 -19.6049640784965 -5.93566878078287
-173.369233068533 11.563158638691 22.1414667652823
-132.92758898769 13.1883781918204 16.9195026893845
170.485868121292 -28.3202633613724 -2.6910867277834
65.9226963545805 -12.0893698274072 -12.2818207965154
167.787542854364 -36.4478735174419 11.6652046655696
-139.948332047506 -8.88634480258294 3.34375968210472
177.94507950575 -33.9285789240132 19.8363740905975
135.699017106886 17.8502602833769 2.11439109144743
26.2219745345402 1.74040645739263 2.43103537046198
156.263571073521 8.25014388410165 -23.6285657788923
-184.816909767492 17.0608923034258 15.3177684756821
-178.311876464103 -40.5280289302552 -9.87946160899146
125.228615697138 4.51040186167477 -24.5211343488061
-121.255544193883 16.580904544592 -6.59075593312991
-29.3497058428508 10.9704751106707 -5.67489576383368
178.748222837864 31.1778931245371 25.7889492364198
153.590044757537 -12.4526682793206 -17.0550370148334
-56.6418413527225 -6.59024897017685 -9.73184768946072
-144.572147690693 15.5216198025557 -5.26715017629391
-118.673090728997 18.31711798939 11.947091456826
115.952881033204 12.5204866141098 -19.5101131390311
-182.923058338774 9.74056212940016 5.70393198974764
128.728684471676 7.31847349040553 3.54355419748322
-66.5266762894971 -1.21718046662221 -19.0604611853357
185.489100357272 35.0857148917633 17.1517245347819
-98.14550773147 -3.21629853723784 2.83357769310024
181.463800886746 -18.1391857028856 -14.9188686924356
-191.645535631547 -28.261281257744 16.157007592642
-89.9120635369076 -3.62341584811524 0.600158656608106
-174.220066114892 33.5399387201864 16.0987887740008
-186.119754825629 -37.1564658851784 -20.1274924217948
157.312410485166 20.2722151694491 22.999534337579
166.643068229281 1.16212309264864 15.2220917071667
178.635006489477 -29.4008818993262 0.707703318933016
105.885268844715 -13.5742101083735 -16.4010493782204
136.956456415981 -18.6629335328802 -8.22371318825592
-78.8001207397611 2.57508092498157 -18.2608973796351
187.156611561101 -25.8268934134016 1.54974539328887
-188.454675042281 30.6043215309112 2.36041432587247
-63.0033284032005 -5.89551063257405 -12.715507666015
-152.642101905314 -5.61243616940411 13.7758853086529
75.484766666605 11.3215305142677 -19.4774711179637
113.961526863761 8.32803510256836 -23.7690779314934
44.1650852051786 4.15522777959617 1.80474586619833
-149.130132960278 -8.83628724405017 15.0938957443401
-177.874959518432 34.2807857677959 13.8209830063026
-97.9361674508196 14.561958884738 9.58169289852417
151.133091009607 22.6250853546938 -5.63121346018807
-150.434299761046 17.4226859847525 21.5383980936433
191.942317130056 -11.1329607605604 -2.79669179914541
184.714523261368 25.056882522469 20.9017590843265
-125.412004407579 -7.61093585752726 -6.69134293739358
-173.585553484558 -33.5403752125192 2.90239290984738
-211.815604561907 -22.8940064958872 -4.24064287149616
-189.332777878784 -40.273635614521 -17.9816805355818
-173.328137462085 8.91889615920552 -9.703278172391
-182.890064924223 4.04446240094228 7.67882651691014
-170.988169743164 8.02096204933673 15.8146807607895
-148.608208113368 17.4224643699905 20.8118646653765
-211.160818577593 -27.7019347402651 1.26874418179283
120.954124439034 15.6782388937168 -2.93452959930998
181.278376006768 25.8285903398674 -9.07750462071263
97.5192450937875 -7.5052521561333 -22.2419097826772
13.1062801378817 0.728498227313292 -25.5789760867538
186.751206902923 33.9501959646192 13.4634410248008
157.060127165683 -3.64387228434937 12.1680812398757
163.884058933129 -3.47511477351259 16.7709143294915
-155.661679688877 29.9246033233024 1.55742246413665
148.488086754762 1.25876439776739 -21.6186218568435
-121.350635500399 -4.09099757732617 7.02096374779254
-181.21522095142 -7.56028685930023 -14.5525496473291
-210.400383845166 -17.2063915331416 -2.00259824411891
134.38042507724 16.7827915448789 -11.3108796838178
-179.230872039307 -20.3988212318447 8.62005801056084
174.529191648078 37.4261881300142 23.7477319444791
-184.242966101093 -39.5090928287094 -17.3955470336008
165.943699319722 19.1660410734168 26.3219154282989
195.917462017297 -16.3522839606746 8.74898220406133
-155.347911527321 22.9093861959425 -4.12481890421836
165.347588020886 35.9361556268694 14.243519068339
145.379666311617 -16.8422906940465 9.65112380290939
-160.706140725657 34.5641239510627 10.1791388425663
-179.412453203607 -24.0699410969474 9.0026796020324
-5.51524429774869 8.12349300982258 -23.532780300844
34.8046830819317 -1.56966497393653 -1.61947107720357
156.617144819724 -1.17232342366686 11.4977914960918
-170.990556887602 2.49957524006889 12.9638118513496
-70.9671935538167 -5.76319934964039 -11.4356614843192
28.6522500182689 12.6957247125369 -16.7584234432114
29.9417283082112 -9.82908625468586 -13.3746471391625
-133.628839674148 -1.1451347979423 19.8897957263708
186.319249880473 -16.2439269466873 33.5646568559484
156.67868409031 -31.9010117295272 19.2335827040067
-182.264883653154 16.6885817443514 -10.0304111037706
159.570633617456 -10.5661180541404 15.8835435611685
56.8856295188863 7.70730403098608 -3.15869103911242
106.479600067055 -15.5480316798019 -9.02648140583856
-119.449142918544 4.03438310813026 13.539566477623
-210.410547800034 -23.6139517939892 3.76864533753868
68.0239827090802 -3.80783898769791 -25.0640317125284
158.763726439715 -10.5395634401526 -17.6725959204221
-66.4696145601037 9.70889368315141 6.10938034777383
153.448357080159 22.0079665052746 12.6611573891453
-101.134872415799 13.3898904496133 11.1524704967027
-171.020240261515 4.02514889123777 -10.0958038125999
-119.972031874878 3.17708517652626 -9.92914386688854
-63.7083646837947 15.6640352334493 -6.64196590511165
182.974744861785 -32.5879532374902 10.0553381539346
96.5275565231957 -14.3409064906735 -14.2569280750086
-48.6544830958219 10.3125036087667 -20.2561445830891
-3.40196092439097 -2.60237385991704 -4.44806842082919
-81.0070765390685 11.1607952017555 -16.314217068289
161.293188190455 -34.479967973505 13.3860352240216
-173.351870310806 10.427193234006 -9.73633008327633
100.063138912854 -12.0525929914687 -4.61342072112421
150.2832332648 -7.14431573903594 8.33621430861379
23.1214097185227 -1.69052146993504 -2.25270944895094
159.266528312113 -7.11578860967765 15.147099556028
86.1162631762835 -12.541491360737 -17.1380268609294
-168.20644010741 27.1055308547993 -5.64092369642502
-174.044815315527 -13.5918506467048 8.41601228678038
-158.53582536471 -1.19946472974336 14.4095396252218
-188.783786889263 -28.6994029114983 -24.222881033266
158.575787179256 -30.7224083527896 7.37359012773939
170.58693615479 -10.8333277245185 24.0720726947997
0.290073652381236 -2.35458461729163 -4.00985308064284
-70.4700042628748 0.0551678248997532 2.78348766048477
-89.0175748688891 15.7860171468675 -9.31622195130249
-203.403627178335 -38.8891442535938 -12.1318449252536
170.738652399611 -10.3113682310298 29.5666988793552
-148.439524157566 -1.4266172241205 22.0094865620287
-126.194812370514 19.382398852652 14.5914117684954
151.237956360204 -24.7749941868508 0.406955721786308
-169.378521907491 -22.0506830093152 -6.0633577913402
-172.185089961933 -31.839203903907 1.29393389263397
83.4116752177213 9.77564942014168 -22.157802265808
-22.3734136426607 8.26414834741984 -3.06349858866862
180.021721834384 22.1176009751927 -18.4809621998984
143.951265000129 -2.50533379421905 5.80252263643485
107.474995885614 14.5937096401126 -11.8119005809177
172.795183035094 -36.7667832674664 11.9787804344362
-158.211099290231 19.0176292058628 -4.7868560877227
189.769394271818 19.7274382680904 -5.51125291227578
155.240924827483 -9.27316703626262 11.257192007954
155.659132035298 -10.0097531150552 11.6492601897116
-37.1639784921157 2.44166839145576 3.35437077858038
-44.1936198838304 -7.07239723474104 -13.0198444706778
-102.408703048473 8.74571454071502 10.5136770234186
-109.621999609741 11.0249518623617 -11.4514855182409
2.95654356450912 8.01774523847252 -5.14977160577914
170.991218410984 32.37310868642 -2.17537447006989
166.314742149955 -18.6759936189414 -15.8847394585706
-203.986685524716 -26.1406767980166 -19.9875899155461
-52.0403488404951 0.814857901367064 -21.9413616150861
25.7347743512072 8.14982015253574 -23.958046840396
-190.232540306827 -5.63093074592833 5.12046249609343
-162.147220748892 34.933345871605 0.349572938227027
175.530737508445 28.85233328603 -6.3307251868106
156.872562755541 32.5907208277418 3.72959344834479
189.388877253855 -29.1272664893176 15.6331452839181
-56.5651620452283 0.111174570911075 -21.2547149944392
-194.23197219014 -40.7309823916702 -0.992842199910492
-180.466273652256 16.962291048562 16.3107114479273
-189.041809576301 19.4637014281496 11.9575912031538
-132.341328820753 16.4610272484411 -6.0720315239929
-134.526306572272 14.7671584561998 -6.50957898697676
-147.307035393186 -7.96099420144795 21.7347386629073
136.841521704394 17.5526417800376 -9.56832514025291
-120.790639175158 17.048682601802 14.4188383856256
180.699353216572 9.20567573741002 -19.8674140320858
186.108082024242 4.68120880889304 -6.12953284302673
-139.048587427594 19.9406217062113 17.4711633719716
-179.07464066199 33.5377742510228 15.0803885489021
-103.104507456158 -4.99367340314147 -0.299071124714923
-71.2844366542688 0.250503807823927 -19.0225684791029
188.921878201483 25.6290855843847 8.55718449111465
-125.337107849762 1.58281721824553 15.2077442665479
-146.495034106878 -8.09139586096641 -6.07993618817432
120.979351937039 -16.6818609384427 -9.86271812662281
149.858277169261 15.5284653119353 9.27543541630913
-172.280591377269 -27.5745254699433 -7.1114503892219
158.451949989629 -33.5423028856416 18.9976274692366
-94.622085827079 8.09308172220062 9.28035413845237
158.592244360841 -7.013553172915 13.9062005548436
6.71357053717341 -8.56800522952314 -19.6343728772895
156.606494131082 6.90954098913846 11.2764421978149
1.35419577201876 -8.41093325881563 -12.3927286061307
160.501147460605 -26.8480981733592 -3.02405000741273
27.7651890216732 -4.56174092028501 -6.15027207870118
159.211949133185 33.1267838578053 13.0616881095042
-44.5587261832954 11.8916657686894 -3.22099931158466
-1.28514439686592 -1.85329540428129 -25.0481139403365
185.392554003484 -30.3437299953154 25.1632007122636
162.66566247586 27.1566405112473 -8.27125189749136
-103.02407522597 -5.38392504705857 -7.12108784790768
-25.2471875488093 2.43724245366944 -24.3056244344561
-189.579715088402 -42.5127199875212 0.922950718932606
-204.40991998042 -38.6788724458586 4.0654966294059
-188.410677769616 2.12082979616566 -6.16635916157063
176.303949637689 -31.0621270932635 34.8412000917087
-118.73634167563 -6.30218798903932 -6.79390617601628
163.603928782397 6.26383789045504 16.0578320744417
-140.944134188289 24.0264764723869 11.3984107936696
178.065933616784 21.4260130150448 -20.5624687942849
-108.573003200103 17.8978112123437 8.63006393862807
163.770530561255 29.5582221348196 26.6591040627022
169.382601829472 30.1550308494342 27.748083664513
165.058546485116 -5.3272854307831 -18.6423579649307
-41.6870341223945 -3.27000622711336 -21.618111479639
-148.563139136953 2.94380817347245 -7.44107224596655
-205.650803729652 -10.3127128863503 0.993733142920978
-162.234090758449 -2.09724829467327 12.8763272472625
-195.233860659615 -40.9579676986841 0.0433780820423265
166.618439454761 10.8623472282227 18.9244203629035
180.950832728155 -31.0457518560747 5.04227156222236
182.586627868667 -27.901719140681 0.633777170474045
161.028368830875 -17.868118508046 25.7560023673525
-108.523113465984 19.3015743698625 4.48097561389699
-207.59561396597 -37.7352497588238 -3.1757636749457
26.1489622716438 10.6291360007104 -8.92157838504188
175.505781994662 22.915037677742 -17.6659013636862
-210.047978268856 -26.1138751611774 -12.1408550386733
-19.5443969007578 -6.04185085703576 -21.4174637222549
189.021855574259 24.3056102842344 6.98951033137165
-188.576635867706 -43.6838084997155 -7.5994225547336
-18.9749459145923 -2.5972205799396 -3.87022282203497
29.4237517320948 2.56528045935848 2.13644405506318
-137.361225193588 -0.686014818486644 -8.70607284130108
-179.673439046877 14.8995484828862 22.4832276503788
-98.2461857987707 -5.64610013702153 -6.17872915517629
87.0080623482608 -4.05358091045146 -1.95809763804406
164.4892580238 -17.7556949526598 -16.3060903722681
-201.625229034974 -27.3047775028989 -21.5013397766067
156.395870995344 -7.44941981040032 -18.3584418240171
153.125656871518 3.13010183006155 9.24954164979917
-167.023347853393 36.261045929451 0.6517673760752
-172.181996929339 36.3072626461292 3.11885849170778
-193.299526898238 -16.3074158597714 14.9843310549181
161.750114432328 -13.2098898295394 -17.2691091267796
152.620119061532 7.08809195141245 -22.9955949346446
173.508380316065 34.0380268574369 13.4666769923092
0.862471492596874 5.56908606344695 -24.7380687042106
71.4018285830523 0.565432783984728 -0.2110170143449
-126.988829383524 21.286657853445 7.79287123050149
-120.208603828874 11.4630294954984 14.1266168121195
175.950307158105 35.5229342519113 5.18081100099301
167.964660108793 3.22181702704218 -22.3268299750372
185.965106659297 -8.9921253510865 19.9416558591024
-157.346557518348 -4.75743577293352 -9.03861040943404
-204.302576595493 -8.60278475654586 -3.58685087671872
183.866346019322 -9.96839749873798 29.8790924338942
158.973238465721 7.68761131150512 13.6461997902791
176.193965823468 20.0145276662739 -23.3907566992231
-148.432796868627 -7.44738323628329 -7.29707751037173
-87.9994365205138 9.03482523135493 -16.1245152933375
-140.489242524608 23.3884745289884 1.33648519353984
-47.5811484322205 -2.21478716939842 -21.4729218416341
-168.976812273223 22.8395815669692 24.5412182839578
-173.221961876728 15.5511340226485 -7.90818202502438
-111.808628232532 -4.96417910248282 3.30342074658857
129.261259483922 5.28424249324562 3.27115236049681
106.138105961359 3.25549609597114 -25.4514538480117
-157.21318383394 -12.4687902117693 4.62484681638779
-141.220014882593 -6.85812521511039 23.6828869396182
178.490456366986 8.0541440861378 10.2662273572912
-66.324772654873 -3.98041514225211 -2.42784016978026
-98.3212579155499 17.074294457784 -6.32317950959183
-140.335153972288 7.54918903341608 20.1231291008841
-175.801181985191 -17.4677599377356 -14.654593690853
160.825939961827 -10.8725378755108 -17.6882205847232
-174.897367291103 -13.2113432785664 -13.0090618086411
81.3742597477917 -9.60927337517743 -5.84886538926971
10.8318775142761 -3.64945452012598 -24.5831703005657
188.280837198686 -2.88871805725087 6.36274126240258
170.174497851933 -9.58071162134043 31.9239690560566
175.999673867331 36.0622191103378 25.1120004835834
166.762719519698 -29.9283777232184 33.0837652818262
-187.918014762555 5.41578033325332 0.0202183302575013
-64.1832068413675 11.634168856943 3.61736419514535
-158.674928166793 -6.95414716298556 10.3851747142872
148.258403457655 -1.14229339071682 7.28524693284364
-57.6230082795096 9.83847885915058 -19.7925619821934
-80.565309187429 3.846070446342 -18.1593379843306
-185.813116670945 31.6024504270498 11.6361311168119
150.804499557241 13.7157747323487 -23.2348187887208
103.258297904817 -7.19795563213044 -22.2375396523266
181.013963242724 2.84953278586663 6.55267894772161
-76.364774379758 -5.98220963160972 -6.43372651723485
185.281020365712 -20.7432872180135 -9.1619419516583
-175.880503920094 13.108704141538 22.1069989624633
173.213565513138 -20.1354018350269 -14.5444520686661
173.107157307883 18.8546270732492 -25.6589949461479
62.6864578802334 6.9641176631445 -24.6339735494838
-151.049010043953 -9.53918892671502 -4.84683950948225
80.6834212138223 11.4876357459031 -19.2805469795074
-194.357738465101 -4.94271039883466 -9.49642793691448
180.775582464125 10.260059457863 11.7511710696913
-19.7661910609188 9.19718836636535 -4.63770058884842
167.966649714055 35.9824720780959 13.8205365398778
-147.277579171655 2.39248886113495 -7.70167322104917
3.47467654755925 1.50356816467929 3.16028970036347
144.776594543339 15.6600673974014 -18.1113533642232
-177.844820933999 -18.0742381924137 -17.0182251463601
-159.15676603876 25.1001291819776 21.8255921331698
-173.653057530562 -15.1451120856442 -12.1457134090023
-93.2601778864554 9.1336356966506 -15.1008275582911
124.1188932445 10.4646635241748 3.68507987297848
154.605781653791 28.8761982100155 0.860223704636401
-173.033949561608 -9.8881882765095 9.76782905275845
-161.317247774976 -15.1916963208604 1.14772307954207
-182.901700716043 -11.0044214357049 11.2927062619648
-193.96767302373 -23.075190464734 16.3261803212969
191.63166456641 -9.0956108939929 14.7698813406361
-60.9071200567567 -4.22503932284903 -16.8270246411001
170.224799179607 13.8532305408632 -28.0481961585107
156.186395958472 24.5827691108965 -7.01324854773078
-166.087033622548 2.01621772221967 -9.99322347244376
184.92124617216 2.23861743924604 -8.7091828233671
160.222810066832 6.4140290042973 -23.6537090556528
126.176022970882 -9.46178099919876 1.94628378105732
19.6562470012347 4.28932159222443 1.43914183844927
33.9105887940622 -10.4156842546458 -15.1023761709372
-186.368721014987 -5.32212859364506 -14.1363363485857
-176.655172295839 28.5702557927544 -3.51135277524245
15.6982272397732 -7.53477583822028 -10.440832903847
-173.680736385353 -31.0298709638088 4.96055262230518
-76.1425990872895 15.3180271221297 -11.0484503542096
-187.491918118008 9.20461818487503 0.67882320593945
150.041814226776 -21.878602750218 -6.82102793216126
157.311786724095 26.8553203426472 -4.29102778656597
-136.268350651577 -3.92819283378285 22.1849716402452
-91.5780604401992 18.0423763098686 0.898676738166397
-174.474293581369 -27.8024983192055 -15.9145703585451
148.496903409545 21.8796612666992 8.73555190486267
153.004979420767 -21.5042337083257 -9.12285068878171
98.7577503745018 -13.4648822083585 -6.18412247881797
-146.998887900093 -6.15405602181043 21.8022348689265
-48.7281187815219 5.1937085456053 4.58219964492903
141.875191823885 -6.34299734651061 -19.7423487643338
-172.731183515077 -6.83333478803478 -10.7834831538405
104.595593280361 9.06326248486738 1.76285888877699
139.344055717264 8.51836285041095 5.13335924388338
-159.392559921547 -7.945661896335 -7.96410826961166
-194.903372100715 -37.0496591815687 -20.3320801263169
-92.000085719565 2.94080053999748 -15.6464050689957
155.160190827385 4.23492581935876 -21.6228825348397
-139.637296181773 -6.88889882404316 -7.08124687401849
-152.476820734542 28.7779942679609 10.5405736889298
163.039530181195 -35.7647087085813 19.1694629891955
-174.083479178016 -25.6079390490617 2.3459823891168
-187.639611849511 14.0560937962173 -1.93031058842186
-160.886269563381 -4.6286497000896 -8.70526693576771
-149.759154139891 22.2553458765341 18.9012685429408
-188.439081875078 -9.26445751550926 -18.1405298618698
153.099629551687 16.1644565039384 11.0417713604335
148.311440669842 21.8767497288909 -4.46850715352096
-164.035021595454 -1.78219261961185 12.7577669295978
188.195314978392 -7.80106249616983 -10.001274381304
103.194169317829 2.4521229163399 1.10817069445649
150.806922554712 20.1774710200062 10.3565276796111
-197.090749264763 -13.0718316424819 -20.328556306982
-178.351187040542 13.0322138666715 -11.1302609645551
-191.938766704194 -40.6236446100099 -0.212906797853153
-181.322995729192 31.804187776495 -1.57470671727812
166.337153077083 -10.8411931831875 30.9818269725205
-139.863459713557 -8.28870207912253 23.4403005543536
-165.392576871352 -1.88560364223253 -8.95285891337334
91.192735709205 -8.03086868096961 -22.1204724630994
122.646157659735 -12.4386779316513 -17.6858884540211
-176.105313974977 33.7315206897841 15.9211522741442
-191.477190972603 23.7413852203672 13.9416703510173
-174.030963661845 34.0115063219518 0.0267658977408645
151.768984613045 -12.1233084482083 10.8319830938381
161.165781809063 -20.0985826086161 -14.1120736372049
128.892861041485 -13.6488873224366 -16.3028195987613
159.164889586463 -32.4283891205334 11.7925464106898
17.918210540127 9.30025087097923 -22.9833354873774
-83.1735050762143 -3.55387089949798 -0.303623651881438
157.233467870021 -29.8831039124962 8.4357828730751
-183.16662701258 -25.8201244964547 -23.3122816639248
128.279859498641 -1.04383511841387 -23.2402302544528
-21.5266192583527 9.32140541791585 -22.3067120859971
184.489081700751 17.8045387780739 -19.6038408848093
-117.707439684318 5.39169288337148 13.0664294854193
-56.3552558571912 -5.37934134377877 -5.66368729542626
150.031644481653 -19.5647515450427 12.3421912724032
145.388415201598 -21.592764480187 4.39095239843365
142.32164192636 -10.0242223697011 -18.2441667641344
-140.913313674388 23.0613386539288 13.7205913684141
154.442548776085 29.7003365446257 13.0582199789982
194.490502308012 -27.0104996314243 14.8070736780002
18.3873487434461 0.842621570423083 2.60579672352804
-95.8525268677267 15.8761078201117 7.66030970775645
186.248864699345 7.02131609093725 -8.09598078451588
-145.238036937476 -10.5106513453505 10.2138737690786
177.102568161954 -28.8568353839839 -0.807172980026477
134.089093461908 -18.7115222317398 -6.80694911749298
-174.272798528322 20.420191114417 25.3538126590296
103.497772811257 -14.8968183960223 -7.53710454712093
6.47955233814363 -8.8463699879797 -13.0950223045966
181.475806548868 15.6668573078893 21.1966814033398
154.929651102271 0.847220759329743 -20.5065184181657
-174.11015473509 -33.5866703138561 -12.3833553165909
27.5939181621619 -9.40719977049748 -19.6602018616028
-108.95998048488 -5.22576017354524 -7.32299082789426
-163.750938090713 -5.88187805060208 -8.71270619305564
-129.046223407911 -3.04565699238401 -8.48290013312383
152.280576671944 -4.98216414295101 9.30091976517969
154.764602563629 -27.634932794084 6.52915356092337
-4.38532623966659 13.1275820308686 -12.197400281357
-148.821982622867 27.3117164388748 8.92474325820585
174.838946889911 -26.1347682989646 -5.19062198805045
187.686479559029 9.47065035087935 -3.2232783802679
42.6943835926873 3.28710766755293 1.8581863672768
-147.091852253402 10.8625310438486 21.6172063649229
154.35752739564 -6.98327425697223 -18.5765834755329
108.617415969028 13.2504119998533 -1.25986672731506
147.655235660548 -17.975576880312 11.1218663894949
-131.258790888483 11.7105680513458 -7.58173301221805
-175.006803918029 -33.6089119646628 5.34538625905372
91.2484359011839 13.6913180463647 -12.6753031191728
-191.70514103064 -22.5148802666888 16.3932901758352
-45.8151893803107 7.26610612946373 3.83815065353893
-77.8368213302386 10.7622323220185 -17.0718496241641
165.037234009698 15.560568947829 -26.8248046467867
-176.155443051593 25.2447565490832 24.1029811615258
162.67666507503 -34.5765064124717 23.6122819909634
-184.770964088401 11.9264522534785 -6.23053908611766
-135.803622748055 -7.63822442242489 8.77324402680057
-188.835679230627 -20.3035617703045 16.3158059412494
-180.273986487552 11.2741632523825 7.23600307504998
-188.266412939106 22.6631217434693 22.9204781188614
-138.956647913112 23.6693820794326 4.47464948360925
-127.667463695167 -5.32693039893691 6.56626164644213
191.705599381488 -12.5485822335924 -6.54383806117018
180.78365119901 -33.2820711410607 9.35583946966297
44.7178588020279 -5.42674600848953 -24.1767070683118
119.83768898062 -16.6572959703549 -7.70606175255929
161.331292077639 -22.0385770319606 25.3694886860306
169.292445700161 -36.7949340595222 13.1100408171687
-165.196167767797 6.75647181705579 17.8784480389793
-39.187180673171 12.2268693522703 -5.42852554866708
-187.608700079698 3.02871143015304 -3.48941137994636
192.555219637842 -28.1569112008592 16.5271247749968
147.345006292855 -21.3099418533942 -6.36453701420978
-135.641175876247 -5.19432983506061 -9.66947951748798
-87.2048576236316 -1.41022247012801 3.23390625951108
156.424885023474 1.10550944189691 -20.442345009509
128.664983988887 15.9045850718445 -12.6494523172206
-175.941100800513 -13.3618564368586 9.1089858116589
-190.590697414847 -39.6916269579227 10.5072868195385
160.535238755425 -21.0773228265326 22.4283078403691
180.45383786483 -21.8969306921703 -10.1274242941115
-166.47265886939 -10.4478267856798 -9.11663379838127
145.650948430134 -20.2123679247783 -7.84355980040817
149.222983283348 -0.0215651361849872 -20.9616755344424
80.0020106988671 -7.24788802300555 -4.50359067868035
147.853543372916 -15.0453800835019 -15.1941661175674
-165.322680600612 4.78369034487501 -9.54276718950973
-190.649397703913 19.1451488004526 14.4584698900459
174.96846455637 -6.94005966333831 -18.3728717842545
189.722614982391 -8.83935755163052 -8.54769372188324
193.232178286308 -26.7375373161821 24.3652542648449
-45.3795617355374 5.79579006630967 4.12613258719868
37.1498536014868 -0.361190757437125 0.50833402961984
164.011279839956 -9.5684093906672 28.7047150760268
147.660220321855 -15.0203818167523 11.2458808461358
64.5790154551702 -4.45181974024428 -3.79070379122562
-5.93490754408653 7.71254973490744 -4.14830891487067
-142.089072606415 24.3904176171587 3.81335759024379
-22.9943853897267 6.8819546605301 -23.57321136845
-172.706986928119 -28.106328154315 -11.4239419423938
-15.8273881057346 11.4080284599113 -8.29537900762436
100.378677307624 -2.640910286055 -24.6635850751545
-175.640717154607 -35.9270113724662 -12.3171710480393
169.249228076933 7.06431059243324 15.218283677154
-192.945217127534 -3.48521613462815 -8.34468026292575
116.451964241785 -12.01968017509 -1.50459865617768
-72.2082999336415 6.65643894547909 6.51514526854945
184.244724381947 31.7550805227029 3.45029221787576
122.971967431158 -16.5185562574446 -11.1525622152451
170.494722140744 -11.0216371212511 26.6667843241935
143.050734989692 -8.08050547422171 6.3915752873119
-183.245000434135 -4.2475542343272 10.1167162261096
10.903877520847 1.00868264293941 -25.5604079082338
-162.399108339857 9.55357316275737 -7.40375078281691
162.877543825681 -25.8565263853751 30.6314430348483
175.888190959992 -17.0188934959522 -16.6062007247762
96.9852084590031 11.8259454537812 -19.449001234849
53.0200886769007 4.34180250986418 -25.6897663646343
179.739186573329 -30.7984293979855 34.1813618664374
-175.910050831436 13.2716703771757 15.5153124606416
189.094738604865 -8.15015291819109 16.9753222351273
-7.01539468365593 -7.23206737144365 -10.4587970585057
157.810493432308 -31.5779519238926 13.3693111836958
29.909620638851 -3.82674089711929 -5.23015399500575
-19.1987324406547 -3.766348319967 -23.4777756860046
68.9537471606495 10.9423811148805 -5.84922467347
161.715752722064 -28.0511365141741 23.1354360400447
181.201089903571 11.4029656124624 -20.9018594897544
91.8296139304605 1.55429804875057 0.540737697683601
-149.815776067378 3.41574776069793 -7.37849000974878
-182.825283799794 23.5900206599291 24.2774446285132
-186.947491847275 -44.0545429810082 -4.70396335947377
94.0225139941281 -3.47006914127888 -1.07634523251724
174.030789655727 9.12687726293863 -24.0848113814564
-168.832039998426 30.9957890067966 19.3682608929669
-80.6562382602228 -0.0837271414796762 3.65672169143731
165.552418003138 -11.0066066495904 -18.0540915327477
-114.554843924563 -6.17660264374369 -0.798905522728532
174.881330916789 9.31320115620581 13.7316793325911
-173.135433286462 -34.8396231672721 -6.94012263604743
-179.047578237435 -31.1109929333028 -19.7642375673865
140.503037882487 14.5438878652294 5.70625013986387
-153.738766490266 -3.51815811858893 14.7641359451667
-185.580212707452 -2.21175595611825 -12.0029989120723
-130.949155036081 10.0651271000452 16.5204290294918
-1.55256525535866 -3.66189667611358 -5.90581156354196
167.574718907786 36.7930839383124 8.43374495584455
-207.239356949726 -31.5024896628895 7.09981612198453
149.846994061781 14.9854377243838 -21.5265387491407
-183.459804804821 -31.3136729894001 -22.2569058356308
-83.0001741779995 -5.64973069462651 -4.84311127892032
-185.843620310844 12.076661308473 -4.2441844496078
120.914084854216 11.7048483187576 3.48875087557355
182.946100032221 -5.42773215329411 10.715660271157
-58.7186831543249 15.5854425516461 -10.4930710961961
99.4694055674297 -6.43261446674041 -22.809122657422
-128.455116522407 -8.80643091411479 -5.40234742558345
-107.906758755212 2.69303144818366 10.1407622789574
-148.972081289761 -10.3017459043738 6.91777568547075
-151.877713886045 8.47435720530422 -6.23038188017385
-159.705918328071 33.3210031586869 12.3363409709565
170.948904292755 -17.2157795051454 -16.820509255713
155.154310388046 25.9611562487777 -3.54675612430717
94.2880655377543 2.1639487731667 0.766447435235618
174.737926507302 -21.7547132314173 -12.4096513166862
-178.23557290514 -11.6622019365983 -15.0389002587295
159.468408303938 -18.9396302014083 20.212657906209
-173.859831855146 -32.1931127247338 4.18875598587127
107.792543117814 -1.39188132276159 -24.6560112355887
188.835758364957 22.3590948584334 8.77036001935122
-167.022401433062 -12.7991450622646 -9.18448283118768
182.392704580709 1.34196550149096 -12.1511742160763
186.285903409586 9.28705261107377 5.99708149049523
-156.28546900342 -6.24225512998332 11.3005822524413
-153.086273273838 -11.1141940865137 5.86230958144799
51.1692690648144 7.6844122830719 -3.79437616255225
176.896505527749 33.4733087920275 12.2221221649804
-192.016204703812 21.2182672675077 17.0045866948773
20.5948156984067 -1.49768085308238 -2.10072792335853
-182.71859871006 -1.07734600388508 -11.4415284068231
15.6524768315321 1.18968074475437 -25.6243550990163
-83.6318538608097 11.640370054528 -15.5882907672043
-0.587394330139121 -8.93706861175469 -17.7413331318307
106.048297020809 14.7662797260965 -8.98111088494734
-62.3111135678686 0.405823406057928 -20.5354153363876
-132.854452580795 -7.44144917046573 11.9081125289807
157.705207936207 14.9538586579813 20.9200723147293
-190.321488358183 -6.80187029714091 6.70560485685491
105.720638543641 -3.3093686111934 0.232383777783544
94.6526821257991 12.1787094787355 -18.5686595921703
156.008054756666 16.8440313968296 15.0008420134384
56.5564042692108 -11.4614366742219 -13.2643415500092
-163.067302502956 36.6208359187528 9.09907295956377
151.361831797253 -23.0485853709427 -5.06459196874446
-195.357424496263 -38.9740293104424 -18.2907757885678
156.553423025682 -26.1058416673341 19.248479385973
-52.8222459228787 2.0247456133006 3.48685057436969
-183.660677989281 -35.9460833914232 11.9476359910968
-66.3617487698752 11.5778958757674 4.68729908212971
-171.786874170739 -20.2211446959475 4.10490355746571
-144.225300220524 -9.78237315267532 1.84792661301649
187.123240573014 -9.19673821325026 23.4054745812802
184.402516098796 -27.0173332263487 0.929052470543366
-128.160370681086 7.83510530427692 15.6319874405042
34.4392281828792 6.63148446509147 -3.24193550484755
172.203789007036 14.8638065290301 -27.9329063152887
177.929366308318 -2.71823329227497 -16.3731572282628
-112.230261004161 -5.27712137621014 1.6397384857302
64.9013297946237 4.78598966006445 -25.6365666273313
-78.9589288251312 16.7600542945457 -3.1804969030497
114.038855837036 6.28135333448843 2.43615103830165
160.850617427927 -19.6656525799308 23.7802322246764
151.165274733534 28.6924827905631 8.4468208097396
95.9823831968273 11.6275637310506 -1.69359689801927
-118.681200227785 19.9813281383325 7.55759971405631
159.770226259864 23.01337783494 24.8095542159446
-169.308591729607 8.00116376094553 17.7404861750773
18.2519564383669 -7.92412307032802 -10.8134919012787
-171.672818749294 9.41214944572582 15.7785475680162
6.71689633283101 6.83026753486956 -24.4054485998863
178.898940218022 26.9931897193766 -8.24598600375677
-76.2917571820252 1.19265083569744 -18.3778580209597
129.314871906886 -17.8472204399037 -8.06045942177898
162.912510867732 21.4813821749777 -20.4786146830993
176.036482754588 13.2073987439302 18.0918640643575
-42.5769201761395 7.43153356468887 2.9995089669764
110.367601440712 -6.44184549381491 -22.3582210863816
162.246845551159 -11.2751385463761 26.3886388597788
-199.945918576141 -10.6691063798256 -16.6651821737667
-14.2295756023179 0.378280192258765 -24.8921744730996
-196.471330964148 -8.50194068490343 1.39664298398358
-112.747723657883 -4.74731658411495 -7.50508365441893
-182.11349530991 33.1306487995844 5.92462839053652
-162.767807687549 18.2641767505624 25.0333253369803
-162.325813850295 8.59430224709008 23.9902022154714
-159.540703980126 -4.83377859203081 -8.63406551457045
54.0397063451116 10.8958250952744 -8.15643769290369
137.524846850035 -14.1858063232812 5.54081559184874
-179.987938320029 17.1441634674696 17.7692574222279
130.0446880711 -16.5396334237183 -12.0881330877437
-17.3582465232561 14.2548926983345 -15.7385544965294
107.178204711931 -8.21326461160179 -1.66557157927967
-15.4077269528409 7.9082524140094 -23.3638169609045
193.904606927385 -24.4010791390307 24.2323049607055
-179.777056386811 17.1849412554004 23.5144353333139
-185.611219996395 5.07007286784373 4.09875959156016
187.155708961965 -1.67472682591224 -5.30186959883346
91.0944949007698 3.91813823959132 1.06137474147085
-160.68384239931 -1.22027339583255 13.7513530027574
162.578383811762 -28.0611625962888 24.696433040969
147.665275035987 0.969537571678803 7.01476693787033
152.391983739779 10.0878493416303 8.9822746697296
165.130071054244 -35.4832529894111 11.3457418209985
119.594158053277 -10.0538957465767 -19.7086734706649
-127.239332863343 1.65922308081938 -8.83054092421791
11.9928649791101 -4.07025090294763 -6.23871712776587
-131.919136730504 -7.85439841975876 0.458800328977086
146.490888177575 -14.6165228393936 10.4691173018885
181.316172726978 25.2439985305686 -10.5770593956279
166.415695844818 -6.70821800437166 17.9645679755751
161.8424129155 15.9773683723653 -26.4106077135175
151.443368038175 28.8665785719694 5.56171602413849
-189.231107919253 30.4771419120082 11.389042830655
36.9271125533575 4.49160591524386 0.873015750977567
-162.423732153193 12.327528366598 -6.24977292662092
92.4152603111014 6.13708136692666 1.62913836019773
178.825622176933 -20.1477568081145 37.4183467629987
26.5413089641724 5.11668841933431 -0.730152802252878
146.236742432867 -6.15291472456511 6.99735589997493
-94.6554226040303 4.09810243397485 8.31350836351693
169.246591178253 0.331840349179172 -20.9951259891261
-176.676181805998 -38.084982640321 -11.3080504270393
165.997428521168 7.39374328022501 -24.5253400873133
-201.659145699472 -42.0221133054173 -1.71876149869905
-110.856402477931 2.51857800641926 -11.5451042791154
-166.82914671608 -18.1725475158665 0.671339131268262
-156.976273868238 30.4196170496103 -0.279523068725443
-162.904516671266 33.9255186556906 14.4209910602518
-90.5172016519843 -5.46488158728701 -3.68340567335681
-177.575340867944 -14.686465319533 9.30389102422802
97.522000164188 13.8977856846822 -6.48943511840244
174.405179567254 -27.3999366150625 -3.77058160279078
-179.123547859453 23.2925090846704 -5.86314723600493
-170.33895826533 30.2467438498784 20.3436022745324
-197.556405641479 -35.2328008689541 12.6332660816017
162.170219747589 6.18100594391288 -23.5715450224183
150.977322084159 -20.8710200510593 -9.11504808615821
-203.187273584776 -9.6464118911928 1.69374006001285
-194.212080004457 -3.92055895887353 -4.13857835538056
-114.838059180388 7.5320966031722 -11.2749215886204
-207.505383079581 -36.6237006063162 1.29699254547801
21.5223304645055 -2.51869101921407 -3.92381047066944
139.743838233978 -14.250387748039 -15.4483480295754
144.7247381791 16.4019676019194 -16.3594503116976
-174.388381810612 -36.1691737317571 -8.58960901003971
-197.899081859027 -14.1476450991368 12.6370015232988
179.522050424634 -9.49632554026389 27.192498333082
-129.690953642999 -6.76953990043321 3.01332784381054
-199.678886771864 -41.96578376167 3.82000130797885
142.228464492864 14.137955253465 6.11255625439935
-159.040908894759 5.05815778799589 21.5897753843326
179.762537236305 -28.550355702202 35.965579751093
-3.2165370561308 8.77884997278096 -23.1826552401591
-127.609708285017 -8.06441854547331 -6.96464937300313
178.026119050604 -11.581879212783 34.4478739179247
-171.160958580776 35.708339019929 10.8672244039317
-4.0404393687864 5.14900063954433 0.611470939224003
42.2343056084869 -4.19522821255763 -5.05144600331567
135.158842980284 -6.36394627478511 -20.5042258503357
-148.657811825135 -10.2525890804369 -1.10117202771885
-184.993139565204 7.00684332064193 4.43519173452606
-102.748056499615 18.9422058293851 0.805874313306229
-82.6966233420582 11.2011122011858 8.1543189464426
-69.5303894478433 13.0817385683232 3.58085398783019
-198.618113048144 -40.8514925093642 -12.9635685459969
-168.38538716374 25.3689309665085 -5.84010527930041
-210.699822110554 -26.9710740283647 2.91488931221698
165.51851317969 -26.4249894341891 -5.56070857931903
171.211518526151 4.23938490542461 -22.2840383619291
-71.6483952922471 12.2810772769171 5.12879088652559
-128.244935795619 -6.12671141605144 4.33438587632202
-139.082762037425 -7.09807363197045 23.4229227151278
106.587735555874 -8.0099092172819 -21.5861115916516
109.206993672596 -1.04275995660515 1.01980916870418
-83.3698449929855 15.0571056788215 -11.1677826563391
-58.7183302936713 1.89806693331267 -21.3176062245163
-116.72253174412 -4.03377629832715 6.18872407474581
18.9196060890607 -4.42567788845638 -24.3835517120345
-92.9066148137483 0.273330988042896 5.9416636885754
189.306780494888 -9.92920564767777 -10.1148647066644
160.386066305273 36.5498113061915 7.29113456349009
73.9904072590923 -6.86960832405301 -23.3114809865322
-8.82082574990754 -0.546001538574547 -0.242152466156304
149.058265453999 2.11162852437846 7.48326381984999
-101.658253657381 11.761405229306 -12.4785111036584
-175.757854150727 -27.3957661875843 -17.855409306468
14.611029172019 4.60538929216802 1.40429694674563
-128.06213005117 -7.75969360020856 -0.908539611994195
189.603100723758 17.2878948618197 -6.0645375606549
177.419930217342 -20.7886205345814 -12.7596257526847
-134.830029978572 20.2619159423231 17.049965094329
36.4995182955007 12.0571976802185 -12.0529294188569
172.964470934307 20.0133773023887 -23.8942579010117
-176.503826646699 5.17535184631482 12.0621208263982
130.55480956739 -17.5486794465116 -9.56714129126741
-157.712337465314 26.2325222409305 -3.95753384498134
-163.513530142381 6.90849210181072 21.6903510682834
124.044916796388 15.0189714239117 0.995779419266357
148.732456974048 9.13455394729211 -23.5749941666389
-174.505838046282 -34.0472675053497 4.02461065493981
96.0698203611182 -9.84825979419582 -3.88096603528819
-166.982693937776 -15.9987833362954 5.07166991776192
151.588995742075 -3.67130604003757 8.75848803998401
-99.7054348126393 4.93736908304777 -14.3633257946553
100.136571311127 -7.11037377033822 -2.20865224547104
-211.647071656832 -25.34441367427 -0.417742272211476
72.4791029805434 -1.13380080397979 -0.945199045859043
-105.342644648198 -0.804861831927332 7.79117600035707
-133.338982300453 -8.70774322114039 -0.538657000294476
-182.706164317505 16.6197474981484 12.5868935271913
166.822286774211 -23.1086673673032 -11.358420801094
178.611123988199 24.9311289894891 26.8022511735231
144.474200205963 -16.1495821286204 -13.6013844600902
182.22364593157 -1.39295598415751 -12.7451047469453
175.572268871334 -17.1430295424707 37.3131209725244
-159.000599041264 16.9448627069923 -5.08574473527281
194.087892260895 -11.0407781288445 4.53478281831062
-210.801140340027 -24.2465447952621 -10.3768543971704
-91.7936864955107 16.1821033677594 6.26453947716055
127.973562890135 16.9208065977662 -3.4327672489514
-177.934047692894 35.1401344829876 2.83775817168617
176.904050807766 -5.21419104211892 -17.4906435010074
-82.5627042318479 -4.91825811592449 -2.87453208481093
192.1429137334 -7.7336773248078 3.26070664192485
-14.6622537568999 3.26737558796552 -24.785492995872
-144.447933273689 -12.9148272857494 18.4359782429969
-183.242803869541 -29.149454881013 14.5525675519489
71.3336056377894 -9.07143287548147 -6.83713487754633
160.117934684934 -34.2148373077462 20.8932053370071
190.059225405236 -14.7101291795556 -11.1573428778407
-75.3402071927569 9.53047238039746 7.58951024476561
-146.399023922809 -5.01119185664991 -9.16435345732739
-195.649211443125 -29.4266981927669 -23.6425364500649
186.129442170275 22.6031972472182 -14.2076922026732
-179.749477117185 30.369071333308 -1.76641126307101
49.6570725420973 -0.696530309692255 -0.196608717135333
181.250355923577 -31.9332100044736 6.83013056932287
174.076005324722 3.38023140124991 10.9018206151741
-75.4951979201764 13.0070466395518 5.31400965736243
-177.63209060955 22.6629275359728 24.8682812311133
163.514948161751 7.67953001638132 -24.4747891710583
166.068229303547 -25.5243751584581 -7.3761418357397
-152.735060727238 -3.07756439397091 17.30466451824
60.7163706821392 6.38800417406565 -0.0982407691744906
-122.68281425561 12.9965233923841 14.9572415355174
-124.332748391681 13.1665306454013 15.8047728005108
-93.9189068372096 -2.42516629768482 3.10104654327526
-35.868956356943 13.9463432663359 -8.9967471278275
26.6679295483423 11.7758346680264 -10.9728139582754
-185.130388366117 13.5776011768558 -6.28604544763641
-170.310983584016 -19.3789863340952 -10.0525183248176
29.1657755851968 12.090755609168 -11.9044647345314
24.2508629739921 -9.85815855093551 -17.8162625220818
-193.608719940221 -41.2428079124981 -5.16812825292573
90.1446987287497 11.030907930189 -2.04828361399183
56.4338488393517 10.3494734874445 -6.85864901281972
161.852566011017 -1.01646288614486 -20.0453073529065
116.837177896121 -10.4772768792402 -19.4482795393084
-118.512959722903 11.9488078266215 -9.5562729223175
72.9253002910406 -12.8002929015214 -14.8794341330382
94.2787651145872 -12.0920401106744 -18.0850860068805
-170.489132287767 1.25612028812038 -9.9758379530382
80.5051632500691 -4.85557271992739 -2.81943970254347
53.6790656288205 -3.09422041079402 -3.01899638602022
-143.014384433567 -13.5526209745766 17.2955101781935
178.0995409924 -21.8497268854 -11.0924082926044
188.571238652636 20.1308865012115 7.20095745971006
181.68025845462 -25.004452542646 -4.17948422938491
-29.3431240359252 7.21458986770124 -23.1045166260037
-27.3844349707171 9.05318552506304 -3.30826404171424
-157.776365951029 -0.195666742202143 15.6495198994066
154.337400157561 -10.7388627032243 -17.5908852362105
-120.938109074426 -6.916004140939 -0.205537496404097
114.318057953547 15.1337127003093 -10.7608206066476
-158.273615994327 4.3686620884098 20.4250819997375
-145.239457049467 -9.07656728852631 22.6414961330072
-126.079552207939 -3.88901723613982 12.1840103346149
-170.784719284866 -21.4955280214394 0.71244393038974
138.28928453507 -12.2809180351338 5.67882568983649
141.806298688202 18.0726424357297 5.55961925724949
-120.638356761156 18.7708832578177 -3.77654746512879
173.724659409895 -17.0789330671174 -16.7734023173601
187.566373107772 10.4543065287938 -8.06201470624321
-193.958244238699 -10.0852218939519 8.37683248968188
29.3414506618689 11.9977690306811 -19.293842944909
72.0212371684028 6.31220350878997 -25.0816879922301
150.058335960274 -21.4602104117018 11.6184307243439
-120.951042583704 5.89355464388009 -10.0208349568771
113.668606628523 2.98913024212992 1.83169332609538
-93.1520521595498 17.9244351737121 -2.83125762459313
-74.838558594507 -1.04318278158967 -17.5713317170566
-137.435319564211 -11.9451854561157 14.0602397195563
181.786890151291 37.2755705692749 15.8103575401617
-148.029438144034 24.2220139525565 16.342064460299
-170.913029514325 9.10306276341597 18.6354292170396
-103.991745165636 3.09258569000867 -13.085082112725
98.136957720891 10.4112887790204 -21.7678299867168
171.968134662392 -35.280981806394 8.14395707620162
185.592179818162 7.96225723232875 6.15962859524171
-125.811653093079 5.88363844507071 -9.03281800716713
-82.9900563906624 -1.03143500567574 3.03003173975535
95.026538050384 -6.75339740690049 -22.7839603390779
-165.664233415015 31.3627909063586 17.7890881311604
-205.402932723619 -39.0443906837639 -8.45131107523195
-137.217929737513 14.4918842689924 -6.22807241617613
-162.849304917093 -10.6447484303309 7.97001792761576
-151.390695352444 -2.22861856341456 -9.56946035732844
-79.9129536951173 3.40637493608097 6.42635032620732
-9.12170245640928 7.11686769769412 -3.04344172914875
139.572829728627 -20.066050268938 -1.2270489046853
-139.466631090412 11.4101787543321 -6.38586828522876
-164.248148075399 -11.6699601694585 -8.19792871219581
157.620093198839 -29.6276356818884 6.19777670687949
-188.552975727243 18.6540391255166 5.31512300456559
4.99256202464396 -0.907073298300396 -1.46152744689036
183.800007758457 14.9884978383861 17.2815470823004
169.610186436919 -33.7751145024128 24.0641029822439
82.9834610478997 13.3773297160922 -10.5846613490173
96.4047346525916 2.87725852867623 -25.7814664774473
87.5116206317545 -3.98016830158411 -24.6076974158531
-55.6774597657815 -1.76222655599724 -0.539662642988683
-66.4531439496214 0.888772219440362 -20.058679525592
-168.479277813064 23.5174381733218 -5.33424639429198
-119.118782328181 -3.1423896985393 -8.25964349242598
186.289345306531 -16.1585304921481 -15.299451688531
185.425575402512 -31.8586456212779 13.9872377522969
-38.9682059643412 2.55000931282886 3.41728265958109
150.444438878364 27.4512536119365 5.18878378972752
124.754896827749 -2.67041751517138 2.18116700438537
184.4380147377 25.2073697462498 -8.13668588611146
150.273330822282 -24.3264879937657 2.94367932113462
-162.896398710257 0.7176041350478 -9.67256882800833
-134.94165018858 -8.70280929914742 20.6864272747023
94.5328546545118 -10.4522733080359 -20.0009356263595
114.098043886016 13.8205781574988 -0.699392319928
0.0806515722725816 3.21810388723501 3.03075535369745
-178.533260852084 -11.5217450586061 10.6209141148261
-175.782906764471 15.5694146033101 -9.63625908395951
160.867879439403 7.83717256062279 15.7717247785084
-207.05409783551 -12.1328758453659 1.7172862631639
171.718748837848 7.0624778088799 13.5086403939122
-194.944174119417 -4.43022628950269 -5.65918714933849
68.4364120109746 -12.2521966418052 -16.0557976541347
-42.3651262824065 1.43142206912948 2.31633507832146
-133.668893219206 -9.09570913096396 -3.57593413573684
9.32423084537529 -9.49326498428685 -14.7281949341584
157.095095280151 10.8819422837956 12.2529438507301
143.341549460384 -17.3069778605562 -11.993915678256
-168.38655252058 8.61398574379871 20.1257862497842
-132.719184909295 -8.25389212922921 17.5259886797177
115.904348257598 5.85768377349636 2.41553749797625
145.014567187368 17.4196414209136 6.9988566422639
