125.698153403502 12.4974606203908 19.667415510365
-237.769967954673 34.1488447310604 5.1098295782568
-92.9038388325528 1.9711760799149 7.54319950136872
-69.6193546031454 -0.200282009081474 -2.33954511045203
-231.276370190142 22.1390200775099 21.6261783933355
-231.460388576739 34.7889463650204 -8.64125183599966
-140.89126336912 -19.8136944960746 -15.2327797687257
-231.968576736285 15.9369611448943 15.0305277168628
-135.935464420924 -20.2710731786432 -14.4105268810143
172.115546606 24.1292785162154 -14.135297798702
-148.092656637986 0.201264970271051 -16.7499248694852
22.8494925355131 -4.40321205062382 -4.19040310980926
188.155959911412 27.8029694327029 -34.3638682859792
-202.680501522845 -13.7502056959985 12.3900715475796
56.4810242302666 -3.33652225276936 -3.57248540642518
71.0805493673786 -21.8582060203748 5.97068585180208
174.108928194361 15.8488399251034 -14.3012389288594
189.835735635188 45.4048082166738 -18.5261577730527
153.636763558509 -13.0447368681055 -12.7476862250498
-40.9691189387527 -26.5491470506269 1.40696332359679
-218.76580139596 7.36974553315863 -0.501200250092228
-216.516224452548 5.25434810578226 12.7616955448788
105.644911383311 -15.052021085369 -5.24290009172959
-169.815998822211 -10.3616830323564 7.59071459122934
-222.00559915423 -7.00270052736097 -29.2506995682442
-202.048768378598 6.744793039422 -13.4946029054026
-134.699887936979 -7.15929653890576 -17.1952326408919
212.013721592682 -12.7269679018255 4.54560156796135
50.6541043513136 -20.2979640388087 1.65634102502425
202.172198046227 -31.2465778613868 -1.42002941607234
-57.4628026439735 -24.9350659410527 -2.05063748036713
-64.2148541934644 -27.5861791959376 0.367856379637294
-101.177608299406 2.60048444171569 0.795541890901127
-112.054286536504 -17.0865319480645 14.1324331785087
7.04585738613924 -0.182456495904215 0.397310255068644
-181.189021001277 4.93737999588332 11.191672555313
-60.8059000776046 -25.0706048327155 14.7760522718634
104.199410641831 14.3265902135473 7.79189571549953
-179.464119396576 17.8301309326387 -8.95854913931533
-42.4393664216527 -24.9976949814631 15.9527262235171
-216.363710257951 50.8667609038713 7.21823073051194
204.971142796523 43.5121253755369 -29.9647764756686
-24.751849169933 -0.349132744113768 0.222135183445791
-189.32583159632 0.0342413067718702 11.1253560785188
-202.526755908407 -2.56678264440685 -28.9274820545554
176.120690467166 15.8088732754807 21.9392237074417
155.570621148916 8.1664185502238 22.0368105714296
184.532711157988 43.114257584749 -27.8431520759685
-186.747975501672 3.54132530738355 11.1642131021939
96.4831162394155 10.400035189293 18.8186517023367
45.0040017104014 7.0042164921616 9.64571026232143
-140.469062280134 -12.2382437511847 -19.0184391716345
76.8442120570357 -13.0688196190656 21.8767878433147
-103.135538732406 -3.53634600663956 13.7158690859352
165.451796454288 29.5524500669876 3.14471651408094
-227.13673308862 49.6850070743318 14.9756597645961
187.436751893646 4.92875093894583 -16.9740428240812
155.349510647378 -17.1344423180934 18.3153900165489
160.03287205589 25.6136320047055 -8.73783309860133
201.607392084023 -30.4447239333004 -32.9854306231197
-202.31381773312 -3.06057270211706 11.8025307014898
32.1767834583389 -0.086282879115584 -0.37683044445756
-8.93513427540216 1.6371439352034 16.7134289037691
-230.073263212318 16.1234820050295 18.518357286653
-188.954471118076 24.8274353896886 5.42347411744941
-158.838236548191 -25.2081164818398 -11.0608641647522
-205.717716894405 -3.36814571053047 -28.6191201749208
-129.262070908724 -20.111038230741 10.167847405859
-229.224053504991 10.479560792271 5.6941114567901
-233.433965687022 44.303210958477 12.4478701370429
215.229269453758 41.3211440749543 -14.4302734110611
85.6936329640971 -16.7200209561174 19.2985931440287
144.49792511368 -21.0833035715272 4.68093275753819
158.514159590855 -22.3675747751793 4.23809444180363
-127.945470889883 -7.76727068576497 -16.2021917176207
-56.4676642371454 1.11662781282453 11.0545961779844
204.870246493619 -17.6960251801216 19.6452621362961
-208.536309796861 -3.13555348597806 -27.9896769668902
-187.863715043787 24.3882428986945 0.786809956972204
-198.201920033195 2.99550292284729 -20.1257629194228
-131.113537370007 1.98167579699978 -10.1557903919389
-194.237266203982 4.14608573773244 12.4249020521842
-234.170970007317 21.428278709846 16.888607455056
219.001849570904 36.4296697797387 -11.1179658551877
210.59469627249 14.6458615930106 -16.337743067814
73.0646301076345 -0.606203612422407 -2.23706308646108
185.190470093196 -4.22444110771707 -21.2668340492758
-194.955780833791 0.927887742441399 -28.1160533091617
-188.529032536464 6.95768605390086 -21.6341090075355
-77.1243502900717 -1.13757244406476 -4.24663157057034
63.2490620977314 -6.71756880849077 -5.36590133083478
160.358833968926 14.316506851724 -11.5119091036866
210.923703063823 30.2744314065194 12.7723297091442
202.612897591524 18.1459914081282 24.1077742170729
-81.7244908022449 0.0187215209096317 -2.86491050808813
-189.02897997874 -33.2333637901295 -15.622471263278
59.1430650473213 -11.2068154145135 22.4586374342902
139.856977394245 8.93318469785239 -5.48770729034724
208.718499584719 39.5111559866018 0.822711076640399
-168.528941898913 -5.20940408904002 9.19512582021287
-213.64363561391 -9.89609204691392 8.41996767449744
-208.271277766867 44.7200444022077 -10.9029745236982
-6.24861641921569 -3.21670009402935 -3.80454026591802
154.942678763669 3.8460919848654 -8.57901500753415
-183.937591227403 -14.3871443484176 -27.2825991815453
189.535048537934 14.3071721114695 25.3205403381253
202.262826990028 21.2401594290302 22.5172288990576
199.48492231206 -34.2651286639245 -25.2116492469205
-143.578213977176 6.74345518573222 -2.12313771504182
-223.107514488887 17.2353760752193 -11.3817267181731
-216.136223537074 52.7102675966857 -2.81298601264845
-218.595502239606 17.5770356739568 -10.9449855683886
145.325775470256 8.09027714612306 22.0326919593822
-221.969091195714 -12.7401832693372 -10.8274734595823
-216.103960685351 -17.9230177890329 6.65768667348338
32.8631591698934 -23.4385091229383 5.01352629286826
200.112507301289 44.5030168129528 -19.4675232488101
191.123659300397 -27.3694640341627 16.9753183210622
200.432906940735 17.5434497629282 -29.8124378831211
11.9926122958961 -12.5220253141903 22.2131331122404
3.79582532464716 3.15823112107894 8.87633449097736
180.918801748326 -23.564149797237 21.120703557562
-111.526703014219 -18.5221888625021 -12.8642306478031
65.6388338705262 -21.4416076423942 14.3533613530801
80.4498778903076 -5.51305054473235 23.4301626763291
-161.530755789115 13.8412360514342 -4.19172585570863
-197.585176174478 -15.7824243891533 9.72059092438261
11.4609613328536 -6.47781028386269 22.5439924003927
160.211831962807 -3.66198149261454 22.8813391399264
-207.388471364918 -12.4762923567428 12.5105710354595
85.4656577463717 -15.0108804543015 -3.99339292614415
170.156919324014 0.808471913476836 22.2192331431533
165.499532060723 -18.1054693512594 19.7377149943152
182.123300045686 -11.9266812601587 -28.5034766856859
-213.224704673655 5.60718334700584 16.1317945199169
-208.155791000337 -16.7504346745744 11.7451940700079
188.888205620797 11.9573783653024 25.2370830472011
-185.048727984174 -22.3813154724484 3.33719886766328
4.1029275086743 2.21005641602919 6.38116044796747
-42.1510559427589 -14.5857278329027 21.1075585648889
210.836657266907 39.4652204568393 -1.29004370329134
206.390438810057 43.9918177569405 -17.6476091498678
91.2012495928047 -20.9398420849729 11.3072876928596
187.568785310365 -31.1512383311092 3.05082914021638
-155.793815988603 -26.376514659487 -2.42781906293707
-37.9430911182267 -27.411441233542 12.5335609405878
87.1579410263205 -15.8845172288023 19.9599677785988
180.660788128314 -9.17456410917367 -24.06852143791
-185.11954823138 2.07299028292199 10.8629105907726
-199.967312348336 21.9580261866802 21.6534277905764
-205.330492223112 45.0833282144012 23.4763557185877
146.24551654461 -2.08955918812384 -8.34876681568836
-218.363241282601 8.57200346716477 18.4897505071225
171.768825604673 -25.5183885514074 -16.3177632915736
196.873621876034 18.1558994478931 -29.5365708559954
-145.020631230691 -19.2590218625923 8.14398499098683
164.976037058451 -22.3171378538411 9.52782358083288
-95.9143160865581 -5.23623844955831 -9.47530318648253
189.913988534563 -28.8796439223588 12.5505613953964
112.955357781333 -3.93647019467809 -5.79096941061068
44.7338178990305 -0.548995073254986 -0.480934191086725
140.557557762113 15.2116554669692 18.7250571783361
173.080728432605 -12.5100276320689 -17.8294762735182
-93.9477587743262 -0.636389324017636 11.8205684698591
182.805683207586 35.8681312061086 9.72345149211097
-160.317787636907 -13.1709068889281 7.98615585649498
-117.884980288344 3.60745657326312 0.777163761202433
-174.813498691466 -11.0669997617871 7.41362980389952
-96.6658339208253 -20.2432382388884 -10.3460342670717
179.237749483553 -17.0320831128842 26.2821877285824
-204.830778543137 52.3283606001161 11.3562162569062
-128.291747752 -2.59236426979579 -12.8841761191128
-12.7438980237241 -25.9142310384294 4.21051698807813
-140.986559781753 -7.15365333227246 -18.3410169657686
182.016791789097 -7.65980813789936 -22.4679786647643
201.978267878117 -6.02048083131725 -19.2083783651972
-117.162328851006 -20.9343303322702 11.6251500848698
195.00548379444 31.195774987617 16.3843333960459
63.3445945904614 -1.70814470213393 -2.55867767398224
-64.1089732020604 0.903115608128349 10.9956909685174
-198.645050736697 17.6644163803083 18.4537655131375
172.171212202732 -24.480373738005 9.88091887973027
-83.298206213383 -26.5226599434352 -3.16812230801012
-193.519051215201 -1.87400335038131 -29.585831496915
212.602530904297 -32.3354843158443 -18.4052467012915
-198.270409098524 10.47529239641 -12.4309780545154
156.197089148076 -19.042958046935 -12.4030889446702
201.612741358508 37.0802569393237 7.91925731303912
196.654183746025 -6.97646922330676 -21.4395967099659
-75.1051821443756 -24.8824313222561 13.8276365053305
188.549133142315 22.3166305455611 22.705579505423
-214.91078172354 54.3428072744527 0.376947529521086
208.573040245521 -33.3250269285368 -24.8162356320178
-193.24104747129 5.21110605621439 -19.7370967188586
170.311833936423 -13.4194267979313 24.6299604211515
-221.677511498373 -15.9314217968633 -24.4891317620701
188.32067492986 9.35583118167769 24.6055421762586
210.081587691775 -4.67504358134091 -7.39334341780921
204.133303734469 17.9953699375472 -21.242436032038
-153.986516510202 -14.0376894879388 8.73885867300077
178.192497072323 29.9787127377658 -20.5111720314291
-154.809997986556 15.5243688323113 -7.14909751091249
-71.8179446987128 2.28332906440258 6.37641180607202
180.728995874908 -3.93809973754665 -19.0010652107722
59.9098541939927 -22.3611986759208 12.6434755447616
-183.436160284943 -20.7715223910934 3.75762857747849
-47.4530161707708 1.39540941517997 4.13694567435785
-187.970796658727 -3.54013500780914 10.2433327196091
-130.059741092567 -6.92206167616546 12.4160772181291
111.093221906407 2.92308440905049 22.9557831023076
-208.270533396564 -31.1032508638839 -14.1919395089283
168.426273346192 11.8100315341978 21.9940882109985
35.4500137601792 1.36204039123939 20.6063344728018
196.735836217355 41.7882943798533 3.91227236658056
-67.6117708741893 -26.2838673541399 12.8469790394701
47.9798331661539 -9.78884972761855 22.7156535260577
21.7417194114501 -17.4025096374817 20.7960716477101
-122.076817642712 -3.63360180461275 12.2375642521109
197.706071395546 16.4844756757209 25.5661619171246
143.782794850403 -0.173485317920797 -7.67479745947494
-32.0526891370903 -3.90047653687903 -5.37206235049024
-163.73963765859 24.6825302466821 -15.8873807076671
163.614849557481 14.4940780584524 20.4758933098885
-85.2937829707655 -27.4767446617599 9.00762410422737
135.926584497298 -14.4510183573389 -9.53222759302602
-47.9282424269492 -16.8171703446906 -4.8979271415123
43.4814010146103 -17.5058698863347 20.2811079962447
-190.733665160262 -34.8922501171278 -10.0878974173227
-230.4914148272 45.6499899509705 -2.55318815172261
-235.872090605937 41.0198649982821 6.36403042631205
-55.1990745858258 -22.776292766923 17.1801957061552
-2.68231814705564 0.0336505344306947 2.42754537606305
-216.178363145235 47.2145394932953 -9.81531162590525
182.707775081524 -13.5728246737571 26.5385760740909
215.82532717609 26.7948664267345 11.782843555977
100.670402494913 14.1193175483067 10.9129976625707
-82.9644764167821 -18.7343413751166 -8.99075055264275
50.3968226741237 -7.9828609067601 -5.82760185700756
100.422221223068 -8.98099152972234 23.1987774328028
108.700285477351 12.8293520475014 3.10193496449294
12.8910257793736 1.19092409329965 4.18167197274578
-169.688742624277 -2.33034509511565 -23.2889694592026
-51.8546449694166 -3.45322128954421 -5.32667916239039
171.661654314824 -21.4078300686609 17.2854309653534
72.0582904351662 9.50490429071851 12.0774838982274
161.019434628418 26.2593953351648 7.26708976930226
145.27525323346 11.2605800712604 21.0101322451388
-183.456651527838 0.78631021309067 10.7269506945147
176.446674422218 43.9424840336433 -11.4719169153782
-52.0594243403721 -24.0542801865517 16.3429339068115
8.50364545734359 -25.8935130497455 8.53684995183892
-208.693547507978 -24.2589790583027 4.0237585279051
190.642941901696 1.00225073429562 21.7986982952813
-216.203983836249 36.8109267813195 29.9207266991347
58.1937582564399 -22.7474632978529 10.6037962116679
116.026445470903 8.80079444081414 -1.94279055972674
-220.794889720344 -21.8707070444634 -19.4045616037409
119.810066541316 5.5307500836163 22.4814507293521
213.667914971622 -30.230107525784 -18.0752841550075
-187.080051676267 -18.6027762025278 5.10791582044114
210.14062294482 5.53303611080592 -3.15976691470543
-139.207527867161 6.15957898689723 -5.40423045365604
196.260954018291 39.5025279583199 7.22554296785681
-218.289234951398 -24.7225206902257 -10.203209059818
-63.683567529202 -28.8107124709145 4.72074670664179
-216.213926914074 -26.6331348397269 -14.3282528624666
-7.75583319078251 -18.8073973843063 20.505137436174
-221.246274817034 52.7454727347001 8.11470564517962
56.4696896557673 -13.1609667604791 21.9009305492142
175.73173804787 27.9419124224968 -17.5267384917421
188.140997395969 32.0656325273428 15.3521637493273
-145.324696694357 -25.6965133656761 -8.06672668998097
-226.846234724843 9.15477309194957 7.80475154186506
-96.0815450141287 -9.16244197797824 -11.8536808425746
145.903926479615 3.94967999348871 -7.23504236420201
-101.355930879112 -28.1123813724778 2.88566798074009
129.726456877201 11.0070110035681 -3.39700996455887
-225.347151535097 42.896142646567 -9.95256375242435
-39.2833140208825 -2.36899531218575 17.9267732485508
-234.495705527787 43.3266559260068 10.341002010516
204.898783599286 34.0638389104095 11.202237658735
-210.014907273336 -26.8548702134091 -23.3736454973265
-55.9144697675825 1.54224262940486 3.30333264713722
-205.514903786217 22.9356899369137 -13.3526845948316
-234.423721663853 42.8310044880952 1.92319908663889
-205.436588923523 -22.9222026309578 4.45459863216087
165.357781441543 20.5609201525795 -12.7611213844682
-213.652344464244 3.15440552178914 12.7356070519573
175.27318117469 -29.9598294840971 -8.25982514747457
-197.299806207216 39.149652090609 -6.84556677601468
186.242860703318 8.39740779505272 23.7765792340752
-191.310250756628 -1.12008151360664 -28.8940550474345
26.2149431863351 -24.7670371696485 7.6909394490328
21.747052137076 3.93920689574801 7.99729214072193
-227.216774625464 28.6997037079763 -12.7791320107634
184.835487004182 -8.1462359401892 -26.7657329427383
93.9533815001824 -20.9348750703708 10.7456309537024
-133.390547926308 -0.716202183693783 -12.8793972609317
-89.5207541598055 -3.3871565186438 -7.80804494519838
168.829758676998 -10.4879331037257 -15.4717756195324
-231.601346229834 16.9603203678645 17.152564394634
187.467143789866 -29.0833712854902 11.2919973001384
209.073242673741 6.24134449266973 7.37959569298718
-64.7665428424072 -14.8557864271563 -7.34746560196918
-181.994272124221 20.4410542954062 2.0881891411238
-193.692121420536 -35.0855527590538 -10.6495299551799
106.441057307557 -20.6535265463379 2.43053884428826
-192.821661504014 -33.5345226092782 -17.514843672473
-211.635461729731 -5.83765593658725 -30.155986813677
102.038324310833 -2.68473451065358 23.6750078653974
-222.899449805621 14.1635719112341 22.771929407401
116.747344561855 6.57383029033989 22.0453585471248
187.002350993248 25.549954555187 -32.8236140619475
-8.64164277795581 -0.65501801301452 -1.16683393713862
-142.050401246032 -24.2683696379538 -10.9387103449768
31.0007586605005 -24.4652780957086 7.95548727258324
-232.552034148379 23.8495394826367 20.7707452420532
-182.966086045778 -5.75790689880221 9.55255736314111
155.23373841095 25.1253828917483 -5.5823804614546
0.503782920759716 -26.5411482640635 9.84971630585791
176.36720563559 16.7770309630477 -15.7701596276874
101.537019707623 13.9037905135265 8.09746239480675
211.160495213273 -8.96598162928517 2.92679380364211
190.905222426202 -24.5016370858104 23.018242177805
-72.7238433583672 -11.3993241097905 19.4463919269438
-5.69972440320233 -5.31343351924931 21.8752572391709
154.20066188401 -22.0262290855021 2.05557216747969
-28.7612629946517 -3.36379517043528 -4.93392167349952
-177.199740878565 -4.04349816233776 9.86926304047731
186.826362904154 -36.0948177846817 -16.2756973369014
183.486123793064 0.476377881339806 -17.8718369289159
115.954328979989 5.39623145169908 -3.14936835630219
-0.877488808928995 -16.7497708805897 21.2662495645767
10.7821528031962 2.72086006910763 6.9577878650585
151.422500965908 20.4449038099114 14.0881026753381
-30.9160029593608 0.99881791415664 4.68651580169418
-207.167077169329 -6.85101024753929 -20.0138244844805
144.277887125439 -10.8247489261964 22.2702405051152
-10.8341162530638 -18.7437273337854 -1.44386826387023
-220.811561821094 -20.156534283007 0.232698619550276
-50.3573761368349 -28.5245983007407 4.41195725114731
-86.3218085809458 -10.7979018815602 -10.4462289821785
24.3906415252821 0.191938501545437 1.87284697095612
-225.30957593638 8.67368513783868 8.53223727864349
-225.229004946251 -13.8076483819463 -20.9772216131504
-194.987426104429 20.6979454264059 -7.83950884475859
-161.846237653676 23.1899002428517 -7.2872102264802
65.8564094155017 -22.2800098369506 10.0192853000713
-123.829620763161 -16.2145817803734 12.6739788694481
75.3118573067814 0.769466825239236 -1.75265106135241
-215.438537055391 -28.2123027379242 -7.72718684653813
-191.279236347642 17.8893567981863 -9.06861362505903
194.624116527821 5.28908588336018 -13.8172414358828
-184.420285693955 6.70056840022411 -23.6258441304771
117.05357198682 -20.1286972785425 0.0485831350250678
-188.070453124581 -13.3292325903573 7.45847568268685
-225.005884797077 9.37209919182032 6.04725453622068
-21.8893907319473 -0.498171327215275 -0.285876934393395
-195.662650883122 29.401101940347 -0.203188305982415
185.942367330911 45.8816056431673 -4.02806935861734
-121.556500549138 -26.7172751129114 2.8394129753396
86.9983598720329 -7.78099070263251 23.3993812543453
-47.6914490880868 -21.8698495856068 -3.06883648448328
160.348839941277 24.0142562119165 -9.48939633853064
-57.5251135276551 -23.4003115103471 -3.1919861342193
44.6276927880851 -14.0790599354677 21.7282060549712
60.0707370177885 -19.6744246352396 17.7150619407232
119.182732888602 -20.712480734678 6.33723382364263
199.016085113538 17.0671776688374 -18.7756914450701
196.16524998414 -30.0599578876377 7.70458410339924
201.46307183466 -32.5209549322192 -15.3198875590434
196.546447419339 45.0270587072749 -29.5528002135461
208.682501988285 3.10970140520301 6.378358240798
-137.636305199425 -9.56869912855883 -18.3291818577371
-181.009307106856 -5.23841928075465 9.67707976013445
-204.847207894492 -19.7757192498806 8.08569910863917
-182.346806116398 2.20985465252161 -25.952684460553
162.016942414468 10.7942274734595 21.5515919964584
-171.071205533579 -27.3884679089951 -10.7462787001117
-145.718565232283 -10.0413611236939 -20.1058896008424
197.287966468397 -0.744465580459596 -13.5794620154316
-178.337473661491 -19.1972903289705 4.50179671071834
122.063275120745 8.12256414962783 21.7373023328026
200.444617175513 39.7934845139899 5.10930686635267
180.274272255259 -16.5622999187666 -29.142910602636
43.3383652114571 4.86152490055247 18.4778638138824
-37.395182386187 -6.74781142792208 20.8949791025217
184.467103457231 22.8539186401446 -29.6049699056078
-175.367546057664 -8.31272204518507 8.60243056017284
21.1296864321535 2.26953968686114 5.28364997452757
179.178706432339 0.973948305181315 -16.3091505959213
216.269204193729 37.3109544022778 -2.76184433558191
-203.501067846221 42.5589222417374 -10.204758621426
203.813629476917 44.4831982534274 -10.1502056078824
-209.480607130166 53.4551389577881 12.538483855732
-225.889700543179 35.1628151987223 26.8358136838901
-191.910178301122 -13.3871008139307 8.77420217314043
-134.380817989653 -22.7158448099696 -12.3167510081647
-41.1016592819972 -22.0539013500977 18.3850021061112
-174.77291114266 10.9437426874245 6.99315142874492
196.536471754035 44.3558591777693 -22.6105400537043
177.744502769795 27.0194932874233 -21.2195363432359
49.3900435244781 0.491844935479133 0.635078402064433
-152.600891204697 2.57864793767062 -17.013508713978
-134.434603119584 1.26076320057907 -11.8820797195827
-40.9872648899579 -28.3184457915367 5.18055349313265
-83.7543399691325 0.678962333174137 -1.94115787399127
-89.7192582494857 -7.74126420020295 -10.4902605920655
180.83743162261 -34.3645219222996 -11.911001118197
-78.4289168499612 -1.32879436354913 13.4304798510086
185.336088980188 -34.7164617947919 -17.7839242002159
167.713175623042 -21.0237406896306 15.3507132408704
198.208566152064 44.5484957273678 -21.2073453108724
-189.379611144134 -25.3688189269416 -24.9871701031142
-210.266691529651 -31.0710782632562 -9.16674309270745
-76.99749014871 2.23864889913416 3.7520714800435
162.653540269307 -14.7404307973187 22.0753519004532
138.497055203572 -4.77069138774229 23.4650973529333
-88.3271577361616 -23.6305617022975 -7.07521363581038
-177.945092089103 -19.5220359986338 -24.0707689340199
-217.50659258595 -26.5699376912952 -6.39695653423077
-231.468152595725 36.9834030227224 -7.9296005321274
-127.698727863149 2.98544486655131 -6.95387656359827
206.50263020326 44.5288838969018 -19.4049312112599
117.02281286789 3.52315047037956 22.9881892920616
-189.708732494812 5.76760856299363 -23.5061041843289
75.9565441478288 7.69868553904359 5.1363282206793
6.94045204013654 -16.1490236468213 -1.76602479541948
-30.7354429879691 -27.2164843988773 12.8863826258602
-209.246352331935 -23.1591315822845 5.24212101153333
-80.268110059171 -18.2854559720365 -8.7809527575516
-117.655770515483 -22.2915087099185 -11.372223709217
185.242734562366 17.7757383196585 -28.2805784772055
-132.604903726098 4.77111107832172 -2.48928587993431
149.339033689899 23.0009014033133 7.52570126514778
218.379777225902 30.5649861570932 2.34493280074349
-207.741977243672 34.7772623878319 -15.19412842437
185.437018300388 25.1146612742096 21.015868808525
17.6524234796336 -22.0141315433878 2.04686077473029
-233.451771630938 43.2070053259358 14.2650414774866
-60.1325051548273 -28.8535947786875 6.51610609327036
-220.060296266624 -14.1393366079324 -6.49490926126868
-42.180168362637 -27.7109462115924 3.25776347640376
-194.724113837233 43.9803178429243 6.64870843304653
183.336778329884 -29.1074074379218 8.00129507818384
171.224125095986 3.70655836552156 -12.6102687477878
-98.9250194653355 0.231144826796969 10.7157116365165
182.355679247088 5.52886939629945 21.9144412911129
122.116638767758 3.73110600559088 22.9432985910705
-39.3241449733563 -27.6674894278085 3.58827427920522
157.855398476933 23.8521858431102 -8.63846225078358
-175.84621486544 3.8067251867107 11.4581371673603
-232.99550513651 42.4178828511667 -2.01290234981742
-212.056244291387 -20.2367110911411 -29.6293202701848
59.804530132433 -14.3884746300965 -3.05365939170698
-154.146504835859 -21.9529737983213 -15.1144080179157
-211.959189452055 -3.75095653164911 -21.8221155652222
199.06564290409 -8.01262389552872 20.9570774232351
90.22383315407 11.5387652558719 7.34409703443229
218.68176362109 27.7087215447122 -3.60642118021675
-173.816951635969 -24.2986164491426 -17.5881636946877
-187.766324748596 16.2888921593265 10.9368643667838
-124.749059714322 -0.699441477193402 10.6241576173433
187.262335942753 -33.7351587779029 -22.3752962807901
-89.3256645353575 -5.58831752438406 -9.17726365118299
-192.998884740745 -33.518639714996 -6.3485730361742
-191.406045505639 -21.7057934541907 4.16120464889094
47.5142987938306 6.52073265083785 7.70769075126665
69.7534499118977 -19.0865725655821 -0.0547686538128976
184.75282403054 2.13635826284501 -17.5869145673387
196.656342616261 27.1294078043202 19.665873677494
188.939368744743 -35.5921034507113 -19.420701072678
193.091612882957 17.4061765398586 -30.8744305292489
204.738835009863 41.0289900008425 0.446754285377855
-237.314208952527 30.4812699471217 12.5665212148567
179.240199941113 -18.9119243808924 -28.8036737043084
196.552346726182 18.166200820316 25.2191747948204
201.61183608066 44.6773230168469 -11.2183634659911
72.9846895636899 -4.50475975527128 23.2889864355239
-153.253131488134 13.7624561679354 -13.9406922067816
174.7392475026 0.00578117118454684 -14.1272006981061
152.077273542937 -2.37164954847087 -9.19457156881171
-173.82404815294 15.2844781187398 -20.3637844777586
189.967334173585 18.2141258907585 -28.0094559559866
215.658255776013 36.9655621199619 1.47683962767749
24.3310733735835 -18.9934854226331 19.9739423154149
-233.169783012558 36.2815655586529 -6.12134596590827
159.768908038452 -15.4530386780983 20.8693637980812
-197.641356966872 -10.8841764200605 -31.3958713062729
106.641334348441 9.26660088237287 0.162286608309983
-185.66058710368 -15.5653037258281 -27.8909194891677
108.62602293127 7.21009990446767 -1.44958189593088
-76.8226849733035 1.02210561570413 -0.387891792580482
-192.649688152559 -7.20479957314123 10.7803030992543
-122.581154293406 -5.18173282684725 -13.7785316248997
-177.083962006484 19.6141209048688 -2.26874765527789
82.7851272588112 10.0573152137499 16.683613444778
-152.869740476014 -1.74803260527784 -18.5401707678286
179.235930607387 20.8885790897715 -22.9056599694556
-107.065281577983 -11.8868667807176 -12.6639712503396
-230.730629789227 11.8603623694872 5.69775654198023
24.7862331206391 -1.82251856535806 -1.87452402493746
165.935200174205 28.7990565318588 5.90990897357672
188.511649739945 -8.97436597754104 -29.6113694470322
-140.459372240002 -8.0728417863819 11.5097433489532
-210.502740744838 -6.38676923221702 -15.8357219855767
172.229925343664 40.1215201298309 -10.5805269919486
-95.1017507908645 -4.72370178168447 14.838143556023
132.589905000277 -14.2581209962855 20.1017825967656
164.366122823053 24.1035310471454 -11.3447921635097
-211.615380159081 -29.3916431891183 -14.2873177073266
173.842890516458 -30.3765715151124 -11.678139555214
188.688093756155 -0.358560574460195 22.478166162616
-26.8093101786884 1.72872779560245 7.84412112263734
179.497333112652 -34.045889086301 -16.0904187117922
-199.685211280627 -20.1689874532215 -28.6555168403189
183.006036099626 -31.3046467979796 0.0341354099424296
160.949261892732 -17.2750857368535 19.3858022651153
69.1834126711737 -21.6306388829833 13.1899896656518
189.052021747508 -30.2417645786585 7.51253182871921
83.8792548427375 -21.1193157348861 11.7457129787522
212.006151251314 -10.7734315336877 -10.6930541986653
166.763908408588 -9.5658077327239 23.8152142018115
-188.549075436876 9.10852401317315 -16.0516423484735
-185.901506648997 -32.6429282236372 -3.96086239016808
55.781001735166 8.07111707101808 12.3346334750364
-134.825422813919 -12.1412923748403 -17.7319882316114
-136.547104418713 5.57735013438666 -5.50726929979617
172.76024065394 21.2401735948571 -14.5668990986915
206.477558955475 0.637080461407582 10.6252975781798
93.4992716091708 -15.0859032224134 -4.20941712956511
-226.531639150185 -5.96029855481316 -19.7503793896046
120.827729476268 13.9667160171352 1.13740238258423
182.134494378259 -26.2213790380348 16.4526777115147
-136.128421543961 5.53940350641806 0.573082977662229
-179.009654401018 -7.26400106874823 -26.2305890231182
-168.369468120732 -28.4296923866216 -4.57564087551637
-189.423021252846 -7.28773995834988 -29.6068547891692
-84.7783636619638 -10.0138160202637 -10.8081449874327
104.539213243028 -0.69384699042242 23.5240715108955
48.779125413908 -16.9868140739547 -1.19717242717284
-225.043992713817 16.9989557137217 -10.4650336632333
102.27367466706 -7.90700548300518 23.4066449724468
-214.360724148122 -4.79874733400373 -8.37487530393086
-152.561070609901 -12.5036924449081 9.2860026673797
170.078856714833 -21.9210980431107 14.9621253945522
-14.3231561399441 -1.29094082937749 -2.797308020161
82.2720959959999 3.70843768533446 -0.0947773401324689
203.528194528271 -10.496999367533 -27.611376210328
202.181123671845 40.2348675768395 -34.4941702579583
-47.4238341842906 -28.2425963328458 3.86748892709583
24.6745071265807 -4.11204027827718 -3.93941773147165
-119.737196804394 -10.7546921377729 -15.0107775702454
-212.591790459824 9.28759737477223 20.2324881166571
-111.314357842726 -27.4859401057814 -1.84649103770964
206.249387932301 -28.2754945635803 2.2820580520837
-228.239133208257 16.3847918518882 20.9397034568097
-197.808601173562 47.3352116203758 5.07279920449069
167.753735716336 6.98837597954475 -11.6333663832335
167.122969159446 -0.0971846388535095 22.3910851943046
-49.7074701625363 -25.2791180563352 15.3102729470984
25.3043985265333 0.0145643139013012 20.9025177060379
-200.003114682114 -31.795296615518 -5.06486750691255
-2.65445473285788 -9.19160754138651 22.4077161082827
211.69869133551 37.2989940092992 -28.2337655950449
-229.693728183381 49.7800302403128 5.59801287248099
-232.490188518171 18.8038678867822 -3.83444339883138
-233.520206077075 29.7491278416062 -6.8220845968206
194.329998246566 -9.79658447069594 23.8186803215771
-203.386439133833 24.0828964649167 -12.3700446773319
101.803784921475 -2.72051044742846 -4.73542380076666
197.180329106166 9.11007524569377 -13.1608853065547
204.837686193776 9.38880029377684 17.0353686390621
196.078962083966 -4.51623754947986 20.8356764920684
-130.251924330067 -15.5344488542449 -15.7292371797115
-224.32545292049 26.4842353798927 -13.9948467110892
-194.166650991082 -23.6418231774007 4.52428643931675
172.238104889517 -20.6123907689733 19.3041678860167
-207.430361259755 42.4060563139164 -12.1759656348098
-40.331355888628 -6.80342864619066 20.7382435526765
-151.601580068155 9.83661936659455 -14.1520261585927
-221.199046396482 12.1504300559825 -3.76015189900257
99.7811192678428 2.847192040721 22.6038910252694
155.099471734587 6.56665988036299 -8.36173124122724
-232.159883946564 16.8248544070564 -2.29087401856338
56.489362728123 -22.4198864336358 13.2401183682903
-95.467115951491 -3.61377295042923 -8.48291058477643
15.9901180678804 1.56405138622741 19.2585387709199
199.960762906521 -9.46878517770385 -29.1742620832637
-9.79526233394202 -9.11859628750716 22.3111615251432
157.798577832881 -21.4835184013437 8.17405529049393
197.371113172821 -25.1868683259129 21.0794495492479
103.960909505172 -16.5885465295879 18.525509742994
-155.159380337955 -0.555059579091993 10.4393784646113
-229.270006020167 18.555395870601 21.7148343597721
-178.316461558124 -22.2538654737885 2.92504953380682
-151.388725103884 4.44015814786804 -16.1721353539164
191.049669240687 30.3105832470716 17.2825620115594
-113.871599827648 -9.6562575894462 -14.7918332438958
-208.715857942944 -31.8789729674297 -7.34730594958289
182.812951919958 -31.7841073275886 -1.67924708511087
-200.199751359265 33.3438907890538 -11.2916634242316
203.328249853291 43.1449504874019 -2.56616976507033
217.550942270581 24.9526038859067 2.15171149056214
-202.476468003262 -5.48247374071777 11.5360496515946
128.928474117769 5.16853368612657 -4.89479365369171
-209.177764678001 -21.9025719519767 7.07845400673553
-200.541626707445 29.5793563528104 -10.5455294278953
-73.3608507343207 -9.75676959190988 -9.62959479269521
200.410206985655 4.49607313341965 -10.7339764513815
118.654120041712 -13.7205972706654 20.7466596713707
185.525534889464 26.9577392634656 19.5005748055946
214.968922886142 32.704370620597 -24.0734707778857
195.545158625235 -6.21428917690692 21.9652092178011
213.987661944772 -25.6047923294038 -8.83744726990793
207.27425699417 42.2954195923321 -5.15065604751612
-223.227078205259 53.5642763356849 11.707167515231
126.072448027408 -3.76758659268906 23.9913665650354
168.316669775686 -24.5573804193875 3.78716386192943
159.152342794072 -9.91123224070867 -12.8924980240136
-113.080513448729 -27.1706276056357 -2.74081314322364
205.093067932712 43.8534317689432 -8.90055207715777
-86.7451626432848 -19.4089743493512 16.6190838684738
205.49548876934 -24.9295151246927 17.8096149049398
-106.603564055283 2.58759549987951 5.77645830460133
182.47574574357 -1.33329957631145 22.718715432752
173.515065854909 -22.5567645850251 16.7698155474937
-82.7941804131555 -5.84807157165877 16.4241597608396
8.79087332926276 -24.8906470333532 5.25103250966283
191.807415686445 45.7345868886749 -2.07113111645181
152.107873263941 -2.62855321986672 22.9145047642823
3.67841440898846 -10.2089876468314 -4.50747169838256
-199.654594155961 8.32553191462303 -13.4123293945404
-62.6544833485625 0.345067011146824 -0.792570803283871
-177.383036064181 -6.15655306512691 9.3193216548486
45.5326788696643 -20.7653271016476 2.05005396724917
-75.9191756878117 -15.1062976139106 -8.79130264179202
210.121660164357 39.2251391461725 -29.6568087798222
-221.946766839948 53.7459217471942 3.79660612973795
197.10573736213 -24.4549902673407 23.2353764983958
-114.572720910698 -0.907409421485987 11.2082903065129
67.4632569060459 -3.71094095663324 -3.83253215476281
-150.364438536636 12.261380459084 -8.39965026931371
171.772351219309 -14.7386097501052 -18.2466935228805
-224.310445479463 -15.6386093990093 -12.1254016952283
-65.2182002767926 -0.511213951091443 13.2374686692981
187.559270099581 14.6265947031855 24.4895623823283
-185.41515003811 12.2893072945066 10.8044174857452
172.829688469673 39.5248547463117 -8.58727661420418
-197.326966324984 -20.7867355792812 -28.0938048641558
-216.362379095535 -0.427367315013442 -1.56600042095416
-23.9313432984137 -26.4775320390553 3.56042578458389
-185.23259535784 -32.1125147445533 -11.0814030379062
114.067534585585 6.79986167271495 -2.49730969774627
-205.521004834386 -4.38465681087394 -21.0083703784998
-225.654234700567 -12.9431887348113 -14.7233970677644
-127.621212107303 -25.6990744128589 3.85460275150205
6.2016338078771 -6.32805278571713 -5.5030538558289
217.461311122774 19.111825978978 -5.38427445517874
197.176626641242 8.07797084945817 21.1047898100936
-163.585625804202 -26.2799293853191 -9.94167825516159
128.939689555196 3.20767281222593 -5.31158761964133
-175.884661621786 -16.0614456323136 5.71616125561098
182.374550705705 6.99606488595863 -17.4930716899996
156.533558536637 -22.3210053618015 -6.65747705260777
-203.08318839128 10.9533113260789 -12.251153985791
-70.2338786686417 -19.0864502738224 18.3734179010231
-149.342165423723 -5.59082763298883 -19.2268651729076
209.905066656141 -5.54259831399963 -9.88430283797
-128.380118801723 -13.9595681551625 12.5476133836102
168.999010180539 -0.885379048720323 22.436735976908
-0.616260291165676 -7.07883266289523 -5.80916667474685
-52.7472671427111 -26.8801269635692 13.0004261518811
77.5192523569895 2.98301719633934 -0.212893038486477
49.1937663277856 -0.794519761248686 -1.131116299423
-99.4468356207034 -14.0166743269208 -11.1221282043447
-216.088333744872 0.724312194122372 0.412852683208213
68.6976521882988 -9.76697599436965 22.7826322683578
165.519611538778 4.31244063471941 22.5105619710864
-181.003629214051 -12.2075423436238 7.0479838333482
175.524740341549 -24.7606986585336 13.4513152788063
190.991223651485 -20.0716652662367 27.3413959728112
185.990372010358 28.5863697363716 18.0893730148514
-26.989485826736 -6.72624089884699 -6.55019494476972
139.384286617072 -7.34198942342614 -8.96211853282191
-120.949830138558 -5.71600245529145 12.9201604089357
190.43398494687 -11.3639998283329 -31.271747214669
149.042526602672 -4.6161563297623 23.1346714871026
1.34654654009952 -0.435365164297063 -0.833221877070424
210.300161902677 -23.8254738749088 11.9136044776848
-167.784606455226 -23.7490242539106 -15.8893074165926
-158.873647060578 22.5001987801785 -15.8275072263696
200.248658073964 26.5979188643926 19.3020800723423
-200.300093831293 -2.53392823071264 -29.6584829644182
-209.866875133439 34.8062169837276 30.1916993823753
12.0823921327869 -22.4325585682822 17.9865649598816
118.973226534299 11.9045527793482 19.6431170304784
-205.599574444448 -0.841188579467928 12.865955955816
-121.791636489336 -10.4151000658464 -15.4664267620103
-138.776516841157 -25.3822277796032 -8.47253459796879
67.3232698102071 -7.25072570808851 23.1445424346832
79.9392443147859 -18.2863713323922 -1.22989009876223
133.16934700085 -20.2029873926583 9.99286788796816
126.902936900594 13.9593167499 -0.74835330401011
-107.887080506223 -16.0807352489985 -12.5845074723263
44.0432812808608 -17.7806107036921 -0.56922399612901
-172.884724953546 4.20222331583223 11.1994464316271
-84.9633872721731 -16.8828333968475 17.7210316680489
167.448093438964 30.1951675282828 4.17677093455435
207.175670693325 -2.86637358468708 -11.9816159129669
194.834855922587 -27.8571802188496 15.0993229947208
192.918227460304 -14.6157446166484 25.5764878841901
174.324438330108 40.5297416144631 -6.91607605399597
199.918449932264 -5.74270525399548 -18.1339192622799
213.692897480445 36.5823851530069 -25.4728903174625
190.418068491372 -6.71083486046736 -25.1524191081923
188.920671376757 -36.2325709501184 -17.091812426612
142.372148492173 21.4495801755167 4.83690697815871
163.698431558962 -7.28308086819756 23.2838692421539
43.4945162531129 -23.5049882443197 7.04698031160402
-42.4105556507279 -6.08593455557595 -6.68227045307987
-193.330587353382 39.7304806207515 11.4808891622022
181.693760943724 -30.6813856331349 0.666680405095529
203.001271085042 -33.1480598616747 -10.6889940221792
-206.705691208841 -1.80020778191774 -22.9551529461888
49.546400397298 5.17988235640855 5.42026925804085
-85.2548331789477 -2.58914492118814 14.1365248367603
151.711001627515 -4.72824620706162 -9.63869602110771
-188.849308064269 -3.33920339830624 -28.9282393673138
-196.214058268219 38.1926190638498 19.3793414734743
209.444133207131 -8.66144373322339 9.56856021654796
39.7071658337009 -22.6887067521744 15.5926814567244
-183.09594031673 12.4526475248547 -14.869532145801
133.241095827878 -16.9420968036426 17.409524023666
-208.267414411391 48.4740064074648 -7.61571144522965
164.607825398483 -20.5722056852201 -15.513518162424
-161.261440482742 -23.1920693675343 -14.9014321606496
200.131306242696 19.1184979875504 -32.0606010211853
-3.03830305461191 -0.731940695124498 19.8081215850345
-226.167486077968 19.4745936383873 -11.0914214908694
208.870222979148 -12.9256694720189 -23.3585849434305
-202.13871976306 -8.04870892236962 11.7633474142324
164.696334296405 -23.3271232162894 5.26995611643096
132.024277511822 18.2038895916303 13.8158753557073
-185.01605630456 -26.1016824166465 -22.3703648923145
182.616884011514 24.3391030698482 20.4964258461791
-226.983900050285 43.9265623683199 21.7200495007493
-155.997555065966 6.77639798109152 4.17726597934848
166.816339756657 1.79020325987311 -11.4483293414317
37.589313980898 -6.50779979402862 22.8806648083619
-186.150514007054 11.7217992217052 -14.0679787068113
202.604011565669 -6.36891569877728 17.4989424398324
97.9348366434242 -9.82569954480525 22.9690509347979
183.108196524371 26.8267569389508 18.6843299815762
-111.93081286798 -4.31130023547316 13.3539476971523
-141.378666440732 -24.2470217073773 3.68662457160878
-205.066754929286 16.3740341321526 23.940657914022
4.42050473355545 0.940252720072386 4.24542204790639
-46.572211243653 -17.8488449472406 20.2543638825616
22.1615466688179 -6.91347554340373 22.7427596481828
-202.350367549779 -13.2071790527539 -31.5446787784139
-164.560308529695 24.8996753634631 -11.1025323462402
190.480835188864 19.9441567798509 -31.9795275338901
194.59412354865 -30.2491800408967 7.23648202747028
-66.891986014455 1.80905332044591 2.76837880104476
217.934014907443 36.4060413640513 -15.7811317415449
174.155537674133 -29.1303561443719 -6.88349400455738
-204.284569825821 -11.9095024462691 12.6678775215559
-211.718740393184 -8.34217110144661 -31.5993504258857
136.105420735967 -3.01011186884614 23.6435283360435
213.170445966779 24.4628816500465 -25.9021487291716
-211.995914536861 6.36694458849914 -9.03445461712473
-228.333733864775 51.008946115685 6.88118702034839
-226.970303459339 -9.07721670204352 -19.8392734654872
212.750684562039 -30.6556497773311 -9.29505821539763
-187.980482074338 -23.1369371786249 -26.0991482287561
-103.320704031366 -11.073863772947 -11.8942545269176
-176.824524490016 -20.5117083413352 -22.7843629722323
11.6662318476498 -2.4100166069197 21.4898683858797
-215.847611118222 -1.55809777870298 -26.1250522658796
162.817013547322 -22.8018444274595 5.56773244443753
-194.466264545171 -27.6473593591339 1.95966916376877
-58.111449195439 -0.605978794679456 -3.72902007779326
205.69023157329 -28.3358039017134 7.31185015575963
110.251427572713 5.53239384144013 -2.45208729164809
-237.069515836865 36.8240752404731 9.86887712472535
175.573272739435 -28.9921373416832 -3.96449673265423
-176.207477241812 18.7434156703486 -14.7163344348306
-28.3969524790121 -19.015967798553 20.3086302326023
-210.962626328282 -21.737841469878 -28.760087106141
-137.901492811327 -18.2562786166259 -15.7773505404914
-174.186512424338 22.0023367173242 -16.3384602356965
78.2808773874248 -0.922883967336358 -2.71820591543815
-128.740793648363 0.920609680950063 -10.2749635281774
193.027720694191 -21.4852090482174 -35.0890965141647
-199.199667114446 -23.3921747018134 4.43882809143932
-17.2815767811902 -19.053742436277 -1.73912732237733
-61.4781323072583 -5.13143763316175 17.8167144984411
-196.151002832913 -26.5473733004555 -24.6657707273444
210.170955213097 -21.7013409262815 12.8994150286097
201.430501413523 -7.01022070167685 -21.4761845790767
-195.91849640391 -34.7121384754582 -15.6735532737449
-168.526732331573 24.5042444447535 -12.4049306170453
-78.8473946625784 -8.18699055388283 17.8905301020641
-187.409050468539 7.62094722859331 -20.0540737475342
-134.776173802346 -16.9511056426221 10.7796518666716
199.650501891485 10.5691463640509 -13.0900005001557
116.71888069332 16.6955836122078 7.66746089416374
-103.547671287826 2.51526804365728 -0.48146006651481
18.9231458613595 -17.6452950244162 20.7488983303369
-176.593410890145 -23.224025080256 2.69594093174664
-218.99960000896 27.9368694928966 -15.9240505878001
-15.8844152352661 -25.126222175937 15.9714074702117
-69.6346416917194 0.691916131874636 11.0680387323211
199.8932220528 -32.5531691451036 -2.94092716517896
148.266390979376 -0.654946792998126 -8.25906878855737
-21.5889588659777 -13.7796253519232 21.7709644701044
-200.336166065116 41.5845215887258 22.7477730499851
-205.584751036928 21.0103569728229 27.3286742954177
-184.979228979672 19.8923834016933 6.39709377283235
-131.233596272573 -14.7028586906323 12.0074456216246
193.946102342031 -3.09588811003608 21.3795594388068
27.955360155328 5.28288635403167 9.82226693389005
10.49000337182 -17.6781493029526 -0.96691303438803
-198.683046381716 19.5000810145249 19.0037018329168
160.336348055774 26.7659632780176 5.28518220600474
180.502358535485 -26.3749615748423 14.1716563400968
67.5916025864406 0.858941236174537 22.3390035310294
74.5509703707209 4.51955995516141 21.041966810152
211.242914684661 -7.44051364607676 -7.68998262539613
-190.773970315456 4.3324808670903 11.8756518390292
202.53797790886 -3.40422263070279 15.9842521741672
113.613532060098 -20.4230199596071 1.42171827750785
-165.15936654848 -25.5850526359036 -11.983054858134
-225.94040636919 11.1647056346278 16.9289203493145
204.151783415761 13.2099592491447 20.5482187369551
-194.712109569588 25.1847978792701 -4.58853946895804
181.292029438173 -29.0000578896102 6.03109267942751
-130.653551011177 -19.9851784073009 -14.1758721049386
151.518670012743 23.4694124408644 -2.16804870359837
-83.5250730597537 0.56832889510515 10.7496506929151
36.2131812934848 -3.00088408545759 -3.02750464347835
-210.82205031989 -1.85218976627465 12.7959900974397
-147.193609588946 -1.24505429858703 10.7176703176005
212.448022382749 36.3182931489521 4.48102465751237
185.824032028178 37.4640301659289 -32.9374748904717
-172.422070333691 -10.1993666287138 7.74405293526153
-213.500616026676 26.9009223031635 -16.4322282504163
-123.337971417077 1.05574011625384 -8.39685531571661
-206.677301157603 52.8818515474367 3.29414091482792
194.057260120602 44.2249084259298 -21.9140010443401
-110.366510093966 -6.7557887464491 -12.6541548599974
199.053478014465 -25.2482864658029 20.4248152431124
155.702821349983 -20.8464466297481 -9.62294667032455
134.135942542031 -17.7546418278659 -6.77814767155698
-221.251572600224 30.1693787623834 29.692591067342
-154.632540202312 5.55335295718454 5.52940074247062
-206.878122144406 14.1068085867739 -12.0813202061047
-210.124757499846 -9.74558262725443 10.8757661527646
-169.503933622679 9.84804085255074 5.42627233886119
48.5689854377627 -6.9841265421908 22.9399606028257
183.195868152879 -10.3168274446783 -28.2689986774694
-131.617275990405 -19.1097888941174 10.3343113772967
-213.039338167598 -5.30571243885524 -9.83277901478416
51.1694564700218 -0.271137513478668 -0.713902946827153
-231.113147817743 12.5478409305864 8.71886501011727
-122.935998468445 -6.67161762114818 -14.8953592244176
-192.86164393014 -4.97478634240806 -30.4107175090503
9.9011040024273 -13.8702756458791 21.9544082657206
-185.16459176155 -2.69443764640718 10.9474498362673
-214.53646979956 -29.0709817448191 -6.10973226523274
209.558037320855 23.1261184164803 18.8697450663439
201.71013898802 44.4364509359616 -9.63649569236046
-172.765850894966 5.14980851541182 -23.289280998324
-89.5037427627587 -0.626157276656958 12.0607948717905
-161.185369002689 24.8844934510718 -13.5407645499183
49.5501580353346 -23.0942138445966 6.6646894413863
-205.226557940004 10.8847577957205 19.3428541094143
-2.85478310758551 1.66562450711415 17.4288232273549
-227.995893761398 18.5729935372677 22.9374107977725
-214.113620886346 -20.4054473187795 5.75735935623411
-123.998280648856 -26.5670747589597 2.39777054049533
157.252821251932 19.6923055762803 15.9106468410385
-213.995915428516 37.3723599481527 -15.5184491784105
200.763428072809 14.7123486206933 -15.4960733487596
-208.760014829391 -30.6819389243034 -5.58017565124391
216.912723186978 38.305004606323 -5.02446756770147
-123.83011105161 -3.53693333214806 -12.4511059749102
-213.804460535753 -3.98161857673763 10.0845471148531
41.6913551421896 -23.0488766409811 5.42757712564966
138.083716381644 -12.1420486024256 21.5995620292039
-25.0758282335505 -24.6543195703044 1.09849470608158
12.5823293741324 4.19363550594851 13.219471651798
200.212946549124 -7.82458424498463 -24.5609768949075
197.399379357678 -30.5394844834465 5.66519475881962
112.623709877814 4.62257908182839 -3.05280676883996
95.8507226870712 -21.1966377880936 6.10641264070683
-186.684329257692 -29.5144316886567 -20.802862511344
67.0137573537094 3.19200214189526 1.03213137512041
103.763857616276 -20.5769782629502 2.07836199923612
-120.45568281088 -12.3467996757588 13.8424076455756
211.81715774525 9.73463253608444 -6.71327184627401
125.564872368955 11.866850485809 -2.03617712795107
-208.381102239331 45.0680760546179 24.659264983599
-99.8843636014226 -11.5770799783372 16.4315738432824
-231.721515410231 43.9642438658053 -2.63072505838924
-153.313297424014 0.659010666056319 9.90884564085434
10.935214238189 0.12187596860455 2.47794360764038
183.746088023954 3.28107204918752 22.0772261336632
-204.577496316683 -21.5418398170375 -28.253514061313
166.88358962356 29.7275818958598 -9.29052542652349
175.576037248887 -23.5623257349553 16.428835688407
-235.699754980981 21.0023277174312 1.3871310225853
180.640746067689 33.0808846993262 -27.8905633097433
-235.723649332501 19.9793619631335 10.112716020731
-81.3905574019486 -20.5826826932154 -8.07390989120302
-140.09524897521 -9.59664356900517 -18.8634914324022
