71.8600695898795 9.34515073989671 -6.16546886157391
-71.6550389768537 -7.43153103693995 -23.2366419533453
-140.387238557071 -5.64835807700348 -12.1377073196615
195.461176642815 -27.2979404586653 -1.23689496270789
223.020992090283 13.3484364034069 -21.5100736806172
186.996579637015 -20.2583773360292 -9.47471212274138
214.086905941532 -41.4868358877454 8.63611643174993
35.8401771997604 9.3246872289774 -15.7674768138685
-103.031870584386 -29.6542613057243 -9.00078666799853
-227.681208303214 -12.391319289152 22.4942304365295
216.986320196898 29.7656169947294 44.3268310490978
149.617486842716 -2.53039957981354 -26.8281127937502
165.882537160632 -2.07394676559734 -26.9258473725518
244.552031924586 36.0179037612732 5.04575854835234
142.398869018955 8.53785265794982 4.28266386855597
77.1571608195268 -15.9381447628052 -19.2525550097689
196.141566732209 33.560754350924 13.0889593467512
218.044834094681 -1.93121365462452 16.6959493629652
-213.757305542252 50.1065846500887 12.6905095279798
-203.138726354241 50.4179625965038 7.00729929663586
-143.778354071544 -15.3834447230009 -12.2523121773104
231.452580899293 42.3322069550219 14.3315217224528
215.371134511922 14.9141888132496 41.8353995789213
-190.791093710849 0.226800831515207 -11.5947636697394
206.769425760922 37.3085772753128 27.9412718456645
165.255923609939 -6.08634640249419 6.69882803913477
-117.2693597663 -30.4259607168148 -3.39264395373298
-212.899836196682 56.3852678119406 -1.44183518265348
-203.232130358183 -7.72463995309686 16.5552336475351
-213.116249745214 47.0472312918011 -28.6922314246431
-121.189548629229 -29.7207234653729 -4.90081265160372
-171.167842057238 3.07905461016632 28.3420080133067
93.6855874128896 11.0314713034943 -20.4600562735389
-221.848749437416 9.6592485377652 3.58397067074506
224.812866026002 40.3348968379192 28.8867019345194
-218.861011957303 -23.8219161685459 -9.39287221934099
-68.5502383629138 1.83424384823562 -14.3117137252796
-204.93194326197 56.3254408234992 -6.51602767991115
112.750724839005 -15.3189272266221 -6.69611014823889
-225.66306051176 7.82769221861809 -14.3001779981603
228.481690365732 26.0991422316858 -19.8001161428488
-189.206541682663 4.37057499665177 16.7763765437242
235.594386211903 14.0355041505748 40.2205801361756
150.242388428368 10.8704547588769 4.27422098113641
28.4685283703919 -12.1726450715307 -1.02209082938096
239.735109091259 -22.1735510057791 9.40649560221197
211.648140764049 9.24422507298289 35.4296379417644
204.888159835867 -34.5041689945288 -5.56308722686762
-190.260275662066 6.74154685118255 -10.1944992206403
-223.688191997701 -7.12950420923716 18.3474635277769
30.084408721954 -10.1802262640169 0.681391917358509
-70.1233758071925 -25.4497877023771 -0.993496490361873
-14.0745677344419 -24.3577769064192 -19.1410104821496
221.899029656681 36.5197741061562 -5.98953773013081
22.0314444162964 -15.3099745636749 -3.32333152745143
174.199840865704 -19.3491767997899 2.87214422953671
59.6662883648917 10.5915712016246 -11.2907174424609
-239.57950555724 48.1481927477458 -11.8746008233434
80.6530845479968 -16.1387329273931 -17.7284937496935
229.445725455121 39.1820297265037 2.47690492865268
-211.239092892076 14.242461759488 -23.6703461543232
-224.373857329791 15.0896480971972 10.7645503689259
-220.75804226729 -30.2899738966991 11.2045217457878
200.608533199441 -1.73666001896853 -30.0863471394224
235.61513339439 -19.3874194228777 -18.2102506494325
209.218010452767 11.6434987675946 36.7589564490349
-128.229726985113 -30.9046251751107 3.31803636466096
196.845008194502 32.9521028217942 9.39638896365062
-34.0443999576265 -25.7017292243009 -8.81894835897107
-231.697905338337 52.7830460885678 4.64163348187772
-208.488006844185 -35.5401966076901 19.5749172991936
187.261258575426 -1.15968461234552 10.9324856581083
212.841806417085 34.0427829790638 40.5866291509691
88.1984361905779 6.26672930010622 -24.661268233949
-145.339408151266 -22.2885778955848 17.0613455830217
79.2506362352126 0.0539339267617473 2.72290058055093
-155.715736580469 -7.13171839896822 20.9802520882443
186.007273115777 12.7922375559702 -20.6931156358263
-17.9010929277681 0.195344880974588 -3.46276040396841
-205.425439853714 -11.9798646510477 20.9666544392222
241.083629439214 21.1673363045304 37.9144331034072
-209.864090741975 54.2745167563003 7.08199745415201
-227.044164764398 -8.92129584683528 18.9348037595605
-208.285856621222 4.96921023616275 12.9951707653941
236.36905775373 -20.9656644006225 -16.2217653207033
215.783054071834 16.6961421969082 -25.6598000327786
-160.194105972462 -20.4295902199819 20.8122196998068
-218.817463532279 -6.71136396370306 30.2507842850057
189.177088580544 -21.4668335102381 12.6525943793154
199.50080386867 -29.7680739287963 17.8826833224297
-186.866364142141 8.57580299963624 -9.84328969949472
-46.6663551351243 -24.8895260477086 -19.128000054657
148.199829707796 4.40033378262768 6.00166935218743
-42.1101556555516 -7.47550727940896 -26.5137848992444
213.138255426946 -3.93116336730339 19.3587372073322
204.792114586281 40.025925893279 23.2620540091198
-220.329668044845 -0.555469856275047 -5.61973294317513
201.066568681035 -33.8941164297547 16.2692653756563
204.144371681934 21.1520318065939 33.5334504254383
226.048930442467 -6.23734614355994 -24.3397419773599
203.22104985878 -35.8758604642939 19.1494148014595
106.888803963917 -15.7481065354913 -8.58754520451123
-143.799574547778 1.64133625385127 -4.40057229127802
-218.435492239169 5.58940100640633 -16.9783753236588
-200.626773810661 -14.4012814527923 -11.6692072551383
211.169964292231 37.4209310501215 30.9668065413986
198.638176830209 -5.96005275350925 14.226857040432
-161.707945446876 -0.842041671581044 26.0038303165371
-195.884098308077 11.8218766482406 -9.77314422008729
237.277553684611 -24.5895778477411 -14.0288442457118
199.956542581474 21.8196474307661 -15.8412652895856
220.538541214986 25.6615248358317 -19.5694564280059
216.578303557909 23.8604932193738 44.4364254570176
-231.526983247565 10.4576553551799 -6.44757079701929
-159.128730672305 1.23373082846691 25.2940997475327
247.708878408543 30.5937253866188 27.4112545043333
-177.563349953126 12.7585823477616 7.14005867577153
238.564370383458 36.3386297775763 2.41869051956836
-76.3791262810716 1.17659927499348 -14.3671279917775
-152.145344021793 2.72498065433087 20.6789523853754
-225.915059776566 -12.7743861777504 11.2111216973051
230.164702202758 -44.0357716447923 19.7369100032567
-193.674862010257 -35.0389202142356 -8.07046319983933
-191.860481271076 4.9001672970837 -10.6798904881322
187.724699611049 6.47955762144283 14.6346669179034
121.402413589705 -9.96281486301293 -24.1025300614235
149.078809714101 -3.99413262120176 5.75442495544987
213.931371494778 32.7953928923393 -10.7441297204322
242.057239078483 36.3367750247366 13.4469537510446
75.6694476693012 -8.86694159270613 -26.8448049533205
188.333419699477 -4.57712087822185 -27.8769184894243
-132.502579341015 -31.0637817522785 0.961230374912111
32.7749087580301 -19.076930836161 -9.32657326540491
131.360431054185 -11.2086270130461 1.13170638259704
173.25910927278 -18.9338221782541 0.347798320902542
186.384790394644 -3.3239110292763 -27.6232275123214
241.070073611731 28.3386687550179 -10.6774258814615
229.583498339373 9.04969305892136 24.7639593864565
226.319088378595 -30.5092382725733 -9.88612932764492
93.7794616658226 -15.8703711383783 -8.64789445341651
212.234835052791 -11.392734531441 24.8875011750311
-243.523045561321 40.0880542968399 -6.98823557175421
-97.9716867178868 -21.5693906092307 7.21943461912698
199.778995816882 33.5685286427899 1.96868771269361
77.8632432010943 3.90990183012812 -0.325520600618133
97.5637206025187 0.988924859104715 3.2297736921823
-163.953883536163 13.2208228521636 14.5381925498685
240.141395294328 -21.0662047916168 0.475938159978381
220.890005383172 -9.72988546619421 -31.7501581880744
-144.201186432781 -4.42313824857188 16.8332996297517
181.812464682557 23.7917637592863 8.60019863913899
-205.219997717134 -13.0078720081113 30.4209773272622
-227.403651054751 -7.27922203590306 21.5167760292248
201.514653224703 -31.3802266328497 -5.86011028975519
-204.93031347915 48.4599809552607 10.4644193123749
-77.4101024168577 -24.9433862760935 -17.2955212992564
-93.5800531418821 -29.401672223466 -10.0621432343899
-175.66536959875 4.33090109247633 -8.82194137562816
-150.178059170205 1.98760286001857 -1.47847266568724
-179.759999272466 4.0217550920529 -9.89578154070126
238.835053840804 -38.1772218137467 13.5460607456713
229.624023560796 -8.90771236262144 -22.1953563799788
234.450472125164 8.22033682706691 21.3151469319243
-56.3155307845125 -19.2429648897092 1.75683399705365
-199.877707558005 -32.2388667658856 -6.98499177249677
239.124633322295 -32.5291216449608 -0.274937882238481
215.91336223383 3.4321573577154 -24.0346866181571
221.282049669676 5.30503120371542 -21.1167531267907
-57.7674281648631 -8.10748832894872 -25.2205901383843
33.9938725346911 -20.8138149148234 -17.4044175400258
206.251343520723 27.6109588181976 -13.8968589574082
232.813259142266 23.8813063523401 44.3283072676428
221.630620682238 -19.6618038268927 -32.102122455702
-68.9414375633028 -8.40441671842011 -23.9815031432037
185.559355813926 -22.0472594002409 0.779462014641935
228.026318602647 -3.8507828201849 5.72491361938886
48.3216964718171 7.12647994982459 -22.4064373287064
-205.440835186786 -28.462588112758 -8.57693973776474
-220.507699829497 9.602102505961 -20.3228035020541
-202.497117589279 28.5918884033414 8.60892749781342
219.957048229311 -34.7480057812956 -6.54081344594416
233.354173774176 39.2184133872193 23.6876095029752
-218.818058835253 -20.3590488090451 27.4362928588999
-195.133281262269 43.5715790764555 -13.2520265105252
6.3089685001348 -7.50003656277255 -28.3445835005778
237.273588622987 -19.984677699725 18.7983736605439
207.072007323434 39.0039098030149 26.8301610957375
-191.347244231066 2.38028077186804 -11.1980260983187
-51.2690846367468 0.748311161437881 -4.8655973564049
-221.149228172183 11.3492633814324 6.84217843748652
160.759225163138 17.6809363318545 0.339533046831852
-187.133843172434 -23.4835928348553 -7.40529736108374
-242.815783518295 40.1317753362468 -1.53956002179148
-148.141595745362 -19.2409096654373 -11.0084688834629
-85.1542012052687 0.531412533999473 -14.1431791947432
-172.367990778369 12.4742674205201 26.6409793432964
-165.210418583321 -19.8644429325838 21.9676873031117
-187.712337563316 17.3852252718887 1.05321190497943
-228.3783460294 40.5209167924837 15.6943987890155
238.231844662219 21.3149285356122 40.6475022676614
242.984592973976 17.490400358188 -3.08407988547757
-197.290737665388 -4.54475031408379 -14.4995508488184
196.242380900676 32.3432088185673 14.785110132212
106.887931469845 -6.28170660767405 3.27758718977505
214.405341663924 -25.0629999006556 -23.8801675019543
226.412489488666 5.97922537084002 36.1254009624502
167.049223677151 12.614726722209 -20.7157111762944
206.384416528836 10.4472062497522 -22.3269756111064
58.1122457042309 -16.317868003667 -7.02814514496982
-170.914450563852 -15.1066638526609 25.9357189910546
107.922262747322 -11.0189952717617 -0.27696027482666
245.006908063059 27.1106750548073 -2.44783618019887
-113.995072586809 -27.3263286207836 -11.0614398578738
-162.195080820761 -29.2386092505049 12.2155768878794
-212.406803446226 56.2914830473971 0.957894720463774
-52.3892445545261 -10.9755800028142 5.04981134362786
-218.62734670049 20.8680455252783 -29.2986493121485
225.088252044591 -34.2200762078202 -4.55423972592402
211.807534797501 -5.69991810346433 20.8255960578127
210.400047478913 38.0660960316573 -2.88605738643207
-173.89643764011 -32.5871438114037 5.67165908277954
191.086145370675 -10.9849354150244 12.5396223552352
-206.245552375699 -12.8451186054208 -16.7428778414016
247.047344465729 30.4399558999254 3.2148891163362
227.114557972743 9.89980850091666 23.5925546583256
-234.294958347824 54.1305796421971 -2.52049710816188
-114.504940905132 0.932792961446747 -5.92918337558461
-212.187214111825 57.753755855626 -14.6916649357991
-207.470356599878 -1.48059311001284 -14.9788700800092
-170.062721436777 13.6023708678359 18.1035114429994
3.93926090413615 -13.4549636522343 -0.614664467255077
215.666640813329 -22.6416370278506 -28.8990689999882
-220.621292779492 8.55395366195901 3.61727468753351
237.397556862541 37.7140290141913 18.8786021055496
-206.895466965791 47.8055296902428 12.1843275526405
204.114288743955 -36.5256516572036 -1.22738679984938
-194.463934705946 40.9310952543635 -13.6386284825019
239.910036282935 -23.3183596229387 -4.49022989159555
185.723934709954 15.4140600376838 18.6513965228434
-171.465017136275 -25.9248428545389 -6.62235236137291
-225.642657095062 -24.8093750597536 19.2365781379865
197.378121721233 -30.981188134829 1.97801819448913
32.4072862508866 9.05339012375113 -15.7568685228263
203.400839285781 29.9724598844024 28.1896531049988
202.455570978521 -8.57886997597504 17.5362522086337
232.248522411262 36.3377087616666 -0.736015678894481
228.528928864065 37.404057210422 39.8697362446197
-210.608475960701 56.988105750767 -5.53885811501449
-26.6205412721339 -7.45460035605556 -27.462416432678
-11.5317816396037 -4.90659061175834 2.70746636617009
207.994417285227 -38.2094403323356 19.1326089394469
208.500993931441 -2.47322040279044 -30.9936727782766
112.389833781137 -11.1374902503967 -0.119662356961887
-235.816270753115 43.0843513396808 9.4040953622879
245.292187646281 35.7658583963428 7.43846228203445
165.689949414236 -12.3416585041066 -20.2570960292126
247.71443468217 17.8611163731421 17.2953064937807
-153.971508412245 9.5992734480953 12.3591186193174
158.755412733193 -14.000327085718 3.98205293398388
-222.274076605683 57.1498570049679 -1.02622357201937
201.190686547099 -33.579113630976 21.6317967259304
-197.296650378928 9.05469385094403 -11.4995467672695
-87.4794391023606 -3.67396630534733 2.11138137994161
-26.5579457656207 -25.7368448349212 -17.9252880030904
100.199994637558 -15.6037693928951 -15.8412723042413
119.014613829347 15.2516800504517 -8.26606785086385
-203.78081506048 55.5698974679162 -8.54140421152181
130.082083530894 3.14202555234005 4.83018949103608
-49.0589195515606 -16.2347466955396 2.8530316817816
-199.536866318495 7.27425563270237 -12.2217989089158
-229.70600423955 14.0171252910356 5.51562426157808
174.667438264029 18.1882035916335 -12.3260805919933
-188.333497962453 -4.3740138637955 -9.98150906596423
-41.6334302324931 -22.9933655354635 -21.2211960997281
-65.4954760973981 -15.2497152588906 5.95850227963475
197.533912109975 -30.2497697411326 -0.129355324764213
25.9007774694177 7.95319040995369 -18.7563301448637
-204.920920931326 0.879884136789487 14.2290240881683
229.148679163186 11.5674869230736 42.1515846284507
-212.249088341737 1.65704405815527 -16.6743785246039
-232.461526630284 32.1105371531423 14.548207748553
139.429020060944 12.491612108266 0.738326014782584
-198.549219784238 -8.44959444220001 27.706041509886
110.522514110277 5.55573182774057 1.71819821212885
-207.806621313619 9.60392700414366 -19.7714576078794
-32.9664128635576 1.14654495370582 -21.4421126967019
210.679318366313 14.6124531798241 -23.1570209337469
-220.311155990713 17.0516066293768 14.2329248081126
173.906277131938 18.2280706253199 8.41282745065354
-32.6931538106948 -1.58434752674052 -24.2366165642985
78.07570254603 9.20358843249312 -5.12308536779627
101.568725465439 -10.7301005722727 -24.2688779774474
-142.802177299423 -18.9704602479924 17.3464080659826
242.111183588046 36.4876299018595 0.811393152483407
-229.956499893797 -14.905516829948 12.1058708816773
198.167360831054 -26.3922864459399 -8.54578862851868
88.0566746211694 -10.3412662460505 -25.2836080927047
-220.447029457545 5.32993774978612 -13.4349450593593
122.549030436885 -7.30844856937447 -25.9287712265511
-58.4468882279532 -20.9864766228438 0.796222117595063
-230.381407682526 52.3413702809887 -20.8289854945079
-150.073052545727 -12.4729553990268 -11.4039214262988
-56.7638973353927 -2.00708543381697 -1.41458707655058
220.994084959288 -38.7046877686495 30.817618950928
231.558618126757 31.3476459214007 -11.7311493721368
-64.289756273994 -28.8086417222909 -11.6265368194101
-41.2530607463972 1.50487446343138 -5.83018291489648
-93.4463029009196 -6.29987562607239 -19.5071364054967
221.752907279474 15.1810888970567 -23.0490612597518
-62.487789729471 -28.9347001276703 -8.45963629922219
-133.216094404051 -10.9908834880543 -14.0383850797633
226.438258336242 -6.04662977102723 10.0463995721783
-230.253711476582 -19.1738527201084 5.16677583670259
-151.541093304001 -21.2354202124197 -9.97336313427737
136.481391920329 2.13794811555672 5.48565000124691
61.0275907674127 -6.0098029927999 2.64689169497599
-2.7340360934125 -9.75539782891921 2.60270288623956
-215.320999442491 -2.16351462697385 6.26074463435028
178.610651646645 -6.09646596200278 -26.1306404913022
112.546150591312 13.2833490880965 -18.2288096884524
-142.925844743331 -23.1075367453892 17.2252680720056
235.404781122901 -34.1234996568303 -1.69250322917439
-212.616834211536 -10.0887322639443 9.88189128321202
-188.481853096677 -38.9388738907627 13.5590504830923
-207.727556307716 27.1078148886926 17.0470530528372
-39.7890198948098 -7.84782393014857 -26.7652312761042
-158.918929513958 -27.1021807261471 -5.5970443267267
-166.47645442735 7.43812511588949 12.2590169963718
78.8866433117566 6.58250809881117 -2.32221729872925
226.060190423824 7.52957371362292 31.4423340775038
-10.2386294616025 -22.4827594003952 -21.6398615773687
177.545850512109 21.6778430418695 -2.23097062766299
202.212228131805 -39.2683996523584 6.93608310191829
167.496448934879 17.2107129803695 5.91816430496369
-236.970299908775 19.1664461540897 -17.4199485323626
169.786064824549 17.1891809735988 -14.1595507669224
-118.204880200403 -7.97706744889583 10.3804484792279
-176.125221768686 9.29324142358477 -7.12051864570057
193.757796087929 1.02534137714938 -27.1758166146408
80.4560305392334 -6.71748845950478 2.61041687186002
-95.347344516616 1.28584168949329 -10.1004227771519
-186.121146440282 -27.4373904685992 26.4257300730946
236.17278449298 23.8818797178732 42.6948367308961
-202.442790088549 -27.5130577639054 -12.4090737658897
121.904768341774 10.2480338064824 -0.27233284017232
-63.4780975188362 2.27882106699902 -8.316864189317
-6.90356528265523 -8.05417940813683 3.24647030575803
216.578860012473 -38.0839859568102 -2.90959602875894
-213.04979356298 57.6594955425959 -11.9456180943212
-105.329086285571 1.15884391910517 -6.9638095304217
94.0743098830958 2.65580076433062 2.28124301496532
221.770640645956 -40.2117678977957 29.6741466331172
-136.443030063699 -18.9653425467503 15.9050763425621
153.789601602512 17.9392651111578 -8.92221971343101
-211.71080986799 56.2239568001344 2.05425973659571
138.649966050692 16.2861921688395 -4.7691947812055
222.144989908607 40.2165059076475 0.0848327952970001
189.915269796817 -11.0614861229001 -25.4750405700766
187.999373090863 17.7969233382329 -15.2476142968431
-169.070971733426 -27.4796660220236 17.1691105522705
219.550699469114 -19.1787450686911 -33.3996511846018
110.917798014786 0.351801598398348 -27.5570974901577
227.192661759838 -5.16232223969627 7.60193660950178
62.3108308101687 6.3230134390227 -23.8312259558625
199.14157699051 -30.28848763084 -3.36919262744474
-186.757234787885 -18.5263517940798 -7.99706055567928
-153.068466218588 -25.5169810577659 -7.15320258239032
-212.601643713572 -2.13197745997836 -15.3661271390708
-32.1410186671434 -21.4221963171767 -23.2548798557439
65.0070015727956 4.31909143019242 -1.58658332813862
-182.555067597043 -26.2601871471568 26.037138106004
247.218357639347 18.1733299823496 22.6844811140281
-149.177371832728 -12.6234669418526 18.2900871484104
135.364432792396 -7.1725219443387 4.30936158459344
200.211037135614 -17.2755916761894 -27.9027737800136
92.61050581814 -4.329574293134 -27.5307047082859
222.560024809987 -40.3575281958548 17.2973142298723
-143.32113248702 -8.72774331537055 16.5878976424719
231.033532311133 -4.13442575167358 5.24233255750047
-209.885616140517 -26.4923069644846 -10.3332839641116
140.15581470316 15.2073358529373 -17.1219236326217
-151.102601225752 -9.33428516428701 18.6779949300392
215.394084516376 -17.6848393842977 -35.494183063655
182.190507775248 5.00748879515924 -24.6777703040867
-62.5474317811372 -6.6239437174471 5.12266609565345
-228.74858764337 9.01692203540064 -12.6142411879453
-87.9681548133269 1.10832742237327 -5.39207185864671
-159.364158236961 6.94612508130342 26.0020097287853
-228.045859416974 19.7101151226691 11.2262285166161
215.795563148449 -39.2214965162815 23.2653124861438
227.415338398715 -7.8994854720295 9.76626449167762
-210.355695621828 57.4304979718379 -10.4565908196583
240.537892042477 8.11620457238391 3.2839636224341
225.224859181256 -12.5285231588589 21.0103677980411
130.923811253303 13.9801228095518 -2.39487219735129
233.918027982851 -5.45637163138821 1.83250910079086
157.312929150551 14.3773045193107 -19.0423470466554
-56.5262864733071 -6.88790822353862 2.72620726861954
247.483322738373 17.1836000390702 11.3351740700656
-229.957678686467 21.3871356601445 12.3507973080936
-166.159645871717 14.0923868187732 15.6028960792739
-241.747144073154 23.6694987707909 -11.8282603870159
-172.555672017434 4.35225792062453 28.1360621517683
203.730968536187 41.517599562152 8.65647948758505
222.269566048289 30.7928557656368 45.859159530303
175.974761184595 -11.5956579847631 -21.7940663824299
199.698777624305 -27.9950480680551 23.4483860370413
-241.094856921028 30.4867133881279 -18.9694951386069
-206.652481568681 14.5053383653848 12.7893344873141
230.896958718186 -37.8539001348802 27.9712467560403
234.58474457724 -17.9464569210121 -20.4000497687099
-198.256031283006 -18.5985877973526 -9.44734349075049
200.210985052597 39.2949929360171 19.1559391713051
223.463551311899 2.82485842399654 8.96472155389963
-209.013994248861 -11.0245917224711 30.0014868892436
-178.831148967122 -30.3122663749997 -3.78441212375059
-144.906893231092 -16.6118483113639 17.586183330837
-227.126110658301 10.9079401453358 -1.00946774561108
214.601964603806 -2.21696883797587 18.2558773490906
-127.458505297696 -6.37703943756302 11.8496139046411
-178.162581865226 -32.2611471953754 -0.650932550966434
-37.5179623419742 2.17530376749928 -19.0839040489515
185.550910998263 -15.5263693387682 -18.3108350391288
182.414749041597 22.0502098012444 -4.60093508834001
218.843872719184 -40.7259334918059 1.41914280860375
-239.171338383664 27.0963233667404 -20.8626015347332
-144.347121675625 -4.6234807321609 -11.3991615230162
153.613593014467 11.8953460108287 -21.8179345581058
-203.064808866624 43.6804438905698 12.0410751545483
-144.203397460371 -22.3683121911003 18.3610013252762
-101.817448400418 0.369372996594275 -11.6512735441364
145.411163729485 -15.4321314804885 -4.47302212807696
-243.44813708662 28.2341976014781 -10.0214817597669
81.8023084335047 7.75014030293377 -23.3090585892491
-49.9388111787265 -25.4652845373339 -5.12890690681129
99.6744671932445 5.88634019725419 -25.4240499679438
170.091166000912 -9.11503479148202 -24.0306467619135
212.784049685046 13.974730763912 -23.7207148768016
208.312726750737 30.366895741437 38.842429142409
89.99209884943 -8.29659481664005 -26.318003369023
-101.751196254828 -17.232825172625 10.1407456894642
0.669221946177546 -2.03403739435793 -0.836594294453394
-193.759990541379 40.3205546221921 -11.523617054976
-64.6474318320768 -6.44336675409381 5.12417175661363
-203.529427190429 -28.7152496504543 26.4493390909647
118.493095269751 -13.5748724150519 -2.37108202669964
63.5169765697749 -12.5660782715147 -25.4661920747968
229.607780374455 35.7713659742924 42.8322476997073
-172.537066940443 10.7587326450921 -2.7204931193478
233.838339808311 -6.24139323055577 4.62605840005894
1.16032186380427 -14.592116804292 -27.473231628891
204.829552445333 36.8335029149215 26.2175718044987
147.293768544744 -11.7083575342886 2.88037114573676
123.162014519394 1.42425376297116 -27.4176680900712
-233.013442428279 16.0508043405509 5.14533991945755
215.373345347504 -36.5865408804654 -5.59427154734971
-199.154714847987 28.9663842417811 3.2126502418209
-217.632187472407 -1.50559049050002 1.92395547064564
246.876928137699 15.2882669773434 17.2452849064011
-161.692809712516 -3.78875101268917 -9.91753053332482
223.392681589088 5.31028694541694 -19.3419908874602
-131.573534801611 -21.9087059049936 -12.2764694910129
-68.4376814014325 -9.68148474548437 6.58229584074269
-237.764897753445 16.8078147607283 -4.27273654906558
-211.575519676745 56.9336453129069 -10.5774846283443
-227.321139240182 -12.452366227961 18.5649077376557
-227.702308896261 -15.3170645222504 7.94206399404088
-86.6719157132967 -14.8667552532746 8.76396382964345
-212.201016234961 56.6744409954391 -3.71476469779607
-76.1656287698111 -1.37356200477654 -1.26544965804947
190.487131507153 -24.4557742257351 0.986311336785393
210.913021250425 9.42085014647991 -23.7157021929083
-161.440256906085 6.86741954699534 12.5063042943246
-212.60636533748 9.41759705194293 -20.9323630832136
12.0941159059994 7.05637328577167 -17.6696142164842
173.300205462711 -11.1728017236035 -22.2035147754024
-73.6864821318636 -15.1748406704032 7.54430738196191
-209.155715386215 14.3564466446214 -23.3264816460376
104.870086661332 3.41194835454817 2.43115807529209
205.583746840605 35.2124511518685 28.2942318561705
108.59427178677 9.21954136894533 -23.1409734549626
-34.1559934703178 -8.1697416566044 3.65403301912856
-240.803680304172 38.4789252940219 4.67766737283958
48.9544691629606 -0.662667410727234 2.4208468510608
-220.19375361809 55.9316984032439 -2.4307766026863
103.462815459849 10.3618345136881 -3.10202209912196
240.409873001658 -27.3557432860343 6.20653072532963
-25.3567022142557 -22.9415548173976 -6.81052233673576
-201.194780440144 39.5270481494369 10.8942275132705
-44.9023110171197 -6.03762764091585 1.75876157377237
-80.05221839595 -2.03131906811522 -0.226761951650422
151.061705744809 17.6446334604431 -10.0399707691843
-196.215888117665 43.9267735556875 -15.9246641253085
-62.2265896705983 -11.7759151616827 -25.1687537952547
-127.966733937026 -1.6430426846428 -11.7413193110279
147.468233052235 16.831358519713 -13.6798072224663
-147.039530778151 -3.76491681371791 -10.956198211155
170.649463751221 -15.8589044846717 4.45126723674781
149.957933614622 -14.6510986908442 -1.33237369438505
206.467844071449 29.7794548198935 36.0326293773691
-213.018553424061 -32.9794976829111 23.0503838630319
185.634281844416 25.16821148764 4.36587383064433
223.840130895805 41.5874757645188 18.2693115354372
192.450033902894 -15.1224667234009 14.0450020785331
-41.3902018631657 -14.9330642530351 -26.413731649834
248.792151708071 24.9244752127592 13.5153415181736
-16.5674745019259 -3.41326954471239 -0.47368086232858
-212.96649215963 -36.7043326062464 4.37937441221997
-222.134403962688 4.75692627042326 -8.03981029970638
-87.8455100168267 -27.266619971842 1.19515918823378
177.560058885063 14.9984861101887 12.3985136434966
-206.76332785683 -32.5565481343602 -3.05320693803371
-204.497138068399 -27.1615076362699 -12.1416409045974
192.239463203023 24.8956069304014 17.4992285984937
232.832998453819 34.8378680546658 -4.11471383635618
101.560866342841 -10.3715481381519 -0.0950897241583873
-228.075193221968 54.233419370829 -20.0040359223186
-194.398636122851 14.3438455182812 -10.6109524735313
-217.895991286848 -9.80131815012954 6.50078328077384
244.230650539666 36.5153501798788 12.2967872486066
189.823834709894 18.9431849801926 -14.0544077829821
-95.5401817675218 -7.20588437136538 6.11430676121525
-198.44382684004 -38.0997424445264 -1.96029071403779
82.8955659964509 3.96316007943723 -0.0739831854820635
-24.7658655366802 3.80013368274398 -18.104560015486
-90.3725990437225 -6.13711373501132 -19.8746444604856
206.384578057579 14.5158783380121 34.0854774169749
-174.196200889149 -10.824124578546 27.1989067947414
195.307773751871 -26.0508256375229 -4.50849350510347
72.7777253770427 7.24441504770093 -3.47154871055785
219.45278683561 9.90266836748265 24.0950587359281
207.255605136533 16.7573294433895 36.3570384662981
241.751507717686 30.2680683957384 38.3031863935398
-166.94686578254 -6.4570501973072 -9.54884499899144
-187.652391805108 -1.89801963814902 21.2951198194584
210.143449055026 8.84530285496328 24.2593635038775
-189.617802705936 -3.43341954332781 -10.4541760174965
-242.354434019329 24.6369989092445 -3.64301975606106
-230.292765282188 30.0260875874551 15.5252027561596
80.6245989014383 -10.8282271972677 -25.4198697132049
-192.541882560717 -18.3438512106278 -8.55068261478653
6.27898969061235 -5.51131583681926 2.37025141768444
-231.694386082903 24.6229584135021 13.0154839635873
211.30597574953 -34.414858661137 -8.41290446082578
-212.529798597789 49.5830610125242 -26.7173355624998
-222.439115991996 -12.4776394160857 0.34995568163075
-205.787470964755 -34.1922159496412 20.8777904791543
199.94099846623 4.93489453241113 17.5922930206375
-223.071035022856 -17.2877067966296 25.6967554438136
97.5044433181479 11.5468935337866 -19.9631623476202
186.75914983497 -5.48697299522911 -27.5359214189781
218.181965700836 44.0277145195476 5.86151176553287
-199.331422771071 14.1427037169861 -12.1019942861067
-225.27319694351 -23.4051313175321 -1.8411330137955
-1.44924955716556 -11.3914819490223 1.20314653508137
-138.637305228582 1.407291708611 -0.535910326760872
164.371001603651 -16.5449034364634 -7.86187599804049
-71.9208270030037 -25.0644802505785 -17.5461895307112
-36.3795986512162 -5.86251381709946 3.42107806065889
-206.337789956062 45.0492640341498 -27.1414806754032
226.762458771159 -11.5828953112991 19.9110821291089
-136.322484815082 1.45128553037406 -2.05515682083665
-125.544059398085 -9.0639695395898 -15.1146312554731
197.738184616748 7.04644268594636 18.9750018764571
-138.289020124126 -8.39061491450216 -12.9668058910323
-154.664232993971 -24.4461608391632 18.1639540436166
43.610035191254 8.61367980513337 -19.9452466519535
197.506067487108 9.67297369213062 -22.6435063631388
205.042291369435 21.7595911532466 -19.082698691483
-234.808591115139 50.261107553757 4.30174375676472
-20.1015891250677 -19.8253321699729 -24.6457916863509
-196.341798789322 14.8307236098452 -11.0598171718114
-218.674215259062 -5.01808663588913 29.4332704312347
132.032323252106 -8.3679325167941 3.53327731789996
-155.252638364296 -21.4897984347519 20.2678690830256
-205.488480257795 28.0868791241865 12.8064176542
181.36746097528 -2.03249570512754 -27.0080265921253
190.811256665509 27.9691906522157 14.4590509063312
214.942213897356 -39.6652996532425 25.1942459541341
152.481845276507 -9.2287717365485 4.97652017485033
64.502640520468 7.97576388522219 -22.5708430931695
240.843950420562 17.3649667158266 36.7868856715574
-106.897192870744 -17.6368793114981 10.5814323465009
84.5075758738408 5.84684571652013 -24.8531671002988
-208.608945027393 -10.2862671639176 11.4187731871095
-44.1429793257788 1.16797340491242 -19.7501300641403
-177.368816051838 -11.3931144165487 27.8938535930189
-222.876284874925 -9.80012232950798 27.7677572917145
210.395891454112 44.7194426462807 8.49706527067348
246.259174154865 24.7296750286475 1.59596092004078
36.1753284423448 -1.27254198610046 0.816926309084959
73.2720841828783 6.16676975225976 -24.3231462213767
234.462419339919 19.7666314524676 42.8302061745835
9.80589692836693 -2.17922985907387 -27.2278188845242
-207.635503992996 43.480281468763 -28.652267555048
-72.9857303754699 -27.6519246330303 -14.158740102905
-218.737539510369 7.18178915675057 3.95499888088054
-148.463615384102 1.40496890317659 3.18839380833508
198.440662866437 -33.0883816208405 2.87642437623237
46.2516002275348 -8.87722429545521 1.50022456309935
103.236025650567 6.72191849115085 -25.0398727964009
-177.949617419771 -19.4163380339155 -7.80023273174176
-24.958220008102 -0.614345552382503 -24.0669086857856
-151.670477667989 1.39699421273511 -6.37617747700932
-190.170512305082 -40.2527067251515 12.931407162101
-155.86537293144 -3.5717358656094 -10.240157804052
97.5412996577724 10.2792221458436 -3.94474867771829
-223.299589251248 8.0866799525674 -6.13265340137874
-39.3625162224942 -5.30207387355512 1.78443008897189
-203.964174917716 -1.29149748538541 14.9062818781786
-195.014174527389 2.11701971831864 16.2255170665769
180.097063544668 -1.98682284680716 8.94185045382599
-5.77246585231707 -19.6475554904864 -5.56000894534563
-219.4672427462 38.9568757437757 -32.5478122359304
206.942085479068 43.3326061602099 6.24960442525582
123.585099718858 14.0023079586982 -17.8008801631215
216.881246727707 0.624007460461064 16.9003520495751
171.042710586874 18.2686116024234 6.97502211700373
-95.8925232679139 -1.71514915785897 -15.9850934591099
129.529520040252 11.9294149218805 -0.489363921265286
240.287312587276 32.8326080387259 -7.70155253511152
-233.940043217178 26.9472034771512 -26.3978813961715
18.6555556600179 -10.5068419847343 0.765545604988165
238.179147676336 -15.6839154203729 3.53568392155837
118.346023593175 6.96366072786404 -25.228002691357
-193.516202610439 -41.3936906347985 7.63807705461875
190.162785870518 27.9529560121735 8.94364335311328
200.010836218547 -27.0609175329223 -10.2569356170296
-200.928069641769 8.86176580408171 13.08106575998
246.732640737461 27.8078239806333 2.73970334562026
195.902697244238 -31.1557937014436 5.72337152462158
-214.867677079659 17.4536644514139 14.5636611492206
194.46834092873 -16.3383460498308 -22.5858166702545
-190.29220859665 -3.0249769385582 20.2263892840916
99.5328681463037 8.39957098812438 -1.74047022937052
-188.057154213727 9.66652462696947 13.7453500713622
168.043552740099 -11.016009000046 -22.1537163077539
-38.1211666962044 -27.3192772847162 -14.5982496397419
247.395011037026 16.4738367086885 14.4638912104954
-161.428798453478 -28.6066794833349 -3.53565662191428
100.467433168855 12.9381078805113 -7.35577007944851
235.710798113092 -8.89872254995311 -2.90228964813439
227.358534392581 -38.0844157284128 6.00664008227879
201.765039910605 7.93516477860105 -23.9146685485775
80.3794481793041 -0.72019170128046 -27.6429280103151
-172.102029015156 1.77084837464882 -8.35897002621578
-243.03448591458 26.8675825694748 -3.44700412091622
-207.145584646519 -17.1586892401001 30.9156857182437
-215.29005415935 52.3246360013951 10.858793037537
158.870636973929 18.5788259214335 -6.51421838708081
226.811109200901 13.510255319866 -19.7866989491815
-35.8131667835024 -1.01778260711167 -2.69871437717143
36.5094549067172 -7.66004194771562 -28.2992525760915
-38.3165707423898 -14.1665821480711 2.60833461455495
168.06421727377 18.0158285566396 -12.3861173695847
-183.801571200018 5.40584946126308 -9.72355016264355
8.63581928418217 -19.3928987749537 -6.86664465091538
-44.4541638270314 2.66967989576324 -16.7525191177303
-198.755339600541 -5.01568156644131 20.8684245282759
-130.9714614259 -13.0917261712491 -14.4968102017176
-221.035113508818 -4.70370216972335 20.9441454939756
-78.4828635674416 1.38453448805666 -13.3553868049073
-182.582893279612 -35.1560921694233 4.98627186833954
125.727003404486 14.0358255035394 -17.8799961125079
73.3949788935805 5.02977855632473 -1.5206881184264
246.186691206936 30.6154017682747 -1.39155208897385
152.122876062655 -15.5279852058612 -3.7567242944866
-193.934262616782 10.875824908207 12.7687725285236
105.665942968873 -15.8803647954331 -11.2340145938693
238.476885572584 37.910893014847 28.5870330123242
-169.464168054331 -27.3726718950538 -5.39859509452506
246.984592776064 18.5597901089143 7.08436558834131
-125.520247722845 -3.63453685661355 8.79319064917305
-215.824321838982 -6.43227337809718 29.0802407119088
-216.193328744836 -33.8272407690718 4.83078992391565
-192.807994327815 -39.0910928321222 14.0472497564104
235.319044113434 -38.942741387264 4.87738933754443
-176.566247105832 1.60075495646419 -9.00118461409206
-227.706760203893 -14.8951955859665 14.5542687292443
244.915034132279 14.3642184963475 3.51866613709442
192.786221395237 -0.763821222853102 13.5989848295426
168.419886169114 10.6789292149134 8.04988130717055
-196.672357449865 35.0855482849451 -16.4835424247399
-168.873155581579 8.66722279758971 4.89692226257385
-67.4324960074844 -11.2596952859774 5.96307680404176
-88.7268899311968 -2.56623771829364 -17.7890786606372
174.042596017834 14.5137501847152 9.85408024574051
213.710649959245 -34.9570531949302 -7.39692955363176
192.321594097083 -12.2894467827232 -25.6900920773533
-152.60155487284 -28.4420823843496 -3.67503751635549
211.010909887629 40.1304704021806 28.4743661460317
-102.46111313539 -16.1904065605467 -18.948621941472
-60.2850505573501 -1.56911172040061 -20.9182702114834
-210.309268721535 29.8654195904409 -31.1140296908234
110.318941592547 14.6341448171295 -9.21767225522793
204.574719661888 29.5012716664641 30.2817233388314
217.023267446183 -25.9608446917041 33.7689639933475
213.597013391293 12.7704752979118 -25.1479564750746
196.959642375545 5.63006026609791 17.0028836985078
-156.234242880284 10.6622801964355 13.2008705355768
54.1712272815153 9.92414940392734 -18.3512257055665
237.797704514163 7.18332505145723 27.846648341487
232.32059831642 34.2616059477837 -5.92913666482659
-196.825764101351 -38.8963470980019 -1.04680030288109
8.70337200196467 -7.57038332261449 2.86347255246507
102.416544269558 -15.8408871635214 -13.7532978900335
198.414905306189 23.7933635968679 -12.0004944167545
239.478734007466 -30.1850462439318 18.2291404903612
211.606369540659 21.7162705897892 -20.8857543625947
21.1454542277073 5.14641331840719 -22.5580029366562
-192.895900005183 -9.76516278478112 -9.8716649754815
1.53125703175261 -20.0048072541771 -23.7392301823051
-209.214756864907 -14.2356168735943 -17.4170879261755
204.023236833879 -25.4502062354435 -17.6837625560978
-186.026562074203 14.3674170346776 9.2289170848203
-208.062083907182 -8.81678775054004 24.3646566719081
-206.118783087071 29.2178477413574 13.9692516728872
-244.051951605263 34.9161597724192 -4.03386678526849
223.831347044297 36.9937940486584 -4.41766224801658
72.8643829704073 -9.85295577057123 -0.288601056750525
-170.474152369014 13.5711866371397 25.4162554157933
-77.7005344963661 1.84398875131669 -7.5703126660868
140.574419690954 -6.61729566399608 -25.526773176259
76.9035134775786 -0.565742139618275 2.70656536354003
-127.432552695066 -10.5570672537252 -14.9524427196461
153.203632695207 16.3168086315147 -15.6115176242771
214.946190877496 46.0177697159522 12.4373678942495
242.730610299054 24.1217752284852 -7.09364496538058
229.597445075571 -25.5185536523734 -20.6356502539992
-155.853818856547 -25.0109853149473 -7.42153230298758
64.1290586080034 10.1299641877094 -8.84966369532176
-189.818047208504 -11.0070290783855 -9.00288020105765
3.55951172485678 6.7044724167232 -14.5964983371854
215.998540201842 -41.0195932696474 11.2455448359533
36.0015797263775 -19.4913810531509 -10.3408724000581
-197.952061036221 47.8024430755419 2.04405336346753
-200.796009134332 36.9095889805816 7.47738483101914
233.049997014425 5.23418078345873 11.1225754642102
-14.9457178688518 2.13345150886074 -22.1844672213299
200.570140522811 -31.0879180954973 -4.42273511560446
248.529268225524 21.1793185268141 17.264108560061
-221.076791929547 -23.2530225668809 -6.54362117957883
-218.225302210927 56.1574990920607 -0.758107749084376
-198.526266744897 -41.2224499015415 2.49388225579809
211.132130820071 43.11227890742 25.0345099299124
-198.761581810039 11.8187627975734 12.4629284329581
199.82764805911 -37.1235587811353 10.2865730094498
119.418658771397 0.116180635565569 -27.5637597943465
238.250538565466 35.1445565666717 -3.472381176418
186.360757816095 8.67531170737473 -23.0579505244184
-220.47884985886 2.71024542581765 -1.96536207707319
232.37122750495 15.731963266616 42.8697813311035
124.79723237656 15.3490548439869 -14.9246618020492
240.196883760143 36.5171019773291 5.22143282806068
119.770588540395 14.2980301916512 -16.9375191372011
-201.954995655656 47.8107134799093 8.20467186055778
-161.73349813085 14.9012811596853 20.9478392680826
92.6103649875853 -16.01951608412 -15.3804292900165
137.38600229347 -15.633848900711 -11.4538398210983
-111.105118758657 -21.4413238369986 9.47932321385389
34.9786528810176 -20.6707799060654 -12.857587200896
165.347247588387 -16.883221617058 -0.329843491142704
234.757639781889 -36.1420371785911 24.6736853010844
-191.508559675469 -33.7977271865218 20.2547941697138
-172.127135874664 -0.262049025406346 28.2039684625844
109.672726559649 0.777470831444062 3.65064088087118
101.106469070653 14.3162536269068 -12.8907139332543
179.799041460682 7.06065197322953 11.1241159540908
225.648296658642 2.09311491598078 -16.9215427881242
191.754631684632 29.8064029240141 13.2634283531596
194.12708050218 2.70023101478237 -26.1801181947418
-202.846405659907 -17.6270191539728 30.9825282758392
218.72729085876 22.9319473392347 -21.9406353717078
225.152495896741 36.0245747270466 43.8022712120684
-225.517977038619 8.57296994716483 -4.61040242900779
-201.689050440886 25.616784355632 8.51117056256167
237.867836391754 -40.0205935912989 15.2062749150435
143.14432758996 -8.73701608393234 4.43129192831074
-216.229862272958 49.5514122640115 -27.4716743800012
230.834300658875 29.924816435328 -13.9886557257861
-226.013644867389 -6.22361759527158 20.6646846047921
-203.131611172341 -9.78224532355899 19.2214200615934
-192.166171310098 -35.2142479057283 -7.66283056363961
217.471710459262 7.8718717603198 20.7901662073542
-130.924379873259 1.19265644789142 -1.94928523019229
-231.580845700959 -16.9174202138688 11.9859703939373
-152.802795728795 2.0584956182473 -3.46419058095972
-218.043699550955 8.42369182550464 -19.67288002958
-64.0524002951333 -14.2925299506277 -24.6759857594309
227.497969227481 7.39055401586892 38.2523559348384
181.54494445297 12.1858154674689 -20.9690629179557
217.395716909354 9.89467170502392 39.530074722075
-218.379630247309 -10.0304781895293 -10.9461515179987
217.904990659222 -35.8932509559909 -6.13998319095663
-220.708616055987 -24.0418923227079 24.6589967412895
13.1364550616382 3.75223305405428 -5.26290080365095
-179.650341953342 -31.2844397058137 17.6555325386945
206.927685031316 2.92270520411799 -26.7795963927015
117.314450935097 -15.3850627784685 -14.1007567598516
-204.632974993468 -12.2571064556979 -14.9708343127547
-177.803090752616 -28.517408041528 20.5805864101853
232.343774608006 -15.4271971336325 -22.9161907038729
-220.904102848067 56.2831615156257 4.63573398003754
-171.308827056254 9.93212292591269 2.10183050035011
166.513597777617 -11.5124401382178 5.50949328673741
-147.046988756509 -22.8314271838191 17.8437942544847
78.4414089037759 -12.2540894356653 -24.4369311733398
191.63454271504 1.40078619489627 -26.7509187749897
197.870867992173 32.9360017625258 16.5238039323114
-177.727592613571 3.0349959412211 24.8572795558918
115.489934903736 5.59160621297281 -26.0528075982996
189.303388395246 5.55970615308727 -24.2318051839604
217.88649468518 31.4962003402519 -13.3274474131685
148.34539756748 -10.9785494003271 -21.8501467896547
-216.060696535661 -26.7689770670557 24.8347447529237
248.527993634505 33.2978468850573 18.9304194615296
127.714538556627 -13.0402838424999 -20.0709682160973
85.6238691799104 -6.3173325430582 -27.2708279895666
-155.290189195282 2.04433807868816 7.24759990182423
-198.93373910013 -31.058782720062 -9.63607015101304
-181.695375366315 -3.99923497272186 26.1082974482105
216.590871879749 -39.8835764240372 0.366124565529229
182.326016879386 -10.1143766256414 -24.0124963361083
-226.323313864663 -25.3063401839578 9.73530662557737
151.475717282478 7.93819577125846 5.46306608391375
207.235528541053 4.51295367453129 -24.4090004511081
195.633932407456 28.5307104858974 -1.08517516079094
206.535404077832 -5.53262335332833 -33.45701058714
235.952055698249 -24.6890088441547 -15.883779588118
187.24311111229 -16.6283744158734 -17.2806929195548
-118.317602515556 -15.9662824759069 -16.3929368590924
128.355004541264 14.9870510022873 -4.35757315935212
199.939543965839 -35.2012749174758 12.3977504440492
228.519534280158 35.9806182890742 -3.56433092212648
-117.377627437699 -15.3428816916644 12.3551829387364
-86.2332605820116 -4.52093901902153 -19.553053010981
15.7799722643293 -19.7163832654254 -8.10587504689573
-26.4712391623959 -25.0134501140552 -9.15721730094222
107.357539690237 -2.843953888976 -27.4777717112167
205.42176312404 -23.5398538151833 -22.1909209724554
208.519071232607 6.70542109460296 22.2439108873785
-187.694132012289 -33.0517976180595 19.6247805833584
-161.445594533502 -27.8094546179913 14.2729474735623
227.668670358253 41.2460349625064 19.4143520620772
150.627356744822 -8.57903826811568 -24.2170292935087
-98.5278549321635 -23.6882669057278 -16.1795771609786
-239.030711394726 48.7594673063551 -1.9832033440545
-230.913330278756 28.1696974028619 14.6545637371232
-212.242377398681 55.9317558809996 5.83399251544595
-209.112185855818 55.5591625576459 4.57201589143829
161.426327811317 -16.4330152587994 -4.92498436759139
37.7995421737848 -20.6871582822858 -14.4040394373927
2.56186687301396 -8.63798164396006 2.99320267699995
199.699395917335 -11.7615321617082 16.7579415281344
240.796404212027 22.1618528416702 -10.8345936295768
-117.010428345758 -23.8299161119714 9.33213283299579
191.143829192896 -2.11106896415176 12.5876270846774
245.204021129076 29.7002065953983 -3.77127425086917
139.419790557393 -8.56726408756205 4.05900656803167
213.931777295051 -6.56153474313525 20.9492502839469
194.15255716161 -29.2162450451256 6.39296163280449
-227.082467177679 -20.9730004377945 19.6629508767476
181.279971001278 -0.347660985752824 9.37835233808018
-144.576457400628 1.58102333868539 -1.12877030039288
-192.658474164549 -20.4466668031794 30.8421697789097
-165.941035551211 5.74177277176444 28.6707188608825
-155.00081533946 1.45808134926052 -6.4217863409852
-161.458579763711 4.04189262320047 0.440206757131908
-193.818078170082 41.9567449318323 -8.71884760235341
-160.892509804745 3.4604022072498 8.08880077207338
234.870474256241 4.24494913682295 -4.20200434275409
-13.3413483356532 4.85476073348292 -10.88942404701
-48.7468789776047 -15.7331777077986 -25.6538482645796
-239.486288687047 19.4945397243164 -11.2064633783272
15.8931813682375 3.48027691402464 -23.8915272253486
213.595434035441 9.83997440079143 24.9855800735325
-7.36822682430159 -10.4031485050178 2.5839684734244
-216.679156009096 -7.21579735682463 6.09378141116354
-21.6442723072211 -20.1822152796011 -4.37345036893423
214.860913486725 40.9306684646801 -0.538151398153812
-26.9165557294809 -15.6349699478072 0.337161514512575
-211.373211183114 -32.2037324610891 24.8495135378918
-151.030431825606 -26.4528641913338 -6.35170799685216
20.8197813654269 -21.3843399477665 -19.8221858358799
-195.756503066726 -39.829309936086 14.3004867690611
-18.2651925628404 4.88638321776807 -12.6318109052448
121.428357786335 -10.1536133574461 1.24446819492019
110.263058723128 -12.034315672269 -1.06901489730707
-194.514353776519 -2.35080640264254 -13.5078405327169
202.819180314078 -2.10765772234649 -30.9907668554582
-122.297262910742 -28.1530057252158 7.84747178332667
185.796268373544 24.1257429200356 0.202388392085734
84.5715239392076 -15.9879583017764 -17.374490941229
209.791194065186 -18.3086321286413 -33.559356635612
239.209508384334 -24.4091440368968 -7.45695961705922
-62.5304661809707 -16.5969628819226 -24.1899561333704
58.8106030218043 -3.2346801889887 2.71684888934111
-100.007481211507 -21.4962656597778 -17.2096062600333
238.213179384465 -32.1577120212955 -3.0344170039037
-198.266359915505 42.2565306809394 4.83955246050021
-224.472308996007 -27.4778804795829 15.2325808687453
-118.153777177606 -23.8961732382913 -13.1640707427068
-109.667541070334 -23.7439418592989 -14.5476068984715
-150.843441443318 -27.7077189514881 -4.89099357341183
-184.868837785272 -0.181246050604031 21.0120620709597
-218.213054127208 14.8650637090415 11.9889119009011
196.026261562684 3.8961945097059 -25.6589098039369
71.5698854021346 -3.85009892241673 2.66484801749704
237.584956047555 -31.6362032144902 22.053370871113
-143.876455294492 -8.89405666065366 -12.1966268952772
191.164002787181 -17.3269048803948 14.3476161295064
-49.5001386467945 -0.665989436278449 -3.04273997963661
-162.636005396814 5.6798258350748 11.1750111132991
155.687592871185 13.8003765160078 3.66557652467338
-94.4255867299761 -26.8773777562262 -13.6248204857186
16.8651658327193 -21.7433648472705 -19.7503843763104
240.331235270929 -32.8265093208641 12.3863575948746
