-10.3895212000839 -13.0091766910505 4.40647224229498
-216.067408677608 7.34237073766556 -10.0068105793118
-32.301939450668 -7.96965261747411 16.72358996051
171.989403730202 -5.14546876704416 -15.4955366931939
195.456797748254 -34.2040440445887 -19.000283070955
157.750332072713 -22.4435976455512 14.9965238026538
-234.275484194279 29.0322773777409 17.7817441446492
-32.9989870416576 4.90097627787429 18.3711027624149
-63.8014677162967 -15.6144966730093 -2.11675210517544
-239.357844813963 26.9076008470834 3.02036789207134
-204.281779435264 11.5021804936512 20.7007700120329
-202.084706810669 -32.4535808707779 -19.2386595764899
-176.848701768155 -39.328288615667 -5.79472447540285
190.429207703312 -7.64860632748194 24.6346434017575
161.798031700822 -24.6304785631157 14.2861708709936
24.5671259200773 7.70314627557136 0.019851495034469
111.726906270779 15.4582713924526 0.31140511836101
68.9330047648803 -10.6226834755807 -1.86684730975613
30.3913296403871 12.5991218755386 5.52504773803211
-69.1280387576277 0.44489013689638 -7.98659910872349
-135.729930345604 -12.7961318380456 8.56641387302131
-69.8657832724725 -16.2173928627788 -3.23551752148876
-194.850255448883 -13.4841284613373 -10.335952715262
174.896707333409 -15.675636837525 -18.4595877410517
191.366127847185 3.81967245473282 -9.23209658087991
153.149254800206 24.1632799063073 -12.8853351098525
-65.3172360663871 9.2943705775786 8.29558481743913
153.690780692031 -25.514274285793 1.90150423199007
191.058977598667 32.7454972240461 -38.5981518964232
206.601815624826 15.5106728627488 -11.3208997711839
-42.4889210861692 11.1190280872391 10.1160788166807
-219.820675361852 11.7304334368333 -15.9209051645579
-100.545469559658 5.22970401496407 -5.26315698317137
116.247561692792 -7.39364246541434 21.5056465063261
-185.113413715176 -22.2709979294773 8.58290319833667
183.24199112312 5.94080371545756 -16.8516181402704
-137.086027325714 4.69228224728365 -12.9862659611267
-102.656940031114 5.3482428626601 10.8310580913743
175.740553001077 5.82195451387834 -20.246048722379
195.49248874736 9.48371455874523 10.8750782318135
98.9165454113639 -13.0261992988368 -3.37475470632042
193.911642911737 4.04668880680648 -8.65308793067721
169.621661757138 8.4624125308893 -27.7193307874824
-170.008466453426 8.03968170312517 9.75747245793962
-230.061118872172 38.466661979457 14.9573774209469
-105.115639665894 2.62972893937404 -8.57466792483983
181.602526728663 -17.1885717944858 -18.5235040315359
-85.0394479221034 -17.5878710399737 -6.60356635048624
34.6271588945146 6.46850980231516 19.4444558582805
188.814468306713 -15.192888616047 30.3200637447435
-84.5417529723926 2.94997499133502 15.3171457286044
145.695712884671 -5.98558821062296 -8.02034873874775
-4.81790633773292 6.2227220316197 -1.31675462933884
149.27990217892 -11.2438121772116 24.1953263294427
103.011059881006 13.4265735579694 -0.115008318781441
161.521847223464 4.18269943602822 20.9848603877504
90.1079603414446 -14.783411415523 1.800735306897
-59.5453437371828 8.29423131742787 1.43143022547945
168.829597128761 8.39087743340198 -20.8316285756206
-35.6710989478338 8.98462090361196 2.75416515601375
-28.7038506188429 9.0561205403827 3.22927269152552
87.8243987623849 -14.3751321371762 9.24068521017366
-201.449157354163 29.3276274747549 -11.0220055932119
177.874577566468 27.8540519473165 -40.1725967374342
29.5045969899068 5.64713646749786 19.5772445678572
54.9222565024225 -4.40548859590491 -5.81303745184129
-192.89337388997 -7.77369138363 12.7132741183363
102.310978809766 11.470304032977 -1.75710031129198
-59.079998501366 9.92847356301412 7.15908576430222
-182.749263252033 -27.2794577087714 7.65066733276256
-42.80045614331 -5.01431086054611 17.6813073120195
207.836524801739 27.8124145220149 -16.1008468012064
-66.9598354302487 -7.61962836372874 -10.1821050557107
27.6339613663891 -2.47694025340266 19.7461340805834
-75.8659819016082 8.47851338170152 9.27223136047859
-210.563060069835 -15.0584530190378 -21.45233535207
168.721151714482 -38.0936629138818 0.0247813569692718
181.43094229536 5.78919721241189 -30.4966651704396
-201.149044879018 -19.6031752999606 -25.3232385690108
-178.986226356869 -33.3401958755272 -19.8511472013918
189.41186835392 33.7677324146681 -35.2221052246154
172.241461201101 -30.7882074132943 -25.1954411932016
-93.337460864994 -14.2251911279106 -12.1757516010169
-176.480953158855 -31.985326578048 -21.1193793855758
-37.7051713361049 8.4744789340464 1.90033398398249
-198.006117848224 -12.0865621132254 -8.669459980144
89.6058439421663 -4.00630693271845 21.0531223164938
-129.780550678549 -6.88964890271909 -14.4549556991702
-193.035463603199 -25.0595948818095 -26.5986810430037
-210.278013708607 -16.7394389900459 -1.15332002911595
-176.905754938145 13.2059893634697 8.42837883847092
193.008756426779 21.8452628358372 -40.2268584531824
202.904309721938 23.3563091006844 5.30905864746802
97.1475490168663 -14.9500827635379 -0.0527789259291381
49.6522656946756 4.59652946007806 -4.07923380783434
158.851820506134 26.437004957375 2.31907473835145
198.858560713985 34.2369874836184 -25.5589251552927
-189.469276350925 3.46243619539776 12.7326906158813
201.434405974655 -35.2835691651461 -0.214486851567415
172.500628834337 -18.5127470641094 29.6050454899555
24.7931372640638 6.07764672948316 -1.57810321086324
196.951783933248 -27.3956435009782 -16.7988236981183
152.366374514618 -13.4399585678013 23.5286309487141
-93.799128567254 -9.9729530728981 11.9424747868649
2.91870542119126 0.339132547357292 19.6745456104208
-133.033176539284 -18.1623044757796 3.52191996973725
72.7508293765585 14.8283598026412 12.8404895027847
-126.484514674891 -16.6064344098844 4.56043432938743
161.461166664543 -19.3498577933408 21.8934074991594
127.453461916786 -6.08819294434788 23.1701822041163
-9.03416612344006 11.5548380357222 15.7273860808069
-97.0746665148785 -1.00183983033388 -9.44281670635298
-158.61988665823 -11.5595667072645 -21.52049661424
169.745535377081 -31.1239970588403 11.3876682838107
185.40616585679 -1.50315626236437 -9.55245923669512
-228.005555887358 6.31555668184836 -6.51058936220535
70.6167540889388 -13.2822373185367 3.50277833408245
-195.853720490187 -3.96213080125279 -11.3562696658393
26.9794507392231 3.92408715784549 -5.76739206827856
140.030547787711 4.59918674927988 21.9851957817644
122.990780397959 -5.15328289232107 23.0183314311985
58.693445241812 1.15381024847018 -5.48605465916468
-210.88211039905 -29.0255701354214 -7.47694186430687
-237.476748889436 18.2485426517566 -5.24628386079335
-181.512203952339 1.71541641567683 11.5814524197058
-234.376913737212 13.7422542650941 16.4925361752553
-85.7404089713168 -9.62792135117989 -11.3462185126946
-53.9801168229979 -16.489569334419 4.76682542319821
183.436713439953 -25.5044113977826 20.9446728802411
-155.265308090044 7.99701628084599 -21.0525908169697
152.57539215795 -2.89797880792136 25.3945137574299
-69.1042113024527 -14.7855973893571 8.92074037423436
171.027533226113 -25.5973095800427 -24.7378861908538
-57.0802577539992 7.44524654438173 -0.117793661240799
-70.9716219733921 -13.1891482569023 -6.61567078174292
187.930194373559 7.48913425302507 -24.057384424716
-214.91367187507 -25.6792147961325 -1.53274551933941
-210.086431825991 16.8012392518568 26.466390628453
-10.6629812647908 5.2802317615579 19.0664679920513
-102.807311780072 -19.0384032196413 -9.54670688012264
-214.32907255127 19.8408659233442 27.8450313599418
-206.449195953542 11.7635951197282 23.035656819813
-30.4786749042921 10.0395165701282 4.96395889333389
-174.314255394376 -37.5218338094498 -7.96380522308563
151.23737010139 26.1228554450654 -4.36943603026605
202.012622585562 -30.7778757427098 1.75101924573332
139.81267764883 15.8872415015735 14.6776356291724
94.9976606915244 -2.6221770539165 21.668836001316
129.954055433486 -13.959497322904 -5.29958755577652
138.968031406918 -19.1724585206194 10.4119507853803
-56.4175959032789 -15.1464638932059 9.49017857176358
-220.704960321501 6.56611275368761 -2.80011632356982
-164.690118412506 12.0707566275111 3.83325959136979
-60.7629904638365 -6.32752025926196 -9.69959641569239
191.11625397588 -31.4557420121962 8.4179511559166
-115.045837317804 5.28122033229229 9.82269326928247
134.74394839231 -19.9964146661054 4.70495282087128
16.9931344237133 -13.0174156180409 10.531031284712
-172.773625521147 -8.47811388101571 -22.8042404830547
195.125586343692 -0.45472537757887 8.92897825296052
159.526673851988 14.9021026434026 -16.6525606592945
15.490895878657 7.95180420935232 0.550350806738717
-45.8270946854682 -3.82391388731079 -8.97555042332292
68.0263088060448 -3.7129676640996 20.3680542254502
-110.634704915783 6.24974065504198 8.53554681643486
-181.246789967098 3.2469553055978 12.2168005985994
49.732694679944 -6.77249913705788 18.7190146055113
166.061147028089 -12.8075488444837 -13.3158945186512
154.187391133619 -16.3997651909978 21.237311315484
196.523509337008 -17.4564616211282 -13.1414779354088
-77.2793433975781 -18.1897841142698 -2.4581370632876
164.354927036283 -21.8757384731001 -16.566350343964
129.267617950665 15.1062332758723 -4.51590898347438
-116.699431884213 3.11434538405834 -9.15765831054217
164.388754114625 -5.69606248314139 28.737228628266
-13.1699892841114 -3.47424086993773 -7.7219504310829
14.8836000133209 10.7814142317503 4.24065341236859
-102.246496198459 0.283113718253758 -9.5356615353046
186.827526539673 -22.9117483310919 25.3928975975498
98.7879543716614 -4.54289879109555 21.3979505521424
67.3309844085975 14.9673745651706 11.8795654112016
61.9506286383332 -3.13112471508572 20.2876359577651
57.3840071610674 -11.1243707230741 0.217499038017131
165.288426205499 10.7780784362626 -18.7385548327815
-206.336823033399 38.0585381197745 20.1495615223894
80.9443897934725 14.9868381741968 4.65068460635904
187.6499483123 -38.7124695482824 2.74474029692117
-146.039563822766 7.22728245241799 -18.6945913185871
136.088600247117 -0.00179233876893866 -7.42079292161383
200.455009629405 33.7778212179367 -19.4996628493294
-133.582301260735 -23.2192549408363 -9.39674783907213
120.472947837782 -17.9035613807134 3.67925342124408
-225.963618583859 21.6839834180191 25.7674182027917
69.6767730633549 9.76648216893363 -0.294284214369046
-224.711995866282 13.1578325686133 24.1235039737198
149.195233611767 -23.3232809334886 5.91251762381408
152.281247127945 -24.8271633358488 -0.0534752004740709
165.221544786088 -7.18462300862245 -12.4124707118994
-39.9548518670744 -9.43530556540039 -3.55841906705232
-97.6268786029442 -12.717702766336 -12.3633762237248
186.950249537275 -25.9630118172202 -25.5120803178058
182.694808765232 -33.5366289170885 10.6121478115801
198.420247880997 9.00317469389427 6.62043234010062
161.540203226472 31.3067097572212 -9.71597528059209
113.444084594 1.18457806961442 -6.18559206458293
-217.687933904361 44.5079229892009 -5.93596177310749
-102.0163089315 -16.2091132221237 4.93036434404478
-25.9441288692476 5.44409922233979 -2.45735476286132
167.844199966064 -37.2974741761297 -9.61416089174886
-193.187468056011 -33.7191524404771 2.12557816465119
176.576552002346 30.4183346759827 -38.801774760388
131.411888296896 15.8512841125371 -4.74001490049306
124.657149068941 -17.6926841881384 8.66746203641042
-210.867349738022 -7.6346162611283 7.03913589636526
154.612581698738 27.2872737410519 -11.2143323663081
-39.4908642101913 0.466074856753781 18.7210449751909
-159.578749589137 13.4485416154748 -1.31679128759051
-205.167747921243 -32.1187650098815 2.0452266523643
190.637521616498 37.095353145652 -18.1327165218338
107.709109221156 16.5682468961736 2.58188273947662
148.433581696345 18.9184749117196 11.5763433518026
163.153497469918 -32.7396649008091 -8.97182418571843
102.113739319141 -10.6839956701246 17.7335920946687
-216.386396603466 37.4558747445316 22.9231875891288
-221.935991506518 39.1245040091865 20.4385515761273
89.0284438515328 13.0285613598848 1.23887768024675
-85.1901600676586 7.95716580186891 8.39130106998721
200.376246993065 -23.2719448908108 -9.90951368139906
114.438496980914 15.9684469448777 0.247789469920041
44.2231396769717 13.1710589655372 5.70346613655566
-215.48529848003 45.1109133653079 -4.46296355544158
190.414903690061 -31.7857357935002 7.85085236506429
185.399509316589 34.5298634133091 -29.7158828902333
179.32248369916 15.4946709069059 20.9380994758428
160.795768143982 -29.8638839422225 -6.18229999403026
-21.4161689528529 11.8136484527725 12.9869305618717
-115.004853109706 -18.9036171186905 -11.2350748546859
204.457420484241 20.4892883952425 1.94125075362635
195.050877512121 22.4380187714676 15.9975135928498
-64.123565161179 -12.3461095547541 -5.5470611596132
-142.630159707728 10.1360603875126 -4.2212941267564
-163.355599902509 -20.5552916738405 5.90827855336175
-123.605878210569 -18.8052534721724 2.13538572919922
-213.460787425325 -1.34696839390363 7.42391809775541
202.918984460205 33.027179396264 -13.0444577727254
-8.54277140655745 12.6264773272247 13.0860952244582
20.1823250804336 -7.90586611507225 -2.11436065984772
-198.666447832068 27.1878102258125 -7.04022098669425
-166.761825602958 -25.6097143132449 2.76474849203801
-39.0469197588357 -6.76345809213543 -6.28817392516609
-209.396055031692 -9.87287346303744 -0.989223453558975
13.2409151823716 -7.61020883753894 -2.50088099081513
165.42324064018 15.2426089948269 18.2984251734016
-125.516502115154 -21.2805914332948 -1.37372827485908
184.403068808672 1.57942015736958 -11.1785046101779
136.294692546833 21.5575159600374 1.84475228390486
-214.347501174923 4.10443519096204 -3.57644953986643
42.4937731242688 14.6630952522023 11.1981985337867
157.265827969485 -10.3620320092647 -9.78766903373355
-102.345905345862 -2.14310543352721 14.3603098294278
184.045962907676 -6.94893471886937 -11.4984962941747
161.110082817322 -25.6902597267884 -12.4427127982169
192.738829653239 35.2388470406131 -8.60687658704731
-19.2643928616507 -12.1933794093223 2.11735711119001
24.3085417058174 8.17482975217124 18.7520165089203
-205.67971739163 -33.1589634036915 -7.00559185540867
200.562432906454 -16.788983723465 3.78795161766247
-219.035200676637 39.1293131799222 -13.4240245432207
-226.524113550108 4.83532572536176 1.0987203668226
130.232001612147 -19.4379468087799 3.55138361019436
-193.785055969546 1.32648310631737 -11.9850145250333
-122.941369388873 8.33791283779512 0.228106862383862
53.9999922880001 -0.451820524422021 20.4564610184901
-29.2174230153322 -14.3838613790718 11.6008410595252
-21.8667463537749 -6.43898947359333 -4.94628578874926
206.27956804882 15.2139922831146 -16.7917252395986
185.312734559912 -21.2488878473467 -24.0371315359432
30.8326087519259 -12.5810717819803 12.8765446388107
-69.5961490051654 -15.9501614951936 7.31367552763489
158.414862458748 12.3766629864706 -15.4290393350407
171.474082145979 35.2310038437435 -4.19828393097979
0.904453658508418 13.2826788606452 11.0312627993453
172.104930835213 35.973831390633 -28.935716866405
118.111370907465 15.9226672622049 14.1074894060049
150.668597100706 0.107074967552991 -9.38586627605552
4.36725014803809 -12.7649777563159 5.63650068564343
193.491674164352 -1.96620621603857 -5.39339172435875
180.882867069621 17.2675137589072 -40.6971629545248
62.6961509037807 13.5685723413441 14.8007132182597
-102.748780508682 -10.2040117791281 -12.1665037570046
-229.638725811044 36.1469631231703 -10.0500713612273
122.152103599142 -0.992988672490004 23.2499666411779
-8.36858339747921 -7.36520949185703 -2.94639027333882
172.869007026669 28.4383479678835 -35.2230709949617
-169.70741106463 14.6822866092849 1.23749360607903
133.230488325647 15.3054701534993 -5.49097432450355
-202.132596697864 39.1906978304456 -7.93648236826156
173.626372755718 15.4268727000616 -36.1495220912452
-198.058856371381 34.4981854903847 15.1977799424813
-109.500112723559 -3.31089298831337 -11.0102633059952
181.738426366181 7.74047427164763 -23.475869491164
174.083118652994 7.37615098622553 20.1474492235214
-149.364162569586 15.46522967294 -16.7755898359066
-206.773370526996 -17.1895931926557 12.0629410579337
-131.897821350748 6.18295940312618 7.0242548734035
40.6123594952192 -12.0812651353015 4.70957704224116
-228.979874894271 39.9195268994914 -1.19264189177672
-182.651706467428 -23.4312441792669 7.9623659368432
197.959900261868 34.0460713921484 -11.8001547289364
174.595181235752 22.0128150330738 17.715402712662
-21.2151977316428 -3.60393651785281 -7.87762822111791
-203.11115279576 22.6045565902208 -15.4922895048032
193.957775115911 -20.9312398494114 -18.8468671436842
172.650172075795 2.54861655254706 -17.8207678001683
-200.059990265657 11.0752458746191 -12.9623164916013
-99.4126805009136 -9.21400213904091 12.2138501300331
-238.33425622797 17.489499450038 -2.4706072195494
198.889427327696 8.73638916291809 -24.5672649764197
-23.1550387656856 4.30966204798222 -3.87811647367664
-164.225983919905 -6.7124474092656 -21.7529759903935
158.207068598339 16.7347704508185 15.9455417106783
-215.123840691178 8.70064594297556 22.694679930019
-209.337386961084 45.5882094847757 8.99109898252796
-56.9151758711773 -12.8394278208759 -3.41608305139744
190.809848738287 35.8725606955632 -9.06986113188778
171.836007538086 36.410910555537 -6.42969557895097
199.999863840552 32.7701401004162 -6.67347102439902
-209.507254922454 -29.6800562666613 -18.0386465326677
-77.6376944059555 -8.15446312992148 -10.200494310905
-1.77126411253776 7.00962834075679 -0.185615536233487
-144.213541211462 -4.57950183777315 -17.2476502003868
69.8756561601728 12.2891615894609 2.37118230035375
14.1447556747762 -11.2110052786252 2.86734224845897
153.069634779106 -19.0972670938911 17.1892864452033
25.0534806713832 -9.00806209059259 -0.73243653640589
166.558532424506 -36.4791831263043 -3.99130338543852
148.09980998255 -22.9637169792631 -0.879335524024656
168.991086181699 -22.6569934074722 23.2803216001456
131.553570088375 -10.4288071064377 -6.19726564590194
200.013654456113 7.45943113118539 -5.72947984378589
187.264751967091 -33.380594417187 9.75607856310667
9.16373943368883 -7.00734544410768 -3.27431721688205
-190.92096102251 23.0785914832314 -2.76365337810922
163.708800691162 -16.7989487459657 26.6274622511297
82.7215644665324 -9.54626045993577 17.2908127028543
170.95329780555 27.1734116642498 -29.8454417882088
190.917624598851 -31.3385866243112 10.0922171301164
-0.766807607329322 -2.16112089816487 -7.77231442117989
31.3155753513782 -12.7878478256355 10.5085481670341
129.728254966795 -15.1145883393939 16.0910525817163
-116.294386146555 -14.4470255992089 -14.8235544179726
-208.400826051221 15.1898587030944 -17.7043153454792
162.944691770247 15.4430655319384 17.6021762616162
128.323968721434 19.8232074687058 6.36390257353976
-159.784911354345 14.9295336602575 -5.65435619128675
-209.021642029286 -15.271580426993 7.89685537464884
126.602726388555 3.49889801754562 -6.9371061776751
-23.0386386462912 -6.25404021591506 17.8441331447131
-117.921394607759 -12.5344428286658 -14.151022998414
-70.7297420738156 9.1345079325442 6.72233636244585
3.40448242180763 7.37602481668105 0.262030362078585
175.23191894591 -41.0460794215862 -2.40124159406465
-196.125745532128 -15.5591646235754 -21.615476026274
203.403380229897 10.8421140327665 -14.4698877871169
-145.49705631723 12.7709286126444 -14.6673529124818
137.856624018767 -4.31697930106094 24.2781343336415
65.284304316212 14.0571276507094 13.9808144360174
200.030669435024 8.02961097871801 -13.5472873720478
93.6818595705993 -12.3788046536773 -3.35576668586217
-150.776463414402 -3.66102876788107 -18.96764948299
202.746454259464 11.4466618440888 0.0698141137537133
-215.689947626631 -22.9788707565842 -3.61731098489094
167.193693330406 26.9458934930699 -23.503574509891
52.0221987240116 0.757107818125376 20.4610042085334
63.023838119608 5.74047594814229 -3.2571727013214
179.979161373898 -23.6656621661603 23.6750209115433
87.4052873736519 15.4727824810892 4.44607968451783
188.558793208627 -9.02879787434033 -11.1945558629397
-168.416303686889 12.6507778404909 -9.67557237415373
-161.159729073426 -25.4355040121478 0.185734072443062
197.828711704947 28.239859976929 7.80543649803833
161.759311001353 0.651503943536027 23.2927983555047
97.557893361824 17.0230945624112 5.70712742607421
-165.367029843274 -30.6470874803983 -10.3185846901739
-146.868435653943 11.4061662070065 -4.91338759156273
190.704347818627 36.1593519808075 -10.9951043587655
151.487486020986 17.5043587677333 13.8551286584451
-181.876685390485 -3.68846269437817 -15.1554079412434
115.144001780309 15.6664899818128 14.241700601665
170.411363898443 -31.9024437745541 -24.1808713646532
200.396218100352 10.7690601003554 5.42939635508873
90.0087681716458 14.1926732305551 2.33158435848481
-211.777046241766 37.9820074357157 22.1440757536415
-205.460054673583 30.1371143430817 -16.7877059518514
-49.5655378002604 -0.743067361517926 -8.32446663020942
61.833898478483 15.0736702411155 10.9829247355821
121.168166253678 15.0603310642149 15.2972688145028
186.366697639581 19.0583903147512 20.7894395748062
76.5844501341134 11.7843203495795 17.1464871717959
-19.2527253260525 -3.72744189672003 18.657683822674
188.974716402492 4.45207587197524 15.2885877673543
162.779109703112 11.2307780454618 -17.0856864184303
190.363997401705 23.943571606363 18.4133039982627
-204.405858600082 21.1891480505664 -16.7668068370214
-212.604146886675 17.4126262250633 27.1681952055333
153.351058974158 -0.18426777407343 -9.97321884691607
-200.458780865128 33.3543519045183 -7.96794418883965
-239.298081088642 26.866412055838 6.42193249983455
-144.663080122409 4.90781862849057 8.0922662340633
187.748425080677 4.75231915349185 -11.3641247941786
151.364389781716 23.1608288253019 -11.8738058755735
-204.510407710883 -22.3485936970248 -26.8427120939792
182.381921258465 0.0580541515301903 22.6492218515813
159.605211633279 6.48024241236032 -12.7955444165456
160.856560884579 2.27376723441456 22.1009631396618
104.013237269019 4.42195571673585 21.6288405286658
45.3275441788583 -10.7155258174423 15.7571667916369
-11.9482709857623 -1.62671469516702 19.2247161930564
-199.972360678182 40.8850087978704 3.8650977768927
-61.989891893212 -3.13540822685732 -9.18483588034423
183.549729132709 32.5114627260764 -40.2902414667067
-210.735759694498 -22.9967347767586 -24.4568487502934
196.309778710625 34.1867895500786 -25.2425477872598
-12.9906127234637 4.50483099252535 19.1314181660061
-216.861204829434 12.2166598884324 25.4548150165583
133.087719128454 -1.5345587132197 -7.11244935893372
-152.733673771048 9.03194102583758 3.97472163159795
-165.635384830724 -21.0416155681859 6.07604876615622
-161.894338967355 -5.34419682465184 9.53979222011502
-184.649580311603 20.9105901818339 0.789031830425848
-97.2966011792767 -9.43895498093789 -11.5684026569179
-175.483510010217 -0.115268054904452 10.2481145731826
-218.728654593873 3.54428926559854 2.10727603782039
151.879064701663 -24.6801274888542 5.61804813273392
-125.382310749278 -5.31680611244097 11.847618581416
-127.619607891298 -7.53632013015917 -14.2097456026456
195.495508950768 0.9826816542206 -3.81630014139779
144.353281444325 -12.6278167771759 -7.46045272054536
-228.488793353733 4.41473859445466 4.0373488648987
170.433973555441 -2.56502913323853 26.4451615531007
97.1525067334491 16.9447812963083 9.93784837512482
152.522857741202 1.40354902272025 23.2097530013229
199.361890586764 6.84650079741924 -10.0956593772896
175.904599864569 -41.142207969889 -21.2572780039716
169.800114943178 -39.3060431955487 -19.2881915138543
89.3880101147884 8.45731484755774 -2.70797220381573
207.44375624513 20.9153307891246 -9.56380503564491
-24.7293789403781 9.99037956489442 16.0639870398379
-205.844910506396 42.6602743150686 -5.13952911155884
-186.750463961283 -23.6305900572057 -26.6123573338813
-204.177821377275 25.3725799162106 24.2270473578908
159.417267436554 4.6504773245943 21.1877056012066
-190.308501125651 -11.9905997127964 -13.587597927929
198.427244226697 31.4862500603624 0.0892650361841012
-63.9535435562338 7.86491224543273 13.667637992906
62.4005289894696 2.37625392873599 20.8093051881432
-161.431718617801 -28.8675559444833 -12.1917316713628
-29.2292147140819 -12.6728819479282 14.1032615945676
133.533579495748 13.1722723328836 -6.4236385091536
175.319187940312 4.3163186866554 -18.8515547852214
105.406142907455 6.54179161903248 20.8704951353398
71.6842888265803 -7.40459986226513 18.7326527409088
-214.604258040724 -0.214510235176082 6.43408478551883
202.088241532735 -24.3895712860576 -1.19824659962177
-236.779750477704 12.198819946625 -1.43844839254948
96.928108906406 -15.671630012018 6.37218446919045
69.945031810007 7.92711620785632 -1.85361306822687
-91.4009525786187 -12.3169221299256 -12.1298401724375
176.380556710099 25.0282173260925 15.4538512321521
188.305858812182 10.3045016166006 -38.0408732737475
114.713595027234 0.25851804379301 22.7607174696798
-139.067372131285 -15.3750421028591 -18.4380340209878
166.416753808636 -27.2495026936593 14.261091949109
179.735010331006 4.86031414434761 20.4036217423136
203.26750378284 11.0548086430742 -19.8746436530614
-23.4797125164094 2.75272729889322 -5.95440702384882
-95.8041906815125 -15.7968548759896 5.96168220457583
-212.142182492018 3.24843129842462 -5.2838092528374
161.741706769363 -21.9592715937118 -13.1328191987316
-87.1705250646366 7.62258805269129 -0.619288183027988
167.176848160923 -32.3413710276388 -21.9855069072045
-216.234797815172 3.59452989668382 -1.69486614426572
-16.6273225310327 12.2644806124853 12.3632329903756
-76.0812648510452 3.92024183695788 -5.19633745267704
-38.2185431659573 -1.31072714903362 18.6403839594183
169.820052444271 16.3522197478639 19.1612322049459
-211.359959874809 -15.2809707589185 -24.002625761532
-210.304922318261 19.6626093740989 27.0991744481845
193.356515205978 -25.3626110067426 -20.7485080278372
-63.9665608487428 9.1081444954908 10.2770144076995
160.385330098432 -13.2079804988306 -11.0287936479624
-51.3679665972056 10.6260121918242 8.0044331021674
169.415674384032 -13.2718585676351 31.9063124636117
158.344524909679 26.8485292856231 -16.7602517795072
-227.777385449674 43.1905093780229 8.83327835639345
-46.9099910867947 10.2044990892572 12.6548693155459
152.345946952205 6.81362565464813 -11.3955878923457
-203.273393470979 42.6279811016354 -1.46786476108611
176.444164084082 37.6192417743393 -6.13452465762481
-211.602708412301 -18.8365480759399 -0.183487086402291
168.603184816765 13.7785827309742 -27.8111478211182
-206.909075564469 -32.2428181255813 -2.23101569913271
-152.035835894677 11.9749655815963 -2.87136664961744
-65.6197119655326 -4.81336145010279 -9.7967747246458
142.674764139724 13.2979782069587 -10.2409203737921
-134.037400795965 -4.98832232684866 -14.854163228185
207.608588736207 27.6804650325312 -9.19977156054314
134.537258695083 -17.5097333679603 12.6944831924818
-143.362511109043 -10.5005347408162 9.62681660961348
-96.5776306913502 6.22154896671991 -3.81765049344608
-169.363537297112 -18.9419807103425 7.57736598665149
17.379920640532 7.4434106208433 -0.126854449208799
170.54093104548 -15.9289305351745 -17.4558551877356
187.138699353462 26.9566434843864 13.1638419977717
204.791551452948 16.0703079644198 -24.3862849939115
-162.15175638263 13.0746708910197 0.942943363600417
188.150490900096 36.6773548750307 -7.64754256833102
174.919356488222 2.04537601464008 22.5963907358623
4.03849844035187 6.14853718040441 -1.55191579949939
68.4089320472073 10.6658814544313 0.638021782193754
-231.41655307004 23.6717838650852 22.1510713262335
-87.9510052066256 -11.4292979727026 11.0671687128267
168.097588117469 -11.3651493078255 -14.6149436629009
149.574658465194 17.9044636221114 13.0422464136804
-217.376218430255 27.166591224827 -19.6776770082089
-210.26995408437 4.96201064831219 -9.51358178197034
-168.488066203794 2.54267778971908 -16.314340159118
-149.354865276888 -15.5761265848183 -20.1818107459758
-121.1827611131 -3.02967910220989 12.4878737543026
183.203991109547 2.5777210956374 -12.632806429356
166.674951800688 -18.8726282350238 27.1439260578386
-211.752829093286 7.55013930214787 21.2948058544925
97.0638987624967 2.50817742060532 -5.58439915989977
10.2898812324193 5.47252720447464 -2.46503490401956
-152.831863654608 -24.015290624729 -20.7381000501412
72.7331082741814 -12.7806230102809 1.05865110562514
-220.877348541441 9.16936144523925 -12.0998761132859
95.7198664134997 6.73413092117988 20.5421115288472
-80.2368626190814 7.26078053658272 11.4310058869357
114.740371620353 -16.0165044534083 10.990473188521
168.871499936662 -25.5396934653696 -23.5689402328718
158.233065673928 -19.9596627991447 18.8958462851144
200.164632286646 -19.7465814044169 13.8000425824138
138.072433815445 -13.0970136205216 -6.39802567519366
-169.353999402358 -3.06471734123111 -19.2838928049658
-119.744901159986 7.25064745223146 3.67268509536546
194.277742333049 1.62563737027708 9.76340320495138
137.737111321003 21.7245128167547 -1.34884057399059
-69.3218768661113 2.48921049331752 -6.34512068342593
-104.677796099209 -12.7797949558241 8.48061597334096
-215.450554995772 -19.9605567656751 -11.0326059122731
-181.787899100191 18.1165598242306 6.32414898938697
131.476933794566 -5.19119843726657 23.7543796121299
-11.1904889731212 -11.5401246904225 2.17143954856186
-213.961087671252 7.19536771594324 -10.5777365080467
200.498800634279 33.9965056828526 -21.0657893109099
161.76039840021 -29.7578510692815 -11.0066525843137
169.4077807958 1.7642390116058 -17.1009837715811
-43.4280348251689 9.51198871758081 3.32411560474731
161.509342013061 -6.06737807337607 -11.3298594595597
12.6031132225379 4.60500261996824 19.5610254228848
181.901334514182 -17.9842504678581 32.0926754226592
-191.824550813468 -16.1575690828596 -17.1268362558477
-218.884134262288 17.2723770318536 -19.3868320708572
-39.9117778055639 -10.5213769275374 15.0227044367076
4.45463944185315 13.3092092469245 13.928186501669
147.012775249172 -0.92091548834129 24.1549477407792
151.06604093347 5.67105099721984 -10.7405077725962
-219.36211066705 45.4616786388923 9.69849766547485
183.358067605423 -40.8452116561758 0.988394997762541
140.978775733498 -20.8663035223592 6.02324533999142
164.999390431295 -35.4393970320542 0.379915055198809
100.884535954569 -14.814090120779 -1.12642654479446
126.182648776321 -18.2658220293837 6.91795759545208
-97.6931720678954 -15.6792273162029 5.90891486308899
28.0063840401437 13.3382269529741 7.25440325778659
84.4554282796948 5.58711260849424 20.717823431985
182.016516968521 27.9060285206044 -41.8625058999626
180.381810658544 -29.6232834677703 -27.1666053880523
156.693979666127 2.79520746427016 -10.9772196981391
50.0946785302814 -1.05755657000183 -6.02183948272041
-204.252595174996 -17.5283318853469 -24.8842100827586
93.1832214554924 -10.5184405634827 16.9907003621104
10.9421561381625 13.2804728901881 14.6870993236714
200.338509438354 -21.1903968802086 -7.8346665695665
-129.779739193332 6.53072455217838 6.49002384570169
50.8055773645132 -9.84072573771561 -1.28002181102734
202.265397570276 33.4288261945707 -16.8633741801132
45.5118507355943 5.23892556227032 19.8746415450391
55.2010345659155 13.156124750593 15.3278257873931
108.417974369591 -16.7839953591423 5.41134522475794
61.5599448223427 12.4723007343756 16.1449039121546
187.652545767759 22.2127193039243 20.6596276472529
-213.021419761615 -0.857196219067017 3.22431127104684
174.116319256801 7.08292835365679 -22.9744522532502
-102.148681191951 7.33173321208442 -1.58724184288105
174.970291411901 39.3934497840799 -15.1715904128014
158.262272630439 12.657440670303 18.5481654415407
174.654255020217 -40.7556505268379 -0.525097263658162
-16.6961235896595 -5.07378859251799 -6.35707602408101
2.97140899443503 11.8842467638061 15.9480736045673
112.210411887677 3.28320950684214 -6.05628920788469
-236.873915918081 29.8485750354573 -4.48299758339848
-141.876583644323 -5.25886175339311 -16.7514597802566
-225.810117931027 4.77864907591258 15.0512733253157
-37.8692187905622 10.9658598980719 7.10497420892053
-196.433946431282 -31.6063792856134 2.8961563325879
-188.149353136036 -37.2598782939953 -14.1148809006809
-50.0050427878142 -5.71924992419576 -8.6217005748107
-11.5126890425226 -6.63460972182812 -3.95041710144621
-107.482813486645 -20.1071375904942 -9.02487517843631
156.947675842332 -20.3838497464121 -10.2338858437997
199.934796299647 21.1661596285179 -35.2121418091035
108.426806691542 -13.5127164806977 14.7684608316877
-229.222204274455 39.0560179381235 -7.03431514255769
-63.1157156972916 -16.6217030820121 0.1110939798359
179.109038355558 -18.0906469413217 -19.7616530491719
-43.7620592756082 7.73560482141178 0.575944921885765
170.60534351371 17.8561023624972 18.8494138490714
-162.095795275515 -1.59797509482797 -19.4046344737532
-55.6728546684313 -5.63006763022179 -9.37442115174107
49.7918258296487 10.8909400028619 1.80348029102976
149.421503750863 24.7147431675147 1.10969568321119
206.852818827616 16.4623484181254 -13.5347836011572
-52.5721722391251 -11.0378844448651 -4.0865481690143
136.736156543634 -6.36683997880632 23.9831417085972
-159.242682105887 17.3051454505065 -8.93157891545341
192.542022145131 -44.4199804770676 -16.0666303086734
200.929498054546 8.42373605911252 -4.3560629023962
-25.8169930516066 -10.746484457348 15.7701613402664
-235.905092770455 33.4441923839049 11.2119438502845
119.417374154306 -17.7317820038001 5.90195448340925
-10.2095955092728 7.14848444726399 0.132650332728166
190.770844215044 32.0269656691214 2.69684619061268
-74.0717668686064 8.8194028262526 7.97888912653068
-132.082917834808 -16.8644220180306 4.85217859621011
153.100090261552 -15.077207203195 22.2431795320522
29.1079811738801 1.44274825579065 -6.36581924247876
-190.035494500136 19.7975351609835 -6.54429060665156
109.413351115763 9.53253131740998 19.3800925314686
16.9019434293203 9.45978189411298 18.1542822823729
74.2619567785139 15.6499817882132 10.1432379239296
-48.5017900294467 4.51379508381804 -4.27566961992271
138.720050701685 -19.9897696173369 7.98849147426246
186.848205189266 34.5499999869419 -31.67986645708
184.236944414013 -13.4128717476472 -15.1310292953911
199.958333397227 -15.0813419008602 11.1837788101924
-222.3094729356 6.27863679988863 -1.83004933357108
54.3923718401885 -6.23132991737195 19.0075458406697
165.65400175219 -21.1498718733198 -18.4212856547026
110.168407583258 -7.56073940743832 20.9493578707097
-208.896258965105 -14.6988865235425 -22.8143390481099
-65.2340960592584 -17.13943134639 1.04910417847316
74.0343446153285 -12.1356026130928 13.6829118240215
-171.310624959143 -33.7503064800831 -7.96286417657248
39.0454002499215 -1.56402288564229 -6.42119779816722
52.2794284583533 -10.2812598607768 16.2896305637894
81.7939810591682 -12.5107443341153 12.9853232981738
-158.463336672641 -9.0623801612157 -21.1566749471509
-170.893488899396 15.8407942095674 -5.28876462882146
-189.858202342816 12.6537810055163 -10.3362703136651
147.076406665066 -20.6871797834964 11.0802178518292
-207.250230308439 -5.30425944977287 -2.3201811420686
-8.02493114683134 -3.77286472440767 -7.34655079440586
-28.370454470893 -10.8563012921524 15.5427676568684
166.781093302785 -36.9143662691329 1.05192249157365
-22.925989111065 -9.47608512276654 -1.56444642684751
64.1014922237603 -7.54509815906623 -4.51481914279743
186.095870035919 13.0997191161436 19.0054423084077
-211.736673686012 -18.6641632833835 1.97452345814508
-121.753947192335 6.95179261383799 5.02529435212073
-118.409190950697 7.90217680911831 -3.18855483286745
195.403681792066 -42.541874019753 -7.54240320964465
175.212069500141 36.5426205945267 -28.8642150775931
2.98333180015402 10.6573995916788 4.87941136579415
-200.820001846188 35.1795804028329 -8.02915354484419
-197.426142805079 4.86234661665801 -12.0957360492184
-155.389427502625 16.8320750781784 -14.5960867952194
165.275314499611 7.67855552988989 -16.1801277847517
164.882576036786 35.856194131497 -18.7178136115164
199.211192647732 -30.3591690403142 -14.0204010512502
166.412170767162 27.2693442184913 6.21461272762879
35.3535380171035 -12.2460234179787 5.44941593899274
-194.782476221353 11.5415707388119 15.2226642458513
-94.7082696719763 7.8493360072404 0.391617165299488
-74.3790549706476 -15.6077809289704 -5.51221494690841
-6.5635247457112 -10.7420827567005 1.38645063852695
73.1896171701541 3.23664118522422 -4.79465252941488
-40.1066759221082 7.09968359082879 -0.144404598506451
163.734556121752 -24.0935420306373 -16.5801000972043
183.573060519087 -40.9012491835023 -1.50247403285007
206.899492621155 31.4245264513805 -10.0588376797673
-38.5209295304516 -9.04046561827828 15.9275722631254
-171.24000191613 -3.61256901981364 -18.2391214403501
157.105056898816 -27.4354498438085 2.30768726406927
161.398075083329 -11.7071377678108 -10.9634325150301
184.151354394967 7.03050661446406 -18.3558180912579
185.567057203316 2.58734366009291 17.9854318622632
196.872705994103 14.5026873247192 12.4986564822716
183.251928408635 22.3302044578725 21.0671268191969
-189.90722383801 -6.67146781570131 -12.7934321349494
13.1299180483167 6.76871269519202 19.1711207068169
-133.956471272008 -2.47746131230725 -14.4793166873164
-59.4831183836498 8.61599065719588 13.1562864675312
-105.629567729571 4.43130385471123 -6.97668918231567
82.6738215238641 8.05637591961137 -2.49899451053541
197.697469842454 -38.3831362517091 0.230697677375192
156.01358814518 24.2980823424399 -15.3121011695662
11.7237144494711 -9.86376196127758 0.736680330480606
161.549479630559 -8.66785425053496 29.5439030968054
187.933100711044 -38.5826616969956 -4.88308960368238
8.78166378830291 -11.7757914352157 15.7000612046325
73.8824700523293 -12.8890490751754 11.3876160213744
-180.826614471411 -22.606412811647 -26.6880298114086
-195.229654321739 31.8078238645227 7.37622231255706
40.6156548252056 -11.7790460811796 14.1772615334693
193.267739722433 -4.48012735847064 16.6227663099481
198.676141862458 32.3371452038627 -3.4951602761249
-109.015816824287 7.60195647560202 2.94381468058425
201.937871983405 21.9271841605717 7.59149784878961
-184.154803770478 -18.2590042965964 -26.9862648067514
138.473816529847 -20.6631305236575 -0.549321772520339
-108.975350316852 -10.6078070598325 -12.6829909845994
187.760148573278 -13.7168026173446 -15.4971605612855
13.364870594884 8.56363436199175 1.50295960917888
-215.224776872292 42.7204938866622 17.1326205981191
9.61787885077112 0.00652049103861166 -7.21892111888139
-134.95752107314 -17.3198861568066 -17.7717243837645
-224.193961370803 36.3806541035561 -13.8001658351455
184.165826621187 35.3680768946886 -28.6998077018909
188.847925745002 38.2173440882682 -17.9220586511978
178.993287502254 -42.3949600121069 -19.850190346741
-176.650499060115 5.30478618352628 10.6404679667108
175.050356986111 36.8888698857059 -4.39618754927091
28.4946294318933 13.4188708185875 15.1199530979287
-200.312735938329 20.418027497117 21.691961440479
173.197287584732 -9.80277071087805 32.8853166180568
9.54557025465943 9.4860109620678 17.9502023356939
-207.004343769119 1.9965142919895 15.8301788262311
168.311883803436 -35.5567658153458 5.3635076159847
28.9514745635887 9.05914570650243 1.19923508258266
-235.915220462397 13.3567133256117 13.4200607413488
-198.927746756011 -6.05542909347126 -9.96241479898905
-150.613968233858 10.288154458769 0.187134714974701
78.4055721486381 -11.0928267510868 15.2966531110154
200.703803194728 -29.2779078266171 6.92547969010916
-167.17923064695 9.36095099510846 8.13540413925068
-121.636250551004 -21.1469422303426 -9.96968026774317
172.492035687613 -33.3482034836998 -24.9300612100074
65.3511631546893 -12.7256767200036 2.95106321334518
-164.153912857706 -18.0742586170866 7.27867190015851
-189.782584770087 -3.4344711254602 -12.505013321852
186.23234506913 4.46469905288314 -11.5007396913349
-231.146839825703 10.1097674696963 17.4161913204563
-212.278265674758 -3.77024812999847 5.49319661632668
-200.806772698967 -16.9546585373224 -19.8524534245631
87.7524630876187 -5.7891681638418 20.2210680183723
-68.591187934492 -5.94502906566105 -10.0911625477719
-189.58588666977 21.5241934793876 -4.33678502054954
-192.889507675244 -33.1217480340194 -20.6034424666371
-19.2243717294166 -9.3447863898928 16.7452307969456
-196.119189892252 -34.852835435521 -6.94666491809326
188.631760066713 -19.593435581907 -22.2768456900633
-113.942878333051 -11.7938032429191 9.30860021560782
82.1467070263805 -8.98012496003567 -4.55044504084203
64.0628594297216 14.4545534735823 6.46937879849578
-91.0498379500635 8.18333632980382 3.38638822907471
179.381616942466 8.71877562532259 20.4540847922559
-173.53466387905 -2.9700378905436 9.78776677527484
-0.71740119386485 7.99845305883129 1.35454057159556
166.77524741647 -13.3312991877343 30.9292600492276
199.115794963422 7.9564917738098 -20.5056959824152
-182.170090284545 -5.43632084335447 -15.0510691373281
-44.0100815495784 -2.6922969161416 18.2736348819452
113.957462396116 17.9201931774794 3.58382424148231
-8.01954802329432 -10.3101728186732 16.4043468025104
196.085048737314 -0.602073860869054 2.63117603677806
-122.412414626703 7.93463711623654 -4.91641909647731
-87.739712792498 7.72971020191395 8.38197399339555
-75.6270295203114 -11.9184636498773 11.7275030050274
44.9646035334465 -12.7473977975324 8.80985566110157
-3.92551914855834 -13.7479025148122 11.151473794726
-210.996960428223 -4.25816394031893 1.16990098242494
154.060195855127 -4.48091065535705 26.1517778675063
200.985561549428 32.1927269321903 -33.3674937675618
74.8561454304299 6.94801764616623 -2.84823006808151
185.658863103488 -34.9593235158291 8.45252558189302
191.004279830224 30.6150785882789 5.86941155641743
-161.135573577637 -27.5945223023869 -19.2936690659066
180.032286775617 24.8906809188692 15.6103578949652
106.705490266719 -16.0340589565424 0.201562426019547
89.4612131337286 -14.8610376165853 7.64737170333694
-176.436140192713 -13.8649152481412 -26.174301940684
-231.920956160859 18.9555637867934 -13.1981989500584
177.599037258383 -8.92249314115616 32.7681354276074
-45.2302316654288 9.23918872998105 14.4622336790536
-196.977512181676 23.0783455009264 -8.0747933869354
-175.704044558624 -34.2374789110441 -3.39638240980376
205.775992255982 16.7273388925565 -22.0320973590718
-214.591243746868 -17.5387035608075 -19.2824207240268
12.2553662285486 12.3100920105704 15.8961756749168
-140.779612039491 9.39806215584195 -0.493352234825833
-86.9999145989876 -1.60105852355851 15.9345477116256
167.301175006017 -0.154118443039869 -15.5726796277938
-190.784983501929 -37.3515884202365 -0.705409548209468
67.8250297618383 13.8202508181711 14.5279223608487
0.530755663855948 -5.80923597251995 -4.82297442885726
-55.5317719599757 -3.35190790304938 17.7247198939832
98.1744658761883 7.1800321659291 -4.3823231032958
-114.502497236782 7.59627856214593 2.16311723005311
-105.120903069629 -19.379581347965 1.12996715393719
110.304254047583 -16.697798904046 1.37138849295764
183.382729898876 37.1003961353579 -6.16761560895795
-18.9298694830689 4.94223654385892 -2.99537107048778
-199.69244226163 22.2899536295244 -11.2260120103706
-36.4573295366439 -11.3155138064821 -1.13706405510027
45.6325040345392 4.60534694196595 -3.56670833154851
-49.7560434429688 -0.813036071300094 18.2946585489331
-190.722351444577 -31.6766235160077 5.45686384472045
-211.673988517641 -24.3558078748394 -21.9897808872123
-42.0790963198869 -0.646133605432801 18.5814589700686
165.82121797987 -16.2878716754267 -14.4974774562178
-185.194904182909 -3.33124346560038 11.9977098587195
154.965921747246 27.7325088150205 -7.04449153857551
196.963989820181 -9.36380143146959 -5.56623710173978
-194.259130243274 -20.1243245068247 10.221007018743
3.30846018945968 -2.38029683619343 19.4446195474036
-95.6905557234017 -20.4666087864097 -2.18535793493675
110.779763452925 -10.557000520804 -5.62212405851906
77.3733783874712 14.1174184329475 14.6089433163571
-164.116278765678 -26.8904697844495 -0.362728668443854
159.59271225873 30.190839245994 -9.60539889285396
29.8447932489261 -6.46162997535293 -5.07332872084657
164.300465061148 -25.292936946117 -18.7315629997582
-202.345230502807 8.11212023448961 16.7860458737821
68.4430289782789 -13.3329420684878 5.70984203981602
-76.9571741089427 8.61390341185804 1.92219713276462
-117.570126465584 -15.5630179186811 -14.74079918464
185.570641203695 22.8676683360808 20.7295274055148
-224.748889081837 29.2729083875968 25.3038142953443
175.763358284923 32.5349039841236 2.68043839964765
29.3637648488145 -2.45888627838757 19.7759036689172
165.34090325915 24.8518275939007 9.91832013426431
-1.96442980982675 -12.5613781599245 4.40721919510294
-120.911843327134 -16.1151706040077 4.7303308610131
189.76384858162 13.9232681082424 17.5031478996472
186.289099235544 -36.8634114286902 -25.3560243199075
169.7852765991 -39.0714700110007 -11.144356948193
206.051370261506 15.074288164819 -6.99601943631467
-212.118561430233 -20.9594515355589 4.7089267850343
148.065215662977 -3.43737534127438 -8.43689885930088
-45.8797658718548 7.45131527726306 16.1866542934617
-116.105064596268 6.07476942829211 8.40235316731305
68.0154739522562 -0.389759851390459 21.0123344796055
194.344960224211 -28.5709704240958 11.444691875925
-136.904034455857 -19.0109151498972 2.83224701652204
186.300073320215 39.4377296759579 -13.9283775657705
-225.560265965466 6.21211376944806 -5.08565507370098
185.510055239181 28.1204516296921 11.7684912454028
-45.0769036470809 -13.493473207231 -0.153169851570393
-164.279993287999 5.90287457488082 -16.5443309571163
-40.9534485252977 4.86782821100361 -3.75406155020396
92.0402400639834 -3.52024289249735 -5.49888324574284
201.037378736705 27.2340771870545 8.12822692103651
42.6125032321559 10.6911483882669 17.5849707082225
-28.6918675087212 -8.06950455978662 -3.63405160748723
-187.26988937928 -21.0426703162403 -26.8851744100999
-63.8723494649383 8.57498950800208 1.98196376696668
186.167721497437 0.611450642073528 -9.13601416261888
-171.662594233539 -23.2919485816964 6.20446133176314
-207.538349670776 -19.1903362925063 -26.8273580922621
201.892620509704 11.7082498855465 -26.229304846991
172.094833584545 38.747188830194 -14.7339746256702
145.225072949232 -21.0103600094401 9.12616851649248
204.494318119674 11.8572115190555 -15.6703769864308
-178.12719426236 2.74588368578576 -13.2759865023021
-56.4852994954018 -15.5042972419524 0.158993418440389
48.8432657397691 -10.2958302557754 -0.440460214338134
-122.408964586765 1.2448014031205 -11.1016997809554
96.3941532093742 4.66884153893587 21.3077115067897
-198.808240868844 -7.61493395713982 -9.36119978677953
-113.521667793661 -17.2334381773978 -12.6838060188013
-123.578500507866 -15.3631647877702 -15.9592393484324
-76.196747807263 8.87951328327455 3.69793547262505
192.988086123228 36.3717743010288 -17.6965191922519
15.2535108175779 10.7889304809022 17.2880624831801
180.574608977187 39.2201232535423 -11.6672713318364
-179.617903298835 -18.0915741415077 8.67610403542346
-145.026293521652 1.82212595347958 10.0373869758698
65.4366227296625 2.18032363117676 -5.10098796001629
-63.4872392718655 -9.51886565119904 14.3026264560429
-83.817482086672 -6.29057996706864 15.1169849590126
10.4493888427451 7.23281328858526 18.9424403166219
-202.588612895388 13.0189486391266 19.501391667467
-113.724531560111 -9.47617396055236 -12.8689780748419
181.554576322174 -4.97763931961172 -12.1206649752946
-153.824212494579 17.3282462683001 -8.78334820670366
156.296333303303 -12.0641965081118 26.0210231692512
194.125998998392 6.0298673400171 -24.4235981401373
-202.690615565723 35.943705512499 -11.6048758437583
-167.657654569404 3.44528665562018 10.2419421142622
-179.039194454907 -11.1263676318392 9.3662266533414
-104.877363325234 -21.442904883747 -3.62715037394678
-24.8948169233783 -10.8920147396973 -0.193845607582713
166.264201440113 -6.57443732064942 -13.443003744308
197.491876143807 -11.4989331311109 -4.32118239417461
-173.287812122132 -32.8903655191234 -3.80710823489398
-84.659934662352 0.235044680427687 16.0322341648956
124.397940833911 -7.45073851715471 22.3543394165931
156.086112358779 3.12440001078383 22.1208141678854
201.245189268264 -36.8697604765337 -2.60170825522345
-94.3066137450989 -2.51836824085201 -9.66220619766767
-34.0506872918332 11.057817698234 12.8861390884276
134.324840030624 3.80958446753333 22.3192730255226
207.181991781498 17.9554528041262 -12.6302460067216
1.45353139340203 -3.94403440156939 -7.15314333375038
170.814851157021 7.41245373738447 -22.2515489478897
-12.2538142878707 12.2904677755039 10.7720913379165
8.14942377119713 -1.90112644451448 -7.4464765931843
