-98.8374814102456 -5.94576000372883 -8.56879874045794
-236.394037073299 21.7071749171877 15.1421446986418
37.1744817256051 2.23430537440477 -22.039412974507
205.08013464858 -9.83045006315751 7.34234337228007
-187.300092311314 28.277811497585 13.1979078396948
-21.7143593704699 23.6191351305547 -14.0528644694909
-127.307337284343 -6.31524826445595 0.946974320337997
165.789573899245 9.45765044680254 14.439886064167
167.045311581603 31.5634637493691 11.6364910272402
182.897718112115 6.36347081008318 25.1962114321227
-177.96327881268 -21.8740646435438 17.2740304385947
205.57778388562 26.1416377482743 -18.7984443662692
-204.579021843935 36.745763022636 11.7975519697141
38.3873279061533 6.05094831675441 7.08743558198569
217.295979897992 -34.375361179224 17.6087168655389
70.2124271048583 -3.3655839304432 -22.1063618584357
-125.572941841578 -5.71065381524884 -4.97894469633893
124.375057895319 -13.3213247452307 -18.6544586553961
204.68769240868 -3.27165765573987 0.22317235645923
41.6490015050469 5.19320854939913 -22.0093831440796
-31.7864654333071 19.8956415090515 -1.85805732340179
157.124254395529 -29.9707488542653 -0.452673315270173
-178.872145931368 -17.6562456094401 22.9663086795796
-210.380156940841 -36.6926563813146 -0.0272732763297132
210.854459518792 33.6906005342487 13.2589019765454
193.407668056479 -43.8269279218584 20.2774595556296
-109.942259495867 -4.17769141665214 4.49211517176519
100.742627298169 20.8659769762957 -10.7689862964605
-200.929726465218 29.4863297290085 21.1450444920608
31.3363065650351 -3.29264479939307 3.29530792082635
125.579998432794 -10.8135936078211 -20.6952772283147
-210.65736684067 4.38076111190236 21.5596657864834
-39.0814054565989 23.2174521319663 -15.0145924026874
12.8656532488153 22.1500229355912 -8.72303461429915
10.1757761260215 21.7759500226598 -7.61898346877025
163.416277296774 4.04322047692494 12.7325672715665
181.350550356749 -42.5253733632475 -7.27232039469734
57.5449419974064 13.8435786657428 -20.5611090952391
-51.4149930570796 1.62805134112906 7.57092021316989
-51.2821972516308 9.78710723881338 9.58863572069679
-60.9637129021434 17.884006674737 -18.178330659723
194.210460931446 31.8697968856041 -8.26081071814587
180.667996833275 -32.4721177562065 -16.37553337837
6.00078543346873 19.9321710444107 -3.90792082422163
189.743377805752 4.78954294753609 22.4590167462326
-172.824093597066 -14.3597784601967 24.0787569733609
-212.561967893592 -45.7683914285717 7.22779022297527
-190.816631017164 -7.1127125574352 20.2368919520564
187.083118009359 -18.5947546229658 31.8128846445076
15.4004624785387 -4.61806340964394 0.294831489251457
-238.642807067123 -33.5244758304698 16.2645132786059
38.6973727035575 7.96194693965655 -21.7835949339981
-90.0098348722847 24.4306854070007 -1.96367350816041
-190.045273107492 20.1776158328605 25.0851705115225
-224.640254975215 -28.5541767516449 17.5360422812742
-224.213808517031 12.9782779248611 -15.5712229671259
186.808741031419 -33.5089678009555 -16.4029861367238
-191.676057214347 31.3997098325669 10.5043013318907
-33.8148133094967 23.5787198284566 -8.32504390858864
206.855274134064 4.66115096453048 20.8559575793287
209.747585700626 9.16226850939888 -2.53062476041399
-226.185846001256 -0.152803118788397 -15.0147032201302
203.665678257945 -30.662981784793 -13.5705955915754
-78.1909530268263 -2.04286806718674 4.56216392031566
163.640476507018 -16.6081126341654 -20.6718644611914
151.689971596129 -14.7681683299297 8.28829077424859
0.756920981820741 4.53566736886721 7.21258954454373
-215.230722390678 21.0947301150287 27.0788134198856
-137.477113183752 -6.4696947938593 6.87323443244728
-213.001291410826 -29.2607444488091 -22.2691060685295
-175.143832918869 26.7111151698188 0.954804121558645
181.223337197895 6.61542774457342 26.3058180574214
210.686583836224 -24.4413077208273 -16.8307006169488
108.833412613329 -11.2518420065077 -19.3341927372485
104.645335867143 4.2077303495914 7.72530775944498
160.375727854514 27.3773792975218 4.4455628206914
79.1424544599582 0.571450419831159 -22.8002155765598
-222.745294696446 35.1387749080343 6.91661337141551
178.464087475186 -36.7460872325307 18.4905636206243
3.18752281645734 8.98350198024429 6.51283152728806
86.6344682691731 3.28394532680273 7.13226360462507
12.9785449911845 -6.76897679635141 -3.96231022757106
141.145212675048 10.5047778940513 -24.0148152203935
-186.831872952408 1.58395361959483 -12.7739402595522
-236.690479386554 -47.6180162822731 -22.4737538811089
87.1243387908727 -5.35170142011426 3.26513507732967
139.855753280191 -15.4678684029914 4.51978329082746
-205.046171716797 19.6712852452748 28.3870781085799
159.514257991456 -28.7534018658593 -5.84115353403574
191.664079250571 -8.44640592925876 12.0455551862244
-89.6824346640179 -4.82149681447134 -0.556476641953623
-157.944602781923 24.8710922413263 9.02175895681435
135.228620057029 10.4754397158769 10.0201181448036
-12.0578888864631 9.14221494086337 7.5674327197551
2.52710209167082 20.3623378413189 -4.62960163690844
107.622894000462 14.4491687015719 -20.8532911511718
35.9269639489496 -6.11230573798416 -20.4064827711095
-80.3812618205934 23.1935763770984 -10.8734419084706
-217.034082058108 35.8011010457103 11.0309399627759
146.920992268205 -19.5713717964361 5.73362981890843
170.087033783068 -14.5300001737502 13.2708362231263
-33.9227582377986 16.1430088459194 2.15608050511832
-235.0368879026 11.7473910177339 22.0616383172919
156.461999956051 -29.9686395134225 1.82771170841766
183.553118718821 -9.03790525454773 16.0883611085663
-224.857146035719 -26.2688467720945 -28.4210691700182
189.870700961963 -30.6131214445692 -18.7104299283002
-204.434210208639 -9.46361627630712 -14.1557589215581
177.396939965079 -45.4285642932206 4.16426593522001
146.506468575277 -11.2830276015276 7.10021976740154
145.773993998612 0.704915206048878 9.02380213581032
-224.929773039205 -3.94892181360448 -17.4980560409408
177.372079900309 21.1188991699711 30.5140113658085
-107.089502516036 9.8053658465658 14.5159593070225
-14.7081910030081 4.73026160019773 -22.6637656918145
198.028831761658 20.4504831877777 -27.9756006169556
-97.2062563891623 12.6825336790765 -18.1191032858755
-62.2640019434777 14.9988429859418 -19.3882622132625
6.3071696905356 -5.22590131393826 -19.8714707584238
181.755949070405 22.2092001981567 33.6000388548825
-199.788863910263 34.3941230824907 12.0322547691507
-185.613993921978 -8.68404769684383 22.9558043880747
14.8449487234539 18.3017301196663 -1.95543058370319
178.260038693789 -27.7509918220521 24.3406483115747
163.726346852295 -2.26572712446971 11.076262285714
59.6593403749843 -5.40246989790288 2.21341203799921
172.01034898019 34.9816784852294 11.4562299898565
-209.857803726474 7.48859351045939 27.2260993330413
-239.220571799539 21.6475893436917 6.1644636026328
127.92414159535 -19.3705730040918 -9.20647272724788
147.201311169145 -25.8068796233757 2.02219025559993
141.811934954289 1.86488976031731 9.04215581532449
-24.2008141612274 10.0858295472911 7.21343344530189
157.91099734573 -19.9284593480408 -16.5285246835446
-74.4171298879391 11.3384222300982 10.940014469633
193.467094802451 4.09509326931517 21.1629440667591
-136.117055685834 -6.24643985603903 -2.51970096868378
-203.497610516915 38.9281797597051 7.05277828435685
-34.6327057319819 5.30115898811939 -22.3467475955165
202.184567918982 -28.1607410207016 36.354534760781
-178.608831416942 -21.7413669601454 13.601412610089
182.667116626717 6.42360029183393 28.2659501548484
-7.44290448922611 22.5281967890735 -15.5609356502932
179.543830901934 30.95906327854 -20.7838101657242
-8.78673304651373 14.3031842593196 2.17316872756474
128.041113588664 13.9948667265641 9.67915807818441
193.938456613252 -14.2907365064952 20.1718700444751
110.357158609905 15.6192434042824 -20.1099359500941
-232.431368691335 25.9894872994114 -5.8025335592077
0.509709321157345 18.3033280440014 -19.5569909208841
-183.776948710935 -18.2083765255365 18.2745829229034
-55.9847016858877 -3.93066844432847 -0.777366587895739
-247.43182540823 -48.3483113850122 -5.08233830223702
-178.329154754442 -6.33104497553776 -11.0571310881874
187.974291402032 24.1708114253166 36.0675572586264
181.308251809405 -29.3645051435804 -19.7387185135314
191.173078763769 -15.7268388627964 24.0462384464951
175.780552034811 18.7690426105606 28.6009903746719
122.80357999708 -14.7306198724672 -16.9517740359551
-238.12451758364 -19.8204825603187 -23.4966312210716
-186.338883061882 4.05497262695719 25.2928573188796
-228.465500552733 2.41132719321846 20.5599110751996
179.751026655212 -14.0500692313799 -24.952168187353
214.417947964236 -28.4529700615007 -8.46582648876429
188.749132056884 -15.7067333877765 24.4899394684378
-137.954046341489 25.1416391852593 3.23389670727065
171.374400845874 0.108788894008992 13.3350595383815
195.865929581342 26.8919665002966 -29.0285776979487
-177.842414812722 0.432550261226904 23.9178129025778
208.810617345028 16.1013732863695 -13.5856465926812
-239.365616063924 17.2401366338021 4.82767589113441
190.802668892829 -37.2999032704566 -12.1162235069442
91.6789331033584 -10.6122328636103 -18.830805673856
170.677995735868 -12.135858874492 12.6324007282877
186.972869052833 -4.84331999861869 -23.6953191204027
-40.5724231829677 24.0641994495814 -11.9233382660096
208.988667325037 7.93431523383454 18.94414991223
185.358663811672 21.9303786633656 -32.5607980771571
213.863668266909 -35.0322962277323 -1.2502975848783
151.680321207766 23.7818669665256 -7.92906779407542
207.781599425792 31.526786043096 29.2034185097975
186.300812689063 12.4615042888868 34.3661828468759
73.5339618888593 8.78980395352485 7.96789809836822
-238.551445201546 -23.0445250418929 -25.1189656525697
173.439507114238 4.33562397419843 -24.4931736092748
-221.964661339471 6.47618285027553 5.71057694001716
-223.319444136991 6.05568732530095 24.9732593761259
203.260419394204 32.244993346336 20.0910446220607
151.453847932921 -22.3423874561421 7.35291273675937
186.373522772895 30.7149596641163 -23.058499677253
194.261893014641 3.55428552166806 18.7122422285261
-135.205843681839 22.5814958575107 -6.7821022756142
204.954300920624 30.760959035083 32.4692621530952
97.9908616552471 0.995074695979376 6.74144607991161
-136.170073289053 1.67455747995564 -12.7098130649901
89.1078997087257 -11.9480833717909 -16.5889604454109
-216.477800467615 -11.5141866496048 -18.3127986970805
191.380576977162 -46.7146083241963 4.41354217130557
181.772438870926 30.4049033299852 -22.1955262158178
85.6563597888316 10.9576996595952 -22.1073383433964
208.258799057202 -35.4201052682032 32.6368534882088
167.834232782178 -33.9365422854979 10.7435508216371
207.565987179355 35.5241397371233 15.2683759144989
190.748772071444 2.1735679110857 -24.5872651909822
-131.677163415754 18.2107546513029 -11.8075938104961
158.497033463511 10.2701348800213 -25.046548359986
-216.930725455485 -25.4945204205793 12.1445292519796
-150.05456899287 19.5869852881218 16.7988929568884
133.909896463835 -21.0198633393626 -3.99063662330178
-209.693938506087 -34.3597131599513 0.191178543812219
-55.9879617077643 -6.31805678178079 -6.05938354100666
-210.100509444482 -48.0533112278619 -4.46453182504152
178.281709043466 2.60504279437441 -24.8678807204056
-185.290742342883 -16.1141220908188 18.5855104886556
-209.218589116641 -36.8971257784652 -2.37469696654028
-127.127275494084 14.2885368819495 16.4902251446699
182.407975924663 -31.7190821771262 -18.0376402682724
-44.8501641905631 1.06468551496621 6.99328002048702
66.9562896283532 12.4822899233273 4.7717822521317
-194.535977273632 -10.5251782283351 14.8723361291277
79.8000411398336 -9.81841542248929 -18.8525287053757
126.078263852954 15.0109651744999 9.59161542351503
187.489285042628 32.1202816873218 26.6289676844101
94.4568772059499 6.76058403146372 -23.353784684964
167.657594102131 0.813590387440965 11.7977664081336
-229.784120166377 15.948281188771 -13.1771501742095
-149.559475079574 -7.22734097460894 11.2525467287865
-62.5748113469682 -0.319578027639358 -18.8049868548098
85.6953581945399 12.539488431333 6.98347824251055
207.64921229025 -15.6401475300645 28.9579414444658
-4.13063690765369 19.4402447862939 -2.90877726430172
-158.536352758822 17.0264641793874 -10.7522937226753
-193.057208643612 29.8748182921902 14.3919594326412
208.299131902124 -17.8064289756098 30.5547869235529
218.080321486096 -22.5252016308752 16.0035917103452
-33.7942217215101 2.94017141149265 -21.91041057013
185.505139994563 31.9142700653247 -18.1699458629173
-137.464740698082 3.86354804653128 -13.5806936182338
-42.3590152993299 0.348280644795609 6.00651029755091
-248.555206730892 -44.6944126109106 -12.0468976115952
-40.720697451137 4.4690383941788 -22.0124234604553
117.380295471318 5.73071181386628 -23.983998885587
-231.41463624746 12.1280235828792 -9.75188523151468
-113.013346538181 2.97906869517428 12.1889675489493
-224.42283974867 26.3997516181066 -10.1856999350163
-137.128788957199 -3.08347138764104 10.8436038110898
151.247559081411 -26.1797659867223 -4.78985264863874
-183.896222546095 -8.95516702561309 23.3585779422284
-25.0357049574999 -4.89136446615296 -18.9416276873383
-18.0974476968032 11.3016864683562 5.56471910400869
-105.974532568436 15.8688193806719 11.8814218517535
184.486102205938 -22.3880265772553 31.4128174460513
102.630305518096 -5.48629258451374 4.48790959894807
-230.093873286655 -2.58566128860784 -3.52827524377487
17.039056442549 8.4920559047147 -21.824341281922
206.660624534583 21.4913288233821 32.8604885431431
-230.130054908903 -4.32320475311967 -1.91853824322873
-140.067980885871 15.1928828328541 17.6200043027795
160.372882444402 0.687693111425055 -22.6480411593725
-230.443271075829 -24.3756690775693 17.082292624142
-30.0460895266316 -2.76814159883354 1.54425646145863
-153.37389446888 18.4669519499997 18.2940844520215
111.052171830265 -15.7544710405903 -6.10157793338162
113.992628771586 2.81483880949553 7.62239440383314
-99.7596722981806 -5.95730836180073 -5.87636183161031
-169.568198414008 -1.43138661904014 22.1371498816472
-77.2352460190638 23.5619160881659 -10.5272387981842
-211.88994340505 22.8036637096967 -13.5688909341032
158.778174906736 23.0105687108085 -17.5390172299486
69.7840742001359 7.17568405939527 -22.5334403471723
-195.415924974806 11.1464579709063 -12.3866144791688
127.182598089616 6.04574207717593 -24.1718495572732
-103.286497239 -4.68386599374058 0.948286516564692
189.108622083071 -44.1441443233284 -4.38582700815927
214.818066917802 -31.030904447251 -5.46884705375695
118.868468243027 -15.5507095524277 -15.2704193459188
192.848455595694 -34.9831101053542 -13.0208829239744
-228.538623476404 -10.3166862292298 7.39977589133633
-140.052849773176 -5.79110540138687 -4.40134523574163
153.528083070282 6.22953067901543 -24.0757774098438
171.253986838179 -4.59943513913048 12.5515763785272
-45.1551291118842 2.51651532610696 -21.3499819926346
-212.995977506197 38.8852377091812 3.09160646721669
179.613667525841 -46.1921026292239 4.74132621763538
-215.754256246839 14.4406747569006 28.6207106703024
201.005620164589 -23.692334879344 -21.5805301652812
-165.069739945747 25.1305244620501 11.4177057589894
-143.663632157881 9.29874539190393 -13.3284159622702
33.1479963609516 -8.03091355060509 -18.5734771577986
165.272884317803 28.2601044426377 -3.36309679659395
18.223586538102 -1.85489746433055 4.12510033552196
-39.7578350179147 18.057228798763 0.970110409420739
-212.328899328022 5.26044380660147 19.7419628601012
-146.345089223678 12.593326428055 17.8254787184589
-211.368843719328 -39.0410631307789 -20.4470811774731
-184.949423902829 -13.9647700467976 20.9411852848978
-14.9471817588271 -5.4486712873654 -19.0319549137991
-191.572785919787 -13.9687746801437 -8.35974586087986
142.96317231455 8.12047191129132 10.4284017524949
-222.557515499076 -2.53521655093579 8.59688874836655
-35.6454066253428 -7.03506861890047 -8.22709144146279
-179.258526071448 23.8481398006766 -7.52577178236839
189.639101701711 -27.9761096159899 -21.0058689081241
194.299977551271 32.7589386166608 -6.43030027781515
-163.034839394055 -16.9055558293415 13.345927561083
-184.950731785467 -6.59026510176864 22.8098564626256
173.159172748016 -3.87482878126935 13.3809679297817
42.9401678784001 6.73317034462765 -21.9703785977129
175.647099648154 -9.33161184768211 -22.5096744465837
-228.363113047702 8.91904024213769 -1.44497150806748
-65.4208460638602 -6.35862489546171 -13.6812918079966
-205.882227954278 23.7203964494245 26.8129415675816
78.9066751249831 17.6081316641744 0.524195716134167
-204.173934435377 -19.5977415189476 7.69953898751348
165.098192266141 28.7708785294786 1.38296527730715
181.595818987943 -16.3420495867951 25.3106940193399
-226.139120427802 -17.2752571546313 12.2638501667937
56.8078145591416 -10.3749284004273 -16.4110063455335
-112.312761697244 9.2134393423206 -17.1523450697126
206.831949648438 27.7318999291151 -14.1335142365584
-178.105606186212 0.973236811377223 -12.2370190741698
175.002465104814 -27.8488055650287 19.1778796893664
-247.211698463145 -36.9475102955812 9.10362194178387
184.611078523383 -43.649864363272 23.1427465957868
170.197227055502 34.5658692758809 15.9877884372188
-246.305119036592 -47.8448607265564 1.37424706366881
-170.471186150926 -18.8705924607889 10.0807552909934
-190.090572354171 6.41360854030321 -12.1432330070901
182.03284191176 35.9906873005178 17.9379135738789
159.084490677699 13.200678161984 15.0987711637437
190.461910903246 -41.9331271354643 29.530450296899
-87.0836743952044 7.92081047311372 12.0450380414522
-144.653317822444 10.1995405831138 17.2345387193773
183.813025462405 -11.4269391248548 -24.4062554726475
-205.655929405085 -1.58903529281406 -15.2147582315623
89.634098717557 14.8568678715155 -20.1638240726566
-227.246533550087 15.7065187252953 26.5655590483039
-240.039664585526 13.6323172798738 12.8207218191839
204.98591223884 -35.6923281801233 -7.79076881443118
182.68240951048 -40.0170803451467 24.8315983978211
-127.504848163891 19.3422603766863 13.6055497623269
-206.612669944056 6.054020238791 -16.1951739331326
195.462660599253 30.7439075975879 -23.9704514439603
144.099379986264 -22.7995827869355 3.86999144561371
200.75747697317 -42.3903315271409 26.6156854583058
-61.977827623167 -4.92222669329741 -2.2780794859101
167.812414299037 7.25265230031293 14.6845862626003
149.659843774533 13.6806792347183 12.9269349801383
51.3679012421048 8.25294446698419 7.22448387604461
-70.9653478264745 7.36575587218314 -20.8944628617248
99.4475461506504 15.1174973190359 6.28462966259163
-129.041434508104 4.85365900714952 -14.9381038309899
160.964573733568 9.76716293187657 14.2128892448462
-196.038937709574 2.55430129457052 25.721040974737
138.073854077753 1.59021174212862 -24.1074236359684
182.400287009423 -16.4915763035431 27.4963185706949
206.105149586578 -19.0460232830747 -22.0027475376774
157.550651211508 0.897030651938653 -22.9903937075424
-227.372318760486 10.1353319916078 9.952607822225
132.743736944431 22.0366570605987 -4.17077433016837
-99.1455446878656 12.4557147513227 13.4109231039843
-231.95350642991 -10.0713971422675 1.22227170000937
-233.508508767566 -51.2626075569519 9.27742470000205
194.68624443112 -31.1898663789483 36.410941187614
-196.852578497825 6.17666792917562 -13.8016933796851
175.140159749372 25.5233990993699 26.3085689502796
-249.038796995085 -22.3804751352872 1.85905545086831
194.497923363922 -9.80728297396904 11.5332196871458
122.655276709019 -7.11526108637997 -22.2625199932688
195.516063154852 4.35427269829774 25.1231401930564
216.033034038965 -21.7598013758243 -3.07716505289092
-133.869441278434 8.33088386481475 15.6642930661112
146.844409382232 22.9737876069614 -8.15882081514935
59.9587374208066 17.2949656671604 -0.611681578811172
132.381293167142 -18.1033210871561 -13.6730950556408
199.42924017499 30.2080389578012 35.1611588984554
192.585446848658 17.4028645782608 -30.8706670620311
-237.151571082017 24.3195790250992 2.14385586234589
47.0602970469672 21.2517185712255 -7.0534175408456
170.282765635394 2.26411826203297 -22.3045816017778
153.260708663371 -1.09733154792262 -23.2817888022282
120.637274467493 5.31707921963355 8.42743041972698
-234.000863062119 -39.60754383765 -27.7825987383627
176.105726435642 -29.882436211044 -16.6260212861249
-200.261657097862 15.4501868021922 -12.7988981193033
-196.383418334766 36.3891029236631 0.29696113921424
207.19329141609 -21.9887523392733 33.6252759811316
-233.227876294675 -54.348763460966 4.40637321646984
151.979075173669 23.369966763546 -10.7736079292635
1.47815061752439 -8.36903916917904 -11.4858389653282
78.1987419868476 12.1376222774091 6.33250829355743
-19.3162149127138 21.3927264379442 -17.8387441436622
-179.341321809991 7.86031503654411 24.3751145396217
95.0864086741268 -4.43394106740042 4.4826552943123
127.154000519867 13.6415377254717 -22.0161384588225
160.245238700712 27.7683190035018 7.4219300830156
-37.2096733704471 -5.75997643104415 -4.6556803595676
207.553139887213 29.2849961866315 -2.99215635107139
-141.194841024262 24.6401393129504 -0.706213507343132
170.930868724393 -0.734540749833618 -22.0620642733196
-245.507882825311 -46.034074239995 5.3618575162667
162.595614046326 -11.4590294350337 11.9928526941327
215.209907627509 -37.9619153568656 9.10389149522872
165.172213893883 20.8826581204299 17.0691092546304
-31.2676772601348 2.87813113226164 -22.0086878978229
-188.985699174929 30.8796229058037 8.16521010888576
-34.4397906364183 -4.46062999320579 -18.6511829398033
190.076391618912 32.5699084268386 -12.0646099005715
-157.84447404042 -8.20688208415432 -1.92348882254055
188.325876918057 7.48413480893195 -28.2307272844877
15.8507018883621 15.6165775148846 0.321120152665813
-158.034672281809 11.5776479910909 -11.7649104542776
-219.361842401773 -15.8140186604638 11.9507274852344
0.813859529626467 -7.7959394818157 -7.91296046523646
-214.048361998101 27.6141869792005 -11.7123923533874
-229.767524362741 2.12497117279511 18.2986902891324
194.628185907342 -42.1557755804316 -5.04381195415133
-175.236908011988 11.8731480533322 -10.8413926809442
189.938648016362 32.1267231432003 25.7263618887542
213.329233208587 -18.842312554497 24.3383904904701
149.853073131996 -19.0108628053217 7.37585364386769
183.37611710214 -32.9457547470838 -16.7592328926127
-89.4388012061036 -6.29350880014497 -7.30274325929801
200.06314706309 -26.0401102824103 -20.0546238004566
-216.917073159558 26.2137452158964 -11.5794741640596
-227.940935559937 -16.71426875942 -23.646886404237
-48.8730299622074 0.712795569132921 6.51578447357414
160.226875979838 1.54704520103455 11.1612323315836
21.8405772437491 22.0998756043989 -9.9312163575647
175.427265768015 -44.5954140110827 1.00434607523925
204.379069911335 4.93765591108184 5.07675841114626
-171.799003736379 14.286393703005 22.0002016700568
64.693449663032 11.4091174689882 -21.6292860939644
-70.420297799841 18.2265962902617 5.5249201390321
-189.996809935116 28.7664434927205 -5.32116363851938
-226.124988910847 -28.1774371081799 -29.1152879060477
46.4141454485747 1.65816326385503 5.64063902044603
120.144953248549 -5.81494855754296 -22.6957216595001
185.002253607402 38.4886785762924 8.51441006449928
47.655508254768 -6.17333096974718 0.517613997438179
81.0635424040305 16.1693457738721 -19.0181729656462
193.520714752167 38.5684332885133 9.8253524041389
201.593876262369 -44.1001189224916 1.50836252222458
197.891341002126 -8.90750543457798 9.65574917542193
-243.596024786816 -47.065860650657 6.77142515789116
179.129299177453 -45.1890134581477 16.1808067677411
-232.370404265161 27.7041970575546 14.7270865414288
-157.339746810155 24.8893481943196 11.0228088531597
74.261903073633 12.3743264079236 -21.3437585034282
-142.361039458014 7.50571782317766 -13.6200620454442
-215.644798173882 -40.7607450846609 12.3980549487535
-235.710196643363 -11.8550677661338 -1.9479411098392
-36.4882101749933 18.2496748594594 -19.2047107602131
26.2668310608271 4.01707767642322 -22.1364486176707
-206.476502916541 32.2567503035467 -9.06583366151436
104.545324950835 14.5179665120678 -20.6986077737558
-215.193271839186 35.8638989320046 11.1521303799603
-23.892245930332 23.2945168863773 -14.9504636520806
-59.4603099501213 15.918137785835 -19.199335715083
209.321692824052 -20.6089468086116 31.3221599354727
-163.468894597863 -13.7748599582458 9.06611527888442
-72.0802757266272 1.24113338520423 -19.039736149605
-37.9071391100163 24.1798484341252 -11.7498909377108
-200.456827681404 8.3088704959575 29.3218232558961
-217.11520148553 30.4014216036024 19.8779920392974
103.242202088374 9.03188105984811 -23.1309939854963
143.223638908568 5.5355726589319 9.75546274801935
-212.110529825797 -2.24277724163643 -16.2432469827312
-94.1744590646845 -5.81274868572753 -4.51360430238805
92.6045801505173 -5.49969118156057 -22.1425981114623
-223.24512383551 8.54727962112235 17.9627748415561
-208.153522336789 32.2611970213865 18.0522451762218
-189.841687796259 -8.22936444836004 -11.7098654718166
-223.0937993289 13.0602855084494 28.072306019685
13.7780872911153 6.55369174111281 -22.1825527236247
198.847196385544 22.1933180340621 36.8776540230946
-231.787365897221 -54.6961796191236 -1.91467318443399
-221.288895823408 -17.149235881477 -21.7362089417948
180.999017761144 -10.4309643457927 -24.3094768503027
72.7258169763062 -7.68235997082194 0.000617369929697288
151.877342121763 -19.9070069651303 8.16848983250004
-213.731389212368 4.19388265309503 -17.1414607049505
194.790517880824 -38.1222687309431 -9.48222925571415
4.43104890517192 22.8922346160418 -12.7493118440943
27.1877059798471 21.7946437380427 -7.6973361653175
-90.9069080600609 -2.22950179440108 5.70458339661644
212.211245348265 -29.4651266298653 29.3473643425164
199.701910428669 1.43446767442504 4.27997737907166
7.05486880396469 12.9617620745638 -21.2753135814224
176.821736097235 10.1004384218581 -28.6718826961735
147.971957735961 6.10458180093853 -24.1496560422533
133.647747893046 19.796005171277 -15.5427618328404
181.407555031034 -18.4891074877332 27.1589692090908
206.433982027219 18.1979500449989 -18.5994869826681
-83.4772420233565 19.1982732285357 7.06782909444127
-222.220507661882 -13.4401201879342 -20.1770619800685
218.483400968288 -22.3232560444717 13.398762355388
20.3535363204699 12.3193022569101 3.1596987788225
-217.189211556209 2.67244028410776 -17.2534437555844
-36.2930256889128 21.4360257337975 -17.3620917765807
19.5132834509071 -1.7847297648175 -21.5912164352393
16.9153278245337 11.8374660249512 -21.2000246195503
-194.22620674353 32.586430525235 -2.95581607373043
-189.024443360529 -4.47191774749335 -12.8466204453526
95.4633499122016 18.8052950146806 0.812010047489692
26.7377908206199 7.73544959797 -21.8761804817747
177.778216583046 28.6470822068244 -24.0538414306219
-172.499244108559 -9.93038059487093 -4.57764888260837
155.38999164338 -17.8503256899316 9.94389568106912
-231.669354692145 -53.0523709455419 7.38654686878054
-238.996766791388 -53.8140290627517 1.18651351179011
-53.8178493234822 16.0840095974393 4.55359740013646
40.174382195305 10.9645698650003 -21.5207377392409
46.9823818519683 21.5388566182388 -10.0401656464492
12.0877497141327 -2.61051500709824 3.56978139131369
71.8613756627154 -11.2458983635427 -7.12130695546427
153.790997887975 6.12209153054198 11.1991858723689
4.73684922389314 -8.53086534315956 -13.523330852305
203.545131763297 -32.8118508010846 35.5061206145957
175.00348714687 36.1022125108412 9.19158051666824
169.418785521812 31.9381916778058 16.7507249461034
160.598690870686 -11.2805119283243 11.7907753286843
-248.133495088203 -39.7174452003828 -17.1983133306913
-246.264994047567 -49.6758489536598 -7.04871969795665
173.097718497487 36.3297997178412 13.1543244305154
60.2874724047574 -11.2424319259969 -13.3365665098584
-62.7439844572636 -0.498813154310933 5.48013255694649
72.8371741713594 -8.33373993867668 -20.2631259381635
-225.783441579705 22.0772558158159 25.3173186129059
191.111934292075 29.4978559546583 34.0465117801044
190.197493927526 -44.9970907113383 18.1603297713575
147.512712752951 12.7738861550584 12.3147026977037
166.127497406617 29.6871570235437 3.86385145302967
-215.511135029615 -33.2969188147851 -25.6842385126935
-240.180588677015 -42.2793012154288 -23.9347944344134
196.968985554844 14.6167077980104 36.2002750246455
133.649255943078 20.7830574012993 -12.8081923354154
-86.0957967711106 12.1185853549743 -19.2440350718232
179.34017383733 3.92214762561128 19.3870220277385
-106.093946915211 -5.58818824112518 -3.21270892010835
203.317817227552 -42.4619203816622 0.772981269985223
-161.283850338064 8.77557457142007 -11.7753957065787
88.3797707811719 -0.991379569966954 -22.9856650736131
166.822562641394 1.6104462534711 -22.5270227102299
79.7464685832811 -12.7610215600369 -11.0698762513346
-216.815118869651 30.4217747286109 -7.86727739557906
-230.835576412588 -29.0126285554667 -29.1883067731798
212.659309888741 -14.961754051341 19.9794983246127
5.06445508193948 2.16736814615979 5.9009990743053
29.5257164886807 -0.582961653665755 -21.8120091908712
187.924881651526 -13.0474063419909 -24.369505931353
191.82072278267 -44.4521981406357 19.3425905613965
214.321860974426 19.1063304307004 13.531793991505
-204.78440117101 10.6078667472924 -14.8628480289188
218.368462335007 -26.8032605029753 9.19633124807226
47.7729889595934 7.83736285254393 -21.9470335752614
-1.88845373735903 -7.93353098003332 -8.91524395366195
208.264426836575 -11.8276441278146 17.4486460106154
207.433688601459 34.0064043911166 25.8886901380315
123.690229330164 3.37097104290773 8.24296188175767
146.827951881423 -3.74941127476783 8.24958324316249
-169.719979113986 -4.84348683501041 -10.1105703320981
149.138040106398 -21.1518280892553 -12.743189061554
189.118577313881 -40.5445315340699 -9.08067903308528
202.272837647604 3.1357452596872 5.74088684480749
108.511551334884 19.3315046345712 -15.2892528544178
-139.692600434332 23.143700347674 11.3389923704755
-245.680905945605 -28.4087113150263 -21.4501525768478
6.23659078072669 9.41721275466764 5.8087318138634
-10.0642129497549 8.38604710734407 8.13731745956191
142.059493000054 12.7233533895153 -23.5550465915046
-126.418066194156 2.71128583852872 -14.5861252340207
202.70006581275 -42.4291514119469 28.8106035784162
58.32154754359 19.1308440289907 -16.7275982558399
-236.393084724851 -12.0903076714568 -15.5251373141843
195.765997917636 -25.8554650574565 -21.6495123441179
-55.9954723933125 -1.26033398168392 3.45178034462021
141.617974562874 13.9760005613554 11.3313828307272
-176.980667113513 24.306243451127 16.3617055883372
-97.0623522792315 18.31491217762 -14.9253570743148
203.559161055734 -9.55387067091406 -19.8750103946024
112.228365563368 14.602916865246 8.72055111446001
-90.6735989509743 7.00464933492354 11.5851124709309
172.670283556064 20.7679763541237 23.2077405354083
66.0393057222011 13.5355202486575 -21.0137429587483
-76.9188485938569 -5.98206839324916 -4.69230559714214
-28.5878722784393 22.372952647586 -5.91923413432091
-230.926758768354 9.94189246331348 -5.45180245568333
215.450507774968 -35.7630261501264 3.76274867222054
-33.8344995527101 8.37627644816831 9.52954287010504
195.777129288233 -17.9744016692826 35.0283897571963
-198.044722710839 37.7944912384912 3.74267116238411
-240.587445005886 -25.7215637066497 -24.9651996820418
-130.36338130051 15.7418583644463 16.8852981121535
-180.541232906531 -1.02911314959531 -12.4532327132355
122.291527630193 16.0413350517177 -19.9354359697105
-212.803805831859 19.3438735307432 -15.0292138348381
-16.0195555433221 6.08600616742848 8.71350960739466
-136.648749031687 9.15285841665354 16.2595638314038
-235.517731098394 -35.3372327392798 17.3563189342973
195.268952863443 33.418461814321 18.1310753497889
-196.880656081714 28.7502832237799 18.7785273295957
-75.1302477295781 2.51833650118492 -19.3987234934498
144.787792884099 2.87713773622248 9.39297524955849
-2.39468856855032 18.8457918681668 -19.4840159921237
207.021089182076 35.3558247182866 17.2832027670016
193.337749117444 -0.141899237220986 5.70929940910709
200.121829106377 -45.5395969887747 5.90850923925639
-172.213956919931 -16.3706263776358 23.6546469103598
-165.931571918293 -5.41787498713768 -8.63679244605497
-125.955204277294 17.6139295909568 14.4103916918224
162.376352150446 -19.0878606409807 11.8394242252387
-239.506545466485 -46.7196636255361 -21.5391951478999
-227.751556825342 -14.0780140765813 10.3507670720114
114.230436453115 21.2391557281262 -7.04219179731559
171.804573503836 -29.4672539376452 14.9287536395401
212.416568119805 -15.5368994736324 -10.4037031461614
15.9201727168177 20.4989054871673 -4.60372327360897
116.867394094776 2.64811264364065 -24.0445796895141
-199.585811794621 -1.58554658614427 -14.1993272443156
-175.441371656677 -13.4822467071025 24.2961420540648
-188.033217849599 16.2761816474544 25.7374056322406
156.371899958544 2.04730763270759 -23.1742860299397
164.471508600564 6.82293092119474 -23.542103936492
194.450178342743 36.9816736602861 13.9764103804358
-228.417667609105 -13.3882709368855 -20.126625151876
-163.617775223247 4.61127120358319 20.1063614583407
198.298866968867 -13.4504683549149 30.2795521321395
165.16138400916 -36.7327337120703 9.11213726555466
-210.610978893488 5.39866441803708 -17.0341350056316
180.70756106758 -37.5876460541364 23.4945662538054
-211.370070921521 -0.253721484159754 -16.2010953660903
182.112910252816 5.55667800903918 22.4627552699954
-235.606751092723 8.74294145962161 21.9693562867386
214.664462304827 -19.480258159366 22.3699070497245
-167.092100874854 25.606699659326 -0.252001220439667
-221.320013038015 -25.3378310516706 -27.4803888688718
196.53781491458 31.5845554377247 20.189167038093
-249.264215606535 -45.326950950867 -7.71798529272293
-218.578537231635 23.9896739972146 25.7383220787287
-99.0208497087419 17.5852078794366 -15.2512849134172
61.249329862128 -10.3061652435805 -17.3098110052976
-197.212071873873 7.82479094619075 28.8501819744695
112.38878673821 -9.22284559626729 3.39778969941309
117.486571163475 17.1805885772122 -18.4620140695846
148.210446744194 1.07374546067537 -23.8118501713986
-118.041468131661 12.1651589156944 -15.7510983253848
193.261194665397 30.8296037158017 -24.7029468441457
172.821598328573 -1.15703508276742 -21.9389269295403
-209.653212387547 15.3178391133053 29.2189966307621
-232.81425733531 -6.76781266461449 -6.49167266476612
177.843587034124 27.7425444849437 -26.1255918550649
-7.09535168951539 20.3598820162392 -18.3985072160375
-234.327483456218 -14.2435587144179 -20.6122115238461
178.472896353932 33.8177853055385 19.7515904731037
-201.318056071389 38.9889453512313 -0.511824695015874
206.740404113737 5.33272478927357 5.67604958602546
-220.260111139955 -47.4573478517965 -22.9414982854939
-135.177909238814 13.3053686854824 17.2429005647389
-120.498726112409 -6.08611770446171 0.397311963335843
-28.9025264742692 20.6789282107031 -3.2034878569815
207.194762406003 -40.9520776048588 4.69275805382514
55.1662141248443 20.0285489136071 -4.52252981689993
45.969929329113 17.7419624587504 -18.6672057796744
-229.597840623084 2.99355979615199 22.5438795562503
-221.43596207404 26.5419893505205 -10.684157727324
-237.46803095284 -19.3857838889924 11.5771167468163
85.0635185036121 -8.02183376640951 -20.834957525682
-195.351846418804 18.8468552074893 27.0730793475082
-156.989009727223 24.7880025447731 13.0611744452049
-207.069332232854 -24.5822080319105 5.78229860169659
211.722034641159 19.1204134261884 -4.92372869591072
46.2182870331863 15.0337430401023 -20.3993287317322
152.93310961726 1.50252570869896 9.89408086330363
193.363218037174 -8.1106336030379 10.2271362468485
82.8887320195948 17.9094075606488 0.537787921708282
-211.164143560475 32.7108779392702 17.2741733151947
-202.345849086637 -1.21786617108653 17.7646498755601
135.528842552261 -0.815016223044977 7.93845530371689
-132.035039121203 22.1964791779085 -7.49057156618151
-6.2317626847671 21.0946856337082 -5.43534697701192
-213.687366466221 -23.0843087402729 -21.0183754457842
3.88354438227411 -7.69130763070271 -7.3309197678104
-112.590372233066 20.3223711949661 11.2924019853491
197.198808909489 -19.3664360145545 -26.9481535134357
193.450129912921 -28.6312484441595 -19.7759750643736
-174.783717096 -16.6681723311808 7.86410416387538
162.823491521073 -20.5146934157599 -17.5203289048374
196.47473182514 3.65581899402371 19.1587088359982
158.252191369611 21.7025758236651 14.8875601903427
22.3297362887941 -3.17013501503771 -21.2365523386269
-229.159348842057 -48.5124619153339 -23.7422010773032
43.2769639896341 12.2615535472357 3.56025207028614
-235.684876993931 -15.1519998589948 4.5809889832056
-76.8791020280374 14.3067103492234 9.48395358930242
-191.357094139321 32.5412754336966 0.876431111947897
128.07481972779 -16.8360898819642 -14.9009098365468
-67.6730840736329 4.72245837312435 -20.5980159799029
197.945280289634 -0.951465640708149 -20.4829763763781
-59.0768933122766 -1.51864659183647 -18.4928505195305
-242.495017071773 -52.4633167116177 -5.12354040773488
-229.136457585658 -22.7492063507059 -27.4092048247224
179.231615621325 27.081421020457 -28.1328119374075
54.3077407924584 -10.570502107376 -15.2006146084565
76.017591483333 4.06792109768645 -22.928824945041
82.5435925401468 18.045022055757 -17.2881245760784
175.360586254259 26.2924367397121 -27.0997715216664
-228.217300491986 11.2061356549644 3.65309301140767
76.7111652065944 -8.16950259584757 -20.3174248427527
-196.783589984571 -11.4938122965544 13.3147269785176
-116.258846675467 -5.10263886401229 3.18518532412221
-86.2356851936433 6.56995459421973 11.4139494489863
158.518306572447 8.84820338859036 -23.8598840931494
121.604045906372 17.5993120941287 8.86149854191885
203.038593708211 28.0199281235784 -21.2872697689541
-221.927338643324 10.9498835055162 27.9003095171464
-169.444592444087 0.563591583694317 -12.040684521437
181.08651976436 -40.9602747661263 -9.18498726509304
35.2913245501491 12.2410770217043 -21.2410625189803
179.689911348884 25.7916215815113 -31.0289000965058
169.482481906469 0.581969213675603 -22.3488289717383
-222.286219933074 4.57154086191393 4.9617532603816
152.411987263554 -18.0159272031774 8.71602970915622
183.111403790629 -46.6692482085998 1.92611942618327
-85.3713448104964 -2.58035524830705 4.44551192296041
-125.613978721348 22.5259297954847 10.8400611715814
213.36428100485 -21.7999149208204 -12.3165470958285
-148.1817141639 23.2344752277345 -5.35282959962053
102.815912010012 -4.77854911838031 -22.5801457505224
-56.2539007001141 -4.98866169115538 -2.65907408905043
165.926969099784 -39.9863638597016 8.17692222942614
-187.765962310242 -11.0023415099038 19.3209613774456
7.05381579650536 -8.4630191730397 -11.0379400952017
-33.3340590924428 18.0212686346141 0.418598294355288
157.233532821335 -12.5965119955821 -21.2100411407458
52.6191510129049 -7.50598668489831 -20.015928185642
-123.790023194431 4.69174816409256 -15.5454493759428
198.676364990576 4.19775052722829 24.1186827467282
-128.540449585885 24.8729262040546 4.12596436460136
185.268165522955 -45.4823880151265 -2.15281102612718
74.0181556644183 10.2248925014622 -22.0471046793578
70.1663178538019 20.5065419737177 -13.9446696333318
197.18587927906 -37.2053010172478 35.4077325973328
-179.677872471462 -3.98109636327423 23.1119322462634
-248.280617673327 -40.8838904885126 5.80029592324369
-106.026423888856 -5.11573950991502 -0.238512535909135
191.329530458377 -42.5415533650542 25.7114751360083
177.97333824844 0.803644714422626 16.192560721858
11.8095677219212 10.6884327171597 4.45939575694419
194.364488596582 -44.9190624975447 8.96966189316398
186.190897021531 -14.9732287228204 -23.9359697540402
134.211475391898 11.907806216504 -23.2380285349973
143.957871321282 12.9258321182282 -23.6763958474402
-114.789228276053 24.0457525430667 5.63637153133635
-185.146029460774 -13.4128049333611 -5.18811695161677
177.495976433608 18.3293714596762 30.5817780979225
-223.065854301942 -31.2180863343429 17.182152453949
-39.6539647438788 17.6297825910037 -19.419465099078
-236.149022893338 24.4956815430673 -1.41628514419232
-161.354914952232 25.0260649949101 11.0376165173244
-213.746841774143 2.6701272690449 11.8111504258712
84.4075278692066 -2.07417118712147 5.10718799115481
-179.835655863635 -10.2527663521163 24.0995584695625
88.0209069933182 5.96567233217071 7.8341459837711
-192.936667221528 -16.6128429752517 -6.67818483460748
-71.0773964973513 1.47092116180628 8.51644808133231
187.443580872619 -20.9584762703646 -25.2383856751493
-231.830381990347 -17.8793190044397 11.337876264232
-131.775567879819 22.3718816944583 11.6112920121061
-246.445844889246 -18.2341702643027 -12.756715972762
199.90821831297 -35.6208021102128 -11.045431515737
171.492560153191 -9.6894187711305 12.9930463271976
215.118316417227 -14.9254413282468 11.2962544666454
198.624271318757 30.9055977294057 -9.68380617645831
-85.7382847780621 2.8280047568243 10.1127493415709
-84.3193694987502 6.26867290017201 -19.7794464767297
167.813224016274 31.6089557753414 14.8867200132655
104.249181212419 -2.60692042667512 -23.1945026503852
31.9970729884618 -2.32060729929346 -21.5323083613892
-101.460654066046 22.1714426615777 -10.0294741139875
-113.949146065113 11.2046084839895 15.5479823488522
210.907356498559 -12.4262196735446 -11.3086592286242
-158.281379960568 -6.95920346726258 18.0696976360539
210.256130817336 -40.6875925679186 12.370396877601
-198.715077609076 28.0887945155473 21.4625992927459
-221.125210513931 32.0563557173926 17.4129715944043
199.544696546037 30.6495259445658 -20.1718239844824
179.000187238025 -6.45262337125148 15.4550138141026
213.709890542515 29.2540534788758 14.4235838961345
-148.941724212545 7.6473706981614 -12.8641340668159
-112.213308357617 -5.82743150344965 -3.45556344331985
-245.443499296982 -31.429004609281 -22.0683611800248
-249.846716610759 -44.3376669700524 -3.25250470661506
126.258205867545 -0.582940730612524 -23.9877664299396
37.0440696809207 9.30359569911859 -21.6470891611174
204.592775301446 33.6495658055039 7.30056392891667
-198.225378086311 10.474036689398 29.3102981872485
-211.486137905415 -38.7554522166921 1.62509449977001
-221.091285151602 -46.0150164022006 13.5816469861065
-127.378801556461 -5.50319753445964 5.18021559629709
151.889097229005 15.7361743289497 -23.6125249803674
29.436519305636 9.31043079657794 -21.6276200732696
-114.849649578795 17.1063915596971 -14.0066161145406
-197.464654334765 -20.0920104158975 -6.91928129618589
-214.795652206589 -43.5579743491274 -22.2551430443649
-196.554979505554 27.7938962486819 -8.69925447396978
22.3800387851113 13.1454078408267 -20.9313556367178
176.869012097727 35.6514259897258 5.65173101690843
-47.2306786162573 23.7312712064635 -7.18947615668538
206.918429214497 -3.12914372831608 -4.47081957387637
81.376730864636 12.7431796882395 6.12327590579253
-216.530736650028 -28.6939599654699 -25.899443902174
184.775700046478 27.0994479799723 29.9819576830653
-126.621199143779 16.1409878638881 15.7257914477193
-51.3320295265906 -6.38341497022958 -6.53752888578096
196.351136452806 -21.9360849419554 -24.5664960794496
-65.8285652363685 6.0642478117721 10.1489990708153
197.488416578199 -21.1297888984265 36.4448776637386
-152.402446729463 22.4324533987659 14.5385029903616
-192.575888242802 30.4644619170621 -4.47066054988512
-40.1984966415749 -4.22444106420671 -1.22653495119047
-104.470608638117 -3.11201574201333 5.68053941564055
-230.079505074743 -12.9505880593162 7.68988875240385
-112.892247419094 5.29027871914902 13.2007575706165
54.8154910443938 -2.42980317742176 -21.8654677705524
-231.621330753747 11.1397189435985 -7.59108438240043
-229.97071466112 -53.8708682155927 -10.4201098390566
-246.062819482043 -22.9836741981701 -18.7157998620472
-39.3123896354763 1.18843748170134 7.14360535644797
-228.81241109171 17.4625292306636 -13.4302160376549
189.632654703253 38.8319370638885 9.21790794457282
-98.723027759776 -2.56053985150679 5.55939887741755
197.801391856789 -45.1124853941458 8.48814869355254
214.192099325663 19.1104161433256 10.5081048533676
168.875675375756 17.254807733515 -28.6750338875288
174.22494935406 5.96103497671013 16.9563276187699
-220.180836270495 12.4774498915242 9.27256122348551
-89.7229548391952 12.6775046319855 13.0137798542697
-181.582915422381 28.1943565093644 0.611727258054186
139.188860785962 21.9060409163556 -9.5730068050465
151.373851985053 -8.5230540246632 -22.0716235277375
-171.850018182116 2.90648376905016 -11.9780203805245
-214.870195225782 6.82917846180705 19.8988688953687
13.0490624408585 14.1325659984853 -20.8467468749139
-243.873520461198 -14.0520038936222 -6.60563995154175
-65.6372088657728 6.60502603966016 -21.1592178393811
51.5972132287429 -10.7085412880941 -13.3354619290628
-224.99681214233 10.758735793865 -15.0791130118684
-215.344766763399 -26.8971705180099 -24.5640014620604
55.7197547535163 5.76826649733267 -22.4166862990824
-175.756470427984 1.07565092019954 23.5003854053608
-31.4168187009616 -2.53895164008996 -20.0969070456791
71.1457765945855 -6.95515108111826 -21.0609026015959
-27.3830848505424 -1.93523731036179 2.8795003752746
-67.5240343087549 21.9601890264551 -13.9229341972423
170.25176207562 2.91174771759584 13.8875596973936
-108.800334583792 -4.97871709483436 1.38639286150924
143.977728112595 -24.0708974581751 2.42421599184947
-208.640325157175 -32.131869884548 -14.2812088362688
-217.326743599959 -45.8793838669431 -22.5019356554733
142.625014258181 8.21694313147662 -24.2968084314098
-213.463442092802 29.3259026112937 21.3344129217173
-250.78767395733 -40.7998478760556 -10.3509940860213
-109.766350289671 2.05627058838497 11.350644130023
205.583967778985 -1.25302491497914 -11.8285644798601
189.476784833026 37.3991911480515 5.06138349196972
159.765655788819 -20.5537705115406 11.3385914752661
161.643228288054 -13.8807081362439 12.6356575009468
-225.138150150923 -7.3615173828246 -18.4076147665035
-217.360696200079 16.6728501907329 28.2352505982675
145.84629157599 19.7692644203045 -18.2852716024448
-69.7713539018659 11.0205120694063 -20.5649161188468
-94.186977027052 23.9817286959993 0.869415626404044
-250.645349978214 -25.3745328126988 -10.8414545364424
183.100850378965 -14.4273612510895 20.1472389425193
56.9655813922705 2.39626798819088 -22.4552947631509
-168.238431611266 -10.0341251724003 0.24348653999759
160.618777787232 -27.7783659782391 -8.26933271260302
-22.7413776104955 9.44365108530728 -22.204139594148
174.295075311856 -1.95105116260008 -21.6289589838135
-213.490440653324 32.1727263284684 17.7990572491186
-203.907798657509 38.3952834246132 -2.02878859072235
51.7746313709282 5.70245829093333 7.10534583487317
203.447905210218 -13.2436556443189 16.2053977777828
192.266177742525 -13.7762012089128 18.4615774558361
45.6862165572338 11.948682191211 -21.314004090609
75.5952811086877 -3.81552919717097 3.76940114830993
-94.0696409458482 24.4574698469746 -1.74915687508947
-145.5188259398 7.27560090345026 -13.2142774469163
-103.241931579275 -3.97557072232448 3.58871847793917
-243.735072716892 -51.6034288552161 -1.20970469364571
-117.275973951421 1.0005391098313 -14.983122767516
188.217209690943 33.2919640757477 -9.60129718638782
-152.417818792844 16.1489851766949 18.6616337100474
-110.469205877952 7.54554399197951 13.8528147851302
-171.741316624802 12.6139914003126 -10.975857523029
-42.989958068216 18.8066796773747 -18.7744117069754
-121.992717586572 24.5074333386347 4.61093083101835
-198.993097096238 6.57521269186265 28.6146863075835
-116.905164427926 -4.33025067931545 5.5655391979595
45.8235477058939 -1.38924255421583 4.61401035542621
-248.678059234617 -44.422775480309 1.30282079939815
-231.508491965587 -5.78646505249808 -11.936522119505
186.216329512993 -5.62681505819625 14.8616215384535
-180.6917401197 15.8832539020889 -10.8191385407105
179.127901958181 -38.8182112367782 19.2792801970737
20.2316649022285 -7.46673625405403 -18.4762572491749
202.290324840301 -15.8214629155006 32.814658415438
-57.6529635495595 -2.33715218534862 1.96639791597966
-177.250010966873 6.24841290324042 23.7952742175639
-8.19432193248892 2.10209775071264 6.66577874843564
-44.5942654647689 -0.470996956129541 4.59251040843768
181.94919373958 35.6649265443394 1.78374634403366
215.083893360198 -29.8964690212744 24.74904258277
60.9277488653694 21.1387693174862 -9.63113543190841
-240.259735864169 -38.6929128789761 14.6273193463039
-217.500758481377 -32.5462586629519 12.7568186036143
-105.494242837094 10.2180600154495 14.3164987454727
40.0202318231536 21.1228245570151 -6.63513151099828
