-189.799902945408 13.5584277139507 10.0765521352264
-198.9668046323 2.7548422955239 10.1815807828081
-11.5115387036171 0.083730337950293 20.5911133441339
162.626174885998 5.02063600834831 17.508350796295
166.839351585333 -18.1196142277673 14.2952946840735
213.938384442877 31.3198562479394 -19.4950471293398
159.784023556889 21.9682956266379 -3.3177298486222
-177.878448409336 15.1715935539087 -5.6644583074924
144.278241977505 -11.1882929825516 -8.25165689484062
-195.063468731629 19.1291136889233 -7.68540957402544
116.63988091368 -11.8351473622798 17.8071198509592
-0.993345124900592 -16.9068484668986 16.7036421827969
178.727468194457 -19.3185662480253 -24.6845206208533
-214.091738330165 44.2672542110721 11.474750998116
200.942247478707 5.56717431821495 -8.97994146290454
-65.0804555128665 -1.85020862683829 17.4856970631286
201.300151353195 -28.0795427463697 -16.3863467091622
155.650485282254 -12.1645498320684 -10.5761009090544
178.324850335866 -17.4779292750758 -23.3839667444298
-36.3728831268415 0.209248603745631 18.6647726735988
-15.8070884916929 2.89643558291066 17.876846150409
0.384592286634273 -17.1349389190154 7.52447868415258
161.126250152377 3.88325138718226 17.8422514169783
-189.259159538541 -24.3932295905889 7.70843782081023
-183.725827462591 -12.7066081864177 -26.2252778949843
181.715463179827 22.3843200432503 -22.0334044877923
-210.859436611472 17.0232170630343 21.9297354292908
214.820523330817 16.0619304519004 -14.812527340841
-208.496064024029 -11.6270379612001 -22.4543133915465
146.243876837419 -16.486717015317 12.6716736566681
156.816653116587 18.4505706506325 11.9294372953595
-201.856892057813 44.4662885800896 9.14461876880817
216.465930628569 28.3012667517194 -8.75819700113886
138.674000100832 -8.69085823980754 -7.46587231011246
-177.197203987008 -30.9573663742663 -2.65181245129306
201.564709100206 -23.5056326504947 8.33136034922478
176.317179912197 -1.75898418211899 16.1824118926565
42.0847869772291 -9.47476973990326 0.140529574001638
76.3717627230821 -6.63141567102624 21.7464512036248
-47.3945242403196 -9.90013999605409 19.9492666397623
-176.907132163724 -5.69406361186687 10.5882073284795
188.964840961946 9.52096798240054 -16.5572122509576
-189.73074160615 24.9714953232862 2.95217986183207
-172.511483342292 -10.1852328543573 5.74575698544575
194.923994860019 36.4384671309651 -12.7591390748486
-192.711683385036 11.835518634681 10.8834625130065
183.951856637747 -25.5301635289838 -27.5634907861998
196.112048596983 -3.53853408471535 -14.6320525910663
-101.02643658707 -7.60786824139593 14.76101549469
209.935625930602 6.13297425931124 -0.598534724660217
199.550833457858 -0.439789333655034 13.3874461240004
-172.373383493618 -9.26906384765289 -24.9229010668717
-202.443227930242 -8.8807813991026 -11.9606161189753
143.341985952618 -13.9582067896234 16.3860785916515
-140.717336417249 -17.9326133381653 -11.7124324205379
18.3460623949899 -17.2942551309393 12.6435426215725
-27.0597561418067 2.21097880189987 17.6497646500787
-160.696580876397 -12.4063946675242 -19.7178274717295
-208.134556088562 10.6349590790574 -5.60802113257402
173.308675040761 -18.9161837656971 16.3035398221737
199.25980866563 12.7647325874178 -16.8226144618002
-149.794575753746 -21.0958856072424 -1.09045954806858
-108.907543028583 -20.8650520723111 1.3108086983534
209.021500999042 -18.0557899491669 6.67869190860993
-181.250033765763 -11.2422437173947 7.55304688681527
-197.603141570853 17.1790722337864 -9.03152845402327
58.7877867866497 -7.61879854619258 -1.58997733961355
122.400302964174 15.5860007377763 9.54471029926201
-135.429851002628 6.13935176668656 -7.19854034455709
-181.328354405721 -30.3429819668199 -0.246626898393973
-59.176653983987 -4.88886087638998 -4.35061652031695
65.9782313430832 2.15509963044835 -1.38860009409908
-216.008833529949 44.5144592859059 8.53262661912984
43.2510476716842 -15.8280903202238 14.7190279143143
-183.969071932367 5.1007255313398 -13.3684376371
191.450498470589 9.01902042341474 19.2403120111601
-193.460137013262 38.6912256210585 1.85335234504116
194.118055646211 14.3619803203093 -30.1950042923476
115.840633708433 2.86587831927122 -3.05147097173987
201.65184336807 -6.36497769100808 -19.3329233839636
-30.6512397257121 -17.555523665608 16.6497956708538
172.052166234583 -23.5730137511195 -7.76371943732096
13.2391756119691 -1.83105732964889 22.3952541938205
136.39774900489 7.3532990862781 -3.37941281712709
-197.435138198932 26.4152074550196 -10.6229956641701
207.578836400777 -7.53016306957373 4.42378904455178
-155.545940095704 -14.5644381717501 -19.2018271702561
151.541806653667 -18.5282117243085 -4.03512397342288
-194.297204337052 33.2680578128773 -5.21757748015257
36.2270598745939 2.72616664636776 -0.487922051740559
-177.732331940556 -24.6629751880022 0.918572630842731
208.983542625118 30.8076265221565 -7.54925717171589
-6.09577487813569 5.07203551432643 12.6870268100285
187.626192013061 -13.3176487349873 20.8148694846765
140.950681660846 7.28660245233825 18.3203081280492
-218.129370810075 30.4989929538121 -11.5606343432886
-101.756627338044 -9.0197734381975 -10.2112168668607
-1.07529771697595 5.21000892918677 11.6741966264288
-215.118861741897 16.7595342015203 -11.5690045600057
182.861559349694 -30.4718911274525 -15.555579081383
140.240892505327 4.1431162426108 -4.64638468147585
186.506111282169 21.0146296548844 -28.5469636607258
-29.1268021535209 -15.9865222336219 18.002867889603
-228.06678603352 23.5911904693593 1.72045911698286
35.3031219382134 -16.6066237605436 11.3660288287684
-134.144430139605 -8.84683096527411 9.20496513619032
154.329628327276 -19.0551643215343 1.25546160387935
-71.0632071735022 -16.6677858890389 -2.22567531323557
159.619356417008 -10.4376986978139 18.6030672786984
157.987408464164 4.69943650845162 17.9763406457759
172.799482170731 28.544647568338 -5.11896537814022
-188.43073820388 15.8678628629979 -6.77540560012989
-221.345278835039 12.9131602343264 11.7041221858424
199.032639146143 31.7128045537241 -30.9429415737497
-216.967942341752 9.19044603182777 2.84060425702216
163.606864205755 10.6593986026846 -7.76781259096347
-210.793042583883 44.6594002349795 -1.7696701823203
-63.8901489034028 -20.2733443847687 9.6899502984266
152.808872552799 20.3552840873826 2.05276205851362
102.540110174165 -8.89449993787586 20.3256143057145
-188.361363057491 1.15260535678724 -13.3787941316469
-137.970512411479 -12.2179537541941 -16.2580162507539
-181.278576350182 -27.6847278186312 -16.7332207861228
-205.158447306603 -9.78758956068966 -3.89374402581159
147.852859592945 2.57604764316435 -5.82107276045666
-59.3689905843911 -9.24503485710545 -5.47572804903523
209.073446352465 -19.6236291285838 5.96954415192478
179.539696568313 -20.4225421459686 -27.2068757042104
11.7615376991898 5.81292123638613 13.879384445884
-153.215943033849 15.2799408783185 -17.6908172525125
-141.517317208353 -19.4575656237622 1.8392534346975
-4.74366527272952 1.01282026477513 1.39988017020638
168.952357435388 12.2285670874102 17.0435243728293
182.281888205079 -7.3012383961449 -23.0405773910176
-162.611546690307 -0.510731463576704 -20.5500850635064
-53.2524206907483 -19.3841891522965 13.2484815703804
-203.93896513965 0.474168009330247 -0.293268316135139
-143.209182481851 -10.5244749030145 -18.2156002595339
172.329504254592 -23.0299462168321 -10.7928955935327
-196.931599934968 13.1319666208856 -9.65013195808092
-101.146377114082 0.222762349168672 -5.99366326796792
-223.447504640871 17.9108145956748 -5.40094751276545
215.851617543203 28.4682563148402 -10.7530694017686
-195.086775471289 13.8890525785304 -9.31442976305353
-163.482845554702 -23.6642400556599 -7.10742330529259
120.97080376118 13.5315987490884 14.7148250183819
-153.259636958574 1.09295086282773 7.30358627701218
-37.2941458394579 -15.7716046692624 2.60172401694787
183.880162814644 -14.670277931851 -30.6284568666358
-138.588598390999 -16.9622272338738 4.80420847610216
-127.905868581768 -18.5846150332337 3.95678774425051
182.992486328214 -4.78399803660835 -19.7573006325306
-165.815101701915 -16.8791975799351 -20.1469632350326
-185.062785345804 16.2861391713429 -5.6613276253859
-192.198031106489 14.807045224839 11.3833058438406
-107.687917102758 3.58866322709245 -2.33074684481967
-21.5164887132073 -13.4141551757698 1.51389105226309
209.085061073916 19.6997695799906 -28.3543027264302
163.05253783687 -14.5080484780907 -13.0743422654475
214.353824440524 28.248991243676 -3.31004785181358
60.4071816749209 -3.54267900370113 22.5346424217309
151.846486313533 -2.66706562098111 18.9273084077844
-181.1455432874 -1.89061079425988 9.99369363141709
155.66206443927 15.1640096910764 -6.43070385301261
182.659986416181 1.11025806780723 -16.4045710430378
140.192434931992 11.6824728239025 16.6610104843856
-72.7248232207892 -12.4447049291238 17.1775231880079
93.4290657714423 -14.6801146392762 2.52053722581273
-226.025039248244 22.5919498168793 13.5276557992584
-28.5416800519537 -0.968407130711252 -1.4182251404791
205.937448067179 -10.2485500452576 -19.1598585320717
53.1563896648568 -13.6929248227544 17.7407513009104
116.096763504321 -14.8814861875901 -0.00844981926874887
201.345473533326 -1.71747120816931 -11.4497466664084
26.6792532613233 -9.50097664263085 0.294682836751342
131.089897530497 15.5950749997468 4.94047736475086
-206.815132390632 42.9803060070444 3.02021236142987
166.345134973451 -20.2796353668891 6.61589321009015
-29.7285999645915 -1.25676766521257 -2.62275309056922
-186.227811758125 -22.4948361604589 6.05693523845291
184.072596939941 7.63232596520801 -16.5980638526671
80.5115716803222 9.33910865072849 16.4856035378742
-88.7329985436927 -4.97392399297652 16.0810963461759
181.716440843047 3.70724927066212 15.9583929044521
-158.280702889258 -18.8824531063437 2.3772870041125
-59.0296356696282 -6.20389080890592 19.5455248060269
-179.690640729833 -7.91580644619408 10.3955058906216
-216.413177400961 36.3445283424263 19.2314697322597
181.060150215816 -25.6984188001374 -22.0491687250304
203.863203085256 -29.6842913849212 -19.9728698609851
161.279668127907 14.4840545017382 15.6315764428265
-90.7009047544487 -6.23611663958301 -7.57064341176874
-170.286685016192 -17.7108193104691 3.16300177868313
122.673921316125 -14.6441242462036 14.3241691822221
14.4373159407123 -13.8237724917388 19.3899771799729
183.071187827435 2.73849310212904 -16.1440673519535
-176.066919436428 -31.2743301124326 -5.43455701652171
-154.094864527747 -8.83755735108157 -18.8378879597456
45.5893557484868 -13.1319404482077 3.35633799871131
182.930843818261 -9.68127782313748 -26.8730678733393
187.256932713918 32.856286701292 1.91120069420462
-144.544502252453 6.08198348390273 4.55259930183948
-42.2602266139576 -2.68049748720887 -3.23962160923568
-103.417881278317 -19.7802181321399 -4.49050235118071
115.020166388827 -13.3360553152515 -2.13697582916541
-211.123386077351 41.3186663426265 12.8368212617489
204.483317859446 31.8645966351682 -28.4722358906425
210.370066210519 -21.4996364040184 -13.3162125536384
-213.767113592806 9.14007774348291 11.4781580771455
-53.0571773978482 -14.1283246708311 -0.992145272218304
173.710205006001 29.0174976811479 -6.86515383494967
-203.779151842454 44.8520099351724 10.314382552619
-161.771191569616 -23.2825891944262 -6.6108882094987
-75.9531553199358 -7.87453785636816 -7.10198535592402
-47.2684913883153 -6.66431899512083 20.4139555708974
185.285010124749 5.06264438805499 16.3891376876426
63.4069331555838 2.42304081502022 21.5385778251551
-136.553550619217 -6.91057094004168 9.18520032161367
144.848716373167 4.90167975581734 18.7006240782561
183.505815283058 27.616610990186 -20.3671420177952
84.3040895399446 -15.4431187023999 10.0776784118065
205.462820560851 9.50898731178743 14.4655296168177
-205.573374646131 9.40921354946182 -6.56076350602541
-60.5577679465933 -17.5471668917165 1.00720267402082
-97.4936975800528 -13.0747331607871 13.8329749981307
-0.608205007973519 -8.11210400967238 22.0698635109681
-105.608656255134 -13.2570285189067 12.4590170246047
-193.202621228612 -28.1190028278272 -11.1118281914056
-225.040885105748 31.8233890456814 -4.51048497962155
-209.327486789783 -14.1931561954219 -4.93990723317756
207.723055921519 28.2363240612151 2.36230356955719
-61.9288379564427 -20.0017641098127 11.0654281653529
68.7316375535232 -4.57900393927262 22.3004107346249
-43.0034379402434 -8.14621066587253 20.5583097219648
-133.069364463687 -0.862080332611332 9.66827433272972
181.462950079246 -25.0524850165702 5.45557858851089
24.6115908449979 -7.99466475123969 22.0978006354788
-195.283782847256 -3.54764907931842 -20.2184224398515
210.274370705093 27.0445031662667 2.26899550381425
213.450751393339 28.9818767834827 -4.94734722611547
-20.8462292255188 -7.55430939375962 21.7165172058104
-184.439695623078 -9.05270965309037 10.8773175136435
179.513473443567 -11.9202778995726 -25.0143347123037
-167.506236546331 2.19769618433089 -20.8151340475405
-170.116815293134 -18.4962186115587 -21.7306621069219
-177.019555579808 3.72766474386325 -17.1855290555848
-178.254858425897 -20.5163682668827 -22.2997143926258
-173.190762063535 -19.7656141384306 2.40720331054071
179.886591359739 33.2070978907281 -6.26926706447184
-208.215164340073 40.8523506777161 -7.96693591289844
-169.226166132686 -24.6015299046645 -2.91102888891841
207.088558018141 -30.9765473242423 -15.9611050897015
-199.337573722845 12.2610463255805 14.301134681125
-134.661236373087 -8.67156676373388 -15.7250240366152
123.290924822929 -4.57163102295902 20.9040107429828
190.163713755595 -26.2696845749939 -26.9995330739161
-196.254296193487 -23.1598909631361 5.86069875268334
-39.0179231252027 -11.6392356288238 -1.26345620939966
5.11389221871678 0.616839974899503 0.0776195595919557
41.2794262599182 7.13862261305064 15.0272467984991
-207.898533593536 6.07642406816638 -0.275474823374247
-132.078155563723 3.42047808227208 -10.9597231160309
-158.456791774216 -22.5484456085736 -7.65389853426196
-136.714152496452 -10.5984417189057 -16.2281600557663
178.539691442454 31.937349779336 -4.14306077515272
-85.3399114600972 3.15721330618755 9.1394380602352
215.245182032575 23.9755228993825 -20.2501934505955
145.845339029864 1.40744285120208 -5.84043983947472
-0.68808278094885 4.63151488640631 8.19311445055706
-154.188574859165 9.38242040906996 0.307738117025548
69.9204803372737 -0.171908683055414 22.0718752401181
-135.315734671355 -6.94744082958085 -14.5703918898637
183.128377856764 5.34445886756641 16.3690162122705
216.390332813247 29.1550938774337 -13.9847031852157
201.34492923972 34.5586619855881 -3.80627764253948
-158.133941079684 -8.24940345362212 -20.2564254527012
208.284745456327 24.0741968708096 7.21106120344918
-224.004885099666 31.18748432176 16.168908741344
194.517939877098 21.2997319473582 -33.4535313630139
11.9257943054941 0.557700628519491 -0.306560640083613
-181.348926954895 15.2270672889082 6.06409702637683
53.5238635003991 -11.8347800934086 1.56639673093481
211.348783826581 31.5302100622544 -24.8645971659315
-213.389150020346 43.2926535999698 -3.37082543610582
133.489999124553 -13.8208073188244 16.0441113178309
191.559592082842 36.6469833731166 -18.669912206744
164.39183158036 -20.5049421770609 1.01831771696087
192.607115657893 36.8953720838815 -16.218228496226
-211.711651736276 7.49966319068858 6.27713187477546
-206.550490925742 -11.1451683250589 -6.79477300187252
-137.720258306198 -19.6201103375832 1.72923755615476
-94.4067991454512 0.614300361403724 11.9235239732213
-177.812689186782 -13.387847001714 5.0988939184956
-154.402989691314 -20.6009999376522 -11.154453847469
172.7633902479 -17.05317961102 17.6324660397052
-223.537680416465 12.862556320509 1.44833162748178
143.050692650072 -4.24251184436823 19.8336864301185
-120.052932984024 -19.8869504506021 -6.01084441774644
-88.6167564828824 3.49489836540466 8.08614432727667
-213.533486370574 42.2879266093734 9.02736253673533
-59.2975335477715 -2.57272880909446 18.533683561824
-203.106417337209 -22.0030679588256 -12.3898526796102
-213.75577636993 24.4654440801545 23.5298746317612
198.947602948042 12.0070288079727 -14.6652427606765
-210.692780505224 40.6034810126761 15.3916500386643
-132.266148910744 0.802858842378744 8.98060820420252
209.880087412539 -26.7971665201604 -8.40091751304476
-123.161427142888 -19.4290824535322 3.16917097512894
195.785634573626 10.3950043062677 19.2109163793786
-160.578933553325 3.09244865449125 8.87690753926499
-169.828363634268 11.0259504621543 -12.5403653408725
118.791752898779 12.5843349518236 4.17663589275841
60.0959289010727 8.47306921159956 13.6733427200052
-109.990026766702 -8.29466666322202 -11.3647128239227
22.9422788023653 -5.38351997127737 -3.27164013415701
142.283049781918 -15.5127702389686 14.1713076935748
6.20554925036043 4.57075797747686 17.4148835356545
182.117714799047 14.8995027744673 17.9797547853655
207.576418489298 -20.8914744327378 8.94087456095137
-166.202356853207 5.25048315082149 -19.0480812058457
-132.315429706029 -12.4924865129369 -14.5481804471394
118.160421028907 -2.00049108097294 -4.5410333087105
-95.3223591990061 -10.7954762062387 -9.36300971634565
-203.758935182973 45.858186392887 6.56773390364137
11.5389507966718 3.44249596462179 19.0161240062881
55.3413655345778 -13.2062340193905 3.10857340418035
209.281917272066 -12.9794262352603 3.98738282440523
-117.677233928836 -10.5412093481262 11.5833547550292
-61.3285003906843 1.70596405134493 1.20641904429739
-118.819308597856 -18.6278933400685 -7.8040780491061
-195.482729507109 41.1418058142202 7.41463676785924
-201.133755699733 18.6500767290995 21.1832208823096
-196.027884372854 -5.99930852001589 -18.4464172402843
-74.3250398045501 1.29561879380774 -1.02170504053259
-121.617640165537 -20.7175643236308 0.606348489713342
-104.130681271289 -3.88992370564976 13.8127062402974
-199.94996413063 4.82471525724079 -8.83289528305453
-165.132790306926 7.06304599670169 -18.368729107739
-57.5799504305114 -12.4955887148228 -2.89193026710106
163.708937936276 -20.6461354922857 -1.66996901347179
-53.3759841014084 2.65320835183979 3.72904670614449
-186.848509957805 14.8805928552795 8.75857040447049
164.004639504891 12.1186682207767 16.7655596358611
-63.370463914418 3.48647717099854 5.11110155622468
-204.7235997816 41.6321723483818 16.5210064025745
197.143852875466 11.5548546945098 -28.6370102029874
95.8291149634013 2.32325215179715 -2.20864649757178
-179.815911099663 -13.8716179216566 5.15842305709059
-174.770866080289 -25.9545472839351 -1.27853944840085
-98.3144704947688 -18.9228558647927 7.73274347507192
198.456955601549 -21.0427399161675 18.2864907206129
201.427098928586 16.8333272504294 -31.677331652049
195.908613646973 27.6056809437258 8.5893198352869
39.3961707972784 6.66575820714807 16.3932855639847
154.218601251029 -19.1918168748766 -3.32245416096665
184.701778738509 -8.36351122104345 19.2126240673698
41.0074969214089 2.34538858357059 -0.282155297716252
-209.254078791701 35.7117000934773 21.1356745335344
165.18514172787 -13.6779650828225 17.6961652669577
-195.037768265028 -6.01693641910784 -17.9168485845275
-19.2795510814974 -13.8180704185909 1.99036842871098
-227.053175398325 29.8089789065163 -1.47182848310135
-206.160018104045 -9.31368490014304 -1.46514492648772
-149.257380005686 -21.1754363512851 -7.9624635072319
69.3879105105367 2.21591787726825 21.5160312548683
184.189382497192 -24.5545677689241 10.6396957078077
-22.6800459448115 2.83206142214974 5.27457679300313
-71.1599122609494 -19.4805650291304 2.13584415180761
188.288667433281 27.7878134118251 9.45688116393215
204.678281362021 12.0392778588887 16.9364864113997
164.572984074371 17.9743413609971 13.7355693507768
207.256215261538 -12.4654106116067 -18.3354204183677
-205.311875437112 -12.275911349092 1.83128227450831
-147.847652888528 7.22908389459239 1.58738637827691
-195.824707484971 -22.8845404866571 -19.6983857449094
90.3215846587997 9.96935314572034 6.62982934504991
-191.409598898849 10.2610413498845 9.93112539593632
-39.2715394570382 2.90318665710438 5.17828774573156
7.48791383396552 2.07113491777996 20.1937485084513
-224.202363564264 37.0158007164304 -0.839264398110484
163.582025857985 -5.7646987355129 -10.5460191390358
-69.8167809455995 -10.2890825218496 18.1739260839195
193.874897745671 36.3341617101616 -17.3358173325166
-193.472967700188 -22.4335767794238 -20.5950579204631
151.373432534028 19.6162512989569 1.12877313211076
-42.239581986856 1.13345194625413 17.1349512126926
-152.149528414872 13.5206312165336 -6.25044320020812
-68.5212555784343 3.74371446030297 8.19718608061631
206.412038442063 33.3191261488309 -22.0309345196076
-219.085275590149 12.2621352820746 -4.9753044858324
29.9985750014176 -2.30234302002447 -3.25228110884045
-136.192454517162 -2.04882529386254 9.45819001093365
-210.728671948574 -11.2235558803005 -13.0080400090699
-136.825488103473 6.49272121092145 -9.25980817468783
209.952901935613 -14.2160518481884 -9.99252969232299
-221.60030289969 34.801261469772 -7.04563710449857
187.441559236457 32.1848007397072 -26.4884908835364
52.1669084086925 5.90188673691199 18.8288923858284
-176.630095029849 8.32074374751668 -12.73677724585
200.364471264503 0.127414706694171 -9.60925722514873
188.435725933849 -28.5832122639648 -23.587135222336
-62.1018405940482 -16.118222163013 -0.852412042765656
85.6434876600382 2.76823259007513 -1.4498933487615
-196.767326480634 -19.3694798558652 -22.7681239906575
-162.104272499619 7.09437906577056 7.72280277234513
-70.0893950602738 -18.1265243625167 -0.105482102903967
38.6685179430489 7.09872777045164 13.9792205295591
-190.747944264551 13.8355950533765 -8.55214833870861
34.0735114418674 6.74034536426354 15.1180825801372
120.831114766737 12.2027346670092 16.042738722238
-103.710182107493 -11.7111317845228 13.4859843741155
-26.5105134049592 -3.54146912199342 21.3095710148072
-135.585718766866 -20.2934902435661 0.561581154958008
98.0001509915089 -15.3622626742222 11.1625526473093
-143.63726340301 2.59723385004372 7.16796014430339
-7.51750361266991 -16.760756541979 6.16042832257843
-180.035968628426 -0.234814741925677 -22.4973927962098
-218.421518751493 17.4049139275614 19.4445497338308
-111.952292895209 -21.0433010214664 -1.05597731011427
177.124862931352 -11.9495980796186 -18.8070734391046
199.959874941272 9.34441053966694 -12.1395792229698
89.8360079486696 -14.6805080399406 3.02391413401726
192.176180894069 29.5516442097955 6.71023356757956
-116.794727414789 -18.150363203808 5.858160734529
-195.321272109343 39.3622198383717 -1.24768749125819
45.7226886054834 2.91442902172516 1.18743767361524
186.406776371665 8.95187956796109 17.5185003959495
180.581635541156 10.5628132721718 -13.7446332516761
-161.800966174562 15.5377612363764 -15.6646008882372
-167.364680243054 -24.497745573708 -4.32004609075458
207.873041247338 23.2822136330083 -30.4985735169793
-9.41439620756886 -13.6009364178557 2.34478956919571
164.801178064291 2.91168032462149 -8.58126367823738
-187.259293096507 -6.60722959164975 11.1358728862786
-15.1035520767414 2.05460946803417 3.48634468089802
-181.745170497675 2.84267290313188 -16.2826220025303
28.651231706436 -4.04379082354953 -3.39286889583782
179.030240373563 -13.8451080002198 -24.9790223695826
175.616638729085 -25.4580761487241 -10.8723753869038
-123.749787853498 -20.7028905479774 0.364940644173974
140.395482828831 -17.5356211340863 6.68564641653953
168.90994709108 -12.7301223521842 -14.6814794994839
44.1377503365926 -15.922756044982 8.85054244261679
-89.1665143996067 -11.6304605187332 -8.99411239138723
83.9259622844938 1.82253514647328 21.3717420626771
-188.390247735174 -11.9807388256352 8.98188239952213
-7.91459301655817 0.859496543456059 1.32087507886991
5.07245219450244 -12.5439478560086 20.4707342266544
195.381497432431 -30.7720847217831 -7.83377459461123
-119.821485865165 4.38565462644628 -4.25712964778939
-15.6334124469427 -4.45254767205395 21.9922771255422
192.028063968472 12.4216943044913 -17.7962268606093
184.34306523494 13.8614077608376 -22.7881168426714
102.312675851971 5.28529282168868 19.8562453465424
183.823526143827 25.6433754688112 -22.9876537670194
173.611744365727 19.7060424513378 14.852865566356
-206.012776073007 5.1240527972731 -1.79947793802218
181.637897166667 -23.1095617284464 14.2429390368536
-183.145257933035 -5.73346749243867 10.7903368350122
176.989153444828 28.4930068060259 -15.1504090648767
178.401648393216 27.9348542057643 -16.6979138612333
20.6236945930631 -11.0544341988667 1.26754948805943
109.755946457651 -0.733247132136905 21.2513583136221
-200.229974326349 42.6984353545424 12.4948127990097
199.461911731277 10.9854254823995 18.2129963161063
197.908397203154 21.88593292513 -33.9182983514767
179.686029332949 -10.6673258499259 -23.6402813516646
206.49735995691 4.3717223404322 8.6352991887467
-214.181554430515 21.9280583232322 -13.4022411788837
-153.305047319371 17.8060693802978 -14.0646323282696
-225.956173759771 35.9727743768966 5.85522971848474
140.636986306702 16.7712707878207 12.0081203458536
-206.929717120825 34.0292748512348 -12.6396707872064
-180.257470884067 17.3161154590393 -2.58626295031941
-192.268761527603 13.5512487490408 11.2546014062576
-178.332410432798 -28.3408736650788 0.065076598473794
-115.775087089196 -20.2507214444996 -4.81315645389498
-121.546454269547 1.88744468932937 8.93246312606502
144.405228323976 9.97615994356571 17.3845092708362
-2.65457122451271 -6.3509782709845 -2.71025013124927
-134.917145935726 -20.9492333875837 -4.1759062077028
-183.399187310342 -10.9161927935151 8.4775709983842
105.164094016589 4.3239153910701 -1.74186677165539
-82.1292056584529 -12.6669749065722 -7.3928933488458
-93.4900230078075 1.39439017521101 -3.15112757907878
-123.75586316982 -0.235433457816319 10.0447343883388
158.978796550428 16.9472617912142 13.8114115544524
-195.66555704951 -28.1119775170284 -5.27831242446497
194.489961942539 -29.3824629186244 -18.8812762208833
150.905627161652 -0.825233326750941 -6.92334184346223
208.620296693711 -27.838310689212 -7.63452314127424
90.361499561779 8.45390397729582 4.33698584468204
74.2318462776858 9.94857112941267 12.6120460446238
-210.955384929499 10.2517923159937 -3.97634722000016
172.738727580594 -12.0197096605135 17.5613547089403
167.534657080363 7.19660485867816 -7.9716316119457
54.8343418657238 -8.48558922275368 -0.96717094585161
144.626263529073 2.39582120757991 18.9945981940745
-150.900323554095 -9.79862794805567 6.553748043418
-30.3118474413904 -6.89577376280026 -4.32615362392202
121.705391808598 15.2046165488951 7.52552908796338
-207.716727945731 8.22680076485971 -3.95358425388366
161.929087339568 16.5148625454411 14.4029372580089
-105.336376863229 -7.3121291743932 14.1593961185804
-173.554832149573 7.34012500197224 7.35424259272505
-52.0343205273964 -7.02126064201957 -4.80663559895921
177.476457351744 11.6108322496647 -12.5000230016632
-173.274921968647 -15.6049153759351 -23.207630383457
-195.736853059605 15.5185856654192 13.6823492322855
128.526031221779 13.6254834861319 2.73428981151666
17.0259405164148 2.36709686357982 1.97499750829616
-177.312238624289 4.97869828254875 -15.6481084152502
-216.809454486677 43.9951719112324 6.07705744818891
168.824459840598 -7.80702514868132 -12.1791792361914
-6.13630377519562 -1.40265157630707 21.6804730982161
-173.644941240592 8.15509274552612 -14.0572785907429
190.640411529597 -31.0455920027153 -7.26651387667273
-225.097667549178 23.278133238066 -5.60088481762641
186.681415505103 24.9805071875376 -28.9065202290501
108.311760723688 -8.38721508488031 20.4513692353677
-31.6095848136366 1.46077783960264 17.961647476356
142.826310613867 7.77112499719558 18.0798508940792
-200.592298077552 40.1269311863314 -6.29810296059724
-132.332156410766 3.98135273192846 5.87606898341877
-88.824434680759 3.87658655859456 4.86456597511379
93.0214347274776 -13.129936444747 16.4696007867842
2.20242084176203 5.32003747582852 13.3685876539716
-120.969879054271 -11.4841861776789 -13.1484329641641
-102.57611419905 -0.744254748476188 12.4336461777708
-126.975154774688 -20.8026563800862 -0.237061839522001
64.7053580573182 6.88321373145103 5.68888174545684
-191.877665633254 -28.6400898424458 -11.0448103616266
181.254431844715 -8.70978885917609 -24.065201562388
161.745928365711 -18.8913968095107 9.74732978247724
-200.741424637415 8.32507821882869 -9.31362500570655
-204.858538980207 2.22122399173028 -0.135521503429002
71.8779467656662 0.662418669222842 21.8669792205794
-193.876525941038 -2.48266474105812 -20.6756117111352
73.7498045780623 -5.81421203650994 21.9997590429542
-196.077207492333 -19.3510359672535 4.2040163832684
145.184791388154 7.70641053215089 18.0205613962225
-168.062763297347 -10.9413127322144 5.00797451854943
195.734384573654 32.9252775374381 1.50188838171231
215.023591382118 29.3070566803596 -19.6043065366056
-221.193142155462 13.923226675659 13.748131182654
-203.947267949287 -0.779957209618358 1.6296213538033
-197.617811679457 14.2418860489276 14.6174813434274
-167.802098144079 5.62354140143653 -18.9484773786927
181.222506846047 6.60987881790734 16.746917441968
-99.995883885969 -19.7706770027967 -4.02853809159249
-172.99499641309 15.0402287393862 -1.0574134005449
173.065665374067 -10.0052921729363 17.3636044706087
-162.582353520992 12.9308702396027 -16.3479500914051
165.107908285978 13.6312303711662 16.3477880541763
194.49426345884 -1.00864177081657 -13.6715354836977
-91.876557122983 -13.2684553629161 14.5872191899773
163.909278248195 -19.7322321230236 -9.40502470098552
163.368384259433 15.4559350774174 15.250190019459
-13.2222517416545 0.564275657703288 1.11802566057183
-203.824632140215 -12.9405661104694 -25.9809085412349
-161.642418048725 -15.9940384822378 -18.9146251627885
-204.973729608339 -2.90814184563417 -26.5034645755556
-98.7580010707984 -15.5497311235598 11.9013562898955
167.210221584809 21.7279155616821 -10.7839934328548
-8.13640700118963 -17.9101628731702 15.534642996459
184.426275083718 36.611892218323 -11.9336069906448
207.430058527712 -30.1171192344179 -13.384036711588
197.646803118806 31.3642641634721 3.66400827991456
-204.790973290673 26.5227390809494 23.9018120405552
147.99279599655 -13.8897311426386 -8.07085679203255
-174.391556116184 3.43467463959971 7.88721551801884
80.3925820170983 7.51441566883696 18.5776317555283
-32.9557824969109 -1.2492616395169 20.0451404780216
199.663126349825 -25.3153918405747 5.1097552258948
37.680603663239 6.85953346523526 15.6669141885837
-18.0621532279569 3.89031985443564 7.56945762966826
-203.919301565547 -7.59770930442235 -1.53159985625388
-39.5143643379024 -19.2684485290628 14.1882404950411
193.266332261599 -30.8658123732883 -17.7842473185326
-10.7501262785589 -3.39273734809453 -2.95044485613377
-138.017632626577 -1.25824990774152 9.03734104157632
-71.3939338086021 3.13022209559889 3.20781242474793
178.733432634038 -8.56569342226907 -17.9150032559473
204.173272277409 -21.9517179207757 -29.6716338034641
164.217321936968 21.1514078293996 10.1978519458397
151.223445500735 -15.6649727724093 14.7193305594264
-158.817967055303 -21.4751873199446 -0.825120091542721
-206.735488891541 10.5344638208353 -6.70698918428377
73.9994814148984 -15.5391917124712 9.61618778837916
-193.53521163374 20.7289135895285 -5.82148642149081
62.8658166991429 5.52796224783962 19.7035512394232
-179.420652993397 -17.9433967951672 3.51924344271146
169.001605403261 -4.6787019982446 -11.5022315850657
-110.383577492139 -1.96140855587217 12.3802624173493
-183.129564756428 -18.6790092856094 3.46164952225564
34.002464577953 -3.73981837565711 22.7355861953577
193.93948480027 36.4212934875324 -14.6811082945939
191.508108784863 32.2172360088822 3.33672743982334
-175.657809061604 -29.7158624621599 -12.3379551412691
173.600212982252 10.9678337550782 -12.2110821250309
-76.7370687807972 -9.72712572465323 -7.36973463104481
143.79225064758 11.8667071810763 -3.20297840163215
198.939327912715 -1.48335949765273 -10.2741712141981
-185.979806232292 -25.92535159086 -17.7604681400601
200.575974110972 -7.735069334073 -22.2853454538619
5.07740263068529 5.12876285830757 9.39279038622422
203.254252010727 -28.8336183331871 -10.5182384994386
-105.164328379874 -20.9865486358483 0.692659728925687
-189.21008147345 11.9154964256489 -9.02040121089416
-200.846534126203 11.9369148274697 -9.60101488678962
-192.095161919165 0.0199742567685304 8.6487286402199
-186.189115513426 13.2608624916844 8.50405308950486
179.279132931333 1.06397603415183 15.7170929519526
-121.430460060257 -18.7673457723433 -7.8896531354055
-195.033084301613 -12.8229058368083 9.59361527402416
-73.6596437266617 -2.3067925401631 -5.44607930260235
214.508386935054 29.2092822209166 -6.78426085451956
32.4245445936534 -11.3252933524632 1.59451433672647
214.205296512792 28.5877647797535 -22.169832209179
-203.812806789353 -9.2760712673433 -8.56969279543499
-188.75597785221 5.04461836704941 -11.8253233122666
-154.183501346649 11.6979317165302 -5.11482158091789
154.073844127537 -6.40212063362593 19.1212048373129
-12.8258691256444 -16.6585045976627 5.5996821306775
207.373909716147 -5.82711690303775 4.06778138367364
178.013799848211 -0.94980647128679 -13.7204036726737
8.69137214748319 -17.7982148680483 12.6280379158818
-205.583376977637 -9.56055672937847 -26.8030454802821
-115.019922360856 -11.8391652334462 11.559806391311
192.550217834051 -28.0090933224478 1.02138051417468
-181.067925997438 -31.3427216346711 -9.84623892619633
157.027422216686 -16.3018359866024 14.6274622846061
204.364695351858 -28.7621358330182 -17.1498045672295
184.321073590282 36.8943723079827 -13.7578633335093
-225.102342727579 25.6420094836117 -5.91690332478747
130.750394807171 -8.27241352854453 19.9148180463395
188.556697245283 37.8417621773704 -12.6405403551077
71.8484207536962 -7.87972076016171 21.4097088149054
174.564174841521 6.8061316778234 16.9666722845077
-189.346673713943 -31.1808288569932 -8.08917865940746
54.9406965067913 -13.2854132984377 18.1145803946668
11.3737901524192 -17.536722789995 10.2382300207652
155.937701215516 3.13922530732489 18.2626631420615
-187.056962510369 17.1320936512057 8.8098336409132
183.436511429387 35.8615424376166 -7.79545731678251
182.817659277149 36.0820119456192 -11.4297885086276
-1.55661475734008 -12.2152704615138 1.54949625735011
13.7102725069506 -6.43526361801941 -1.91259057849013
-218.344099677122 25.5246744184865 -11.9231676480775
-207.535649872024 38.1303726048083 19.7482586160856
-152.309500852976 -21.7322338618935 -6.99537523303672
-68.1378202660304 -4.58103815418594 -5.55387550594988
155.098642296419 -18.9294366351265 4.46864591668777
166.122175669806 9.54953589089572 17.0279871350254
125.356708639102 4.80823373821361 19.525057441398
-106.568498074477 -19.5644944767185 5.11293916944059
3.29380363953353 -3.91029365488999 -3.29911251971329
-117.501133386762 -1.19187054092478 11.0716651663129
-26.6346630540721 -0.737367872865857 20.1915770776088
204.614469236619 -8.99347022181006 11.1082734401214
-164.015110766358 -8.78368482717514 5.33864476015042
75.5455963192649 9.06831911944424 16.350794217041
-114.331613210143 -20.702756036291 -3.45130193669483
167.033402340872 24.4213686002475 4.35655190890595
-216.694922380596 26.1726850622933 -12.7960146957547
146.697513621685 5.97383392159519 18.4019410394325
-140.751055804646 -1.62627470173391 8.75771585064205
-65.3178386707513 -18.6095782548727 1.5867517079735
-202.089116640268 7.73088949058209 -8.25451417302198
39.0930799224346 -16.4295016525275 11.0247637631615
198.4257237998 -14.7911454494676 -31.6690869730821
-176.782415060987 9.84949523278382 -11.010556222125
-195.867831264912 -25.5013056765584 -14.4253479969089
206.722937827879 -20.3591395186957 10.7556364467036
146.004538584347 -11.187168687727 18.6503113847117
166.61319073674 12.9923606298448 -10.8771837865425
142.90582081228 -8.92081485647783 19.551236876957
-205.015365327407 21.8343913769907 -13.8126206517295
184.009173987112 9.9354102016378 -16.9879768177385
-196.696749900149 42.1939161880165 4.73930410727045
-61.1229156702983 3.58823838779362 5.62951011683776
-189.58755874793 -29.5187509237801 -10.429473419191
-165.285855784999 -18.6701381546872 -17.5583616884771
-168.503529539226 3.59322707661242 8.12698775070797
-185.101720728494 -7.16994240552967 -26.5665865750515
-215.892637671027 9.48677724286032 10.8917345940095
-189.800896372461 -30.5120991868105 -9.3238762028878
137.582688629386 4.38754682158809 -4.31699479017543
-155.058901947555 17.2923185014543 -6.71748189787095
-196.437330388446 20.861471014821 17.8940720466027
185.38639883128 -26.6288326994681 3.81707139667677
-85.7062187456399 -16.8838217322556 -5.00079411907484
209.632110067811 31.2291844671024 -20.9906827595111
217.22724623876 23.2206225658244 -9.56745967462447
-126.454820127736 -13.3849965633181 -12.6780016730459
-203.248557117267 12.2456742557699 16.8271334602626
6.49345002698608 4.58344502948461 6.89261618574287
170.339463479441 13.551080570346 17.0130494010337
182.943600692139 23.9564091405521 -23.5088710234867
159.676381787352 -7.44143146985481 18.4921125146389
-5.79672620245105 -4.59848393492087 -3.09997394336955
154.198204171882 -16.7977766297814 13.1628052020502
14.1462730707163 0.669821137270786 -0.523224635850635
-202.673027337746 3.6649948038237 9.59040946789712
-170.950579218852 10.381094061373 -12.773732929632
10.1566074890291 -15.8820696514771 17.5530083421351
-198.943982504446 0.824041940723435 9.23061982575259
-197.061843065114 11.8729560564069 12.2143151740558
205.463812218082 31.3157560885541 -31.0589579076176
-138.048914724933 -21.0586204305539 -3.83641616152545
-130.002706385363 3.72391296423092 6.3344869472238
78.9556010585756 -15.1427316715629 12.6087780733722
95.3610950698103 2.55371097155022 20.8360929087422
171.693031781226 -22.8862224877049 -1.92171299983065
183.703165023436 -25.8024550052696 5.10838757557522
-223.926144590837 38.3819607928094 7.92842848799453
-187.222447677767 14.4779455587698 -7.43725440804074
82.0691028666753 -7.872158681515 21.2590978365846
-138.801160798235 2.9038287740878 -13.2697870999467
-91.0605040140294 0.457020718425767 -4.17572317507987
116.539697681976 2.51456909188076 20.4310330721157
-141.008719017776 6.67508426358622 -0.446801268702049
142.390042549907 10.889993916142 17.0008934216766
-198.824135265074 16.7845265938866 17.831448680408
-110.184644739398 -20.6327423565662 -3.10070079527163
-80.2813242916201 2.87702466688755 10.1668920188219
-163.085556525177 15.7188433226658 -11.2742897121202
-203.703865266518 -14.7646922594662 4.02659634091273
-210.745761184952 -7.70952295284681 -20.7016757465981
194.592828261778 -21.1997444901711 -34.0811317446656
-63.5843148888238 -19.4392870167336 12.1382172603425
178.004815073789 32.6071144276026 -9.99926603116569
-109.305213952421 -4.45694324007748 -9.39891141618839
181.673292368023 12.3910168436871 -14.7409730343436
167.512238767758 25.380576684255 -4.96421340948911
203.530677579461 -28.6371903644955 -8.68138635632702
192.565085591428 -30.3790596741266 -19.3152971847676
152.163828484724 19.6640032232095 8.89375825708261
185.085873880814 29.1182490271179 -23.694431920735
138.971476459947 -6.35529950311338 -7.05150443666133
-198.879435139024 -13.5194803906886 -25.8264343549631
-156.304532419528 -3.75531086774848 -18.9010632475327
-170.517443131223 -7.21614180099472 6.35436218926928
-175.78355910559 -29.1245868331462 -8.16554400211735
143.809545221989 17.7370575759413 10.8204828265262
170.654466388394 -22.8715171301047 -4.15716738753162
-92.4204658223471 -15.3898786288294 -6.90445667516906
-122.082428976331 -15.2019950627877 8.33758134188878
182.944594148022 -29.7343098587374 -6.57367758657699
192.213930378898 -25.735463786714 -32.8120030508941
-190.309433838657 -23.1807408090393 7.84900131497898
-4.91118341953024 -17.8086706725126 8.35539164755305
-211.72629437954 14.5020346630538 -9.89681601783736
179.017571302434 25.2296567579197 10.6018598566703
-155.40341928556 10.8155317783472 -2.7656179889245
-187.609130173747 -0.854847356150098 -21.0326417462256
-176.301507121013 -20.9216763260112 2.31472330705154
182.571542100141 -9.2377398458152 18.8909049018287
-194.306404390973 23.9797544817424 16.5001517373419
201.297773815692 34.0706763675785 -25.7881753956954
-126.749610412824 -6.5465698425478 10.8130736840893
216.220468308493 25.0931149902874 -17.2776753991332
170.89663821022 11.2409224548881 17.4551411174272
142.73284819399 -4.8926639354965 -7.11945033101177
81.2770775210945 -14.6357986801333 14.2244261990275
-77.338319715241 -20.3843256968654 7.7167252468016
208.088385281361 -3.74812287315155 0.0866952874947108
43.2785611902465 1.11472978884407 -2.03200771816238
-206.706834318745 22.7122992605066 -14.0187302911357
-58.0544816249641 2.35531951077425 13.5477109288992
188.868459965649 4.59239235882453 17.9942308531021
-73.1824669113785 -1.04609052509114 15.8715186365762
-19.4551457663142 -1.34021853441042 -1.41844900201217
54.6369578272259 -2.185060518686 -2.64787848792009
-226.563504032115 31.8614507490056 -1.2990295617856
-164.410242028073 1.3713431390427 -20.5647708806317
-207.446587253507 6.71581787552294 -2.18458297881782
-65.5555751610483 0.980442013666731 -0.537018469795106
-212.012978297884 22.8450702631782 -14.0958244713828
-155.147913201004 9.7072863064984 1.74296839851448
-201.690381689324 -10.5168550199114 -26.7694942241567
192.766823414251 -13.0223646782068 19.8914394494521
-222.137673955024 40.5910393372118 3.23084714370875
216.13138424538 16.6739441661271 -6.49931595010005
-158.362031335 17.8515674273019 -12.5558930614772
-144.317604751318 -1.4574085115145 8.31834808760726
8.06678160939682 3.46118163943204 4.15685250937518
162.687220770943 -17.1095588212777 14.5221936071502
-214.5779388888 38.6713968497488 -8.90544662211873
153.057737949001 14.0556060271748 -5.42333304936723
-190.108138271193 -21.4514109409826 4.06871714174177
-179.605871132652 -31.0092537578396 -10.2714166723408
202.832026023325 13.0550991759967 -21.8277284256473
-180.861570692451 17.8154962755442 3.19059336235891
-4.43631312793789 -12.5480696583236 20.4558318954036
-158.129753446765 -5.7162487176187 5.9741389317367
-142.919403242316 10.440079899287 -9.40156140534042
-175.09784522242 -14.6845528325891 4.17102288017393
-194.987819686131 -3.48834779197526 8.54550361084148
138.773563416956 -13.7990312046323 16.3033782660372
-17.5369918809448 -3.23504727813776 21.7193996678889
-43.4618559722371 -10.6394515573827 -2.34904729884158
-196.450169432056 -6.88256567796483 -18.8018210923484
122.719565325951 14.1361564753337 13.943115697064
185.559207688732 16.0507078743345 -26.7207911742385
37.8152424112209 -6.18249323921601 -2.04275305456494
-189.893164245878 -0.938703737205044 -14.3281641730457
207.935797818907 -1.23419380905402 0.2432961440791
199.483374675488 29.4244050445436 -33.5412406455501
-208.25179678706 9.24289731186846 14.222305917993
56.0033085956351 -10.4872410768562 0.366721213930652
181.876452820082 14.4168782456708 -16.4305346556621
179.943088874312 6.58022021618491 -13.9149822088127
4.53411736597815 -0.915382550114474 -2.32296557197446
204.616040188543 32.9780850067149 -3.60520651746233
167.027025031757 -12.185052850968 -14.3729838296086
99.4345292848043 12.1972515778225 14.3359108044062
-130.649043046542 6.09539441919282 -0.803053270684008
47.9840834876908 -11.5463632403825 19.9760626355016
-161.81799313037 6.22891435002767 -19.2884680988171
-128.935388564201 -9.32407993178819 -15.7719039175121
195.980887568922 22.7885610549362 12.9944132626624
-181.98763684562 5.45023338223962 -13.1907372780806
171.972374387775 13.7423345005934 17.2432530433508
-149.555963227366 9.21765827211395 -3.85550937071533
183.897858151554 -25.1778536743731 7.98839691502977
-115.382358544847 -6.67920336797063 12.7213166150944
12.6396054924214 5.15374103596843 8.22077263034958
194.760059059861 -9.98980342003013 -28.585586957878
-102.085728708597 -10.3927215101933 14.2229407909527
189.547565074051 36.6172318888094 -20.2992514261678
-155.557615004901 18.2825704458836 -12.713647343552
217.197216688724 21.5878138505384 -7.43185602977539
206.035917535873 -16.6466850999768 -26.2968138973306
206.753008350764 25.9195657689926 6.02438294198866
194.091878008431 -5.52161362426638 -20.1872260932963
31.8373353418988 6.53261599393328 15.5814207023445
183.540224797336 -26.9721564857423 1.13156138503695
171.103664985844 -12.385686745119 17.5691348623207
-174.052359019429 9.59346136549815 6.41551450456162
92.9422560801768 -15.5424751296364 9.20961307572332
205.759646630025 27.7765218088776 4.11347344804649
-49.2127829504113 -20.0159061508993 12.057200085203
82.9690662830919 3.6644736035635 20.8239202964723
-190.629805797299 -25.8318574196854 4.07283500044497
-150.18575761112 8.28240618679089 -1.81807216701925
-150.024554708585 -14.8577430608983 5.07401931162021
121.201409851686 -15.6974819170231 1.0233465726181
184.088583117591 -13.9954723088829 20.4455569622153
-193.0957372678 32.9106149579528 -0.102787020636916
134.542795420896 1.71707082797532 -4.70980600573642
176.711061497764 14.3960222061969 17.7867149222251
-160.794143756218 14.5469300528935 -16.9659540258007
-188.262768194703 10.1646748106885 -9.61566089536955
-86.6231960723824 3.61866776527908 2.74043478373901
-226.842602931377 19.4414206992752 0.712990079037989
210.011000962417 9.08296527685383 -10.4309799171199
-146.57779658624 14.9627146984215 -11.1853769176756
209.47159182972 -17.8067054914951 -17.856032140402
65.3699697332964 -1.33939596063607 22.3211359426547
-191.521124954621 -0.279154413696651 -13.1982441843347
186.359692086219 11.0888586770763 17.9342181096397
201.444011357306 2.59299939661887 13.2877451049982
17.9286019024022 -14.3919456594068 4.25908435120131
194.544262212494 12.8971822551307 19.3281935083499
-194.554092000711 9.08771927533343 10.3477292040841
-18.6919294663644 -10.7551776678351 21.0197089347981
-144.493365377062 -14.1856529156413 5.98793631895217
136.14346717073 13.8935782848296 15.1673492466838
-115.804788965511 -16.819920836444 7.78274447257783
64.3978770165687 -4.37462272540415 -3.24244168944418
90.0610212535931 2.27702501287509 21.0675303312637
-117.39190659455 -21.1044011029085 -0.684731538967308
170.091790583975 -14.2916057528801 -15.0908177539868
-149.061528160334 6.60463666927207 -16.3929566270651
112.641153724897 9.70287273107028 17.6965961600485
-30.5734132446675 -2.90979919938626 -3.29341409691229
-155.420236821612 10.4595469966163 -1.42836900125065
-147.976216652246 -1.28350401219644 7.70907894759446
168.369852426107 8.90288269791141 17.50816387054
209.545389296915 -12.5152651390542 1.9455201625486
194.909249496144 24.8867977560592 11.4160670264113
-202.219233951493 -14.6167642390351 5.80702622396733
157.691412647043 -5.03168896252112 -9.14850701164338
124.400302187619 -16.3330316867539 9.42932339315509
-132.272685446662 -0.457100333580668 -12.9278402707936
171.688078377444 -2.48220117791132 16.1270413488144
-202.864559171948 -3.44945314558346 -2.30099335237731
-173.822817138764 -23.270192361056 -19.129433767269
-205.428076446906 -6.00209997790007 -27.4029314276026
209.244960359528 7.3279766956471 6.76297694208433
-161.659019848621 -0.856870917144647 7.62427073602977
-205.817162139012 -7.73821495173331 -14.2891217360354
-140.250898600392 8.49280615532209 -10.0514603033408
-175.11866759219 -5.21128581952402 9.701283504353
130.835948365562 -5.96062713695716 -6.18279601832289
153.008733179396 -18.2773151024849 8.43133540651981
192.437965854603 31.4813955337751 -32.0966898121367
204.593213407459 -12.1706309582412 12.6309981093612
-225.310039004508 37.0797571583172 3.70331221087288
-55.4403284090304 -16.8421505602778 15.8923647008362
-48.3116113130496 3.14147681605502 13.3010417745667
196.336137734814 11.2341395373054 -14.666662532066
9.70359228877162 2.42573875938492 2.48414872436672
86.7780586786899 4.42731472518897 -0.21840842983357
-88.1927424770925 -20.7140718737293 3.87394469056553
192.811433989509 -5.62052422075396 -21.314549859691
-215.094378536757 14.7997598312885 19.4310007379552
131.419128120457 -15.9281005671841 12.1417281363093
-69.3761256482723 -20.2524229862732 4.70261716224453
-207.71149597659 33.5343190448331 22.6557029623159
135.117402388707 -1.71190323292539 20.1757867026873
48.4220644462791 5.60962696163048 18.9209067318528
210.6861353654 23.9433717089463 -27.8285868575152
-52.7657111640904 3.82758771829614 7.55907045534144
133.56807022695 -16.1910794366379 11.6362495394771
-176.17910750147 4.91463778214226 7.88775849499416
