-84.9464152503354 16.2565034571466 4.48377351207002
200.71816582011 -7.14339307411951 -22.8996311972549
117.405689884383 -16.5894897071586 -15.3101536510777
83.5908190253313 1.900850660417 5.5056188244127
-30.8907585301479 15.9473072534879 -12.8735194909933
210.479807182042 32.6067195505077 -15.971567330541
229.671787283261 -7.90331783799369 20.7741593932656
-87.711756414506 -0.250900368687489 6.24338978520742
-233.280713933198 34.5416723391531 4.85208816906698
-33.8193016548491 16.0946991329607 -9.43190511527082
-155.434136301063 -0.862592266276745 -12.0600819641946
-240.530483403702 16.3927265132852 8.1805379599265
242.368618975143 -32.2202467708572 26.4908549982476
141.905387508838 -15.7890838189103 -3.19860863596173
152.450564214575 -18.3743783728049 -11.8781335282601
189.6082416137 9.94395502235978 -30.3977695101559
-225.322609827612 -0.59827854998627 -14.9744739721344
234.661554235256 -18.2670740058014 41.1437812013426
190.087362977287 20.1973111761813 -25.7558334567974
83.4910660396717 -10.3706099878751 -22.3277140585119
158.951426667591 17.0210999707424 0.761460435872658
-222.926411536501 10.5298642480531 25.6698979474946
146.681163919212 -15.0321903897809 -1.25189096189627
-259.420773110818 -13.2696680156863 -5.8938152656745
170.590342430003 11.7468043680398 -27.0104887442018
-109.963401055933 0.680109443670587 -16.7880845845082
29.3748021721591 3.55271219153508 1.8903712671225
-74.3393252874379 -5.56180096705172 -14.3200477410185
4.83723508302739 -9.73333037679658 -7.43044367796462
18.6714007577385 -11.7106735513348 -18.3315739770829
184.59823731393 -8.45232056896989 -22.674194824855
-137.559365427465 7.85519357703899 14.4626956512963
-33.9941484771487 6.76211674078827 1.7344728298126
-87.59271834488 -6.78290251038629 -7.37942278781209
233.929817568288 18.0675791823801 -19.9446644576774
22.4654724237123 -4.15030257146855 5.21140556546179
185.960542350411 7.59537906426067 -29.4105601694918
-76.9506787797388 -5.35269687804362 -0.707944453664172
-110.090366395457 13.314179175696 -13.8258090831078
-198.180466776929 10.3531721809718 -11.4988715972693
-229.164012159958 13.221140391479 4.93148338000164
200.78918107299 -36.2961711018238 6.99383605393772
-124.83889093279 22.0357246333192 6.13645530186767
63.1597564197337 -14.3139680100451 -12.9159598932744
-91.2285118300549 -6.6115204490054 -4.15848934116276
236.131022314137 -31.2233535415181 -3.43192764213603
-240.579239346128 28.3461496166211 10.0734504060485
-106.740626062182 -5.52489409577985 -8.59374463576313
-75.7978120682927 -3.46872611748098 -17.3006399202406
163.529893724808 18.7936792228145 -2.77446367768756
205.216207590723 10.0599917026546 -35.1358177362736
171.08821226029 -20.7735837391038 -1.30337643445396
237.90829156687 -33.6489180958246 4.23900319646001
66.973557031473 11.9862176160088 -14.3958082945314
8.03239406711256 -3.03567998896445 -24.6645784186779
195.308396779197 -11.3998234253636 14.2286344116368
239.206992075188 -14.5099288741465 -11.3927985934298
-74.2490935045995 8.1624351940664 7.53491580121334
228.53253876922 32.4573809238771 -10.7375144088881
-239.685000769273 23.1697177349318 22.796852865309
-81.401392897151 -6.215248553 -2.29046591360534
210.839846008408 10.6571103258731 -35.5799536915974
208.277357505987 26.3464470349336 -27.7476883256485
123.296960923972 12.4614221802912 0.397906065146999
-21.0403742925007 3.44989770025511 3.0451478948533
239.204465593237 -32.8972527631264 20.1408923977791
-211.743608707949 -2.25423711986539 12.8111563078408
-226.125639241985 17.5015951913334 16.5011528398938
235.314554039766 21.66637523134 16.2096832135249
-142.924422780307 12.6075364619015 -11.8828672683184
-192.214279312274 24.2467800822405 -6.60438868204112
-19.7670724240856 -5.981985888867 -1.18183182236981
-62.49932122704 11.8918333734148 2.55390926774522
130.031584004167 -13.4081008881097 -20.4257227733651
168.045998981237 12.2999703674523 7.24926665129169
224.846755751851 -36.1359782006151 30.711072831995
216.068183520548 -26.3310994828774 -17.7777391822225
-253.336881856382 -24.7748342041684 -24.1085132688778
221.872515562054 -7.26658048018254 37.6375228147589
96.9780642907847 -4.17502054582167 -25.5556417021637
81.8134055655947 12.0457658518013 -14.6587189202572
211.806451984205 -43.9220045111997 20.7794953673733
110.368602007078 1.20316846844523 5.07336931443236
-235.997498032468 -26.1917568981917 18.6322431288689
111.103117680986 -1.43557324892068 -26.1442878075882
-216.723023467024 40.1037492703482 10.7378882591374
-218.549214107231 18.1040378460347 28.5575522994661
-200.45663744126 -14.1130392498607 6.53987670568146
105.492452513264 -7.53439823738136 1.07589936043347
-173.549130196026 -7.64197644302139 -4.68868957747344
114.771617083238 -13.3323347857723 -3.29952385441709
-207.640795356052 32.4461852748478 20.8545678449723
-221.641594782475 34.540800369425 -3.86157372579523
-233.228154197125 12.3003616255254 24.9942713716294
216.837548444612 27.2370893524613 -26.2807460408681
-216.728136437475 5.54449478517421 13.2918128859485
216.580741849798 44.6507298172854 8.68650582360044
202.196529960882 37.2458218089936 -4.83674126637706
209.468337224618 -26.6682920829198 32.2003838207908
-201.665116434444 -11.3816269129777 -10.9560177938237
-206.57122473709 27.5687121126653 24.5930290266288
-230.447516217523 32.3263562195303 19.2079869252974
-152.955671139333 20.9672980543321 -3.45507928577828
-158.166137108265 -7.7234961388589 6.64044551441555
224.865894015106 15.4715684919327 24.0448135539107
219.20985779652 27.181227338371 -26.5043439101754
191.259261491962 -9.81038137618734 -21.9783022027972
-223.054807495548 -21.6138434209893 -16.3784932762645
191.382223732703 24.7382914001821 -18.9275639041236
-239.36883783805 12.9399207036533 11.3138361446722
-83.0560808502611 -6.85407049586598 -4.310385917241
-232.360965807455 16.5385785232183 -7.15575372587418
180.068660455313 -18.8938308607333 11.1841267740259
247.007793185988 -26.7674589050161 27.1577939057621
-90.5099728383115 19.1555039726224 0.82985564922656
146.758662062266 7.84696358350136 5.88012441983634
-205.615637236631 -15.6427246945217 6.03252315730972
-199.703005489836 -16.7970472059051 -2.13826879918857
201.057627523407 -26.9231516434783 21.5511665225525
209.358918240974 2.81741313053269 16.3684839316651
216.706795078148 14.8804804320566 -36.1093796577615
-202.813796886595 37.3839246363279 15.9466947873621
-101.126510450506 19.0911032718103 5.91554097008796
-236.275860968769 -50.3371910002639 -0.292304504206952
-223.551458687622 14.7929702452324 8.95218813286232
207.765399483802 -41.7991191709153 15.1052389206592
-103.855412296213 0.930891444450327 9.04244923126344
-225.995128314966 29.1678658220511 -10.303966395181
215.571582714007 -23.4671339558235 -20.3876306337479
213.463165125812 -9.34609278649491 26.754548663946
-255.48368601158 -24.7027940350938 13.605601373343
82.2467931613805 -1.12307336554264 4.85154457965457
179.383286984322 -13.8258834714497 9.70714528456465
112.717862066915 8.9360261632184 2.78573060616949
225.553409147623 -35.7320305090683 -1.63999762613811
-232.245848264018 27.1679134013662 23.6709922472674
-263.070569397075 -23.041098251775 -10.2131269830688
-45.2620684012354 13.9635777219322 -17.1478477510726
208.771166375091 -41.371998471556 8.1797198669509
-126.051448487692 -5.40956768565762 6.80836510042807
-55.8679522176073 -3.03848422374071 -20.9597314582155
-135.400495152388 1.4919027048103 12.5088114150479
203.741333687324 5.86027956444413 -32.4422102671239
-39.0804057853886 5.73399212678054 3.15669533290323
-244.526105823622 -50.0516421479084 -10.0715723087592
-215.099329708024 -10.6150020297118 -14.6911092061373
152.492556220988 -0.402433580888926 5.40600488255355
-233.623935160764 16.2541194208897 6.10644008770275
-223.960106291466 -24.5141222037008 9.17265900300797
-190.707910706689 8.15453692968723 -11.0867032374357
185.705847266388 -22.3756156894024 11.1393335449843
209.256825919669 9.04243629964041 -34.8207027864666
49.3649923997798 7.59074920086177 -22.381965907658
94.2268035779767 -8.86152764754301 -23.4669080669394
-7.5602042842934 -7.39388255172558 -22.0928430451201
123.102601933525 -14.8701997320561 -4.62388848441644
-231.333742039824 30.7881697141991 20.4939252432595
-253.188141338463 -46.7234233567371 -3.33540531855767
217.46601474254 -36.3778599036959 -3.78975220441008
-238.565467680257 -8.74079635271825 6.36248034819126
-233.130829821555 0.216323998720594 1.98073202370529
-255.452081948559 -23.4343305532187 13.7171718933926
-225.433687727817 -22.9999214878492 -20.9161281499606
-58.5059131445355 15.8805101842338 -13.4068116871304
189.841171541141 29.9908300678836 -0.587823112014651
-259.052333289739 -23.1220191125565 -18.4611415338779
228.845794425159 23.4721379770599 -28.015432053772
236.592353171585 -4.71053890545133 7.1911362622807
106.376465297404 -9.7996555041084 -0.527896166586415
-49.7030171711642 -1.36913366898609 4.66667105169287
244.266583563228 -31.8924792864145 23.4117729798608
217.39200007968 1.89502099449393 -27.0888345864605
-195.37908644745 33.550101629666 15.1226563413861
-146.019395480264 15.4190360505561 -9.59234336399336
186.545124977576 -7.40303109155836 10.0434428363563
145.954179607111 15.7500668409709 -14.7473430684558
-145.29261544578 9.2702665469569 15.4571175182553
223.189453900161 -33.3771396317365 -5.79099079010732
-191.405640541713 -0.263236441658632 -12.6216501015152
-227.403224574997 14.5648014599367 7.31872073127465
219.170081170666 -8.37008289860574 19.9594671810971
43.7002413310162 -1.69662679943134 5.55813578563102
-262.424035287388 -37.0679909813865 -5.76078703532755
233.542054256479 -25.1691445251808 -14.1164106699426
-216.893442192096 8.7779183168892 25.7073652976631
220.35353657621 41.6842953192063 16.9401495148885
-24.3593494045226 9.37236307607015 -21.6222311323058
205.417469641003 -13.3457227965246 28.404578283606
-197.450046689581 36.8637945438024 3.44662281631533
197.805580553904 -28.3639427368321 -8.45421185757605
-248.790175843691 -5.11792021831457 -3.31979792360006
212.2983206901 34.4911766268205 -13.2469299599707
-174.254996055297 16.9642693764427 19.7583260128037
-195.867509041958 0.873067149364709 23.1769686760452
-39.4974587014148 16.0510846008931 -12.4082525631866
219.188667438427 2.54241765705174 11.2711181563315
3.22116070805271 -3.82134138205845 5.15559599573125
-216.737076313926 9.87811004717184 16.960411732357
246.556498719019 -12.4846989407323 17.1428345433029
-31.0398560337108 4.46806928179022 3.22725734464157
-2.72137995408403 -8.69155605617683 -5.58456606890975
-25.6583409795923 0.629192842219039 5.80622308366841
-220.295295911168 -6.87291806795661 10.9206583833683
-192.93453485432 4.26855941627164 -12.7127310460072
-172.735250271533 -10.2930728639067 24.0982479537717
173.883443860414 -0.342701613945461 7.33489956947471
204.613413545663 42.7874982319579 2.69020047752
-232.94054910201 13.371415243939 12.6708643643101
-192.508824455211 22.3541696060955 -6.89205835987436
56.1871163365052 10.9967402859 -6.28221942902272
-236.39686041778 -10.2238837317165 -20.4785673306104
-77.1862025118598 18.3827206351914 -7.29795548688929
176.388451091861 -7.27637628316168 7.73125754964276
-192.823501873772 -11.5748959809924 -7.10931876861093
233.225420010103 13.4553158701981 -16.9854845390092
-189.769005096152 -2.95913481915074 21.3355070052288
203.644551721202 21.5555630521641 -32.6520439908994
207.574823051007 43.0794008260095 11.5625850704075
-248.892631866978 -17.6639271706018 15.6900713297526
-225.664126986581 14.7541611545171 27.3896207010206
188.612837891899 -24.0368206584293 -9.80037470836999
-180.403828542511 -10.381269629437 -1.61793302432203
-51.895684962487 -7.70784160309735 -14.6864258557812
-231.730075511539 6.21089596657377 0.538935796531545
-190.478943960941 15.0670058502526 25.2738538318767
-56.6246914239332 7.08247724850822 4.99215123802162
-91.9583786320973 -6.08435225233377 -9.66081476815748
-112.207298309168 14.352644517011 -12.6391345309548
228.413231750885 45.5201895492539 19.3908280529369
216.290243407437 -3.31316954420435 16.6038001071011
-101.962336457118 14.8954290279875 9.49308625399421
220.461309124195 40.7075480108522 11.4347038248247
11.7169971670117 -5.78699642719232 2.10847604401627
-206.058320170906 34.4008559069335 19.1673693869013
-219.185532781764 -16.1141494312319 -15.7739944324647
-230.3658351963 9.1857093319223 2.37924231822194
179.153515094747 -3.70803286980287 7.99523805344452
229.361522753325 20.4646165858224 -28.0585545148014
-140.697433700637 19.4497835679101 12.3743016045791
212.983883245388 41.1503061821892 27.6477895421874
73.144849348757 -1.99155784918882 4.74699797695855
-207.179874775264 -13.6992649073585 -11.7372431933673
189.467956404434 -27.2521504758562 2.58458207501134
-90.2969621486464 -1.43220684396132 5.1875610421666
-202.304242595503 10.1970673046985 -13.1696248235703
183.55635058931 18.2175813538717 11.2783200571293
226.597388935224 -3.83749599605888 11.4759570295607
195.553548127359 21.119076139641 -28.8323553844408
-162.290960844461 -1.77949764041458 19.4230901970678
-183.709537986442 29.5690289963246 7.72006245217008
-226.26612232066 11.0763639872582 5.81651582769868
136.488383309087 2.25390679273786 5.25377400777053
224.201235120291 -41.9696627175729 9.98082223414602
-214.32725416637 -20.2212602412677 -11.6234575360677
-50.192851211691 -5.54586813104946 -1.77402706794264
31.5405871695758 4.33071447651707 1.13685015846235
83.6729481093893 10.373336004122 -19.2039172581627
207.867486165174 -28.8535595011018 27.3315933609744
192.97587343314 8.48972299081749 -30.7530482186277
-201.573378557793 3.01318098299187 22.5920119888109
-245.547562929935 -26.3235272702237 -27.4572673893303
-176.592598165781 -17.7498734741731 19.7663950121663
155.462786179165 -15.2034083887821 -18.2776311596723
-189.653608167449 5.37145332473437 25.4215658807691
-4.11012209351385 11.1275938953767 -19.4916251944413
69.0747673469156 0.737445238755397 5.28033025505233
112.537744027824 6.0404550895394 -24.6875984641267
194.506698872598 10.0504176255937 -31.8001148316825
-223.154283734267 38.4499592775431 4.54429620217358
-222.78507723637 -40.0727764710158 -13.4200754829279
-167.782295660023 0.0982937611145849 20.77363312634
118.313138948604 10.6491787402207 1.81993815497317
-232.628069393775 28.6428412166008 -9.31534105582115
-61.7785975823152 17.4787089264762 -6.98020445375299
14.6493608522394 -1.89808880946462 5.63079167486287
-254.699377706459 -18.6221003806941 12.5102337928625
-123.798316274876 2.5329024254541 -16.0354179664739
246.767112527482 -14.8154899988696 22.795357460229
-155.248234304321 20.9458674621797 -3.62942428910831
194.824513046494 -18.7853736349259 -18.3432634843179
-49.3677321583249 14.541787472522 -2.89410661860809
-215.809809210949 32.0617541671276 21.5604565987828
-80.7824208281556 -3.82285203863493 1.76979424285667
240.823049342744 -33.2065292628326 16.4622093726033
122.98616577796 -10.5819023824446 -22.7239261944964
-258.831465297026 -36.6152505019812 7.99160729223106
78.8638422421559 -1.37830267220247 -25.6267170150677
122.174436825081 4.91815883308293 5.76462173763457
221.286176136507 -33.6947731993257 -5.76483321849967
104.653374322161 -14.87374633472 -6.9083425880327
-113.75586312919 16.8213386977118 10.0167421858727
-244.663444435984 -10.0582050455756 9.86720713749007
239.1801282644 -7.01902586476077 -4.3002184677291
185.076651498133 14.4421716521819 -28.540712309243
117.698867776674 1.73103579569505 -26.2298149287682
215.343697305746 -27.1003639202698 41.4099351736385
-197.469038299181 0.889822298897897 21.6830971532183
-24.3708255966205 -6.70790995576757 -21.4462866877504
166.258684723683 16.7563976961931 4.81530276304356
165.25716796573 -9.11233546995713 5.86171418814862
152.931780498051 -9.40912593442634 -23.3357124103704
-227.606135065328 28.6079479707387 -10.5781551379356
-167.709641955752 -15.3582633113588 11.5850281558839
-200.06242294952 -12.4799252655434 8.04279129010147
-52.9499358152872 8.99101656276917 -21.2431359481348
218.965115429237 -1.66003113082165 14.3794870178141
240.359638252178 -9.84646719697424 31.423491834442
-206.425230722008 9.97781065719827 -13.3528061654846
-205.242148273279 35.8514974954859 17.9451351173346
-191.625638647707 5.20496948595221 -12.0664745910849
203.112927351331 17.9658345952356 -34.35850747553
-91.2968295004054 2.52197679367281 8.48644917524419
229.080954488672 -32.2954896569239 40.3472290508733
-223.228194395786 -43.4614586045508 -1.93084142512326
-19.6340583542617 2.08349048126571 4.26901137179832
-235.492771689861 33.3608339260326 4.93132619707075
-150.265922628399 12.5845001623109 -11.2490379752095
114.956101350693 13.9291668489305 -10.8231223790064
-173.714741773253 -5.73576651254543 -11.3975934731624
196.739389349913 2.19697165048504 -27.14119112089
-259.698955323493 -13.524945465156 -3.54456007067634
174.583808475317 -13.0677775757099 7.82747733530037
-219.717987797075 1.74142826185346 11.5763492871626
6.35780644176351 -1.05297131274201 -25.0236909262797
-211.039989239261 6.36415608367837 26.3849771724709
-227.000706532272 16.4562586206977 12.5385649257601
99.0334808811759 5.59669941969074 4.20764707518558
-223.62405082428 0.105833138735154 10.7328227753189
-83.8830476121347 9.88489298822976 8.16422927024318
-185.533937570294 15.2936035352555 23.1777868773093
-115.060085301568 21.3367773277318 1.59770274795955
-263.599196446934 -32.9423889502474 -0.472046950225285
81.569437401274 -12.2023115301537 -4.86880327352371
227.871151110971 -32.9201210075542 -5.77430614944668
-217.295085801607 31.1556215451276 -5.50519458541551
-226.289002422191 -20.9406751190573 12.3297657126723
205.668361497202 -26.7072416392943 -15.2455725488424
224.149776188411 -8.5878012639985 19.8304002360886
200.130683334941 28.0421972716283 -20.5992214444043
246.361634700135 -19.2007185474683 28.1053792143379
128.78737659507 -9.98489197691793 0.844038441521519
-220.660795894173 12.372046778787 -14.8018869732598
3.48074343844775 8.95410925319618 -2.47691424565183
-55.1144816059917 0.0409335622491384 -22.5083491988492
242.296237510629 -21.4851851177158 -7.08422803701568
169.872486429966 15.9498723726221 -22.2686455163081
233.143145046959 22.1730299206529 -22.9062198161001
190.660695085225 -19.6030801151788 14.1044894210307
193.997154174819 -20.7934938126719 -16.5504046343338
-235.667723855461 -3.64073011214504 0.984929971779659
-230.995206891544 -49.3887200993964 -2.7382028019929
-114.207276116599 -5.24107977977428 2.39926565808012
-243.902882056809 24.1673394950568 11.9890735881604
237.168891170563 -37.0782799056712 15.8980789021471
-85.3800752732834 7.86008111619985 9.77216957165081
-230.268503581172 34.0205793637636 -3.90707375786922
245.885543905515 -22.528695807272 1.69673795614268
235.075072659592 -20.8021070216039 41.2600151552158
-234.93621066653 -1.68133077826246 1.42559760206417
217.843484874237 -7.22243928822774 -23.8442604401104
56.8292114326331 -2.78937760129934 5.00384581043387
185.501849543264 5.67738522091968 -28.5538045193837
202.347807358769 -26.4930775128326 22.988087005981
242.753690699423 -29.5244004975704 -0.973014573491698
-236.706795839749 -7.71952163084272 7.52272525385975
-194.646134396892 0.108186633089265 22.3125664308596
198.055839532692 11.1679779314836 -33.6296226515864
173.039476509679 19.9006515880567 -13.9106252511122
245.110974246828 -20.6130151293261 -0.476967081208712
103.518007627291 -3.56693943639844 3.49294286181781
231.80373852941 19.6244612778509 -24.80144744714
-40.7177750765745 -1.23399521486445 5.16489300678526
245.43945986183 -12.0019255749723 22.1182268194315
241.532774938943 -13.0152645649866 -6.01621162825265
231.848938844842 -35.720746086989 1.53025497574913
215.697282723477 -7.37423025881838 35.175164000892
36.3059152105503 -8.18050767843231 -1.12390185363177
230.519564417421 -25.6076685227863 -15.0115879564779
-45.2274441890059 16.1993122028444 -12.5021102656001
213.117356456325 40.9187288262827 22.2418242044175
-215.212117471093 -23.18151678887 -10.2718885002273
-206.685733745288 -11.4628267170802 -12.4645960651897
236.954892987646 26.5733536223202 -3.8203329738985
-171.06924639338 -18.7547469780624 12.7836372530668
-234.826933877245 20.2644644240063 -7.75967256240617
-208.316560563757 39.783434174173 11.3775487831651
-85.5101937114383 3.6552477313038 -20.638489129903
107.879055182242 10.7906855664212 -0.114540701249633
-71.8337171323285 -7.51464538673391 -7.1904479179753
-46.2303348597065 9.37161992569733 1.67842560447067
189.183033045452 12.5512839792973 11.8496884317971
-1.97918794658583 11.2738625167843 -4.46279647603523
-109.425735644336 17.1498074727054 9.37108475951313
183.989167421908 -23.1436723059874 9.48391179956761
-208.877272024258 41.0287979661191 8.93774641443038
-212.380495443711 39.7677810208974 11.5383528695291
-225.982679056078 37.5874392413363 4.34377382904598
170.902550969307 18.1211120905048 -18.3220909794223
237.401967870641 -26.3574168040234 -10.274661685386
-127.52186570022 17.1773470356937 -8.47822672588872
156.927501130847 -11.8591158117271 -21.5194865424445
198.853012484073 -7.7986363049654 14.6443446437262
-207.554368102169 4.72516135420197 23.0017331076934
237.506776592142 34.7002080485971 2.45078651473638
213.597683424122 -4.55832941592872 18.2487126135096
-213.686812117052 -7.45458121285454 10.6355772674187
-224.080131280399 17.4233242746693 16.3170693779235
-232.671502797948 -40.3108885340482 -22.8114299076945
215.584292282412 28.6472761447125 -24.2770547495155
116.171370637401 -15.7609385038735 -7.25245781368874
75.5732635159872 12.1466959645685 -13.6765029682301
-74.3377648980362 15.2251528793337 -13.6689594980387
-149.158902638622 15.9957247681549 -8.90833070252616
59.9003144277787 -4.14545800466912 4.48474728821864
-245.020288153106 -48.9887129954959 -8.41704813665028
219.678317516734 -3.69056925650518 14.9579380226529
-233.492069918767 -18.6002699610073 15.8800442693004
-131.942931448208 11.3208609997533 14.6949317515459
212.503328807315 -19.2313874204964 -22.7094314115441
230.640679950015 45.3350912410902 13.6310691722782
-229.57231831672 -34.3250055022317 15.5683333139761
139.033867190773 -15.2315770519064 -2.95792920256777
100.765320178082 12.908745928464 -13.0402223076421
-10.5266284455389 0.586753747094966 5.23351586179314
-181.272742839453 -8.48914922927444 -5.27874369461728
-32.4481632156618 6.73074703923768 -23.0891409784862
-79.3508708001517 11.8297670341658 -17.3252929704031
203.075050265504 30.7923484056365 -17.5656633846648
29.2548035861758 11.4856238932657 -7.9099767670999
-99.8599453677495 13.393763604392 9.92496312285591
-21.3488255347143 10.4677345736115 -2.56178190403079
169.455966005565 -7.38579743040331 6.57583893122506
37.9508185152356 -9.62341474730102 -21.9268533572587
-196.930790377921 35.3831076075857 14.4532530314957
27.4607148591059 8.82003156668791 -3.36747209708535
-235.465134927534 -48.8241951248773 -14.1520587585938
225.8527394979 -36.7701570961371 0.741871517605023
244.101407427219 -19.3287924690411 32.3957534400323
227.876518791565 -40.5438673239146 23.0094481351627
219.806613366937 43.6739515850964 6.56793672543092
-243.790094497984 23.892754870831 9.38723904486593
-211.598175787111 -10.4556636309638 9.64910118508521
183.596548692783 -24.3788947083536 -2.60523806008472
219.532140709969 -44.1626044914748 17.4047858984115
-222.52931278106 -24.681044848788 -16.2666669185723
199.457199525975 7.21951697308437 -31.6860130084039
198.265339797823 25.7888232647544 25.6086231482146
-222.641956334638 -3.85582217037955 -15.8539804429758
-114.603009660426 -0.740172006576169 -14.7710056110022
-201.531116219662 5.64090262656674 27.9542366095055
-164.711977338063 -14.4544672858103 12.4019623711492
-250.188724442909 -34.9650926965854 -24.7478169398005
-254.143688412084 -13.8928722079928 -18.1707874064302
33.6585979752867 -7.18516506929994 0.78275209344196
-221.211271594902 -40.9816341263605 -4.01248881393918
221.621903369665 43.0262962578624 28.1747539540806
-202.363024336921 -17.4115543586871 -5.34805182246898
-67.9564453307138 -7.72147107444439 -7.30206794154311
-264.482324955458 -27.6297930100151 -3.9985558271278
234.2831610139 -39.0740270312288 18.5385542056087
-221.404266943248 -33.6531308841584 -13.5245750262192
-61.0897839202509 -7.32742475371978 -4.96154603099877
-121.697929147239 20.4519673772812 -2.22403446171841
-235.012678421851 16.8338738803757 26.5508010514563
-222.143973569228 -14.6745569710251 -17.6436049355828
-231.287046227688 -10.9410434687303 -17.7026007714273
-217.360645276249 -4.44956457301625 -15.0519875872003
-186.280028006999 8.87261170931753 -10.300614686004
-196.835941202955 22.5444405373515 24.5245160927814
165.028284400593 5.93045695753961 6.72483740183297
-237.157125964697 6.79214886821755 21.0106873794212
-201.593539814837 37.6801984604557 -3.80368387561123
-222.870332730816 -5.62602399607701 -16.5975519338547
52.2589951289132 -13.6867349632547 -12.3850426602928
212.448900320978 -14.6250405039348 -24.1415416594764
-15.7576519626059 2.99888178839854 3.01824855499011
232.879469878861 28.164159094277 -19.2405807676154
-180.634633357755 8.55271069156243 -10.2547669777374
241.150878515001 -23.7774629085001 36.5314776190164
-232.98253852881 -31.8939802024845 -26.2655218760139
194.493563859671 30.1469824834949 16.133304111947
191.959165431295 -18.2605506098587 15.0051585452139
224.236128699805 7.8681091075111 10.3190969806238
-74.3767163077645 -7.31695935297367 -6.16228486194851
-260.625019382116 -27.5219546892838 -16.9340178328054
-209.929454413271 39.4686313730422 12.7964114495333
-105.859990312762 -1.62978592570816 6.71398615649469
-153.876154936227 2.10795378762842 -12.9853065666697
225.792320183165 18.7688674670804 -31.3460394956525
-233.927577435413 -19.4245149688367 -25.3975067458737
-162.16949135723 -9.38892279074531 19.9195569664661
180.47206288139 24.3860537776356 1.59901145739922
-212.458696946237 19.6709379003992 29.1556062506457
193.861553660103 29.1534385476052 -9.42384293930094
38.4278439102286 -12.9964954715157 -17.4276532204856
-137.37976840154 15.9168499999237 -9.60290148622706
-39.1167855533893 15.0236432805045 -15.4834916149796
235.849602360869 -2.5829990094448 5.93049260859212
-203.532914992857 11.4305142533054 29.517481153849
195.816129916267 30.888278700721 18.8725934675619
205.465219843719 41.3808047908879 11.254876042118
-145.612471012579 21.0074806736504 11.3071074000353
217.335750465104 -31.6553530570851 40.7536388128536
-214.499860653529 -17.6938553950803 6.26470878619128
-224.532890484936 -9.4621636285324 -18.2277999957495
221.421844624676 -34.4907568956812 -5.00926385347553
-145.068546393898 22.6730426921237 1.00652418072415
-237.263591921322 -50.8670913747255 -5.34113311257212
-219.516018767513 -27.3320853491256 2.92730900246927
-149.595408405819 -3.72494431690252 13.9330980920341
224.371108206461 -25.2512521885472 -17.9600604821358
-213.085092625692 12.3415842878672 30.3232607415896
-10.1668657254298 10.6383385368869 -20.2111736182275
-117.8663850448 8.93773949401565 -16.1703449601361
203.145216017937 38.7841169363961 15.7634688727484
189.949189248131 26.4487071697 -11.3278456394776
-123.899477009153 -6.16459174637558 0.402096623759544
105.065261494089 -8.78434374521207 -23.719069904212
228.946504432862 -19.718544905018 43.482214060325
223.935577526976 -29.3627317043219 -12.3106872999514
18.9800279400648 12.5846536210023 -9.03353781570679
193.671041008272 11.4486372299575 12.4504659156108
115.927149945943 -7.80511170036596 1.30072777069901
188.595433459818 -15.4479959552366 -19.5653190641516
-244.081071726525 -34.5076076965755 17.9909849829464
198.671652951533 -34.9851601841515 12.497908591025
241.313212102976 -32.2988311923237 28.2140186598425
-235.043492579928 14.0559503294636 26.0760353991816
-185.977519734848 -13.6070953953346 2.47382563541498
198.272421858135 -8.73235546975654 14.6678726063561
-71.3383295156256 3.00374566842957 7.66805680313458
-125.49585298526 9.09538554407989 13.4591490438703
192.512615079167 -17.7417432401126 -18.725190078427
-183.193255304955 28.3455806898387 0.437685901332413
-55.6520715063449 16.6879767959522 -5.65950497100825
-209.972098557063 22.4545002757617 -11.2866924272734
-55.94967862203 13.640383112684 -0.272232577455786
144.344638545824 15.611737502151 -0.831729376997436
-47.0894723925095 -8.31579116885621 -13.6474086690333
191.430579369917 28.1461477097484 -8.46104980787197
125.607254798281 13.3677698242658 -16.870975297226
-264.0360229017 -28.6784650695756 0.387059604144793
205.306368447176 20.5088425988988 -33.1911291172006
191.760470816463 32.4729530138387 2.7293732314669
-202.405285779078 17.9307534431896 27.8702228290501
-220.812443005879 35.2235040685975 -2.74697057462718
-238.681793328273 29.5691958014225 15.0726419060659
-19.2962081836678 15.1277311791687 -8.80832071657265
-226.127183409359 37.6451285145591 0.421752395374898
213.654286322864 -43.9360565506841 18.921071469581
-231.867547454408 8.43288184040211 -4.11969661447243
212.333766823522 -29.7465132803344 38.1836267752197
157.842362561033 17.8869094838145 -10.8353626230947
-245.96992198085 -5.70386049227202 -14.0816853009549
129.893188189838 1.76316021656609 5.21636441138523
-220.164376611378 -38.5914929645706 -6.15026024583882
-165.645418217478 -6.59748344891484 21.8876173375076
-194.718696556741 16.5144696308726 26.5538480426232
174.52304322004 -5.70150569683481 7.36586274908733
-194.043787732249 21.0425686239199 -8.10361635359193
172.073337848251 19.1728549923973 -15.5631157737743
203.902753963473 22.2737417774672 28.5168775814924
78.9176335347795 -10.8868522448424 -3.29866349373238
-208.286152105589 9.71882504507715 30.2014799226747
-201.293799333489 40.2523547687868 10.246499097636
-25.2488858239238 -7.78879274767375 -5.43428742462834
44.7147255171611 1.76434626162953 4.01095678579515
-81.0254676560028 18.8071645731203 -5.53644728493972
-136.75631539321 12.952996796354 14.7428037217603
-226.942541859538 15.5635632604647 -11.2183187616229
214.481034802251 18.6141799016887 29.0614312810553
-136.195787225036 20.2836841084686 -3.10631689353446
-230.929389531398 -30.5795934554911 -25.6604141534579
-144.165074793649 -7.0529777439528 -0.463529190789352
233.21422096639 39.6493523882348 23.2189291215095
-116.80914328708 2.07147030949735 10.5868326187756
-223.861519160036 -35.0925610450674 -18.8570386404351
226.676669430889 -4.3169787507198 30.8113411901846
-224.291667268759 38.5760759635422 0.668237671056989
224.804502134185 -30.799593489845 40.0778345309484
-243.892942232431 19.0207901128141 10.5470295452305
-246.593205351389 -5.20092484305833 -12.0664178786399
199.74055410162 -14.9030482229324 17.8778037954506
208.47009665762 -7.16742345515414 19.9196111509359
-154.385527839435 -7.22441458601686 8.27808041127137
233.042343245051 44.8337336456712 13.4634227167867
-169.103703488061 -2.26605253044332 -11.7812977730649
231.325238677686 -11.7046595939045 -20.4251385577485
193.215934670819 9.72282891996723 11.8583417813766
-6.5280430794899 -3.93196345154274 -24.1055183218753
237.699928400132 -33.0361197047647 30.7040244420234
226.814082802281 15.6492682076142 -29.5763573165428
157.434788378347 18.1035452867017 -5.74123349132208
-189.085139190849 -14.2902352265636 2.84233313962575
197.615479961722 39.9377120670785 6.61051393987576
214.368643067486 10.9142916819854 18.5289247553337
-204.212289325455 33.5593881754695 -7.01746077366697
17.2249518938927 4.2995548210918 -24.4999826555924
222.337537273396 30.7462965492101 32.4219222934365
-250.242369749537 -5.43622070866448 -4.81488991379941
135.306688731422 11.200884359962 -22.3273674574408
207.094228966954 -11.964238660938 -22.7453017672842
119.19914419247 -14.9670132601189 -5.21323489292487
-243.939846504059 -46.6979228935514 -17.7795199133589
158.523389394886 16.1236957388303 -18.3815092266461
-242.689968857557 -30.9949993836478 -27.7659210268073
-176.905701879692 -19.07778371798 18.2488997299134
-161.079817011763 17.8349078122729 -7.35830863836723
-157.419573100827 14.8569812360705 -9.61539336081041
189.653081373218 -6.28244520212518 -23.0950663380214
-208.125138055814 -0.619844949097313 -13.6595717159749
196.108596703733 34.898654059553 13.6756959199814
213.362537665808 -38.8708614840382 0.863069031695332
232.719707954644 -4.79908108254598 29.5437526620677
-189.239897898283 -13.8805613753825 5.27774978743755
224.956367118846 24.6109785043889 30.7881598253923
-167.338226549633 -8.93207012985064 0.93957989115243
-80.2197982685976 -0.724902343709758 5.47845237382314
176.075266289633 21.1942209328381 -11.5873445474989
149.17276526745 9.24960597637206 5.95844500818546
-40.1699060032498 15.9654109239794 -7.503527570382
-228.705705630748 5.6049353499292 -11.3759466810353
82.2406521629799 -9.85805545901941 -2.02284083434396
226.375229346419 -21.4823839106661 -21.6280933624143
-109.121509920207 20.1622768564922 -2.28398248637072
226.691899996371 -40.8831530304796 7.45094975563848
-158.122802124272 -2.45303763078824 18.1437772410349
145.390019959196 13.8885375494578 -19.8241470293102
151.529170144892 12.3576637408356 -23.4209413717943
239.359877828315 -32.7572871996985 2.42632249433479
-201.459807189626 -0.316398406641189 17.3474606765508
-231.86055188767 -20.8178763844066 -25.0635803827837
230.157870342877 -35.4443498849168 0.755626900576212
-96.6606010541182 -2.74326683814009 -14.7502930611541
-222.88029304357 17.1825202744321 14.1788344207095
-173.164403581063 -18.2219069594046 18.5179514246111
31.9460787272595 12.0472289794933 -9.33480545446051
-208.253500576161 35.915818913714 17.6488825722779
224.625056849523 -3.41069009407349 11.9539765111975
-145.968228552223 17.8839079275373 -7.34517965780182
-192.987768593194 13.8892264360179 -9.93073671272322
168.693796528353 16.0670390271915 6.23078863074967
248.392511826886 -25.0018482159619 10.1570517442732
211.793790389329 4.4486383784401 16.3723662056585
10.9734278897686 -11.4517345282242 -17.9650349168967
-83.2744059974405 4.48419236508803 8.85123287072773
-185.463308836833 -10.9813489286649 16.7435849090249
-20.7994317817949 -5.33687886636896 -22.765576513692
-241.03409087102 -20.6014069089402 -26.8550908487373
-245.456508999143 -15.2185398628963 15.3542231146143
-207.947142168458 19.1513548486177 28.9376872864386
177.799379166186 1.48228173315296 -27.0688070283415
234.648983229295 23.9538147656265 21.6946728326809
-3.74819644562763 -9.97559439496772 -9.20398639652817
-228.930457635322 13.8909087449476 18.8476310509937
-51.8486464688909 12.4479453593396 -0.0464657055153132
245.604719079538 -23.7560717229112 30.1489057990201
-203.525433285958 15.9412877513991 28.8395593214899
244.087074600185 -31.6239713043975 25.7946218616862
-197.59010374348 34.178388726227 16.741067416779
216.165985224068 17.7922175107757 -36.9113343086321
80.7749393252166 1.10497013329596 -25.4953746692914
155.597885392812 14.6116941477231 4.43335020340544
-113.44705274281 11.8195680279115 12.6486349540938
208.523824796649 -10.469897456333 33.819351965193
-257.967064377365 -29.2900938449549 11.9220583262311
194.606694822789 -15.3211500142494 -20.2669827207208
191.680496325933 -15.8359441118679 -19.7097715674795
215.666720156671 25.0558544235036 32.7539422171387
-31.497458626193 14.1489585100778 -16.9274202837381
-98.5008828600733 -5.47136729842822 -10.0793951147596
220.890026867745 -42.6866134983154 19.6616939852749
197.793174078151 -20.8224637305133 -17.8490196532846
148.39253978313 4.81104076760698 5.68359147900849
-64.991839916559 13.2091762248042 -16.8106907776194
-241.580526245836 22.3675144430313 21.4010440953275
196.658348630189 18.559697271934 17.7544952362159
141.467485446534 -4.75325083034837 4.19467896923272
-44.5081723860409 16.3803920990621 -8.43042534687852
-125.422364696907 11.5343697206741 14.0602049761673
61.0357086975915 8.89624161067253 -21.1666585454018
-57.8076295539474 12.501238141181 -18.1614501462807
171.370843352854 -8.72374554952243 -23.0729346505757
216.574504810078 33.4672497254715 -15.0985555655647
-237.686794269105 -20.7459334653895 -26.7114286897319
-230.84008987292 12.7612359626152 2.22556647950221
-115.241474800024 10.3056225867048 -15.7183607590657
23.2452357767795 7.18229772458264 -22.6997260360774
204.26258708152 -20.4106743792943 25.3207369293737
-183.855265322659 25.6731265776426 -3.7126402029686
-195.934528073612 22.4242726525069 -7.64318949338514
160.868019172539 12.0575131254781 6.44876857597038
111.691638518345 -10.5160479595139 -22.6583924640429
-169.823142729702 -7.8734687312133 -7.56055190922909
-12.7025328009415 1.65386782464991 4.28463861743722
219.253132836772 -9.79334662768995 -24.255039290689
-199.210046349251 13.5854170990456 28.2263890617243
228.589527346116 20.4708773991409 26.6813949996292
-201.956843969959 18.8225246520843 -10.4577596785203
-170.670334055512 -16.6294886593171 11.0071322433222
-233.078498030773 33.557826836371 14.9326285415002
222.80837263657 33.091142671285 -13.2771333926959
245.41637403268 -20.1024898329974 30.257727182248
-164.523452148795 -15.6224679974681 17.280261317818
248.590113454976 -19.2927125866945 11.3653953785859
-149.084616443938 20.5913337224779 12.4516804655067
241.97990350956 -31.6168619464149 31.3359384835323
238.443256512459 -29.7570984382739 -4.70653091698371
205.168063237658 -16.8240463753996 29.0005469655432
-142.397126868789 14.6175176164053 -10.5173408400584
-18.0357365229906 -4.54881997714071 -23.3834629136909
212.869205896666 -7.8918968113918 21.2085569292777
-169.07587248652 1.15357032766108 -12.0145011342229
194.098492129208 -11.9167474961439 -21.2198474812668
169.82129861432 -9.33811683907265 6.67413120263466
-182.905639402107 -14.6849478701526 11.3755905736199
-228.545925372091 1.97767421884599 6.25724043979157
-243.224302011127 -9.42573377911701 -19.7652323508745
212.417494855793 -38.2939287233545 -0.872053842546645
162.717342274472 -2.66212852413692 -26.2727315815832
90.7264167807575 6.23856861566301 2.92106649637061
-39.1196208306273 -2.7405680176707 -22.8398636830536
-207.38699493131 32.8912832231782 -7.20986962666202
-239.655482086472 -2.81012645795766 -6.19144090688268
198.74060983651 -32.8953541573925 18.09920442892
-258.57389546682 -41.7995511229624 -4.20517712374218
-152.82875725441 11.9131563221399 16.7171185399179
229.522721187042 -38.4763997551141 4.00126683957191
34.4230054887705 -10.5742155241026 -21.0271011634307
-226.158874177515 11.9502715110873 -11.8852176127733
-238.451874937471 13.809972469173 9.8814095647929
-154.791616393888 -5.69015290653986 15.1939500029347
121.247789748445 -16.0022796310634 -7.04323514582045
230.44222305686 -29.3182729914918 42.5436209803148
218.788043987944 18.9700598948135 -35.8061733471676
215.471011273146 30.2954433537207 33.1973521781634
-221.12914780303 39.3986786073639 11.0666081885268
-233.459690618557 -3.85280643843225 6.26795804127412
70.469453237452 -4.1433506731275 3.86338914287348
-79.908309238224 7.72499145684289 8.97938950122027
-40.4148541568386 8.19326387279953 -22.171173637295
187.651934290257 -8.43305052190801 -22.4924681909952
196.548686033363 10.4468579374939 -32.6938534900759
247.914744862147 -21.817430727408 6.60332548650426
-66.1344436236861 -4.75435509358936 -0.29595362459804
-194.823770596237 18.8293336348129 -9.04281412470989
-240.888513946644 7.82173727697278 23.1782287093316
-231.287448647328 5.18193345783284 -7.70969038096737
209.824279511966 -43.207522492536 16.4317013506305
-95.9469196909786 -2.54693927578099 4.30344604010423
227.936644626786 10.9210871931588 -24.9725931443674
220.287955782809 -34.9539241895953 -4.62046237918007
-250.788319332635 -7.15753160863608 -11.4371290506425
-22.5875777429796 5.1665561203991 1.73250746414155
89.0325939416213 -15.6081409706688 -15.2451705856128
88.0392459217502 10.4192513770164 -19.2737458387041
-149.269605785792 -3.85418787512053 -8.94377772659273
-186.797241856285 -1.70681621277709 21.88886732082
-151.417247426238 -6.70479338332166 -3.49173507587257
160.989691697803 14.6037954143762 5.55751240873552
230.974199234959 -4.75040240831141 30.721161030559
66.3723120343489 -4.59554828947398 3.72194039783133
-89.2675285564563 10.6217545618224 8.99792531062874
188.44532065574 -23.9702853116422 12.0140418114854
236.710698783313 -5.68689564716716 24.9493163390203
200.277800221246 -36.7682174189825 13.234091245231
149.722044465243 -17.866568353549 -13.2928261435297
-190.831966145009 2.87058537977355 -12.5854390105982
223.613434486413 36.2588396532515 -7.08636664691205
-91.1807321140718 0.709635497112753 7.41813270379827
-224.565936007401 -3.03782345639195 10.6581684523439
202.186253552898 7.28078825849069 -33.301294669989
-237.558551250104 32.822137966152 7.57728586420083
-50.4218010040897 16.61987544812 -7.64488678147656
-41.2291153216668 1.8635744647608 6.35388090687224
-217.759158763102 -17.8620786763852 7.31942193055009
101.371666985257 5.2666965728143 4.71599181525092
26.7937590475202 4.81902478671476 0.840079721794823
103.231524183364 6.12838086642654 4.22032444207905
-36.0076335837827 -4.5924429986611 -22.0166678215297
-234.618508564258 -42.8300179487712 -21.6346882728626
-108.819682223795 -6.32786117306744 -3.29013718665252
-259.845941619476 -19.4165858066317 -15.4916004375157
-201.35573837864 29.0143775743335 -7.70710441761859
-255.06662572796 -9.1078444535844 -1.34786035531239
-171.255555220635 -7.01312184376556 -9.26536786877408
51.1769061732221 -3.1818743898883 5.08962704312807
-238.2431099171 -51.7208709290912 -8.32922782556112
-99.8393426710694 14.234596044528 -13.5495127904248
-233.513473080832 -16.5002240454015 14.6233352264269
36.8519536285482 7.01903036964205 -1.33038626541461
-213.745418820353 -17.9457024962214 -12.703564463552
206.340290941811 29.1679788550977 -22.6351095523035
-87.1322722267196 11.2482705627646 8.25456401642687
-194.195516205694 -6.45475780736779 14.7604189278785
196.491762317033 -0.480536997929327 11.510112256255
-213.93517088364 30.0392079216346 -9.15668868306715
70.307729927697 -5.94493687635176 2.00529054674586
194.549890535626 -5.52102627544821 -23.1593715496676
150.067274630552 -15.3072404744461 -0.922227582889476
-213.001296999519 10.0781784093268 -14.4928163258712
87.253383585484 -13.7832005719976 -19.1180535559295
-174.846260462744 -1.10715288620312 -12.0860754070606
-118.641289637779 12.7970932263703 13.0781794320986
204.125602757908 -2.88006727238041 15.35913082788
-196.630336101351 -0.738827824388225 19.7401857659583
-52.5462414873518 3.44423037138262 6.97241702675129
214.199762459501 -9.35591624650818 24.4162431980354
-198.221047889189 -2.16578455902633 17.2241428282127
214.44514133469 -42.4858910614521 7.81334386468219
-206.265736493426 4.64637137980215 25.9822643422852
-224.565389412432 10.5177845789305 21.1031229680244
217.458976068631 -27.1222878327281 -16.6824567641435
-25.8814595591343 13.208926946114 -5.00658811873951
229.453125812639 -31.5046761837493 -6.69071669157407
201.590533624648 27.8655902461822 -21.8491347303263
-253.582945959778 -8.07960921881594 -0.686341842528918
-134.30281977876 21.3157662769513 9.82115286240084
-237.575826558347 16.9845408827137 6.91421692121101
208.340181498273 6.5396078293319 16.7437920752862
8.12649153515165 12.9754240065166 -8.36689767573545
-23.832539326763 -1.92228338134592 5.45023341575411
244.680936793674 -10.1183768283737 10.2371691448187
-192.449869703188 -0.14330156812985 -12.6941842480677
233.524481565953 -29.1233095229592 -8.92413324551309
-23.2746228855482 -4.81939255082038 -22.9264213135737
171.116864890854 0.712913695123147 7.08793275408353
-178.770885504352 26.822597602035 11.6582929655769
-180.498725871775 -7.86444714355703 -6.96766846336607
100.68094642222 -2.04056203143626 4.04980879052706
219.408452153613 -23.4119844231374 -20.5425978570407
234.159052816992 -23.3538094526109 41.9536146385973
208.927849298926 -28.6380265199777 27.0067609275546
-38.2998725367568 -2.14426336488255 4.12576069149098
110.79539520944 3.96480362233997 5.54627762831251
221.396385022837 -21.3044317218891 -23.6575080195699
222.841080433985 44.5020541080597 25.8873765092368
184.249806134091 17.5286764237831 -25.4265622681219
-241.941785104268 -3.74638470288876 -11.2514095794184
-253.328778051505 -15.4758509256543 -20.288173218944
172.273647339589 7.08107193817983 -28.4573296392596
-200.807896222467 19.6712166345209 27.0992926214096
-46.5776103951851 -6.17266987840646 -2.65293405140714
-221.026374603169 -38.5327684817569 -11.0436870735685
-259.981769072592 -17.7814288483296 -13.8289826476085
187.520451214036 2.50101128966969 9.4717747877464
-163.032100249985 -13.9931301527287 15.4261790888243
183.333920119056 -0.22672058429399 8.66816942568621
236.366864972751 22.7913114107005 14.1455882294761
-198.43216943094 13.1473642730964 -11.47024969149
228.937088269905 -14.6488872894979 42.4606497657325
-114.480758138747 -4.32990766752061 4.95259263417371
118.355817173046 13.5464343433569 -14.9285848319754
-176.38366179063 27.0713645157604 3.6468036775759
-181.732143971892 19.6123402795039 -7.61193753516627
-172.994945901456 -2.20557676815765 22.7589432419103
155.063820803024 -16.735382973633 -1.60171145664536
-227.609584753885 37.0179475727981 2.58425539623695
-233.687518543293 17.632407444975 -3.9722887776362
197.699425907428 21.4099872247214 21.7402623771604
229.617215233784 27.8051192357744 -23.0596204059501
-221.041089485146 11.0951562406998 26.7216739900959
248.351242541283 -27.0244669472501 9.72397048687086
177.922695644593 23.1792178291481 0.397654613833256
-14.3240354213583 -4.07614709536683 2.9392936071381
230.389408504354 20.1389054779244 24.6609632964315
211.861942798284 12.9172423520771 -36.6618506432309
-241.012946039903 -5.32196421258527 -15.7121355340389
-60.0871574464132 6.16377958547941 6.35597957417583
170.968777707239 20.7905757440471 -4.54145615901106
-229.405833743053 27.6397061012501 -11.3196048199228
196.075558409192 37.6907789010157 2.77226336557168
229.997658000777 29.6092000087456 28.4015194679998
-253.974180377104 -42.401929084745 -16.8439326306559
185.253937459712 -14.7813685191947 -19.5516221569169
153.004096906611 15.1418771183117 2.57230648622474
177.403190368824 -19.2373240330744 -13.8124079677589
98.4946300391906 7.93446530400648 2.04976206266734
195.70128140225 1.82176252375665 11.2607793556154
107.76655072851 13.24717421181 -12.7887314292367
218.159673272621 40.4834925771333 -3.91233248278719
187.509539399051 -10.1499823173001 11.5525360676988
-205.140723082055 37.9410206575065 -3.38026111931463
-84.1880982550156 6.30825590882733 -20.4771666097784
-184.025672896073 -7.52762893989408 -9.6058084964465
-204.16060516147 -12.8370122858469 -11.0903362227854
195.410182333314 26.7597875148942 -18.8606996957086
-227.396101401338 15.7828064308362 27.4232852340539
65.9255052544951 11.5741430458974 -7.62447309121496
-215.590316137215 -13.1197318350393 -14.072792670116
224.968911332757 -29.6365970997776 43.041270550417
217.067382169386 44.2107821095203 4.11868311447464
190.207402155444 15.7573072210692 -30.0948371534486
-11.8542143015541 -0.709966892440031 -24.7601641558622
-184.254698376968 4.29226891804994 23.9268202214865
-161.928460274228 24.4149933017341 6.64786580651574
162.661744870356 -13.8287310255609 3.94845060327985
-228.097169139965 32.6367927592319 19.3820122608598
-170.636623000864 -12.6026626456334 23.6242839065425
-256.070357022247 -25.5281846014179 -22.1418321639116
-0.818646973527012 -6.91827240077833 -22.82174906543
-125.598955002004 16.0729060010258 11.9696818665966
-180.716801529196 27.3918069355646 0.230025992040933
197.629644984043 -33.8234762066736 11.9185927491721
-171.369840930761 14.5381652331949 -9.46930844557919
-230.35314674729 -13.2917748844663 12.4761069936231
-167.222921656204 -5.25277450189132 -10.2884360629854
27.6905366379282 9.98992400129236 -19.9206666556072
209.10207929928 29.1019186291598 -23.3403029859943
-233.094450366573 -36.3553401346921 16.4117809297697
203.191764459083 24.2416533802373 28.6500189272579
-88.6093027276813 -2.8790551836186 3.4184197199072
214.013263128565 -7.45680219926266 34.1915353079662
225.142409157232 -28.0738487767992 -13.9465128889235
-220.681062832055 15.1250946972165 14.6305721159303
196.986207620967 -2.39684464607621 11.692965517021
-177.546454909516 12.4199731327719 21.4296965459312
-58.3673527289104 14.2600913692437 -0.558747761267477
-200.83705938031 23.1124441385069 25.3016101880505
