-133.195890360133 0.275587007667206 14.7185812497678
-27.3724336281275 1.86161331845102 -1.57122687322273
-207.133005370929 46.8329618259561 4.32367295573928
139.105456063661 20.5582697712725 11.8094317907868
56.3599032150591 11.3183446392255 23.076551991828
184.92385526369 41.8084983767557 -18.9620711099824
129.839291382982 -11.6386901265304 -8.07149396823862
-39.4251722463554 -1.59259724589562 -4.21167261229364
163.437043855737 5.4078750978101 22.6541016767735
-193.293539356702 -29.2337671887267 -24.8677890997031
170.940342086013 -1.3581457129884 22.008880781324
-68.1021417330437 8.24112419311834 16.5425194444574
180.638541544809 20.1130662830955 21.2036987753349
-177.693516335034 -22.2406841154603 -20.4917008636586
-190.93153103092 1.1849533429584 12.6975026831241
-209.729642580072 -20.4811271197022 12.2695904461989
-211.300271597465 -23.0030331479274 8.5155108388881
-55.5542766948557 -11.6593390480101 0.353405141678325
-171.997020059063 20.5021590903182 -21.6039873138309
69.9890443220483 -17.3147582632933 12.4683098282635
-211.3532763008 3.40145960351801 -12.354870596438
-45.9538226793377 3.62722281922985 24.3487422121445
-150.703343579701 11.3012340508639 -9.28105883897524
101.705385861042 -9.53821709823479 -6.27566712829793
98.9957450208152 -9.13665814001132 26.1496621705713
185.92224954746 18.3967068792092 -39.0000783418483
-216.11144369328 -2.93076177452481 -28.1377698415015
195.300599411552 39.4952555884804 -13.9622122123565
-205.790798033356 -20.2137944803878 11.2046419329962
183.049447672603 4.96742550533665 -16.244856061193
-188.44502492039 -32.7184613581998 -18.2542143630971
-210.005482616848 24.8359085906093 19.9613690032806
-149.207195428161 -13.8340280278606 11.8518375897035
-219.596490763329 16.6063473349421 -14.5096218034748
-246.718131121367 19.368740321593 7.15404402823404
-228.055326926138 51.1492179556437 19.337787168256
106.919366029174 -1.88326773297755 28.3291516894311
-118.768969245157 -13.0563015036198 17.1329756749613
28.341593582828 -5.53542368803657 -3.10761975680112
49.5467632491898 -17.1467730827717 14.3028223299252
-223.573813146094 -25.0910083999594 3.31348488488332
-232.806295453743 18.4283552052959 -13.8983121344609
-206.929491560573 -6.5298074281363 -16.4902037209582
-61.2198455229349 2.8430827518274 -0.244594080083321
-209.79674372039 14.1242180719223 18.7098056967858
172.990892244755 -17.4676261297526 29.7098662021358
177.846734388444 -22.7851688938807 30.2343291332561
153.650664660333 -25.2465270835597 -2.87341668894411
210.146445152124 25.7414128954587 -12.8787833185331
-75.1156494931352 -9.51333749240563 -3.67316556464756
-111.49101975345 1.29510980957372 17.6491308806541
98.7845102288117 -0.111020898275312 -3.26629646789018
166.174330696066 19.3043648723722 -26.1185813608449
-126.208651072895 -0.798332176749136 -10.0897861687965
204.169003042567 24.0104873694828 14.7699039454305
164.346125872926 -8.67096150309765 -16.4124906718003
-84.9611384588981 0.8249755142898 -3.94887043047066
96.6090392691815 12.2393821664752 23.1641959877831
-225.122537659688 -16.0872112302133 0.647694090917686
-59.8304088309381 3.79064836516757 22.3698195810751
74.6848057585982 -9.94726200012062 -3.07394301046837
-66.684816563662 -8.87307173340872 -3.12610264798493
-209.456095683959 47.8120550453453 -3.36488127674286
203.341874611422 31.7700532554527 -2.88851368686382
-216.216830432243 -14.131723512895 11.8271166383343
209.070039382132 17.9263385867023 0.438338090827031
197.363548643064 39.9403966662574 -24.1869889869027
105.054381270647 6.1561009693053 26.35028000267
116.431329354697 15.1831205155829 20.5682076220351
-113.409063563024 -20.7973261007451 8.97317977219596
207.667000950378 35.2988728644337 -18.2851234894478
-186.599321745641 3.06058363126417 -28.006391536773
6.59081344963672 1.77869457046152 -1.23201717160111
-243.021523219332 16.3171692280897 12.022143162984
127.636888153335 -18.1213593745406 17.6151392825234
-133.4495585334 9.02419697883137 7.00525344546763
-226.958629450666 39.7427952504979 -17.8830968413532
-33.9486258110269 1.54155792950822 -1.84585125781985
-176.599759388132 -27.6600439918039 -5.11515938314
188.110879236442 -2.87828969249704 -10.3694589140777
-226.449581202703 42.4693766216329 -16.8713320904422
-205.1966740776 -2.87981159341463 -17.6605231715456
-225.362896467029 -14.536446398581 2.74958997555471
92.4020233011509 2.50591857007991 27.8687942587497
84.1097529384789 -9.42340089986047 -4.8013807123379
188.996152281521 24.0917858063002 15.8354865702824
166.768658281213 1.12534157020895 -14.3690782811096
119.37854549859 16.7704164796105 18.1797763318378
153.224946645022 25.0078340006798 -3.26966824486172
-44.5298069614993 -6.44371322564707 27.634661583429
182.775350287803 -16.3480418711938 26.7144993022178
34.7439674795558 -3.02268688100392 -3.65899492945099
195.349150624186 -5.06189840593701 -18.5836938271548
13.5319845704464 3.239505264478 1.10344255269182
-163.518537184128 -7.04698383938625 10.9346108837005
204.929385132688 28.5086217615759 2.75984924318815
-187.816681570498 14.3240748027451 10.2324837039639
207.221552623993 29.6357338179569 -23.8725057190859
170.836639304872 -30.4417362250125 10.6711636484032
-181.889424442314 -14.2887168219711 8.94434957695215
174.714820309851 37.8834943482233 -28.7149794020172
-198.20235406441 20.5303082189183 -9.83665833134131
-126.349811014487 -8.34398398383925 -14.3550829831886
-13.484386720157 9.23897897639814 10.0992029639207
-169.168769368956 -18.638934011163 8.1993845842743
-205.119855625886 31.6734737300718 11.0642215869804
181.432954685081 -1.2351432586791 21.2614658815015
175.516851889113 -7.47056289159747 24.3400418901399
164.465567144297 -31.7826573931789 -4.3806176518253
-210.839825668847 38.9078514086872 -5.74576086011282
172.169867583861 -28.3263632181902 -33.919737205247
-190.229134493221 -11.8105353843012 -31.6310874112411
-138.307460377137 -15.7932872378624 12.1817013977333
-249.568402367723 30.5507525725804 12.1474265831034
-171.018623983255 11.7426557003115 -27.0124830316921
171.114802729022 -24.9226492952287 -32.7266246162403
44.5212236331138 -17.1281308529942 12.078366597323
162.382820752736 -4.24770635420949 -13.7059007013743
117.058034529151 -9.07672007268506 -6.60890368639951
30.1491481660755 0.689179914566468 27.952914191265
162.31709420768 -14.4268291542554 -19.0884608900085
-212.160262055881 -31.4207232357667 -10.6630632166427
-189.626588835557 -19.4467790630692 -28.3873391609106
58.0748167751205 -11.5615597648342 -0.645258933378028
-218.859152440836 -10.2123879471834 -33.1718743192028
58.8974185555412 7.1000260722133 25.9794151311333
206.985014235742 25.4098562432079 11.0314528184279
110.575002830817 2.71215977720081 -3.21209873509366
161.940429274184 18.0539900613344 -19.2869972411114
-54.0498764212787 -14.3277678571052 2.91883324507895
149.026646944494 7.06565974388874 -8.25562785246786
172.483311245729 -22.0791491120006 30.3197341102913
193.177000744365 -9.99568719702627 15.999916096118
-207.272916171331 -18.7312414371893 11.6728015903902
-50.6069576013607 -5.82091675641895 27.2982722053604
194.163164576615 -2.66924432010632 12.5507798250008
-36.5153201675566 -20.227419719987 13.4992227204471
-208.350833688177 -3.65566137027713 -23.5762467798702
-7.21718561490544 -8.85822358990421 0.490930677032288
-126.296142042443 -17.0193578790908 12.9873456988144
-35.6850760707972 -20.124638404072 15.9059799470741
-214.405199062193 -25.6983862183436 5.35579769362547
163.462143297731 -3.59918445140542 23.4388628849282
-134.998502187449 -10.0602311451879 15.2601863440222
200.306572947853 -36.2493724735316 -19.6005730805245
-121.516022773034 -11.1540858536659 17.5740305423107
147.51103955976 -0.838724674308735 -8.05021807804173
-208.596322891065 -35.3994380059692 -6.3511447800954
-190.779925006437 2.46634503566569 -24.4570724918389
194.305580926498 -38.7525043406316 -20.6844148381963
206.333035889111 16.4712177898779 -23.3694409253107
200.001391661641 11.8666198957801 -27.8139926295074
202.247000676568 28.691825760654 -32.1327464100127
190.512363782947 -34.8549562060624 -19.8741326256426
-155.256623393553 3.76389417056683 -19.9093865568809
-163.842204252667 15.8897003007229 -9.89762868603286
210.485998424664 22.698854915225 -5.6449370057065
-228.272119183185 -19.2174296988538 -6.17460394092845
-21.1403744302546 -0.96186119705784 -3.12693639683296
209.417994286004 34.5612919717087 -11.9824283437725
-130.310858825579 -21.2053780167086 -4.23207716820844
-141.669040563704 10.3179573256666 3.43194506912868
-144.93363771994 -15.3172844143953 -15.3740977398301
188.511735777295 27.012493670763 13.1407534487173
32.4450139714098 -15.1031687012526 6.27162396490153
167.67834047492 4.41082769826016 22.6311082480215
135.428648869503 -11.3427048643049 -8.78749266236333
190.240532577947 5.21657230071494 -11.3470400084005
-159.274383734174 -22.9359682029311 2.37777051871217
139.690728453515 -20.7025409039798 13.6795599095187
-215.64787357968 -32.727160421085 -3.84136103006028
152.6363877707 -22.768637538334 13.7573165696762
-229.514949778842 15.8917004317626 -8.26704753320019
144.96018319101 -21.3662868068962 -8.57373081592401
-176.921147804318 -20.4006306111884 -22.9764179060911
207.077629330214 24.1299347932539 11.8978403114234
162.689828967895 7.52007800447963 22.5601374833818
174.178781810535 -36.0741940473314 -18.9618366212684
28.0628891046937 1.73521389311542 27.6533713947683
168.769056446777 34.1683212473693 -0.31801252182668
170.830511792716 5.6003580121621 -17.412348872061
-22.6778234169588 -19.4269685789224 16.9124906729817
23.4865766226842 6.7967491858242 5.58161078624915
92.3575939743279 -2.98386676752413 -3.89850467879057
-51.0546952443355 -18.6461541246714 7.82929324656041
-93.2827645057722 9.07727953367478 5.29792779239815
-139.922910655884 -13.8445797869373 13.1733785962895
-188.284332704485 -7.57014074680306 -30.9760657471118
-176.873196228919 -25.3309204367579 -15.1685582557354
166.416562410911 26.4867642507173 -19.496439764763
205.917809487104 10.5206726591344 -8.83683253594952
-121.284218808482 -15.3157454626337 -8.84383561163969
-82.6921722170021 -12.0129292646931 23.4778644658255
52.9457985255412 -16.8849341525826 8.97903452827658
17.5225280415638 5.44594496866506 4.38883474750014
180.702470238232 4.83152717874989 23.550718230097
-37.1830790660516 2.07115108728281 25.8009534659578
-217.715620685473 -31.006236853451 -1.02324205258251
149.94724345202 -6.96477545296567 25.3186141037418
168.11906842854 15.270279836736 -26.0355250225675
-196.592105443319 -35.3371108525164 -17.0172350945459
-95.5681787468628 -9.20982421020753 22.4881273473349
-187.067211668027 2.81050306562565 12.4936746277217
189.953069969901 11.1707896940714 -27.6606241445938
-83.1970480405277 -3.78772227659183 -5.61828230927748
211.36648843736 30.0704883305792 -6.51275630460631
192.689218206336 18.6102396760926 20.7106405056156
172.05197139695 -20.2905220631584 30.589281424424
157.397613214468 -22.9557976123323 -16.1751486384837
184.554281515432 7.38424818542192 23.1086990209698
-138.746943980362 -17.7801827909502 10.6635770805765
-131.594574929166 9.12599193864598 0.0434759214169676
158.412891309232 9.74502095167385 -13.316826763143
-191.130656826917 -34.82971076201 -16.265926496307
188.58093767603 -23.5148121502334 -35.1311405540911
-222.516363455142 -14.8796772883927 7.63979259122426
-239.1315576189 27.9868552148881 24.8566539430548
-122.221881223799 5.91999382221238 12.4365269866291
201.037194378465 0.244961575453483 -5.2196854500138
46.3188997315264 10.7319588675228 23.6246991462733
145.367058711987 -18.8682175761314 -10.9921270699009
-95.8262677709987 -16.4692659133787 -2.06784970266062
209.637819426442 23.4290290027239 -15.1153719136298
-186.527628309282 2.43068655899963 -24.5567012596029
132.118804396786 -20.1946647641435 2.53506952358609
171.22135854992 28.7435831017736 -31.1863160580717
-228.203707467006 55.4474757004166 12.5829829044132
154.477001815059 26.2677957617763 2.35677687481258
-159.757580291773 -14.7213328833926 10.5325560342806
7.66457410372831 3.8847899860315 2.59880529583877
188.402035154609 40.1000987453558 -33.4904158213341
163.696595861395 24.8006721917461 -14.9953125136339
203.738924775603 -26.1650470663681 0.278043446366347
-97.203372912562 5.02350126327364 17.2870648162051
164.987188966117 8.55641518387679 22.5482660526712
187.453737714827 -35.8578701711705 -6.0345426734087
78.3221240841788 -5.25218309385732 -4.91280839594588
80.4420921279974 -12.4653892929116 22.9558476443648
-111.385020119434 -11.5959165876375 -8.66478573465511
-205.644819459932 7.24152011793856 -13.6863422738607
194.803603356492 -6.41370915290659 -8.70154123832662
-226.21295691576 8.57512530632452 17.2400252366162
-77.2942063549002 7.27825740168951 4.34741460983513
-216.729684966646 -19.069304724486 11.3242940507474
-224.351636864385 -12.6581230098972 4.9523108571645
173.198106925317 -18.9744902437912 30.0373797756943
174.450108605116 -33.8255499860552 -32.4727015635627
104.210443830862 11.7182670528472 23.6947543107106
173.241835730343 28.5701115261704 -33.2508786271094
204.055568421243 33.0156860377985 -7.0818054629344
187.13399164163 -30.6771792132212 20.9899692194265
-191.717687459495 22.3436800385515 4.00432973789348
129.446568561778 15.5182617432444 20.4605700371581
72.217297292054 1.71537385636876 28.1888292536381
178.710100541011 -36.1943065526656 -27.5769021780575
-98.2881999839996 -9.44264820198114 22.1010163944306
-206.346757839309 40.69307216863 9.82755549053611
35.512622892899 12.0652639748467 13.6142396394247
-52.0455439377849 8.57605698608766 8.78366275328519
-126.287352362178 -10.3972480460482 -12.5663547135954
157.532984838272 4.87674000399705 22.6577820099481
-48.7485836981561 3.26644261010877 0.488095882970343
-149.316660248071 -1.36066314662262 12.6626364709054
180.645739134933 32.1485808403411 -38.1316994631883
171.6773487548 15.3910215024972 -28.657548766666
-67.0607476683966 -20.4008836955995 8.15024348698132
-217.036116398206 47.6472307397478 21.7159636241253
201.263839734954 -20.512724276958 -19.3137910163785
-12.4811194013303 -12.1134496963553 3.15417973308373
192.724856275164 -14.2022356177567 -28.5915056837236
203.755384468961 11.3896261534654 -18.3472028300048
-97.8856369730703 -13.5691873842367 20.459056433909
-128.170109809911 -10.1001254175499 -13.4740047725202
164.97493482896 -21.6144399574137 22.8668081041586
-198.963195297315 6.83774936402671 -16.6968550204314
-21.4600598097154 0.370808871866091 27.1780937428162
-211.297801902819 -30.8096846378617 -11.9323746508044
180.559309598875 -35.8101053934138 -32.5071891013558
-164.674946657888 2.51568426459398 -23.2853101753082
81.1825511302144 -8.95734139906809 26.2955487711235
-203.742894815886 -34.3986379975841 -5.70038512764509
-99.1648126654322 9.30213736387864 10.7287684582804
9.18760772223951 -0.0496008973792509 27.8295379693577
165.951143471557 31.2915946652747 -15.0007333024039
-190.775251418736 16.8995604470668 9.37147535948322
-215.472422291812 -7.76912851275167 -9.12626471106961
167.498303219966 -31.8961252803197 1.6297338066963
0.632476381299441 -18.0104678860841 18.7265683927794
195.92961478143 10.4862226010289 -30.2523953168303
-104.076664772747 9.40604765273279 5.12593185086298
202.696603879291 -16.1155975995066 -2.67995903712415
-15.6525193958175 3.62084623837278 1.74642410098449
165.265392293623 -31.425172120969 -26.6482386207746
-167.578592036853 -16.0896592166793 9.30489359976305
-222.424749136574 -28.609926720712 -13.3243541723594
-20.3279379048723 -19.439482790968 15.0478806494585
165.271775812919 31.1288718533426 4.93424134127963
-91.9098770448205 -7.61644290409971 -9.21654745017908
141.168697569566 21.423637758891 8.42829038155579
193.32509020022 -37.3466763208892 -29.860851308176
165.069641960784 29.2486612933256 -14.7443379371255
-19.3739929389038 9.26349314075937 20.7793440379928
172.362191354206 29.5890791053091 10.7947768169889
-208.948180717908 -7.11496294376461 -30.6780279037642
104.041543076255 -16.2517815107738 -1.80459931510996
-239.85142675785 38.1066974343439 -14.2074247466005
95.7958498748135 -1.02340983965612 -3.42017927988173
-217.464943095123 -9.47757312190913 -12.9880214031599
-90.3949835156772 -8.55812805153009 23.3380097605192
-243.283513889641 16.6652977462752 -2.78933301676109
128.895224868857 -19.9415710751674 3.56350824235667
-17.980867766147 3.5848822348544 1.2104948540068
-51.5974469702769 9.36976560028944 15.7098357059392
-58.7441944461532 -10.6093223461608 25.9964488888585
-145.920512484433 9.05209898664651 6.67304358250997
88.9881524138318 -0.0616976342941275 28.6421912626418
-118.075760752287 6.97606602290188 11.9672696527113
140.30143693402 -0.333692596049461 26.034699186838
157.41571090131 -18.777104268555 -17.073972680311
162.598230592682 25.9113368663573 -22.617204833832
-42.2270124593422 -1.3667856010816 -4.22322931911723
-108.185687440909 8.09029638655196 11.9327642055946
184.89751107124 37.5264726650701 -0.068924977767262
200.974437600261 38.6851084681235 -25.5725401377237
-169.291579715638 -25.3187994191494 -1.34696533037565
195.931748924206 20.0371532331843 -36.877864481131
-70.3737825158811 -17.6944612794163 3.88656504610559
87.3126930009946 15.046952938408 12.3881670711328
182.871259439869 10.1913558587645 -33.7799176647889
-88.5884123689303 -13.721773205856 -3.11896084637821
-214.024012354834 18.6438526143898 -13.7476129394405
-71.5621714950928 -7.63177717704555 -4.7082718869121
195.202587835112 -1.48715636048708 -6.2846056937187
183.207011132065 11.1269703333334 -20.3462685326067
175.099352933973 -33.2094465792714 -27.7026579815153
-210.388037276353 -34.814255400115 -4.82531524581353
-212.433183976249 -6.36768476846642 -8.7251267048843
-83.4044962908043 -6.23505164855023 -7.01430083108293
-216.663934581663 15.6808539509173 -13.8357751395414
179.955737004521 39.598263049334 -35.4028113270352
166.681331376507 15.9515962634346 -25.89558735673
-227.039047589048 -20.0769015240755 -1.88018751164978
122.742606101913 5.02229900998006 -3.42413312020698
-69.0850467700062 -10.1664736884262 25.3389997599012
-209.11840396024 29.2145836226271 19.8045529637038
106.556713261102 0.051993269645467 28.3711001565882
-19.1415044225423 -2.52435524675594 -3.89953742665184
155.248269289236 -9.18708133745152 -12.6956616217634
-216.01346025896 -6.89158014244385 11.7914254181373
191.57254387619 29.053700893669 9.68615920917009
175.716688787756 -14.6767691211906 -31.8036913751698
152.87365346421 25.2521072472312 6.74359645070637
-213.377580626047 -21.5693427362262 9.21097946566834
148.862334991806 -8.9041952186069 25.4163175194169
203.478372710478 -27.6541390470551 -9.06285231579001
-72.6540189127657 -14.1929573678307 23.0765042033122
16.0117541353861 -14.877136626442 6.50357236723574
-194.438825321353 2.09032914909105 12.8953226349639
-188.887952871121 12.3048586878215 11.4008261071455
-86.0553695081443 -19.8841025558947 3.87371421326927
-77.4031248689186 -9.82977242618802 -3.72187600649597
-154.527916819105 9.68569211809471 5.84352565908369
184.796133160788 -28.5010492074378 22.2159487896837
-2.57504576922508 -6.26842003674789 -1.67429926056601
-183.342471468577 3.08960955125273 -27.8666228497248
199.757610148947 14.7428148347878 20.1588867122227
116.918389926468 14.4758162871216 3.4664625164119
-210.933998065816 -8.43004220464975 -31.5059927122469
171.064991634197 34.7886232625946 -27.9654911900395
-84.7209937188662 -18.1249915874641 1.94287223684952
-68.9042825025925 4.46578457042921 20.9374141779333
-127.030957894039 -21.6222018951789 6.05008009028613
163.301983480067 -10.2416697660257 -16.6491910532665
-130.338606733546 -9.8309072204055 -13.9285329544415
-3.03251614595083 9.583733427844 10.4631459213243
164.091493707878 15.1244425335706 -15.1864990326217
-177.417919579755 -27.3107602614149 -10.7980783860318
14.8432522654768 3.72265083502751 26.6322182411744
186.75865766211 -1.80696853601306 -11.6142258939046
-242.556933756426 43.0710095158393 -9.60604040627751
-207.336853918367 9.18907217991654 -13.3200655882233
124.613364344067 15.2635976239162 20.6480736246705
-179.139477304206 -23.844396801485 -19.495331678648
-82.6518854971006 5.07653445819216 0.93860777304702
203.542939224397 -31.4756461844599 0.267242689006345
194.618250290239 -23.6900049668001 21.1473458407982
-152.059983073583 -23.0965412506799 -4.28350331536057
-156.256090441265 14.8692259522876 -19.8760276643515
206.732077049351 26.3716688252864 -24.483358576884
163.346567054064 3.48724901198803 22.8395547852544
142.824250677423 19.8095663375522 15.229113953055
195.556554431964 38.3869166363727 -22.7211812413317
-88.3903601251091 4.13520992309911 -0.716050353008248
-222.599125227786 -0.253015150877082 -0.567699038307326
160.573824222278 1.76640638285986 -11.2605148832174
-143.604211802202 5.61025965559081 10.3454839250986
196.604945409944 -6.80753755431392 -16.9205427271432
80.0150111932977 -3.85424800946652 28.6800675385041
-206.306616655558 35.8308117025496 0.824780803156932
-104.784773105695 -0.518215118139867 19.9361589785081
190.226056497719 -15.2610842362557 -30.9650718583222
161.425061141325 -5.42568237555251 24.1862880495447
-196.23060363244 -37.1165560043498 -13.7325341158212
134.930812814533 -20.9447993570489 7.335359094132
-183.445077568486 3.0907324999604 -23.8527289729707
-40.3935516388771 -17.9251473331624 21.1012285760202
166.318154507487 -21.166780760984 24.362810045364
-169.779636071286 -23.2515833602695 4.49189798272072
-103.892780866266 -14.6199338721971 -5.56628070878645
-88.7879516762063 -15.8034759878676 20.0053453260355
200.224971221799 0.357024834474071 -3.53506777036575
-107.298983337203 6.76094808611579 -0.102914982227578
175.261048353229 -37.3274075970334 -17.4193693842613
-162.040624750407 20.0305792924751 -18.9965283678513
192.503741177759 17.8397170127791 -37.8791180051752
-150.584966763048 -20.653062181999 -10.2090621634479
199.079429213271 7.64324400544275 -22.0822479599271
203.559160560276 9.26882744424876 10.0851309154047
108.341143415026 -18.5014689933847 4.39803194760235
-158.447580912164 15.7737074180461 -2.26936101395787
-221.684858988225 -4.38513793140636 -3.88428640417969
187.844707513446 41.0023830807785 -30.5066972799741
-148.833891167092 -8.34046059427247 -20.7357503138392
-201.036380982384 -29.1004009509297 3.52640901725526
189.051875308386 15.6768442406074 23.770710794768
-82.8086795353845 -14.6257620872518 21.6787802544813
161.974924598874 5.75371245974797 22.0035569431046
38.0006159511333 -11.0334010464996 25.8914337256067
207.538489811315 26.5287705225181 9.60943667918337
120.442039536105 -8.33015384010598 -6.73866343290275
-214.058891414993 -13.5672397987017 -32.3160508082205
71.7898825874983 -3.77367769073037 -4.16676021965694
200.950218467056 19.9557035960025 15.8680767714475
167.444683350298 3.42503665443455 -14.3231855284286
145.769484109015 -22.1840735160928 11.1460288156789
165.961874853028 28.3435630194104 -21.2471549242018
-198.058701520905 -32.6053879393839 -20.065453710727
172.112151189329 27.0456121425253 -32.0812891520148
-242.232098852524 45.4788119911158 17.5586157131964
-81.8926832874025 -17.2866563429415 1.51806744803527
165.831606411188 -10.5679471788367 -25.0467377357911
-109.313041674923 -1.56953986473964 -7.7429474747096
149.521887930301 12.0830680800361 21.7977929549122
-164.428641489512 19.9263650379851 -11.8259217844059
64.164905776265 -13.1217542687252 0.011710748396933
165.302574936189 -19.106513814539 25.2508175801652
176.65295879374 -35.4621528049107 -27.1375518904146
184.535864778076 39.3927995564399 -36.059792134417
139.408360659023 11.1243839641253 -4.43810619194493
-133.980296766714 -0.703770485171204 -12.0104603824838
-32.8182782562021 -2.74505651808486 -4.31270645687122
85.0250108972003 -15.5313982340666 18.3008408406325
155.958238184448 -10.5165506979853 25.3621390747472
-196.490376046219 -33.2531827624635 1.4286685233783
-217.836322337428 4.25242205648681 15.4953757077447
-186.690913591656 6.0605308452514 -22.0430696359371
209.255186960212 34.1838390125911 -7.14604163472806
180.080917792013 33.1751888807483 7.50893630707051
176.003758218173 -31.7619003272202 8.68731017757486
-69.5552542025184 -9.06288129200408 -3.22100080606853
132.843398155055 14.6461583180426 21.3128735600545
-184.489642387569 18.2386648378431 4.85025210540101
-206.63954406019 42.997488010162 3.76772243977586
-222.922568224277 6.01753352048449 -5.15630963878322
1.05399050154442 4.48244061226601 3.53856295629835
-39.6651657660891 -3.51305533190352 -4.94792286210834
-16.7823467936888 -12.6713723962643 26.0866786208116
-155.33290714435 -14.6055585723669 -20.113249145032
167.581185409766 27.5419087579959 12.0911750012644
-165.903793608997 21.2723958837547 -14.7266510780398
-214.939496477338 28.4561533791073 25.3817044219228
115.821513790808 -16.6417957153763 18.6137564726608
210.122612943466 31.6257185184302 -13.6495284686008
-183.138789439971 13.1243666233711 -16.6646582331225
63.6565111621015 -17.1775548329809 12.0956678934903
-208.523019737535 -9.94131573406733 -18.1988265833694
203.42799435064 6.12366521360258 5.27915962638079
-74.2204830541943 -6.12211495510516 -6.20268965748468
-34.2178045784408 -4.59936423746753 28.0050256438427
-139.045810751936 -10.0959022672362 14.5785497656209
164.847799590265 -29.7743538814577 -25.9360117779913
161.064570232014 -20.8384267465208 21.3743151006714
-214.261670302218 5.96959249492326 -11.6310339481597
188.187698579423 2.00245952082519 -10.7940160471834
-202.584239041775 30.2518423428625 7.06078028905231
107.944488183232 15.0177662420814 20.3861290464721
188.529399374934 9.10453603568171 -32.9898872909053
193.510983165559 -34.8003052292193 -12.3337179940357
61.4266352288896 10.9506474862919 23.7077468064833
-184.172765002951 -27.0480555286749 -20.9464566209474
-206.528824980017 -21.702767351067 12.2798419658039
79.9001385343775 -13.1976671913182 -1.83715937253212
-152.005086349977 -13.7538543879612 11.6080983431555
174.809669760824 33.8823370870202 5.34516036773732
187.38882604607 -27.6239183043387 25.2171750152756
-212.500043016973 45.2921106405621 -10.3220523194323
114.341790375005 -18.8669106463392 13.107839230169
150.756043763013 1.10848489264456 24.2218696407815
117.266631296583 17.1033053757122 7.54206801078895
185.431540527783 6.94544238774272 -15.8773122263602
140.710311732384 -2.33769071314299 25.9856715744708
58.4043553837475 9.84743128795146 24.5683446854186
150.547069382039 -21.7103268051172 15.4882328226647
143.049139177841 -20.3970710551395 -8.66722856812725
11.9701660136125 -15.5102267976241 7.48661035313159
64.7137533016237 -15.3282776483015 18.8831136177337
-159.988970782019 19.5976379807445 -5.22064961369499
-137.698271727892 -7.86365374869649 15.064994874659
-35.4920659325828 -9.73553098598218 0.320762455276115
-200.472028018398 28.3334793721747 -2.79174640810655
184.541107179087 18.0688716970556 21.6150814866769
205.531087826026 12.3783918638721 -16.623499588668
-212.482856250548 52.3796240756729 4.20861866644479
191.968579760707 -31.4243012681033 3.57535230129709
-123.803269043317 -17.8379976398679 -7.28928957749529
185.587212052107 29.6665778177856 11.0309176562482
38.4145793056898 -2.3215731092939 28.6626092575396
100.461264569265 5.9047022661868 26.4106888602716
186.067658572945 -34.2896049699611 -16.4023158065364
-213.3142634944 -5.69135578733151 -29.8994725799237
167.367609206048 24.5209775516443 -28.7036471656248
185.415056359284 -31.8768750878163 6.99293428955293
210.387728271736 21.3623345860775 3.83197007275403
190.171599763081 -31.3461078084624 17.6673284126734
154.030884804947 13.0640344596559 20.9452986344118
-141.373577099854 -17.388118306385 -11.7951398469639
16.5255553646768 6.87504167063918 25.3343910306315
-185.771718696861 -23.3533206057331 -25.0713658588417
174.607393869167 -18.0815938419199 28.7185421759883
-228.743939300284 -23.9571586175923 -1.54265205054059
-187.52819457159 -25.3410960350734 5.76201056644273
-158.543859536131 17.557340746454 -13.2223094152325
161.455678733892 19.1745458684456 -18.6549147232851
180.201157760894 42.3605356527189 -8.57186021496056
-113.861839026736 2.36253946960356 16.550820851204
178.29124956925 -8.17592463363356 -23.4311065581553
155.700486180004 14.0265407247569 21.0241989384453
43.0500739617709 -13.0573380540897 2.21395751763915
41.8418835706881 12.5442992544917 16.3383083043475
-120.917990322934 8.11376924071588 0.0570341162487243
201.951152274669 4.81485285958161 7.32966105467587
-99.4173064171971 0.994207804246416 19.9870172402589
-152.594575963312 10.2499934362876 4.07593430486689
-59.3930320191403 -3.94642808415979 -4.67940793565394
186.546970655564 -34.6018352744256 -2.19162014185498
-129.203010806312 8.92636267609928 -0.0433776088495312
174.703513883821 -34.0726248299498 -26.1373226835132
198.202354662698 26.0282336753708 -36.0266843178789
-166.858105734595 14.7762192078457 -27.0968687652641
192.775384873293 -19.6316490173597 21.8926092880295
37.4800537454764 -16.7749212101628 9.9238309907584
173.243220416106 -37.7763091901629 -11.4335168638379
174.866249040672 27.8528835336698 -36.7717820546271
-188.018546008255 6.89951628978617 12.2404788736511
189.947613245555 -30.3698934908613 14.811052193198
202.15341297489 33.6028731622145 -7.96199760069085
-39.4058509967786 10.0387228450595 12.9131217965236
18.8043423533708 11.5368181767929 18.4831660579862
175.087554525093 -23.1402015550624 30.7803292151684
-127.157034129132 -11.5078595192016 16.3694419071223
-206.164441381434 21.6398214286226 -10.9030969914625
-151.704580826207 10.6536940057282 1.56744821278268
127.703554379818 -20.1020058257329 10.7762534912002
-158.455612805428 -12.4318720831218 11.072760166193
170.987828046002 40.3527185135999 -14.3319804595449
133.571680476809 17.9498406915258 17.1739954376585
163.698861470204 33.3497630149212 -7.37329798103227
95.391560603883 -18.2697513125348 10.525266426793
-213.58077030277 -7.68549623965854 -9.9900425979467
76.6903236202507 -5.51534525591965 -5.10579060585631
-219.157824370248 -23.5102931224936 -24.0095300388584
49.2322687702337 -12.5848286750654 1.09825862434398
-95.7239389738022 -20.0932101017999 13.4283438469432
197.520820032722 9.50282374063019 -22.5748809926191
-163.664580451176 20.007436085395 -10.9632540090348
-30.756448587779 -4.95261539347793 28.1291943540107
-197.190305100454 22.5079549973926 9.0327623120765
-199.859617190837 -0.387622467812291 -25.3215014156552
-122.865719949576 -19.6110584427578 -5.14710613172665
-206.554279023127 38.2286675297469 2.23397602364443
-207.562598644094 15.3376354447104 16.929291983547
-199.510844721135 -5.42770991083223 -31.6337615911171
-223.02291355792 -27.8080018974226 -0.079143008775538
-217.63266249286 -30.6800649805937 -11.9285400312206
94.1192340381972 -13.3320440669927 21.758958518603
198.228678348664 -13.5970652532846 -19.9620880750037
117.227634261541 4.08816728661942 27.1339643981522
-154.746985515466 11.7619324970548 -5.06069576550505
176.455819148347 -0.396131069705852 22.1905222090897
161.085990957678 30.2348191158359 -3.34780983391844
173.524019968906 -34.3923797284679 -23.2591249823683
-244.408486787601 44.4988379049738 15.7583657416114
155.598896523328 -6.86176132654656 24.2072082606138
162.332431224954 -27.0490389683262 11.142024987008
-156.00179631748 11.3219096510223 -0.415045400228272
-190.983563418453 9.45035338294852 -17.4492153462924
197.602061895946 19.5715747152944 19.552072466964
206.38426091844 32.3310231745518 -25.4415654214726
-217.71499074129 49.172871469676 -10.3333457396308
-220.103654310715 12.0229842338064 19.9636494633828
145.405249435281 15.9240906623678 19.7447435972858
19.9188604557782 2.69479192090407 0.575243964990576
82.3666790257103 9.79684345859611 4.85985220394077
152.984568603129 -24.9767581137609 -1.34977023897014
-91.7332553278735 -18.6910866927656 16.2295364170598
-136.628600068489 5.23698869744625 -8.04777783538126
172.775512231052 -16.3019347934966 28.968666843773
131.818284418005 17.0646115259715 18.5572157093889
110.21833113932 11.4864510972121 2.35187932746823
-187.772787473676 -2.92181981019603 12.3434511389713
-193.060488628399 -35.100225527174 0.436461258920802
168.142405944806 -24.664830466636 21.3215042856386
-236.713214860241 54.4745479635222 0.973899736535995
-225.48263287523 6.49179943951853 -2.06453434575826
137.597412948319 9.68953000938217 -4.27021540899803
-139.011257223655 -0.963947005333739 14.1529971306649
66.7807225587564 3.54424762256126 0.326423219864799
193.244526614254 -6.52445048707207 -18.938272722947
53.7227799759966 8.29196361134835 5.65692106123676
71.6461059804641 -8.26779940557174 -3.69401237741043
171.923086761071 31.7241419366918 -25.3501568752615
-224.758851497167 55.649064610177 11.3282517191693
180.070256246934 -32.9965857970465 5.03713487192757
-225.354267802844 26.3595724814992 -18.3048776539746
-234.004928052421 8.69625698507463 9.65683085283462
-99.745055513071 -21.4587384149471 4.29217270957466
122.253722756671 -19.7866855718058 7.20743701660642
-176.453855298756 8.58433885667725 -26.7863521938103
193.990394800203 4.09681781351478 -9.2811631687406
-173.856936931957 -18.7692703997351 -22.999699954681
-189.869983379628 -35.1631915777585 -7.33597256231165
181.703768512659 -28.9652506698547 20.2048646580852
174.420210472646 -24.6432512934666 30.0986749478443
202.116230483343 14.520628057289 18.4403022382554
-128.747423931675 -13.7754404355819 14.930150927927
152.256824678093 -6.01892013391177 -10.4635763399998
-189.341734651662 -0.523707951703348 12.5667094453537
167.401718125627 -14.5796172222107 28.6190222546224
186.075299936076 -14.8244615774536 24.9975057744774
-107.09416547419 -6.85306038927829 -12.2436766246305
-128.143700780154 5.34939247861593 12.1386536729454
-204.510194598368 -1.31133924426147 -25.4894104863942
203.463798790606 -27.8637835355236 -13.3092400447115
171.539347899735 40.0422624891183 -8.57835119124679
166.679569639706 -0.306612090142006 22.0384541900571
170.589929966865 -4.29888215077739 -19.2502380486832
-244.3102877294 46.5742423367083 -3.82149717083217
6.01771898073465 -11.0802343263835 26.6425774413548
-202.026889244809 -31.3005757401184 -0.373930941748459
203.387451685412 5.21672593470252 2.62435437786772
94.4842697913039 -17.5526187861091 3.40107083578921
-143.94765041673 9.48196301510145 -3.00674305510156
161.168396315613 -7.4482004228992 -13.8636113138425
-24.6200971865913 5.09879021856233 24.4958059462011
-240.15322431985 22.79041400324 22.2020667638776
166.971948166451 -30.6346629291011 -29.7497400123379
11.3255606104797 -17.524267416542 11.1059868014741
192.789286070368 -6.80273693336159 14.127013512509
-41.6818117135738 -9.30985907107096 -0.333690763223276
173.937481774369 34.5838465708821 -25.2667872671366
95.6470219830968 6.72145188824514 26.204492425599
-179.626869311451 -16.0543044913144 -26.6531119723204
-54.0844706191584 9.68217389955377 12.784103149927
182.66494028963 7.49828501429819 -17.4564699188049
189.50942457396 -4.59415756833387 16.7265166615386
169.528992386991 39.4229926063996 -9.54825246587775
178.38505399404 -33.4863179425996 3.30311261486167
-189.970578575344 -2.43400147381357 -30.8194072702823
-74.0888020549271 8.43094884580233 6.86269503255732
115.497964791624 6.50494347358934 26.2433398147384
-2.49572946514131 -13.7355082291547 24.7975937209932
176.341141738231 -38.8065864907153 -15.0534117297695
-173.754307878676 17.6181827724889 -24.9723670658251
134.756855587621 -9.75956238173852 25.9022787915415
-139.551166938585 10.0200806083061 4.39097275508097
-171.429522737365 21.3878536914989 -19.4890028171907
198.044592921763 -35.1108046268097 -8.17765768159759
-189.29710419747 20.8126865466789 4.12498611468276
91.3712212278384 -16.9144644964793 2.00441411849288
-203.602683582845 -25.3936496700648 -25.8202106291698
49.5059685132589 -3.92518013389183 -3.73519498276999
-242.086964828663 48.6086805255084 -4.5375796125385
198.81683792437 -6.0739773265479 4.87871799343561
-156.41836762785 16.9519881504616 -13.2437856521452
85.2410446155434 11.9629911850529 6.69665805350018
168.260735933532 4.26945197176624 -15.2426011201949
125.317786617224 -19.5275521751942 3.02384479195806
-77.0730745782151 -21.2307230135651 12.7598847901043
171.471238482784 34.5147059025576 2.72789072686394
-112.533283104614 -9.55254373173715 -11.0239522899912
196.562008293183 -5.31241937176664 10.1188384151506
81.8056378803097 11.8272798208905 6.87024141143435
-210.055810480003 -10.1673297848861 -18.6983752165554
106.347099958594 10.7289193455864 24.2162577236283
-172.674241628883 -20.2686868767381 -20.3799831317647
100.320138549961 16.345148193407 12.2678099808822
141.278738436799 19.8668834859167 -2.48338446046341
-93.8650753835064 -2.69147473312924 -6.25493394219996
-196.253495711896 10.6112785025804 12.8753364335279
-208.700884585534 44.0448154587406 -1.08547546626544
-190.999702819175 -25.6282658363353 -26.0060656462383
-208.165125059734 41.6830141912777 -0.0456857728500026
-198.480472556089 10.3206598421311 -14.9994569678216
207.000488424767 22.560679659713 12.9883127387772
170.608006673852 21.2875352797245 -29.3899824512818
-180.898364784168 -29.3715242474467 -5.42964850239156
-227.991973852567 -27.2307277620929 -12.3061985355349
166.950342213145 33.3504042984455 -0.671742228758859
-143.361817328679 -6.78964258233598 14.1179545200192
-28.460260721375 4.64372285375928 3.54745904025708
-226.551034858067 14.5181105659989 22.261551789547
171.231299556607 37.0196935939755 -3.94348181202497
-222.785238063296 3.58423489516254 10.2287683829769
170.321376990094 31.561096404868 -26.4215513096477
-105.540195359744 -9.60735547855297 20.8737913543946
-128.360241274329 -15.6267576571758 13.9141245469034
203.430534885224 31.0127845841527 -30.7612165278539
-102.648842688188 3.99323657099721 17.1266167208643
202.886678348766 24.2554675113474 10.0943313472378
152.243861561212 -12.056427179566 25.0578819824357
172.663139523289 -15.5122112270188 -30.7686622070569
-153.318012839872 -2.05387257481442 12.2924034108061
-160.30378982376 17.8734673067349 -3.03302136624972
-194.348256488325 -33.7272364684921 2.57561351341355
-190.157029270626 -9.10939753792015 11.3900455443949
180.157421126724 14.3985639019226 22.8143019609063
167.768566794231 -0.531338015384459 -15.2947483025936
202.519109969721 -22.4051271963972 -17.1110497160652
102.952793032703 6.43738421491117 26.1743380970884
-184.277612212923 21.3993627797108 -3.92886585226614
132.676697907905 -20.6934563351581 9.18004259211257
184.437784232286 9.65017005087905 -17.9322410360022
18.9547939753919 -17.8520390994542 14.0212266408819
172.482739637963 -32.2891036887694 5.32781451503636
196.31303391707 -38.6563160074321 -21.4785453125651
-174.880212893124 19.2223881746335 -14.4443844150393
79.9470731779015 -10.5945056534008 -3.32821331488288
-109.846551169254 5.65539903789564 14.5790118518012
-7.3004273164431 -1.96143398244094 28.1786370478518
-150.34071923898 8.52195116296272 -14.2066805623106
174.880548286014 30.5641337230023 -34.6983601977744
178.542419041018 -21.03041620218 29.6329777096867
166.604873834392 12.170710903588 -22.0347259646525
-137.312037745649 -19.6618740491687 8.85422817416923
7.25959730585948 6.0967336193237 25.4985570002989
39.3896821786232 -13.6610483732886 22.9450606108687
55.9170985991712 -14.8794532312172 20.2234299302465
-192.830103324704 -33.3020384601028 3.67542667506144
-55.509376462053 2.75731611765655 -0.403073601338041
204.905393454101 18.3770639219902 -27.3285946192641
195.566902687668 -9.13913744804533 12.0992452770307
189.606576186305 -25.8102614729494 25.2497991344723
187.621869595832 18.9180319086719 20.8486645108822
-198.571086750754 -36.1352784884938 -6.76403486074777
172.772450858204 3.1556495242404 22.1590504965926
153.171286351573 -19.9529838621733 -14.8238932725308
204.70475139603 -29.0475242738478 0.266776544411434
19.610584365691 -10.3772783367665 26.7857947685425
-122.040858618022 -11.4311513197253 -10.6503892754272
-204.195467836641 -34.5915430646075 -15.4694776508104
142.850177768959 -15.0129394322052 23.0490868940972
88.554296408966 15.4019639878775 15.8795114404754
152.02641703209 12.7580770119325 21.3368463102828
146.758291187175 21.4458014891997 13.0991336892228
182.364790561539 2.44248151251135 21.2738441813853
208.206013387091 19.0055784291199 12.3750845755017
57.6384873928315 1.31043937548624 -1.00766166561626
117.861757239339 4.52412071729674 -3.11739328717591
-151.101797372938 -21.0088044105969 6.22765853761455
176.936428520422 -34.4851695644594 -32.9836407455349
-126.929873569659 5.45903535372154 -5.80025161989808
-170.417628907075 -25.6412151345889 -6.97594212270421
-184.833009231817 -26.7355875828167 -22.8551523522433
199.025345951231 -30.7198868536524 1.44785672298503
-92.1117159615153 -6.06381572027284 -7.79397698020767
-209.762851975591 -4.11922148347193 -12.2787063995192
80.0909769122635 -16.6173055485983 3.32500955542507
159.31910456117 -25.1132004102846 -16.0530768880579
-15.1459074570424 -6.18164877138996 -1.6627335825276
-105.388134626823 9.7518651112224 8.23470213306324
-216.098475513552 -5.73963885566536 -7.67768021140597
-178.636114497517 9.60528180187623 -24.0815181432454
166.967463559309 -25.5160684025787 -30.9375207143669
-210.844076294132 45.4730592748856 -5.06798437496564
75.8442433214214 -16.2458171232715 16.7796463149994
-64.4735726076183 7.25203628220776 5.97857216951889
176.42990408488 -20.8718355887329 -34.7222032541963
209.19370260859 20.2906137842533 -16.1631017288321
-116.016921783635 -4.61631390048204 -11.8764069555628
26.8196075080567 -0.925871514962097 -2.73467897473864
183.367363596783 -20.6378921563679 28.1126911278082
-207.903562362351 -7.36904571662595 -14.5119089088778
196.393006134235 10.8318157019506 -21.5854965686572
-38.2298354869189 -3.75602938102443 27.7756685985278
166.365207737325 15.8256796751336 -16.6555531906944
-152.871817093293 -19.8773057742967 7.65040156634839
107.903109250954 3.92689573476291 27.2494538958256
120.921941118473 -2.06044225761529 27.941516754172
201.593633540112 -34.4232863597327 -8.83813862102433
194.207977895139 -6.87203918005969 -13.7517693662377
-179.029097120044 13.8608257133139 10.4625813964392
185.769874198694 12.3828277667828 -23.2852294843686
-134.648459235156 7.8860669954824 8.69044326061035
-152.380494329154 8.77507291830981 -16.5085564933775
138.531771794341 16.943600702303 18.839235897618
167.175866780825 11.2785347767208 -16.9323481769367
182.995741678816 12.6176562076233 -27.8075288862011
-188.766505592395 -7.07492869873708 11.3512453146618
171.080094710324 12.9191481014152 -29.158399665369
28.7793298035806 1.37985932467597 -1.10520512678938
-218.435081520224 9.84352894659147 -10.9432387726166
-161.894791088374 19.0927035273567 -10.2342135312374
-147.258779670794 -9.29588723653397 13.3462083867782
-181.391216628022 -26.6403431587725 -17.694889859102
-183.04272943621 -30.7239816795966 -4.23436904386336
143.742067138625 -1.321625399925 25.5440121447822
-163.748569994122 -24.4041241969335 -4.57921409691422
136.275963352202 20.4782798168982 7.60624164753833
-246.740113954798 19.220753770007 2.95654194563613
-221.276616186981 10.0888898873739 -9.6606479960754
-239.79943282715 16.7207330364492 -7.74675638911312
175.01096687395 -24.0416609722985 28.8182284408257
-220.292260744701 -25.2668075442155 4.57316853218944
-161.667843532124 4.4798380189435 -23.0037838430648
-95.7357156473237 -7.84802598033212 -8.70049568834538
162.368077159515 28.7634503309608 -10.5717746126538
132.905671288179 -1.78872609271342 -6.5206040362142
-217.606794015108 24.1496891803496 25.6113381363542
175.512242443058 -14.395670500721 26.8310507192185
185.753158382936 -9.39834096572756 -30.5947813161685
-200.369655406383 -30.5005166757636 1.78156882877806
188.071803151397 10.9806049984015 -19.6536912410989
-186.528601353622 -32.8524368117815 -6.16871960234193
-224.406570571798 -6.89361572167333 -29.9468602613576
194.616364031089 -30.6378301324517 4.8640099317519
-28.7856630821457 -19.784756295182 15.5915004153938
187.670914035205 39.7923313299621 -3.84945307464971
-4.39672091630859 1.73627000288784 -2.39421915816963
86.8147936876357 -0.55653716345472 -2.8389825785262
-43.3134205553819 -7.52069140572774 -1.58206859139783
170.559187311358 -15.6604094289608 -29.7103030695547
141.244149023159 15.1343689554744 -3.74548987868246
47.4077328745757 12.7425300291696 15.4255090297563
-220.597805521916 -9.52658480177538 -10.0489635032343
-150.525543451776 -18.2330827870444 9.28201454034271
-249.17921806603 30.4176977625998 -3.33535685736013
193.203309224541 -30.7915619646579 -32.6702190325683
52.3235287099639 12.9248072235261 14.9130330558082
-206.09644278013 33.4691637944153 12.0837853563011
200.147557388245 -36.4627656456553 -16.4133256531275
205.272405214842 21.4945369523043 15.4028986089243
-80.6876549830243 -5.86781551275099 -6.45827858771283
136.86705916507 11.6632082144889 -3.64139842365493
51.967401658282 1.98005927666656 -0.797877004182055
196.929318631046 37.0462395217971 -6.79568727740527
102.132195324839 -6.80359303226002 -5.61957624150673
113.412395967284 -17.6085727205833 16.5877790616913
-187.936015922296 -0.219960613116758 -29.645167948432
181.888847049043 14.9702338985987 22.4438069389347
-167.987542490782 -8.31601173565331 -23.2128940177759
151.798663198932 2.89523410789888 23.8677293627613
-173.616828593853 14.2697914351626 7.35458476080392
157.706544959465 -25.9112699822716 -13.9177804627537
-142.100941639967 10.6935204237651 1.58687168011067
32.8753178409226 0.566600275254348 28.0266775630485
162.419565692878 26.7738367599618 -20.5880138460608
-120.241649177131 -12.925282415835 -9.84679724361146
-203.690592337361 -27.6729381404324 6.79086009923354
-228.757242462656 9.91199486660325 16.2446628154738
205.046738190632 8.76318346816075 -7.51260023287939
191.25407766246 36.476094330031 -0.532577467920123
195.86466068113 -32.1260451412278 9.09310013994664
-246.495311440606 42.9791777565068 13.8143373203295
-249.062263673754 41.3214750177275 8.50317162407022
-2.30557019783555 1.18702262961698 -2.45435421550804
-185.266210837639 -32.0538474920454 -0.245499950724101
5.05703435469552 -18.078888722164 18.0863485188922
180.103495377412 31.1366131642845 9.98397111375396
-187.179048731818 16.9304494408613 7.92225226867992
200.125554904289 -29.8612542237926 11.4165935098957
-137.42664589548 9.77477573257405 0.182944068619565
-217.048531406982 -2.93716836210168 -7.48504963024839
56.036843172229 -9.52506832774571 -1.84851257822466
170.385783535277 -29.0788323998952 -32.9793934230145
183.949633999722 42.6770656679347 -10.3509079319586
171.672463659699 -35.7975858726725 -16.5856292743659
-218.503479303562 19.7195417584534 -15.2867277355709
18.2483686327943 -8.18182564831196 27.9629284319359
-213.866570017507 -6.21183788880534 -8.30838805729353
68.9282545324541 13.929855207122 14.5910680834895
-242.885383837633 42.4337958737502 19.6168724740345
-249.811511767201 26.228450058227 2.61380652425294
-227.780765428806 -4.03331821735589 -23.352857011843
-30.1991252165738 1.91559398056246 -1.95720798170514
147.747688403547 22.9448910547258 9.27272714545062
-82.4743051398992 7.19358670333759 3.55109037238395
209.203307397146 30.5598936350236 3.10166818933274
-248.473834656807 22.6998163199147 2.26439455874487
-193.214734554329 -34.4652963872307 2.19460886854167
-20.7452146443806 3.24425311483172 -0.613794959082516
84.3138995679196 0.337314663530279 -2.39518152066062
162.324097805518 24.2774018958388 -13.5711118953129
-220.820676595467 -0.18273502833378 7.54068184135431
-236.658777144689 21.3800235106657 23.5962675679102
204.524531209609 33.0023570169816 -0.769183973624417
73.8611872688456 -12.5348242266086 -1.58488073519092
-150.819769687337 8.29822441217113 7.75226138103361
199.23971340176 -18.4307526781395 -22.0435778156268
-174.426633210573 18.7704028543725 -11.1994628414423
176.598972999025 -30.6236084617839 -35.4387677904766
180.297122912341 1.42664025446812 22.4030505363316
193.526869437759 9.4943209918728 -16.4816742368997
143.199181956073 -4.34249097304108 -8.39317635842949
203.067460306728 18.6663700146045 -30.2401028986238
197.482526685589 -1.66098472994301 -6.2084142240663
-173.385497827009 14.5801697857332 4.40358453181947
195.60386562676 -27.3863732959481 18.40303473509
32.2997229599354 11.7884928472828 12.8104600618146
211.186862173011 27.4282016895539 -7.48423784013873
