-193.255934973322 38.19545678508 20.4672481641048
82.0603463572281 14.554218772949 13.2023843206177
-176.301812097256 -6.30563794385326 15.1060652325694
-212.273155299803 16.0387695078261 2.23887728203115
-161.751549337028 14.0727083601059 -10.1776752093675
-183.352034286666 -30.1015346026002 -14.6540324109459
95.2558623113131 3.45275116905363 0.0941589703700017
-133.655160566839 -4.1976471050771 5.88751110680485
-164.085834119548 -34.1593399689177 -4.43813948558297
-125.02006100919 -16.2661666791513 -20.8336508293543
-67.6908395371612 1.87848762055405 12.2745647388615
-90.9002709253541 5.22383149580873 5.16799783986828
-122.849210180232 -21.2158900693849 -7.81121558216697
-89.7803773837877 0.089636602467518 9.99485762918562
-34.2916744694662 3.78400073428124 -1.4098769137995
-116.875302959064 4.03178189289758 -6.52655524091639
213.424361999645 -8.04685891137547 -11.4577851208134
-187.304558945829 36.0624848470753 20.4719161754509
78.8389602172059 13.267606943028 15.3466029048839
26.7650266865735 -3.90184351260126 0.915177164817107
-161.546680338728 -20.6209758132328 -19.9384207062997
193.344108965487 -34.2397595363214 -0.153619199401821
-212.896203974961 18.3397534610281 6.04614841309413
-142.484060244458 2.77260649326808 -24.8421350970221
-150.129142834891 7.07165247155555 -26.4028782014195
-52.245560856912 3.9221400251488 -1.42409477455535
-138.858852795338 6.63316983355042 -0.887342363308893
12.248492679613 -7.07441262448537 19.7726949192289
-127.235915272612 -21.6666126270032 -6.92559628965572
189.863681489315 18.3748928089805 -17.0770305350014
-180.958064038825 -14.0914079238465 17.121660357401
-33.4951729017725 8.49925136745301 6.35083525535215
147.10204794473 5.44479141324707 -2.45106376888289
167.336757453264 17.9625121342086 -4.00549973457777
52.6863061888747 0.962576524603376 21.8483893833192
-50.8785738533325 -2.24192475403255 -6.08978557589751
-194.774501964335 41.9466862016461 17.4701398970334
198.806994395052 -35.7723913764426 -12.9763712914585
170.665846367042 2.91363981048674 -4.73203466363295
-145.348486632812 13.2048862754885 -17.173301144577
52.9891114756325 -9.3134180265013 16.7035358193235
159.924181130867 9.73063750055106 -3.96214075707957
-114.529673416546 -6.85314746642123 -14.8374755298748
-173.693782553589 -9.29392121333399 -17.0606847198059
216.129171303377 3.60215870289875 -20.0566509710613
-122.779448539122 -18.5350012529146 3.17060691977338
204.493596446938 -10.3110327624446 -16.0490510794873
180.749996440837 1.70510933623178 16.6786150740078
-55.6142131750891 -16.0169174254099 11.390464933976
20.6287146773798 -6.4179155203196 20.2396903301851
-13.1544839878259 -14.3246603115344 12.1478726723667
-150.537934194636 9.32522191073373 1.99908586413208
-211.50807484952 22.2240589882492 12.7863957978366
-181.736203435373 -5.65898477646825 -10.3155986175823
218.433400107543 -32.1265520421848 -13.0493519017647
209.30548663952 24.9552938697391 -36.1310236378332
-198.28960273656 45.7959523145831 -7.8256320993894
-190.7075823264 -30.1152609273655 1.25875118188966
-82.9177101814351 -6.02911194973356 -9.29152851535862
-175.7796388034 25.3611113229532 11.0749596267216
-188.705562795146 -29.0928932700962 9.6937969490343
-53.1994550557611 -11.7603306957856 15.2957667281802
-62.6165156724032 -17.5874326893724 4.65177456593161
201.714734006134 -36.4712474763447 -9.55295809188514
-20.1216125780307 -3.76786236288212 -2.1967777301841
-58.2710244378531 -11.8545236632568 -3.48921689953584
-180.354561253197 -29.2360264500918 -16.1381635040394
-52.5471297932128 -15.7912832802999 2.16465762668793
-50.6766455629126 -16.3563471644799 3.67653164075892
191.400199533834 14.2031921149331 -18.0281838085393
114.164531579027 -1.31261050001514 -1.23165981339482
-135.867618601084 3.86559965185064 5.39160565990592
-117.471462639334 -20.8318626272739 -6.7325419349218
-108.629585281875 3.35787902199242 5.77957812514281
5.82206582386861 -9.69978224933607 18.4314673485566
-31.9650319275145 -6.63104862921296 -1.41204170672192
59.0780063714312 4.9782888425093 0.149315439377858
-160.982619706995 -10.3443769682645 8.40857784212293
223.526462225188 7.12005416397322 -9.55572969300728
-167.961351743572 6.07036317041849 9.00149899485366
-48.3403261801922 5.984539494004 1.41327088734827
217.423386954271 -23.7911463751743 -16.4996473242091
191.09694367181 29.950483253229 -2.69095255798489
211.78971929595 31.2971699970634 -23.551311623039
208.511731271537 -14.8683227591418 -21.6231135478159
193.612237548109 -34.4520608653825 -10.0328731768437
154.46811010773 18.7633950053919 3.91167817089835
-149.095431618538 3.33634442680165 7.02199507122601
-85.7157006187971 -14.8380067147033 9.80839021647855
-191.527524552199 46.7503523461459 -7.27731969116612
-89.1561959908424 2.47740937852614 8.54658304668642
214.738331897766 1.6693116727941 10.7145933287225
198.315261189817 29.3320292205157 -28.0392423486809
-187.685392501996 43.5305207412284 -11.5095075963381
28.8999986133587 -9.41867054606885 18.180705402179
211.920793976692 26.9401830843792 4.7826605465881
202.037009064404 3.57124815934083 -28.7721482385975
-73.2208919603881 -14.3452442098237 11.9329444608841
69.7946422536529 -6.02556771821069 3.63891420490459
176.641643480244 -13.8426951733299 -6.50315297708055
219.793961327428 -21.8367124743901 -5.2024829931376
-184.351352828346 17.8460040520489 -15.9542894842571
-205.558611631043 28.9835563804469 19.4969043941002
189.440583839352 -14.4763990771904 -14.4359427015658
218.525354155836 23.7174707907671 -32.7379268673129
-201.447784845369 25.0922971390777 21.8013965250977
214.692152003637 -1.45832093322264 9.75345693428909
-59.2341266797129 -14.0137233872155 -1.94602311945651
194.919075769552 7.6393176657576 -17.0183106335964
59.1680765242557 -8.75283328530851 9.55881997670691
-143.79536785678 1.14163878524947 6.29161130297227
-178.242890733304 27.149166817066 16.7965159543036
-91.4493507852105 -6.83995839410611 -10.7019202762986
16.7971625557839 10.1367314138888 13.6228911872085
-173.627006845823 -36.6071697876539 0.117258242825325
-166.891843530041 -14.4337315832982 9.9058318605214
203.760583646033 -4.39549686090423 -11.1709373094723
150.005446208281 9.83844375431392 16.675799080819
113.898083565063 -3.69291156872645 21.2632187093154
-128.062905538053 -9.21821978398966 -18.108601702184
135.182070152938 -6.40162087143133 19.6603047744878
147.957272777635 -12.0085168310479 13.3670033600547
-197.416285691508 46.5126732723399 -6.72946001554645
-186.409420981955 -7.87358530488858 -4.01332201317337
-129.904662879676 -22.0044906352747 -5.13167240563864
207.555493745515 4.31180215271359 -31.221904847575
-131.66571855495 5.87639648874394 -0.912739877059032
124.171792156936 16.9481972924717 7.00233054249063
-187.296890544074 -31.2102868309271 8.63256589943721
214.7743837941 -21.9307186985961 -20.0171261434135
-29.132100827281 -8.79642451939102 0.329153572079603
36.0597577629208 -6.89452861275624 19.998677282778
-108.490252136653 -10.2357927586388 8.64384604580093
223.400085467265 12.0918275671953 -24.1303031901104
175.115935750195 13.0817642854866 13.3754854608402
-134.513567814137 -3.19178451249186 -19.3544677553946
-182.82584024714 44.304083944429 -7.06541800011978
-147.152929167939 -3.01680206861834 -23.1814728432952
-130.447605658294 0.0819918179370549 -17.8931432898189
218.897719606018 -16.2846569790018 2.95774151450096
-190.150453906332 -13.8092990269272 6.63546858632207
46.1150855411403 11.0463360425534 15.340780407973
192.970701911625 -35.3479918445621 -1.98615078789061
140.566459134528 9.87487538187435 -1.36200898442638
-191.490720709849 -22.944358171019 9.92618051478717
196.841206441085 4.273230367444 18.1032229880646
-135.747495138458 5.51389476589643 -5.21164283811606
72.3551963185896 2.88526144437282 -0.759075799442642
-6.04287220678911 -12.5753757010042 8.69452671033675
-188.245303473784 -17.2652960371962 -18.1502824358077
18.8961211754509 -10.7219093618722 17.1880831446067
13.1439978043769 -11.4974439539992 16.5048439556577
-139.572712738488 -8.86861332734931 -19.4518475896068
-125.723999332606 -3.71754991753193 6.52515670229443
207.279261531989 33.9319451914471 -14.8484707819388
-137.669474986292 0.721523200442399 6.26464436051686
-182.306404329347 -1.6809168594956 13.0555395158962
-182.551569924192 -25.9852655021465 10.882572291237
-195.043827744382 -28.3410953275908 -12.3039690500033
-188.559539647899 -30.7331051683057 1.53786874762796
-208.345987844887 24.0071366608034 17.2135144033675
151.586641914254 -15.0588460786813 4.14355840882328
-54.8456993372926 1.10877211746956 14.6446041213385
-193.506215231046 46.2802617412228 -1.6670749961495
189.866843911984 14.4857127661799 14.9213688268758
60.6545962131941 13.6199471162002 11.0310363317858
152.63268652653 17.9258029349702 9.90274891126906
-7.41237226578058 4.03688361604899 -2.09083573363922
194.714771539909 -35.0820781662715 -0.757076273159555
-178.636552021855 17.5046099709274 13.5558622196409
205.398516036582 -32.4748035655599 3.34612175462979
182.30588313882 -14.3330092661846 -8.38039510634712
181.486995732455 13.3460263728659 -12.3091409744638
190.391825391939 -12.7918598426403 -13.7741011847931
118.478030562661 15.8190887054499 6.02915070602448
217.916199875065 -20.3481162946522 -13.5921661586511
-181.499776460806 9.98962893949503 14.3538921789424
35.1692690692723 12.0069090261354 11.4912974615113
-149.244965367265 -7.2547478861773 -21.7548905228164
139.593759376575 9.35400040136684 17.5429038491353
211.423789904784 -6.86988201162116 -8.52916685607608
-194.045933241102 4.79145177433235 10.542051920186
-137.505590187822 -3.32218937078771 5.64098566193248
185.616259399962 -5.79586060510872 -8.26189711377164
-192.487673933448 8.4294821657933 -8.40031298945353
-175.495938659873 -26.6886539872958 10.9729007679751
-176.995028965069 -20.4881792057358 -20.7838086339008
-3.80834596277461 -13.7076708620642 12.8856978076557
-41.1746426832878 3.59071386637588 14.4955382050157
176.796330615894 12.0329038245142 -10.3066896943198
199.730228313212 35.129945239923 -8.87355237038083
197.441593633637 7.34223221136588 -22.4218521435402
-193.90129509771 46.8384109068782 -4.47889559741363
-214.075964999605 32.7131378698588 1.84279251527325
-186.622489407688 44.2349819449294 -9.97378690185988
58.5871974994795 2.40228713338328 -1.68194765916572
-115.390321999913 1.39108281124072 6.61543549794573
206.940877480219 2.0060307245626 -10.0512319262714
16.7966115216441 -9.67163977021635 18.226355026006
-182.456550110835 -17.5355254039759 15.6606286862302
-121.987312855111 5.11531467000979 2.58670875168371
200.320896167906 6.17046980007179 -31.4288650254561
197.154166715061 -34.1129758364767 -22.7819030896063
-16.4860301857931 9.77101728472288 9.5967368141216
-185.77889366713 -32.7801079561671 -1.98647070396998
-149.069887309476 -9.58352315742497 -21.1296566237502
135.833217779976 -12.4529421323668 8.92013428635163
176.26800076963 -21.2954277589114 2.97074943152111
-109.029694162497 -15.2858247952498 6.67454443536083
186.425783357025 24.873112481243 -12.0207740965895
187.313095653412 -31.1008477594433 -1.9583086698598
-196.328227770281 47.1811733811903 3.76216107182398
-169.906387561801 8.41269268031925 9.2913294115868
177.628896495524 0.138105538361208 -5.97234983108829
-203.000597881196 10.6638088068498 -9.49866171931977
144.475823497409 0.913621699158337 20.4485185861582
-189.636505943195 48.1699556324282 -3.17866390461065
93.8841514882615 6.94492119151433 20.355849485136
-183.463184346534 8.67117762109306 -12.9473986628027
-186.56592301664 23.7891056801431 -18.5484225683152
-84.5079259265459 -15.7457080908742 -8.34815467871175
152.552445675044 -1.4791889023891 -2.46566220972921
38.2219925381169 9.02536483016569 3.47282429911712
-84.1632910081445 3.51110972560052 8.32897295149835
-163.736945211734 -24.7679337491669 -18.473286254223
-197.982782670929 -16.0538729543993 -10.7323583629044
221.392416472978 5.63288513305754 -0.113948063302077
84.1826844849871 10.4544630194452 18.0599577423398
-203.480088940676 24.1531220325058 20.7502155665317
-113.924518692735 3.20283538750389 -7.47798609970029
-187.476072722161 47.2998692234835 -4.83439586975095
82.2520905024899 0.9921610012596 22.2039148260888
178.351389522947 3.14253138911574 16.1933111976443
-183.503544080215 33.2500528002486 20.1190000466254
-192.667243322813 47.7386580580911 -4.69976693856728
115.886335366671 -9.19340108915514 16.0125045183833
12.5913606988546 -11.5008890917704 9.42502632511485
162.728672791516 -1.17941095750009 19.6500530178843
-175.364568080698 -33.7773056603094 -9.2120864442422
-176.753666722211 6.20948766953529 -12.3658578101755
-196.295170615649 -25.3463751044993 1.94970975597851
142.512861102626 -3.58522550511904 -1.91287488991387
-196.405694820153 -15.7937100966329 -13.0141505006881
186.995021367798 -24.901795893973 -15.4502966233068
197.116985459534 -11.7635079071782 -19.1202579855391
200.919512896106 4.16879090790999 -16.6705033107628
35.2290162846463 5.78906602246478 -0.423823313549978
128.586613214745 10.0713927527367 17.6505213879318
189.739627439026 23.9239303975529 -17.1996162211806
-20.1259873527748 4.34846909172965 -1.25218743859469
216.583109382463 -24.4837818031863 10.5451192154005
170.910522679893 -18.3588039597078 5.39567396207129
-199.170288436732 -26.3418935447991 -4.95451711799761
-113.212346801515 -12.2406844502137 -16.5200914314012
-135.591141261172 -1.33290044246071 -20.0556535697232
-177.901192498536 38.435981658938 12.0802929443878
-1.61574632891158 -13.5735970165468 12.884578684935
122.765821392978 -10.8804969290317 12.2710338508524
149.665552231541 -14.893397928868 3.59070521850399
205.212378804683 -20.4952229602512 22.9053590578642
-49.2948302061995 -15.7945107608191 11.5623154370015
-195.148371763931 -23.7529000534891 -18.4802585039256
-167.904173069228 16.3738080079255 -8.81219995118802
-122.517428471826 -20.8446441185932 -9.37887503513486
193.953511631707 22.9557278208093 -23.964856406696
-49.8828220429314 7.89093803037834 6.88892577343205
-176.440877210095 37.5103381100151 10.2706499602103
-122.644098865344 -7.94431766687411 6.93052280502864
-168.24996878784 -14.0720847206602 -21.3077448830532
52.9438915214323 -2.68371016359303 21.6235614239951
-126.181820018933 -13.5817192220303 6.001655053922
-170.644738728769 -35.9962452545525 -4.2367196849366
-197.960478933995 47.0823973537641 5.56876323278669
-143.500943406261 3.38657000548172 6.39617121751879
124.112441050766 6.58341947181766 19.6677941585766
-199.264137639292 -19.6285343230924 -18.7830067723283
177.001069705843 0.361053692282807 17.5519171358761
195.954610145561 34.5990762517532 -9.74715299821771
148.504593420355 -4.92184010520739 20.2925225331666
-163.286436410329 5.36023902721035 8.22613428181004
-128.682790686553 -5.94085719834413 6.16861193152892
206.554256657698 30.0509533591242 -28.2810478376721
-199.759308349984 -17.7656696530172 -17.7492204238578
-135.649609391868 -10.8441100643495 5.73737314110961
-174.447758488593 35.4993992763189 0.00957515124820631
-202.055640930271 6.42499025182367 5.41390259093081
128.490028086067 -0.407997307063989 -1.47660932012875
-145.183579229391 10.206447932816 -15.253070175869
-190.982213348855 -18.4143179389769 -19.7847221702473
-180.12779249662 -27.0867421208545 9.56750918787144
195.488366063074 -27.0521146958961 9.92519641387666
46.2230297906356 -2.97994430598728 -0.369021524763636
-196.616933786749 -18.7458856848517 0.378920522486104
15.8142524487879 -9.13887752754828 6.76384015386281
-85.8027353196682 -13.1050965437566 10.9957774753454
87.1387917955091 -8.97359784042057 15.1372714354792
-204.733054854444 43.3298499444032 -3.23476995064879
72.0721673660532 2.58502290115625 21.8915450012636
197.714619381408 -26.1647778590437 12.1754059551119
-189.232182235517 -18.2906691784185 -19.499390317567
-31.4999463162512 -1.54023798445441 -4.46818140161653
176.263264940354 -7.42076498269371 20.7955638719637
178.573125187717 -14.9247176761922 -7.48231846883914
169.217145900784 16.0217273108724 -5.72208711490403
-171.710743781774 -3.01299111319884 -14.5007082965001
29.3942425760121 11.6493934091643 10.7511377470294
190.967124963253 1.80448899305268 -11.6412965206029
108.888902095992 -6.57211885541438 -0.851942718230339
163.687975060037 -17.9037238318264 1.02956874171618
6.59191656722365 -12.9201896283898 11.6243773978034
187.774401905412 17.9202382886376 -15.0567329087666
198.8278954997 -4.40174682822666 23.7529213393479
-210.559032024675 39.1647438399654 6.12480702399873
-77.9053469454545 -15.1734337825954 10.7752947672711
-209.088184661192 37.0773558975843 12.5086034868943
-195.306986615565 -28.4063982478022 -9.6303609185651
60.1836283762723 12.9925507026714 8.51476476932052
158.535037264701 -13.0198555120798 13.096729452548
-182.655581325863 18.972692802165 -14.8802790728354
-159.020507598889 6.64828082176905 7.40324238182146
-190.471934038576 1.99781775624863 10.5248072198401
-105.616667829805 -20.2726243419061 -6.03873749847103
-43.1002926100208 -3.20492438496852 -5.68206199114167
182.40730976191 16.3848756093932 -12.2456800773516
-203.442692398468 27.1799440371929 20.8958323540986
-171.93206714879 -23.0235335331363 12.3246727423263
187.404740806348 -32.3221774967448 -5.44079116969374
10.7663240349115 -4.89909476552752 1.54612185128219
69.3877254131375 -3.05164032793895 21.5092212108967
-66.5135911071517 -7.88470619295276 -7.59487098411908
215.649882389289 5.08778401126657 -11.1078673639566
187.332553222175 -23.4338037166341 -16.1879376714994
-170.038052026035 13.6489175972917 8.27127944700938
-8.86799701485962 -13.8559471331987 13.3609650124849
215.336227860396 5.16457810284016 -28.6997847961302
-163.822561702132 -1.53123056113591 10.1020904917794
-153.828682721992 11.9632321848639 -7.82220042052049
-189.401107057319 19.5373277130136 21.898302323428
33.4922546040963 -1.68413633888134 -2.07856435201965
26.8795259622534 -3.22245213268535 21.2360899247513
83.1335167287807 -8.64647098094342 7.84624032428722
-176.970505369976 41.6140345914318 1.86789533413603
36.733597647952 3.38066481286124 -2.17058819668003
9.82075541421335 -6.36684656753554 20.0250274831795
-68.0443192019563 -17.7405980178527 3.96341617548403
-113.825761872062 -2.54489706805481 -13.1373810033439
-207.964455414879 37.5780920849313 -10.0301538115382
-49.6547831923359 -17.0627013846103 6.03924509273109
209.154494079313 -25.5937657268393 12.6716756583508
27.0350594756775 -10.8761587390261 16.433198270065
-156.503298454603 11.586768708059 1.710170690209
-136.943778875189 -17.5799603071364 4.56798817905025
-212.031191477864 30.6913679875704 -8.22836806085025
-162.407699837659 -30.7857678468022 -13.20390148517
160.081843622839 9.78373575295321 15.9198409075169
-165.59800996975 -12.7845061700315 9.93680120755664
-178.630351233888 -12.7082115379412 17.1852340586544
-196.548829361533 -17.6241066169792 -19.8241077761894
61.5995999568168 -8.36833728950629 8.60679037286498
205.24458497682 6.29552723424989 -19.1606552828837
71.840911163513 13.839876118417 8.93563886226172
-144.699121047621 -17.2837967265172 5.27712049289572
159.307488856342 -17.282255184616 1.50550979664498
-27.9185328321907 -6.88931087518971 -0.658534742744015
-182.235162219307 29.8471778730136 -16.8972882225531
-189.301003707036 -12.4399895100052 7.56259901485548
13.3536605718592 2.40304123267724 20.3698423572292
-173.268673701075 -23.9924190188544 12.6931751858345
-210.931054465323 35.1273433455255 11.2081266989405
85.2430639093654 -9.28974248295029 10.8819066536178
-11.8884558619404 -14.035014734019 10.0119038464958
-115.282476483586 4.98165756482293 1.90993459412033
-161.729287164768 -26.115494586817 7.79751627714113
-168.903342389375 7.39796663846025 -13.2953385743743
194.168370675736 34.2451514487338 -10.5762161065157
-211.335085228562 14.3451258204041 3.11525603395078
-182.55485231356 39.4902942108106 15.9771409983819
206.656022701021 -6.23075916460877 -9.78603766922283
209.60196844999 -34.3172910948968 -5.20308816268212
204.563387495192 -18.3969337544513 26.2460498574974
-161.112723989554 -7.15590159960837 -21.2579766989194
80.0783347791982 12.3542581053757 5.86912414428415
140.323032039019 -12.9252420330488 8.46039081544992
-199.577249329093 5.8343803972047 2.97776083876278
-159.743958253467 -28.7433500612595 -13.0831042362225
-84.0002583405788 3.29420427494853 -3.56890720144961
210.074529880698 5.33040637317047 -21.5012139708519
54.4247997093531 6.18309142631128 20.2270811826715
204.578971422561 22.9100444082385 -36.910288679429
-132.266720876356 -20.7433247869836 1.52536628327086
-174.618305450387 36.3496015116668 6.90377629895287
178.740088392824 9.54425646441624 14.8529931765626
-211.53333604303 24.8703177293784 13.4109446815111
-133.432496692479 -7.85066084458363 5.8531113535867
212.613334917111 -15.5394583610617 -20.0920637252406
103.998629777189 4.67105136724346 0.217947179764038
204.275228656863 -33.5471619453441 1.65285546971745
-119.157701135591 0.603682137421496 -11.5974577733328
-23.6596230684764 -7.21527004875166 0.172330211504694
75.5641120861923 2.13498913666426 22.0430029181586
194.546053407321 -27.6618469602192 8.63585869861592
-112.774735310529 -5.14777432207186 8.10719424897663
-210.178777695855 18.387608306045 -8.87723748110725
-5.60738820122983 -3.6990053205692 -1.06491239258176
-187.289341080093 31.7699319155601 -18.7968872329431
-161.326896659488 -30.547855521962 -12.0976866312743
163.305242375892 5.36583333531938 17.1810184319955
-131.949021715346 1.6264168711426 6.03156316730474
9.44458023113269 -3.83073984038124 0.0557318527100609
-189.895476891216 -24.7882274116291 10.9751924298605
191.829376993314 -14.653218576259 26.46335363062
-175.692669394478 -36.076194185663 2.32835445001573
195.680521210059 -26.2619115465232 11.5342872013153
95.7894038765602 15.8208252541153 10.1336660354705
41.5785388057685 -1.4329225894298 -2.65131628139833
-199.167271639946 43.4522757815555 14.3607855787855
-11.3886002806794 5.71488285865375 0.83240540491398
4.30397607524228 2.21181609464589 -3.30328677592229
219.948662148099 -26.5574648496144 -8.08695981537758
-187.704629652755 2.36357350489886 -8.07663123997523
139.569163807661 13.4894957050707 0.693068986998835
-138.829743882167 4.81807220982943 5.2833224612236
-137.672271881137 -1.24461916414793 -20.8731000568976
118.383675071887 -10.8355199680732 11.406092029547
-117.143213456616 -1.75090264726226 7.27251727245431
156.647997298795 -12.6778028232708 13.3634206318273
-138.160262448822 5.45634069402459 -8.72361944341875
-96.6894143156407 -16.5290962295022 -10.7526367814406
39.3192611812386 5.85806991901034 19.8358516483502
162.524147049751 15.18014864974 12.5862740860759
-168.542282500823 -10.0698062818669 11.972415074703
208.878858630461 23.3008463335714 -37.1931940390251
203.01623774319 29.1106494080986 -29.7437937820102
205.95151567949 31.7940903493029 -1.83628551921796
-153.198313257174 7.63118425435254 6.6109971628176
208.912062903807 -35.084424612352 -9.4451837403014
43.7334265182437 -5.78619349979812 4.09300528915347
163.808779988944 19.88475144189 4.54044429707098
179.032237002978 -15.57442788488 16.7027796821137
205.753690320633 -1.35582999515792 -9.43065035974424
194.65112837273 16.3798716136871 -30.2068652188865
-211.068842852346 27.9312990885539 14.034612254845
-124.877430786398 -21.2646665539065 -8.5013384144438
152.693675062489 6.09817656906572 17.9856304504203
94.8806460265693 -9.58048350108283 9.15659627998221
-93.3439186386794 1.97198054959196 8.41536162596894
211.90322473495 25.6109765099334 -33.9844091012153
172.292448381999 -0.522853682099488 18.4971933375714
205.290432104175 3.80755487678578 -13.1252837150479
-192.9658690033 7.98948885120698 -7.05202029230846
-200.043860416321 -24.4784815149993 -6.91387841031194
-173.075532498915 3.19248684096261 -12.9422302727339
56.5961874052533 12.4681440969674 7.76211975305439
203.355538534237 4.91494981778322 -31.4953928266244
-167.911970734237 2.33640063721101 9.2394208124617
208.680665128445 -30.6913390396438 3.41379357458982
-190.514059933176 41.9535446912238 -13.891406250161
-163.105440460972 6.37937304759531 -15.5695699485176
-165.181744653197 6.29221291552503 -14.782317087971
-149.916728098989 14.1339433023153 -20.8027141419389
-97.9132621616882 -17.4298674902755 4.94026268379271
-63.7287948497503 -8.34686316768026 -6.7436574068274
193.616611592074 -13.6662757942888 27.3803940742668
30.5629974424535 2.49183015731281 -2.49643149079754
36.8831487217646 1.01754240337879 -2.84985239790435
-183.73699318834 -33.1128470810496 -8.23278067059108
22.5096371040346 10.4492791256604 7.16825441944525
-126.199970490709 -1.59345025327007 -16.6869525975375
17.0374881557422 -11.1176011664554 9.46173656769475
-141.618426103906 -7.68203411235735 5.35198917256229
-145.472583064885 2.35969224007055 6.5176405727599
-191.198327703048 14.3876919297195 -16.2679200708169
198.811304645273 22.4070066206552 -34.3685884690027
-214.10864450021 29.3254043843373 6.90358744796788
-171.026144753034 -34.1458193541818 -8.37154718707584
-151.199750078948 13.6041340175985 -18.3509341572186
-192.316089220658 2.58682605269145 1.12961056217664
-148.451460522204 -7.97672981650439 5.59264465199622
-193.113726118609 32.6541257046349 -19.1761044365893
151.24429301966 -11.7075875859842 14.4319289471008
-126.48359218917 -21.3687800521619 -2.39039820928046
226.441804635884 13.4135398274805 -8.41710163170549
176.128191283391 -6.40689287660183 -5.22422821119395
223.052651800606 16.5919336974436 3.10784466931838
222.16394377682 10.9751485590585 4.20688548045523
165.326586582425 -14.5908620529744 11.9160845358079
-178.434674224428 33.6350095876111 -11.5013013109867
-191.333587379957 34.4901357201837 -18.6021106429805
193.631013307764 3.42398598120108 -13.7495545792205
-186.00001271652 46.5299975576562 -4.63306579840623
-176.600186456498 17.6395606923053 -11.0689929821433
40.3536691390777 -10.6416401284092 12.2281189357999
-197.112871072747 -17.0701337702244 -3.3500172003371
150.887385208286 -15.5735034696061 0.71487517545299
-194.76814633667 46.047833335008 -8.94133808105738
-127.873081558254 -21.3566827760893 -14.729009859891
134.985644523208 -11.3850034033051 12.7098710474843
-161.718749495935 11.1619310509531 -13.604390241171
-176.964376527149 15.9491495768348 12.1558000456599
-119.817944923939 -19.9255446584868 -12.9036461723168
-31.1662267829454 -4.78677587177228 -2.81925440009581
135.215110913133 -10.9364144210659 -1.65001530640666
166.80737402087 16.7655439314786 10.7796621824011
-168.298815495066 0.516880936141229 9.49499544750456
140.963971519952 -12.2138789139766 11.5769237687314
206.244756900422 -27.2982117659001 10.233793705714
-187.011943128856 5.40229199051821 -11.0830661275144
-163.077977487607 -33.7332189180578 -5.87674814310901
176.180340428342 22.6149544701603 -3.6086888033174
23.7806116367518 1.79094379103793 -2.71168111426164
194.104846697623 -34.5460133283989 -18.0253515652451
-210.988893471521 37.3527262991183 8.3015769829374
200.652860527798 12.3816040020045 19.1935561531004
112.244716879273 -10.3015331660335 12.4231469303947
-178.75794846075 -35.1840599556969 -4.34012481301144
-111.742233419842 4.34745841470253 -2.91071988357227
-212.054143437368 18.8282380266212 9.44052434133299
-191.097641814835 26.9803800414539 23.3187068342443
192.19293068773 -19.8413198788558 -23.6334549650215
147.564403296189 15.9354005870394 1.87406418761007
58.6542058535002 -2.89961226313583 21.5560666834136
103.465611056137 7.53875353370049 1.27674711173224
-107.494380848315 -16.5312659943555 -15.8942418378216
-185.041199865456 45.751466952366 -5.98239472204004
-183.053595538613 11.9914892283477 15.2167706286733
-67.069182560476 -4.97044578863497 -7.68894841735861
-134.385370480763 -22.6219229659407 -15.0623064448945
-134.391221158589 4.76779413927203 -17.3857271442803
-101.825392797504 -11.7905925290099 9.17655813884703
82.8283560442336 -6.16815912026119 2.63620049778817
-163.76612613744 -3.64865300897018 9.85763657775378
-109.67970000666 4.09287739351729 -3.54203551421257
-132.843599498645 -14.6048911143079 5.44169817082359
154.938842302295 4.3842363522454 -2.98716515991413
-189.87376352797 -0.285770580453363 9.09903845033529
188.055065552684 14.223992023874 -14.8724681740588
33.7502469455443 4.60351791698889 -1.70318777720829
-119.488255634268 4.23545124005024 -5.72362190732585
29.7284156177886 -6.80987727468962 4.99091017698851
-195.186196475109 -27.387427055206 -14.0514078342999
-160.621540940493 -15.7825159851007 7.76173698180315
-74.4557832209144 6.71331835756345 5.16735296699113
-122.710771126933 -17.092018707788 -20.8764026045713
224.969637708405 24.4188646099965 -22.4046331873687
193.887321768872 12.19120414434 -28.5716016025772
180.431893776663 -10.0580851071634 -6.6804695509337
-149.598003352744 9.64223988152956 -4.20364576829542
-28.9555518176351 -15.4912599821563 10.2096687518122
-63.1199150831941 -12.4737191680028 -4.52335079937575
49.4858994826056 -7.43491997056991 19.4969272312379
5.52028561740996 -9.22240423069355 5.81644846810868
-170.505170006266 -8.41851038486233 14.9459167111121
-158.925586815811 4.40317311895515 -18.8810713903007
-132.995315472248 3.66518349165695 -14.5351751820499
207.407731233958 3.65738046577648 -10.9052918417565
-123.780323811626 -20.7731877260234 -0.747817632176807
-184.275301055064 -13.1527562577412 15.2951781306023
-176.215337622489 -34.36847260454 4.21870898919053
227.120353895348 17.8539471299004 -15.4539008488573
26.8487597676362 -11.0815163198906 10.837269424008
-26.2763406958789 -1.32489715630296 -4.09283116020677
-107.823284419883 -12.1301407983352 -15.747623677524
175.254162397123 6.87715797193506 15.4784006057241
-181.295614513099 17.0203203994341 -13.7264677862565
-190.491512070805 -15.2130214363668 -7.67328336566232
-46.3707910721068 -13.8456713616796 14.2285778974719
202.653128707218 34.0154169397616 -5.37989860880922
214.282448514667 30.5006682262724 -23.3654622195879
205.184393596761 -15.1151633235848 27.299804844691
-88.1680337053977 -18.4576464648933 -6.49141942040707
7.77777243593846 7.30784483681293 16.4740643771178
218.171562961896 5.5938095737679 -25.834911855085
-173.142259761101 4.2279014986015 10.5742552189063
-181.68665099255 1.32346328413997 12.9353053408979
-119.120026266677 -5.18961535566911 -15.5978092157084
-112.20827711465 -17.5065990291576 4.33595192319835
-163.71702174303 -17.2874034629505 8.44183912708731
196.815660797784 6.00721954128421 -17.2210353728692
-156.922636570424 10.1564198112061 -16.9268509658043
-82.0187275051347 -0.472548687690728 11.3564833623281
168.794462544337 -7.51255687365038 -3.85985107764194
-162.093364216518 -32.5622863580725 -5.6343986121319
-210.144540442525 12.6294403531555 2.25245215562188
185.905348913508 -9.52016502719287 -8.91150276241118
212.159127375289 4.42458563431717 -21.5389520273475
-34.8897645522121 -15.8396432525585 10.6450014224026
-200.877164937429 45.6710550066222 5.46593770205617
-198.367515293474 44.3101844851031 -2.51136387928473
-17.3608022936398 5.95012157761732 1.29700538675316
72.7197153126899 -4.6753341469384 1.26675765451829
-185.143883648133 -5.12414086223418 -7.28406193456822
9.90950393061239 6.75910396396276 17.1825096007197
-45.8299929183483 -14.7141789157769 2.43822343658184
112.868895774604 -9.59540552454011 14.8901020604383
-203.567308967953 39.2772633351165 16.1841822962486
40.0646751748594 9.75856045528505 16.4421263995804
90.5395449698022 -4.62869339511384 -0.723214450042355
-30.6650769783654 -8.54532894435451 18.0314512774782
196.288712880076 7.76322550219449 17.6653632968007
191.831734854459 -31.1543901630694 -21.6129206038084
218.048533080661 4.03555783682159 -17.4066978475148
213.399072084669 -26.560475257227 8.6183212372189
170.605761070162 20.8374230539381 3.65968192256401
-77.1333034986157 -0.305677501283405 12.0336123889166
-157.659458076377 -30.0533767937532 -6.75956587901314
143.097553572927 -12.437576008372 11.3766908336417
-185.743229480996 22.0517365836528 21.3120285907419
207.584119387475 28.9992921384741 -29.6707622696209
-197.281977717582 -25.8212235229193 -14.0695032717303
-198.195707902817 -21.2652528141412 2.72899282708029
-175.911788873087 -19.457637193686 12.4664677986072
202.510426152614 3.46030823333835 -15.2271818525577
-153.756637061964 11.5687390766113 -5.53318753525834
211.194066795747 -31.1200950697497 -23.3162328328258
-117.122085951177 -20.459160179081 -0.44756541053428
-135.966246708651 4.82041855697994 -10.0013164612536
-147.740018069216 -16.2331601174852 5.59382507547626
-190.870995475488 0.03689534315105 6.60659671227869
166.619014014605 -7.03176972014531 -3.5303500398445
-185.469167661123 -32.8735056927752 -7.00975595950622
-176.504105422789 22.4528972457502 12.3965794327788
64.7939827260196 12.7810504374957 14.5040118275176
-97.1374839458428 -12.2373128660532 -13.624065137486
-55.1774286628195 -6.55844424388128 -5.8905939388243
-116.740692991773 -6.66920588448054 -15.2226501624183
211.021032602143 18.3356842572778 17.6619144592522
138.606311465615 16.9006355683953 12.0125098860763
-101.340825149577 -11.6752952214555 -14.3793112195856
116.534982806224 -1.71901957917902 21.7504061761223
174.735034042454 -8.97355066007007 20.2674395411448
-108.892087747285 -1.74170450039324 6.97299909013235
204.677618881784 -19.5343668206652 24.3680949814594
-122.853245600572 -6.08170371397121 -16.6979038981997
209.978061319923 -24.4339510986405 14.1879915996559
202.702552469795 -15.4618243595997 28.1582835321995
-186.560541862124 29.4138746974681 -18.9903336108695
70.0834539760644 -9.23400290054989 14.3877034831734
205.380953532534 4.88647183406985 -25.4881669757756
-98.6320259691019 -5.30741882870246 10.1275702717099
217.325064103626 -12.3549781831004 9.69511227427076
212.059644962412 32.5305138736968 -10.6607043357029
196.721788271536 24.8840666036497 -28.6538699668015
-73.6241774818746 6.88589472247211 2.6410232755694
-87.1577321909702 -7.32717573499741 -10.1613193126467
-211.838204437224 20.3642876602548 11.3036017911179
-100.151984493466 1.24737318909469 -8.23645423864823
-81.012032001054 -18.3722876699283 -4.12042421522347
-111.778191393192 2.35913450767777 -8.58829814759692
123.773465233883 -11.5332909588478 6.57636284496149
-174.704467327805 -0.254411665089333 -12.9651038747978
15.1942760953127 1.26342116593401 -3.02956519301143
225.484547158544 25.9928584376475 -18.1838735974269
-19.4206966046733 -2.47375756380415 -3.24204970553042
-187.001360173423 19.9393212487217 21.1909881496849
215.79009207176 14.0803152704311 15.9485493082447
-110.107807641025 -6.33077710324119 -13.6850569444373
-163.113613550017 -27.9894420744813 -16.3803814997077
209.497569883023 -37.4389860821575 -16.7802543589045
-169.835889640636 -35.5598252618265 -5.38908797960474
218.003552777963 -14.4021384668943 8.62042487342259
-128.248341884447 -2.67472025289365 -17.7592951464041
86.5878990766357 8.73468405863805 19.3351079069817
189.338727525237 -26.1005506083654 -20.4999434141763
-151.108693439572 -26.9514760877501 -4.59997523191293
-127.538148542706 -20.0207185970384 1.6804568658067
208.542948245112 21.8368028258058 13.0393504007359
2.9147014531431 3.31866352266099 -2.94299373911446
-149.476424590895 -2.37844458656964 6.04432304658864
-38.0461543619488 8.39433774640612 5.95098981096257
189.934127322868 -33.9478256160008 -2.80743687964892
-44.1931391164434 5.70474193452016 12.0532600455191
-179.630900869321 43.6466786619042 -2.18615918478798
216.306016390227 -1.83173217014057 4.03130215342805
-50.2768721683152 4.86066712308481 -0.2534800999782
-137.373299945867 1.49427131575126 -21.6251988785541
188.514917943617 12.0656237230545 -14.2981219202584
73.3297861796439 0.513795762809095 22.1055625649202
1.19626471069569 5.65526721644024 17.4583908608399
-149.661263655056 9.80781705382854 -6.25297384299551
14.7392035658048 6.98985282222888 1.72700747709742
189.235858533711 -24.2443821506371 -20.8127133414212
-53.50078170156 4.13562004705853 12.4601923469794
-142.515955947584 6.87669755795466 -9.7351503156465
-20.8711102308849 9.30168513434257 8.06035711910815
-193.159592154357 10.1542689509381 16.7402580350841
-68.9391607291293 1.26386777800897 -4.81237783065589
-193.997163412985 47.7666478391019 6.76604991270906
-171.410388601254 3.96435350945766 -13.3446658995471
-187.902601035164 48.1910870700502 -1.85726307361303
-193.115051710296 44.0618544230248 -11.8757721983714
-172.9362704137 -30.7894234997351 -14.3829590638904
194.160681981578 9.2074383755448 16.9818501417369
-175.085496284413 -11.5175429174398 -18.0332019795808
-107.73978618312 -18.2174737111966 3.32421359583424
186.655966891523 7.02538797414045 15.475806685805
-186.501382734001 -24.4266641549368 -19.243484443977
99.5729638759434 -3.53706981819797 21.3288443430713
-52.381860707967 -17.1060085024211 5.10881168420034
82.1477672182185 2.63872348861104 -0.385534237972926
136.107236952185 0.644090094444836 -1.66769002337968
178.867295690246 6.00438010495498 15.6696223114484
24.3899294927873 -4.08772263138849 1.09215322732061
-13.2463648390227 -3.38087021458884 19.7972108877742
144.179082997763 4.8733103125651 -2.24478299733688
200.764402295365 -14.5731880601079 -22.4374488389449
-134.979273472296 -22.3248773731951 -1.75676694486906
-37.1973817447397 0.0484916881440291 -4.40289058460113
215.881176164053 -5.44072299886846 6.82148386232549
88.4475518537343 13.496032813502 15.4840836619288
-22.2958476075274 6.22826936981097 14.1491958201546
133.267023557604 -8.23182060434537 -2.03925636000602
-152.977354478835 -12.4607569190812 6.48769607598959
-76.8256988786097 4.68030510800985 8.37169344296776
98.5302308399787 -8.61104912462716 4.44382857378416
-181.614761433565 -35.1828653139787 2.49951767574255
183.931040975386 21.1100568999912 6.97367886313332
-160.791415234293 -1.13294353278762 9.59221542022792
201.88958768249 25.6621059881107 -34.9965883947171
187.483082683649 20.5305261036098 9.22577469315659
8.40140667728077 -12.3555084436183 15.8515692321896
-182.632412955535 -16.1931631527491 -12.1647336798699
160.514042589864 -9.92222331514154 17.8115979617346
195.268535039037 28.0967088381718 -25.4777544517157
-183.091778322999 10.3753307335736 14.9107108537295
-193.656623792101 -17.7035752479928 8.86522576084217
-175.391196584081 16.152264712205 -11.0905801372285
46.1190490564676 -8.32726296008051 18.6833142396801
191.763406212534 -30.9051980670261 3.03040183291053
-186.221832230805 -5.02875762290669 -5.81049675112055
-62.2078476448027 6.10207233229227 8.42910330438682
-183.321692378175 41.3871911380073 14.6458864989973
189.067191442164 -1.49679924401846 -9.79195354925273
-196.127878292432 38.362603941326 20.1469393673566
-196.48685718106 -19.8724801955879 5.98982202497355
-143.259254842888 -15.2540776470744 -18.5674233070373
-192.479314717164 44.9755095933611 13.7922162697089
51.9051986292098 -7.44513249372246 19.4345526675156
-170.232902473156 20.7755077267994 -1.29263140782884
2.09292364503295 -1.7530453338274 -2.712157551092
-29.5024239306704 -14.989455419957 7.45733172915751
-143.878438317468 -13.3942268879804 -19.1213595155476
-166.530270797938 8.77939829675464 8.56969184539231
-131.307434759412 -9.32770467037004 5.99815942998005
175.108181606962 -20.1203376756775 4.47249784913045
210.175072058254 -18.8488519848042 -23.1721165945913
190.05561426992 -31.9241288802081 -17.8683131969502
-129.75356135735 -9.44121498703584 -18.2834919458545
-103.237858184524 -10.3187585608347 9.34071945291202
168.113923808115 -17.2040720908373 6.98818571054328
33.1482579597095 7.62646888453526 2.00832421348114
207.691938021949 -35.3763125719792 -5.2042205806733
27.0493980391953 7.36131269858424 1.82199757937904
-100.958131019634 5.49774140938041 1.26278668720351
-110.84754389616 -4.48809365563415 8.33863685476599
-63.9596277959567 -7.76751871729811 15.3511403122047
-153.456296737415 11.705559581155 -9.54005295698295
146.27261662293 -4.57606449286183 -2.04700104418642
221.120160023945 21.2707278607614 8.07112183295507
-85.9684853715754 -12.7614186178877 -10.4008235090695
-40.0773443141477 2.62874917468761 -2.73957633986043
-182.560467690583 42.6897540309787 12.2118911025895
206.840859931063 34.5418090478982 -9.30971625951957
84.0591267965209 -8.80836184683481 15.6693295650848
218.926794318939 29.50399884375 -12.021985639731
-35.1167923653323 7.93475082680703 10.3598982544626
-188.549913995708 -13.2005226472094 -3.81486020618525
-161.279754932333 -4.09274042369646 -20.1060465664563
195.659671308917 -30.2514963860272 5.52107076579921
-150.272652946874 -0.866982021459714 -23.9466473104115
-200.115528846242 10.2993697647718 -6.39651515240899
85.1187577742519 1.54543553165864 -0.694039127624834
-50.7331778853709 -14.6582593024928 13.0979496219098
-154.587008518741 11.3892979158412 -3.40910319146612
19.1576546888096 -0.772798964487819 -2.97041515895559
184.211376860617 3.7703772625821 15.3572514077021
168.462414800399 -13.2642436797219 -4.09086863503813
-71.0275061871876 4.94722400403428 -0.794934576488183
-161.599970094116 -0.0159830808647204 -18.8298310476174
158.175132325809 -8.38448914114983 18.8567095988623
221.252000626425 17.5551828126588 8.06016669742825
43.7260247498163 11.7756031160918 7.52378857435472
-13.7477197711749 3.94607397583368 -2.07258960384386
110.288104060005 -3.01076726822024 -1.6605636211609
-183.027071312665 -34.9717969948521 3.22300577043168
-184.341492986867 46.0992921311939 7.51802740395325
209.431111580353 -12.1053679584927 -17.8245855796747
-193.92247601202 5.31859937084783 -2.33636856821002
48.8522045216118 12.8928198230034 11.5506165260116
-15.3312919445835 -10.9305873710069 17.2821028466163
86.8065827344027 6.10237095021207 20.8539029069262
-177.372794730877 33.6889227678456 -9.63428879530186
3.66782649018946 9.19096225629163 6.35947486327077
-9.92361620356754 9.41166677648154 7.65194075224575
201.466671699942 -36.030843552162 -13.1754349379071
198.138384136583 7.94368368335981 -31.5010813022906
144.550486002031 -11.5767615207394 13.7784420918314
182.539390735258 10.5016011255512 -12.1644027964521
-179.967870441575 -20.0887744181784 -20.4937767554265
167.607608161396 -17.6305457979551 5.26706818192483
29.5200630911761 -3.02892479317876 -0.363071854084334
193.624917548396 -20.8082730407351 20.4879387757704
40.6560524734471 0.368389983328646 -2.90775766798845
-52.8400416838133 7.00317368758049 8.95774070796582
-208.288039965575 28.9909031323408 -13.5534871336544
-11.1878067326839 -4.29527380634161 -0.749182575720943
206.529665828983 -7.46884511655952 -11.2950363487749
-194.060589020394 3.30113936815063 4.45691334807192
224.094504529537 8.01617154187519 -4.79070264367849
159.13974081536 11.9748422426677 14.9802470704491
-80.1415922924409 -16.5279962492537 -6.59122992777427
-11.2685485546681 7.45504713835039 3.77846756505113
-52.5627025674593 5.16620583641823 0.0305728458331928
208.958200573489 2.1099294987566 -26.7825194631336
-164.198795556073 3.11694495531658 8.8005868405275
166.570268204294 -15.4147589504214 10.6923935479132
-133.40563862617 5.28471872098324 -5.32875939540283
133.628422844876 8.4828902662487 18.3038750849312
-183.798348259235 -17.0642781824002 -17.84271400065
11.6158899511936 -5.35793188905515 20.4678670669308
-79.5854621631389 -16.0183478646921 9.47204999540412
-151.222209025482 11.7611035832386 -23.2530427524276
-191.727686295399 25.6024246893978 -20.0624413502664
-189.810809549208 21.6673518986653 22.6428217019505
-120.78608680335 -9.10384142571497 -16.6776249006744
87.789807800498 -9.27134154486263 9.57638507459358
-55.4338476970701 -12.4296359343238 14.644860717698
-175.008019171389 30.1704012492862 8.64253346536512
193.041768943627 -3.35489560455976 -12.3848189201189
-201.301162233946 18.932159086612 -16.869569389368
12.9955359797704 4.83226121864702 19.0431379294223
147.193704203662 0.430196400248248 -2.19447761681981
-149.240664799055 -9.79398564918037 5.80944793680257
99.5054726110809 -5.40498096572721 -0.794585046467465
62.6324568505392 -8.98235174558377 10.3382660089946
-40.5738734891265 8.21724479348295 5.56004697489179
-15.004508635476 -7.97938405680615 2.0292558601498
-31.8873341019358 -11.5084031768669 1.99959464074359
197.580488828993 22.2699313566933 11.3931152175584
-157.910117954134 12.6520879332814 -1.91179840954937
206.53950286352 21.1346696885157 14.3410876577571
-105.217111298362 -13.8995963243165 7.8585942931293
-175.685311931737 -2.39850237136705 12.6208939134821
-64.1437040297249 -16.7971018440879 0.541558049135799
-153.74075095803 -27.8010083637416 -7.88956842230739
-189.49641095284 5.18193513377826 12.8442717298289
-153.249851235075 10.9107525295983 -3.51025408664063
-56.5246407384485 -14.8042151646525 -0.179281426178268
45.499967019552 12.4116062213549 12.8008695370294
-110.043188735646 -2.91687779002585 8.03050143326361
-163.022939883969 -29.5614144123693 -14.6355220020631
122.584702480134 1.41112630393057 -1.09402404214524
-92.1138229383943 -19.4541063754446 0.59966535074321
-183.203882744049 21.674654421872 20.1498825932954
-172.093587253624 16.8630879771729 8.35037281940032
129.574850043105 -3.06951011586112 21.1972425044944
-194.553518631964 34.040092872057 22.2858054373551
-177.046205799416 -35.2540820338524 -4.9772464421629
-207.389318422517 39.5561318225179 -8.73959973474658
-108.196461959427 1.93856639552336 -8.69247624691295
196.736574223396 -33.0472948827606 2.78290532725923
185.65320506933 -16.1835015199036 21.4641560439448
-160.52339833338 -5.64556976857382 9.09001861055945
93.3064499538974 15.3125848791143 8.74544653017859
-100.752928652031 -3.90517005392241 9.63268464835457
-55.7859901945371 -7.41082909718625 16.3102981790199
-169.383680580221 -1.19379045220739 10.701659406771
124.210776911268 12.8989253403144 2.39400351012588
-167.334533137829 -4.15211782950083 -17.1879060439543
24.5667214673123 -6.42988940211368 4.18431799425568
-177.540301963099 -32.4187298783594 -10.3469281568126
-148.850070040122 -14.0166973446033 -19.6955124726608
-114.255382166988 -15.5568812790904 -18.7139254558372
-3.97845334104152 9.54990903933047 12.3042116690603
-196.692313274271 -23.4109966245982 4.63948902322283
-192.82784176364 10.2545946774035 -10.138673093879
162.746965645772 -8.89844553900356 -3.06890471979176
191.97577188366 27.0477127032375 3.59518321694892
191.769359395152 11.8678878711721 -17.5779103107997
188.745432592298 -18.107211703938 -16.8598991662308
215.107387759496 9.65917294897021 -33.0890446534404
-163.937205585981 15.8633864742347 -6.87956703758892
-128.881360971674 -17.9151264311081 4.09967615777019
30.9111706686539 6.97894585992964 1.22624019526964
189.603071415768 -2.51299266688423 19.6867987771521
189.581153579345 -6.79005670648675 -10.7349883738138
-210.293740680005 23.564035860701 -11.0870432654494
99.1552809433002 12.0816393617252 4.24035813975136
-121.611426790391 -21.2148479810193 -5.91353042931747
54.4457493782127 -4.15995363634362 21.1877292488167
-174.233669105403 -32.9640699058601 -10.9207693547284
-44.772749613115 -15.9326503939263 11.2310096693168
-127.536893618592 -12.043245551908 6.13621530786777
223.96219962043 22.3448696824519 1.41219508862861
-191.650130970116 -29.7384851046185 -11.3266735378043
-187.5217530022 -32.2429507971428 -2.35864215733994
195.15889694253 0.383161699574176 19.5839352375733
-85.0198260530612 -8.60209209260058 12.3493828429216
-205.698342265658 43.4591109398356 -2.02507847159469
27.3332254728191 -2.69012206320256 -1.01234506079705
-164.928242180083 4.23552919858234 8.68179732387333
-196.798475259045 42.1594798258912 16.842086526055
97.0698497713989 -1.83260962066723 -1.45276122731222
-33.7917993720484 -1.26427210171287 -4.54213923481163
-190.777359130886 -2.71215600446541 2.71781958608992
-187.236872902454 -14.6004630125133 10.0915925545243
-193.227652347431 20.9123236285014 22.7791581126901
185.616000541053 -28.0111187216546 1.17721654266066
-7.85885680745567 2.37851926718314 -3.45413488142198
-180.944986722754 -27.9760191862851 8.44593462846498
224.570968078956 27.0011777371148 -19.1127761987208
207.213218649304 -10.5998809349608 -15.2189232253769
-186.172875851845 -17.4028766802943 -18.3665218545742
192.284264410307 -24.8318876767182 -23.9493813480931
-164.305307398625 15.34415297979 2.48706941015495
49.8346120589866 12.2126345203892 13.9244775352405
-157.814528399362 -29.7628697867073 2.81074828058359
54.6822186940713 -3.36701162803975 0.0714522504975823
