-24.7326706902927 6.57289512568475 -5.74949858596316
-181.91439055753 -4.62117753985716 -11.7364450451884
170.77784845391 6.92016670844767 -18.4913546377407
-163.025032168341 2.90627855422375 -8.98784887230988
107.588043319411 15.4778680682501 -10.1804358293634
191.617755408885 28.9854847769856 32.4830443483468
209.177805810217 -18.716719720989 1.73362416085043
-85.020552255704 3.47339748667139 -10.5194395961065
-159.858002749284 -21.0354414267271 15.2326572957921
-20.8979207466118 0.0316254629693765 5.45857330051859
30.2278508588324 6.26737389572083 -16.4388445988751
97.0081783999627 -0.797709032899458 -20.7974718194613
-120.010347740516 -21.1394932838393 1.82352656630551
112.033710192012 16.1619257197723 -8.69111630192903
-201.916278852724 -7.38088018382627 -5.44236213850699
-118.521544237431 6.70245761904983 -2.09993550520674
-197.524940369989 30.8208955406937 10.2283875852976
-188.412082148473 -7.06890175716841 21.4214157115383
-0.357877448319598 -15.0339017107329 -3.62970629881325
-224.569965372271 41.2675150211263 -3.19412580759822
196.643111989179 -5.71051877357978 17.3433052713274
-141.565775508861 4.25190386217166 13.7149141348839
-188.059289330725 -23.4717371821967 -10.6550758181227
-128.193668379861 -9.80323268115084 15.7834560135422
-204.369195752182 -13.2456525984598 22.7481899141449
157.686766749459 9.05597248679686 9.19596957386189
-167.32727389046 -6.65870546549282 -9.40486083875847
93.7345639262071 -6.37788267395533 -20.1907219536337
-154.731021586076 6.76361769007709 -6.2148976414812
176.545573904605 -22.730450243352 -17.465387848872
188.179946474135 -14.3833554642222 31.9340670429831
-185.767296341392 -5.29931324640041 18.6074757338597
143.621068628932 -8.95308041684699 -20.9429276262831
-167.107894903955 -5.39599222028318 -9.55299967292699
-175.384860356204 -11.7804593487701 23.348628870914
-189.291752177062 -28.8566225092532 15.9273200312669
-210.259304168909 -19.0948907373217 7.83498324027086
-56.4171899354588 -16.859240476805 -13.610535166219
212.635737337915 20.3469964324949 19.3455687831897
109.526513797477 8.48476327890605 4.18098658922196
-201.412606892922 25.6350853940488 16.1688242931008
-108.525094802418 -2.27417220023516 -13.1452413694721
-118.307159728125 6.21714151233514 -4.60043017759427
-166.980931766461 15.125268234378 3.46193478566046
31.6303026555516 -12.1798063637055 1.23309638511287
175.993309395506 -6.23941119396713 15.5795698369093
-57.3401480429887 -0.610758389758516 4.9708451525689
-211.946906773333 37.8454602960137 14.252201090097
-199.010341566988 39.690200677225 7.20227440395882
54.6155879258218 -0.760125275503738 -20.1691839728137
-54.6325056612403 -6.00129789387929 7.59164791443864
107.218998543902 -16.936904667766 -2.68420103499685
195.519244401242 16.5819654479856 -20.3392563832883
204.179816334144 34.8806499459886 22.6427051172319
153.207148624263 -18.9064092388763 9.11618645843017
30.3120402041533 -15.7921708686948 -6.69667266343669
-49.8942633690046 4.59599800855781 -1.27735317354333
-141.767414837174 8.3177777089968 -1.4588189820684
-29.0250052753102 -16.1180224070426 -2.30509559023403
-164.290146938643 2.95784894068638 -8.97431018574571
74.7712499591864 -15.7556657089408 -4.17955175495133
8.26524965746813 7.34258503914486 -5.73379413690687
-119.159890535755 4.40984127994981 -6.90046421417255
206.048871334752 12.3326712645286 19.9545078692732
-158.856948855944 12.8625556053249 22.837670712348
154.088362971084 23.3344413890966 -0.0918938308434062
10.4751483330577 -11.6154323873101 -17.8691881663208
-158.281753818654 -23.9319181630722 10.5492630011367
104.343354208427 -16.2849669490847 1.08528489219649
-197.616491965289 -15.1794822994654 -15.1717673490727
61.5353729038583 8.69063873499121 0.710622043172563
-161.2449553796 -26.1952503468974 1.10624463299555
-89.8034848128244 -3.94135694341344 -16.3419252297596
47.2615343979564 7.39350981804606 0.890925186600324
207.960909869274 33.9025139724431 16.1225797597898
202.096988876695 -26.1109657263011 28.7997001296934
-42.4335401140064 -17.8723764953163 -3.57680796889438
-131.91306029893 2.46951064125675 9.47418589358742
-190.554403377783 -6.50131428083044 12.5841164025872
-39.5124236126506 5.11817828662469 -2.18646935111874
-127.767245842567 -19.4115087616234 -5.34008356972201
73.7049483150425 -14.6447610470103 -11.2848076375649
171.706120731168 22.7626902699321 -12.7856583152647
-135.80778395633 -13.8600780971668 16.1146309367312
-23.6548690552995 -2.30815485781219 6.61419402312002
118.295693865843 12.5182616927131 -15.7670779874798
124.920586708421 15.620815333225 1.03504719266911
162.414152473643 25.3319622810387 -4.524684236094
-55.4231430701642 -19.0422059409323 -10.0398177309374
-111.413908707076 -0.0423636699317155 -11.2563119987026
-185.021974913693 -4.31534360666887 14.8414251711956
-141.916957156949 -9.68635312155356 -10.2398828899263
179.083940304691 7.21668211907038 -17.912202331494
13.74941607859 5.81858398246588 -15.9991026143535
-175.038041382465 -24.1311148533479 18.4300906396666
-200.659924164312 -6.58590825685725 1.66148687350809
32.4607484573339 -14.9839886241906 -11.1220395912903
-167.939091061044 -1.03755250354629 -10.0881763898678
-168.510545269005 -29.0811288079439 7.1807838832979
186.885714924308 23.7869392562586 -15.0565416123139
-162.092037208429 13.2774863412553 5.93778140438597
204.677683269398 -17.2341611226797 -11.9346802070294
-78.8464081493591 -5.32300610853667 8.63002525810563
200.522161430915 16.3591946952324 30.5951246361494
188.113011381984 22.5992673831079 31.8872469833507
137.604929158128 16.0025423410511 -13.7797894038433
112.835147766681 13.4656278841376 -14.589496286791
-89.3529491451079 -13.2929936747474 8.31205219714939
-130.437157170009 -21.3366634131305 -0.488233661245125
-202.201978282805 -30.3133585061878 5.71549757422235
204.752515155106 34.5919982027944 17.5897445263493
-160.339824289281 -0.24766816862379 -9.77884470799127
-217.379296565708 25.2337602225869 16.9186144243974
-215.178980392119 11.8820387321915 8.37002417197499
181.303764825425 -30.1802963856957 20.0037480954482
205.063545162123 0.746740768715562 -1.57650083262613
-88.3800501022456 6.87960998727802 -3.80899188123342
197.962251261882 36.2770720135525 7.99032472664954
203.638380794634 13.9590319768529 -16.969884282746
-221.674638389929 38.3872000457907 -14.6672369709003
-163.260187515109 -18.4536731921759 -8.36551039696438
41.0893710672498 9.39012987025948 -8.92098323469421
-154.855610957099 15.1110622532981 20.1415981851198
39.0867665612763 -14.9553853005099 -11.0533411401699
-179.200578553958 -19.8484860673063 -9.31960282340279
-96.6316886549845 -4.83711018088699 10.0160887704011
204.486558191903 32.9255438745487 6.62147193112191
-208.959494585367 45.6255673926763 0.100274118732931
-85.8251468047633 -16.9246761072425 4.86710230977274
-167.728565984792 -3.91690677245313 -9.86851848030402
-118.041377521034 -11.4323872984517 -12.467158395794
-178.844183759408 -17.8851858062013 22.2876492960398
-151.886209623415 -5.66925866386257 -9.38567628084968
-130.430443627776 -17.0407016600777 -8.40258003466239
181.768504915805 -22.7379658736735 -17.9359013612451
-195.034511037499 -2.63258046586042 -11.5998738605808
-185.774212577095 15.1727245390974 8.74523490890201
-205.876152483676 9.59299148103505 9.93178939698942
137.019311132494 18.8711863240806 -0.685901241821245
166.050163807318 -24.9284644094982 8.11095615332747
-3.91769937532694 -11.3463827170185 1.8313900642371
-36.7182821202727 -18.8182432842852 -8.30064880832479
128.177638216327 17.9004033991085 -2.884325228403
140.639719228844 -17.5988148458826 -11.8768797353641
198.580409471243 -20.2054517188741 -18.740983437917
153.494703972037 -10.994612428289 10.8570884489609
188.22210574063 38.3940769146949 11.4679038103523
-146.625525601151 -2.08769209500463 -9.85117857969775
-203.1604402409 27.6682675738219 16.6782635937819
-204.700249833455 2.99023241128143 1.99089141751723
13.6123366650546 3.54216329669754 -18.0590763402894
110.624394683325 -15.0667835436647 -13.342860557168
194.353099752719 16.9871793022682 -20.8081760284776
-64.0903784728304 5.49220875105609 -2.13885124536099
91.8771218702007 -8.18080524765977 -19.4566095083154
187.283417232009 33.9721764121873 29.1654897912098
-167.419966090055 -23.4263760318529 15.8609144829724
-209.126618922349 5.38999936104159 -10.4095672602262
196.95265833131 -11.5269102277645 29.579883180102
-66.3012536105993 -15.5299783964179 -14.5705861575554
-50.9864214504559 -12.7486259493351 3.27471791782171
-196.406012575041 -21.9764916576479 -10.1484518526583
37.4268302845417 0.899183779532683 6.0239878693104
-159.418364763867 12.663290376954 5.91337180807419
104.345979196017 -7.07231134889281 -20.377691164642
184.371350519299 -28.9589651830132 -1.17843893715797
-105.524820501364 -0.962618964914397 8.42904858295671
-149.579671253304 -15.5607584080247 -8.84602061827091
189.633041180308 -1.21991223634628 -18.3265145826753
132.87267269368 -16.7083902483799 -12.5877950918891
-206.734581984719 6.91692663371961 -12.999614392977
-228.147325865524 16.4078718703375 -10.6078215657239
-146.13545306058 8.57358502856776 4.74673819653757
198.489104585205 -2.61722775415781 8.38697096465726
-166.690853946737 9.41427266461319 17.805639807942
154.082092415767 -20.2152703741057 -5.33582110358716
-78.0340198900118 -7.59840732012821 -17.5200838875996
71.0602737285425 2.71837699195547 -19.636674917435
0.888159870611291 4.62175020459565 -0.0331755933686359
-156.924971876524 6.0246238998793 -8.1538508412492
-151.239110460766 -17.1513410829286 17.132986484946
207.348309055679 28.4713857324587 -1.22896861635761
-102.344386644944 -21.2232132612674 -1.9122839799616
-226.053592516767 12.2188968674231 2.58863895376949
-227.489814238718 14.2917804050738 -8.93397144199234
-21.7067609614814 5.18120270356952 -2.55736969804094
-163.844588853626 -25.6883513088125 10.9390687333917
59.9731631759137 3.65781820105329 -18.9937172446291
-110.236376129679 -16.9418136744856 -9.56816670302468
85.1300886104062 -4.68377440832529 5.78536719196966
-196.929075715405 21.3916077167843 -16.7151125027468
191.198778190076 -14.3418903041592 -23.7041294983601
124.179595414244 -4.10870558128388 -21.322562277867
-63.296689124858 -15.690486386574 2.36992035822274
-223.870445299093 8.96696012386491 -4.03172064368577
198.533431662732 26.528205343696 -8.35014000960571
-138.478523741635 7.6370719580909 2.78658957700146
201.767868350335 -9.50479695190549 -13.8327176816062
123.211499796282 -5.34352869185019 7.47255337756135
-15.2079815518447 -2.73434878332777 -20.0772510438183
-4.90784113966202 -16.2581023251589 -5.38125914728809
189.052943209583 -11.0969671367206 -23.270661002109
-169.663106047657 12.2111565085944 11.0515212819504
208.838664555904 32.974054516312 12.8757959371448
-200.455717311259 11.3650120158485 12.1328898805493
136.980304801494 6.58899328137322 6.55645549216774
204.379828214828 8.70408643984099 -12.8659995748202
187.504978545011 -8.44792653575803 -22.3067634438579
167.311246773125 -21.3596236835416 -13.2803302825816
-81.3913607040404 -19.041119638651 -9.17286450737523
91.0104417199782 13.7506263199135 -4.82483477630674
170.909783924448 20.9053134826533 -14.5892556672354
198.908804774727 30.1424781249476 -3.15128120163835
-231.226504167578 20.5076337718732 -3.13620539226496
-159.277123382499 -25.0662917790631 8.48683196961632
210.018548346953 33.0187079372405 16.1562826623107
210.277981040188 -21.1874138574802 15.1462203774754
-125.399310299483 -7.14679391356726 14.072944996192
-61.5447553988688 4.52435654915481 -12.2733316895914
189.726734627632 10.9949890955184 16.2301623916022
199.433531172407 -29.317926861379 18.6748233695263
158.793208484977 -22.1567842993084 6.21361152940206
-62.6905393520033 6.97284892590318 -7.05117035711328
-139.108567930133 -21.8903045850664 -0.278399306284843
209.723319261637 28.3652356701851 -0.382705849494532
-180.953465091625 20.1863450531735 1.09979390080664
181.032247093467 31.7101500599743 20.9995857343908
-162.946811960042 13.9234820571582 7.51172020114959
123.188850942602 13.3349524247263 3.25898148329777
162.945223193813 12.853470416179 11.9255012407067
171.970262586011 -20.0643934189766 17.1368332223947
-206.786011117423 15.449238109014 -20.6135036526308
168.486376230076 15.5841445367756 -17.0204505778923
-127.55089662316 -14.3771474507817 13.8858667404255
-195.590739175685 -13.1538937106558 9.18602657255211
-191.926800235265 26.2964711725947 -8.11434091581562
-194.970624090245 -24.3149844834859 -9.40094749875426
115.935418424253 -17.5010932151586 -2.59279615476094
-133.278338328088 -2.87433327688053 -11.366978955551
95.5761746906727 13.9872928480255 -11.7004283828871
-91.2302566176266 -5.7047524453735 -16.3983562430048
-119.221205062212 0.991342440687641 -9.78087077794179
188.037822365046 3.964089061809 14.2948242397562
42.6470454300475 -13.0600139627011 -14.9076313361687
164.296119289055 -16.2231661260096 -19.7941460737233
210.407817913042 -24.9075677908767 12.0800458327933
184.019196461359 -27.2860453846101 24.7190739017027
74.3863163147749 -9.04469279882161 -18.5740365963227
-136.79656104693 -3.00002954380479 15.3015439176191
-1.24574340550519 -8.48095840313662 -19.5472634324512
106.4865049286 -12.2051145580058 5.93210812383669
-191.943212561528 5.90115013243922 10.492027489775
-62.2317737957828 -11.9841447913488 -16.9662313572611
-101.790602176683 -19.1488391340118 4.57812607369278
202.793850865708 -23.6845224258207 -8.05067974318889
-184.0254037611 12.2927162425752 9.65693370305951
91.9529811778886 -16.2739580356959 -2.64247642101876
196.548622381479 -23.1149806361579 -15.8311676382745
-199.489758101756 -12.4085209673082 -10.319569520657
-75.9239349313673 -17.2187317191508 -12.5498566594824
201.504268024196 -26.5395767611329 0.705492104059363
-189.906795556255 13.7160558803863 -11.022024816796
-190.348475869715 -2.11349771504365 -11.8878935105704
-161.93792866319 7.44406748960208 -6.81247026324
146.263604567909 -2.99129577602608 -20.7827605239768
211.664824250617 27.7709120358705 0.993939894470076
-229.443693016969 34.5182390267197 1.77773429130066
-178.193155406814 -33.7546344465176 -0.1679880964987
129.743015303847 -7.61604361373147 8.140438222996
-195.552814812773 -25.4993199553631 -9.12677956966128
169.486659993493 17.8412578696425 -16.2492705084991
-67.7975815783146 -6.52579709116155 -18.3327374223785
-156.949457551068 -20.6244631684535 -6.90948251706351
-211.686133709189 15.8609935358026 -21.1117320398283
152.787689816788 -0.808385834078453 -20.0996131974237
-141.143214160088 -22.1583930026367 0.321574089697084
193.477270956252 -20.9297365790208 -21.5612010612962
201.526494265474 -14.8985338994267 28.186133441912
-114.111692204009 -11.0592248492042 13.4363088178249
145.670568343966 17.6660863413989 -12.6269246235255
-22.9552167799574 -12.1184418912769 1.56814893111311
187.795975486372 15.6713866976446 -20.4670684615169
-11.7967316449965 5.84869410262674 -14.049544238082
-199.890277485106 -17.4370774631344 -13.6942415627596
174.198966301363 3.42918982529365 -17.9402666779384
185.902328174734 -25.4936549178135 28.0284718933774
201.526843457202 34.5332789296134 26.4512077236162
15.1947658183127 -4.0299535811001 -20.1258032052146
-110.545268144081 -15.6412482713709 9.94596398799131
-219.714226256103 43.98678695608 -6.59425990008534
38.3102830258388 8.80606894265831 -13.2203896233204
42.9239179333788 -13.9382536575379 -0.507133740702035
148.687128403894 20.4758702843637 -8.65037429502484
176.18581851963 20.9942243021758 17.2448686368869
97.243417857146 -1.536868094909 5.678636573846
151.148154126721 -19.7734644554777 -5.44537344353692
26.9564339712463 -7.04863604439835 3.37396011753917
196.947131137042 -9.86649352774232 -18.7947042267082
-92.6478990773254 -20.768451537021 -3.91496667159729
34.5611878249782 8.32998856303742 -4.98670244729836
-130.309757319023 -20.0168584075185 -4.30347436551042
-26.6126961957578 -14.6731398248478 -0.8211718464257
-191.273470849851 11.7641481944271 -11.564540615933
-90.2954569592499 -7.95375106252357 -16.283660132591
-192.223603412596 -17.5242400703251 -14.1879676231519
28.8660926799701 8.81313483036191 -9.47876262723109
-32.7216806606345 -16.5458990691025 -2.42633984272692
-42.7014898462491 -19.2284749239762 -8.53929387743968
93.2001165803754 9.8166988276152 2.5498626952231
138.44544682103 -16.614369271965 7.59571605818674
177.347926478781 -28.6873378652456 1.66939352692799
-80.5050105351101 -13.3915552228474 7.07207060088105
-148.796124543429 7.06871247590518 -6.19883596608737
210.051288129126 23.3161318620607 24.5032921978247
207.250290159341 23.0086201765491 -9.4952422861638
164.243163873228 14.8449652084335 12.5616710095089
153.165406777463 0.628432361266714 8.02931089138977
-196.087107798017 -27.0784002417168 -8.25530100027154
-196.122633650801 -34.428166124606 0.304314038740203
187.848894710974 39.5735447534352 7.32531979629103
185.575640692083 33.521705089308 -2.99421997634549
139.558974262062 12.8187432894336 6.57766969065667
-205.045559362086 -27.2588052422998 9.60443021005413
185.081940852243 16.7886162264342 -19.6753215126824
-197.925964543161 -0.974137620855471 6.7956633042774
-21.4507591485947 6.67650050369923 -11.9346302600085
59.9129333131705 -14.6698876028497 -0.747792503404286
-87.9637231986822 -20.2848927180047 -5.88994127621349
195.7730623706 -24.2919880662266 -11.5077229363403
-106.15590352616 -15.8511126953144 -11.0747206634981
188.289505150521 37.2670827981147 20.3520826996927
-186.850466045338 -18.4446249335521 -11.6658116899791
-206.70682259955 8.15631193983361 7.85079477358921
-150.552735174665 -22.5941221179002 -2.17510323174836
-189.074077154257 2.03365662794856 10.7743213386696
6.83906261450134 3.87789222818249 -17.5712187726544
189.206843116953 6.55952907179159 13.9681314843997
169.522439121071 2.9809960784358 10.4992230847825
-224.662833552248 30.2333021179018 -17.0458079839037
206.181883915257 18.7335158586678 -11.7417707196924
-134.025403774849 -0.446405684984103 13.4643496327181
109.449807647175 10.9251411794524 3.21194838020191
196.507349108632 -4.98073459271103 14.9261257416011
189.963293757151 4.92173576474926 -19.0400710860529
-70.464586597051 -0.973435078038406 5.44496270123743
182.721591088452 13.8253875720348 -19.5143747527056
-194.795094186405 16.1262456404261 -12.9186596275789
-172.458283152023 -3.93370807041573 -10.0643444183827
-230.407804703768 22.0543540596245 4.22814353277441
-203.292642007745 -3.2664731809962 -1.75973382410433
151.839656853309 -14.9662067005114 10.6848529319675
168.048355534438 21.314725883809 13.7860694271672
196.275409902532 9.42611359975933 -19.0366245327061
209.202102935689 32.6078581915545 21.3636105707528
176.241347777983 -31.3865803765799 10.9686891965705
-190.101579896476 -18.1706045808345 22.5453632403956
162.850752471523 -12.3053104927745 13.2657591191864
46.5940844121316 6.71555658034938 2.62461287652236
157.812852513707 12.9069504929708 10.6982836743945
-229.33195141084 17.6017604119791 2.7867416595294
-229.385068096035 34.3893004812285 -5.52504957271289
151.280967380972 -12.9621327334913 10.7828690560598
-197.555468016208 -13.4071463510586 9.14643554634517
206.277180335383 13.0324301761887 -13.6345350735378
186.55915565184 -26.9206634362763 25.0078568681512
-172.724641068535 5.6593758384983 14.9249888467541
160.444900892548 -5.83870770939822 -20.1718354699806
-37.1434654873292 5.71002964628285 -3.22489681991072
176.901414847277 -9.16462905788117 -21.8011091113748
-210.899079691841 -10.8145030871885 15.7569053710617
204.331168976443 33.432017861049 7.90755930415509
95.2026439521271 -12.9453956891415 -15.5208786227515
-167.985893089488 -28.7703080645228 0.114299487556993
-39.8030139988173 0.636657274174381 -17.924318793432
-174.537583557203 15.2318401677706 -2.7833899300517
-212.923937971955 5.7915256103448 -7.75030391709567
1.31136103090093 -13.6618760469386 -1.07667556653049
71.2154633832794 11.0833443506254 -13.4406675083929
193.500258414475 -17.747761101808 32.7104954186234
210.904609301714 11.9115498463915 7.35358859726759
82.272269429129 -15.8963665252307 -2.86440145489191
-134.707735191403 -21.7085220832598 1.37330932808092
76.8466885176858 -5.00164646226367 5.29017029607398
198.274125210452 33.9562350029334 3.11232337442757
77.3729758782769 -8.99913503150189 -18.6402439622873
-164.611528505665 14.2109106190985 2.10688357425168
-176.26874226946 -2.85158922590886 18.654401732839
127.697468518883 9.82546136398054 5.38777768539153
98.6344092052684 12.769533292933 -0.21616487782742
147.54563510896 20.6981299929104 1.78125864519418
146.677805352121 12.7186897767342 -16.7154883536882
-191.298604641376 15.2389270279367 -11.127734846509
140.043944789236 -3.39152697394989 -21.0752181271896
19.5372549972593 -10.8475918288219 -18.1576917815309
99.4554644198194 -14.5328992158799 3.46959453009887
-123.714338060518 -16.5238762723417 11.3172077745903
199.567626264581 -29.2134997214873 6.75651751185711
-78.2277351343559 5.85862364431261 -1.53790704506152
-163.16979213821 9.04008570648197 21.6166133145179
-14.525866619461 -6.87597677120275 4.91826009927053
205.624030413867 13.7327413966474 23.8315441172616
-207.101974606732 46.1361310756297 -4.29949953598952
180.214311817938 15.9948276480606 21.5662006265465
79.8755034119444 9.46011457140428 1.77235294483598
106.592369964968 11.8127783827779 2.19225734134628
-215.603957745643 43.3050869747704 -7.45811546064701
172.115692823897 -6.58345094495464 13.7747855851012
-33.4376278116047 -3.90171252657629 6.98163944707762
69.1649640992907 10.8797483849844 -3.52092106577606
-131.702910323135 -1.19738224213397 -10.8353647936473
-73.1652786167485 -8.93846871060614 9.13532322114111
-47.9245475884501 -8.56225892580011 6.38937900408839
202.494033864683 34.2612082299592 6.99319284395425
155.319748748013 12.0845715683047 -17.3560205601675
202.437165645805 -5.55753383765393 16.7989194923665
-221.794523261957 15.4486669411657 11.8377704291428
-134.839836419407 -6.27328724731075 -11.3003518048659
205.887113000914 -7.09572709112202 7.89041827477722
-185.690592078655 19.781028769764 6.3245155037323
-28.5645080307884 2.2900941250558 2.1792990686547
-194.171296856087 -11.1816625671945 -14.2921796077011
-204.101887687825 -15.9144983720672 -0.587523545298606
14.9403569949143 -15.6130993425167 -6.69442546669913
-214.805056087358 6.45944139592067 -3.5379273193436
-173.313032731007 -26.9045516724124 15.5768029583067
206.706778875021 -10.6915802956202 10.7232702074357
162.477550093325 -18.6292560909196 12.8451973563978
35.7630555130722 5.84589476459693 3.29864641544683
12.2254419158471 -16.34535488934 -9.97607744030945
-67.6576534606502 -3.06472837874326 7.45374759852518
197.960893830181 27.3161822548993 32.7991186640511
185.21150618856 -23.073083847569 30.4946122084952
193.035861993803 26.3884872176891 -10.6500087555047
-149.116853597341 10.47080964095 11.5075517266566
202.319228341031 27.5707898843978 -4.69787449555136
-52.7117119554367 3.82657419726701 -13.616414192047
167.443550222385 -2.49879617154025 -18.3685740504536
199.167008732902 -26.5539706786651 -0.935906862512438
161.393927988042 2.49707497889702 -19.0439770486787
-188.123083405147 -28.3163684439369 -8.87591962013345
-194.245919814774 -25.5316253688298 18.4330568244205
142.73802283086 20.5983588523541 -2.85866039487854
188.431932557454 38.0079436926308 3.39181923791737
-110.231317129716 3.91832322151743 3.73834789303361
144.574667461822 -18.1674744157369 -10.748685737327
-146.358485486667 -22.1868236922794 -1.89135366423172
126.733934232715 13.5230764873878 -15.388062595645
191.679868141246 -24.3452468402218 -11.0151970835948
209.348474030233 -15.4751868835363 14.5771834185347
-93.5355280765487 2.80635692544813 3.06400437060438
-167.412296264453 -28.6210863540607 4.35260042588722
158.948582031335 22.8353418617607 -7.55194225038992
-162.484813226605 16.3193745207876 15.9761685616475
-89.470734963788 -18.95494393424 -8.67109485399973
86.2385070285553 5.46968865108446 -18.9024544740463
141.087137853539 -18.405893438494 5.67817818003879
73.5247479528729 12.4097239754596 -8.47510103487686
144.656497249514 3.32843895062162 7.04128997826957
-198.6640595558 26.7239308137374 -19.4828332852726
114.125317492198 4.46740393939624 -19.843793700381
202.667469522727 -27.5097050306392 4.42446480366186
-84.0978952659973 3.46097236454019 1.5949762323444
-197.619020522301 33.5620258948906 8.51759699051203
-192.543809768441 -3.31242453112645 -11.8402054582442
-140.578470784245 -12.3113580515565 18.3897129074257
-69.1203955812892 2.1428853686531 1.94355768703861
65.7847267426474 -15.5443856509832 -4.60072276755221
-69.0856296716982 -4.74532918160198 8.16302258290139
125.774216040094 17.7669839751985 -4.08292285995607
181.516705160341 6.6692802886884 -18.1587226690561
-222.225397425444 35.429967850836 11.7722586797208
207.092897583571 -8.53070206703477 4.08859945008076
-43.9564681875402 6.17603991215158 -3.88868374461692
-203.867827125431 42.1899207766567 8.15227847474929
172.538829071336 -28.7602645086249 13.6901958556408
174.445510057086 30.7511438605432 -3.51566646541542
205.815154256216 12.4563949524933 14.2076577646161
169.123376402088 -26.6401397260854 8.45664445451079
210.192667857094 -22.2437993709946 8.38860374533752
106.84863069381 7.67312151987864 4.26112705733226
-189.868072415967 -33.7404982583754 9.01192518343225
-213.166279605247 6.55399146302376 -12.0338178623276
85.0831202599826 13.2555286037056 -5.5985548322923
-197.103043183317 31.2040573770496 -17.4074780899952
108.748069088904 12.3878983007987 -15.4134706722526
-45.4147690511288 -5.6190543505243 -19.4279862591652
179.289951799754 -33.6739636396426 12.4217002610584
125.875429013289 -6.13793178358701 -21.1256767970226
113.67445435922 -12.8935709625897 6.17199645614668
-84.5629405492478 -7.42241609598355 -16.9477141007815
201.262274094957 -3.29457379996583 6.39330428674883
85.8613446843095 13.6441038340241 -8.7508057981353
-96.701177964717 -18.370954584774 -9.02110611778022
-147.154352036636 -17.5030493200309 15.8894403372949
-193.50240178172 -27.8267339393708 16.6748432019092
-228.883361730901 36.2588604982734 -0.903671924720952
-193.825045319589 -15.055916427208 -16.207216153962
-153.039524330467 7.61504753472839 -3.85553340879793
120.244624871742 3.81505303242441 5.67298099494315
183.351290311982 33.1640874254454 24.2396297958797
-72.8237947442481 -17.6688632566 -12.2629012309592
-147.222516863916 0.44292941712799 -9.38612818372142
-171.853199853339 11.058066784621 -5.45448974981216
83.0880730798227 -15.4561825994442 -0.248572123855412
-161.670226278169 2.62516184753888 -9.2006288614115
-5.08923026555114 -8.20021365411553 -19.684613465748
-115.691322403432 -21.2043865138968 1.67862721737242
79.4135376624153 -1.12539088708996 5.65259231244042
-184.812980131723 11.2733577002625 -9.95490683293787
-147.523547692197 -20.4467735136957 -5.64669787148719
-126.032485449357 -18.7402429451147 8.94696555219845
91.7579271641843 14.2712498686613 -8.34479199758776
122.368784896504 -8.97824921783494 7.95436192496113
-89.4777547870131 2.30244586275045 -11.1793186291158
184.255930912945 35.609508988261 -0.0627133195116282
143.703437186313 -16.42574791888 9.27986734089618
-222.391837640216 14.5970426452116 -16.3017547540456
185.779448369673 -32.824575869633 7.49848794902214
147.390378440556 16.3320848775585 7.67308069373826
-172.060037344362 -30.7728810515362 1.07315928788102
-182.504646113643 -35.8526265710053 3.26916258787864
-30.6797648506143 -3.01204689629449 -19.7096266988394
207.396292418118 11.9806761485767 -11.417908192894
140.126532254095 -14.5369133208832 9.42213764991531
71.5252128512274 10.1458170789543 -0.581731325070793
-193.024211444127 -18.8534902765453 -12.8535287285141
-71.5338974826773 -5.14234348416067 8.29163803193497
-214.721788348271 43.84174200505 4.37793145162603
120.098414780321 -10.2422914335386 7.66184363828906
-95.6791361740335 -7.31419996089175 11.1713916475039
198.089247179154 13.5574591743265 23.0217839498414
194.572851608917 -0.175512848370092 9.95162835360065
-166.626334506117 13.032137164065 -0.924115217662452
-68.363209917849 -19.1596612894106 -2.1992421458468
-150.583391277143 -19.6769704453762 -6.86675251751884
134.206325246098 19.065791283113 -5.50834467773715
-165.502530827893 -25.0608331197155 -4.66590095816763
17.5710991367633 -15.6081167200719 -6.72403067506853
-223.089654376194 38.0814290133908 8.85278701789853
101.449362509296 0.448338885798219 -20.7277654125161
172.35578645215 -26.3862004702748 0.917985503335604
161.722268710154 -21.9976278802556 -3.7412851396065
-106.325239661193 -14.1240699562588 -12.3589337359225
54.2472523730385 -2.38099731365307 5.4560917547841
207.691836700491 -25.0464267462047 22.710810432456
86.4866765350215 -16.0262377425495 -5.54568166184058
-140.621841813113 -21.9611080788547 4.92718196205618
135.106428189765 -18.5679614819673 0.326760948240252
87.5589430633528 9.91042935155567 -16.2308964180328
-203.491996116919 22.358611163554 16.5948205080749
-202.895984898842 -29.2192622220279 8.08517386891589
58.0635081928285 -13.1625065994196 -14.3434235666295
175.32602013214 25.562265710611 -11.0496290048682
203.38296393745 6.4905640796719 -12.1085685247703
-206.248838805032 -25.881267966659 7.5298989391122
208.361336067155 -13.1058773697868 2.55826879292869
39.3341125094576 -6.02603323792865 -19.8337521487586
173.757782594803 0.594439690967026 12.0646055618835
171.912244297223 15.8022625664849 -17.5291286147465
171.693196265253 -24.5763447475597 15.6435506502939
37.566831120509 6.3006205347077 1.49007658205801
91.0682006954202 -8.45301619442375 5.79596999885812
175.557639410314 -11.7260806795519 18.4736419670894
194.888893790239 30.1874606778954 32.6154194253168
-198.298554713675 -32.0125648928647 4.62381185927341
-163.970653797866 12.5167635500236 -0.351278087835598
-39.8154549043252 7.1652775243442 -7.28184585072814
-85.1381792354784 6.77222815827629 -3.24223036545099
-182.83518165692 -27.9130880217248 16.3614228179434
81.0783053250907 0.241663271467074 5.31116214788345
115.005969088838 -4.25754582656328 -21.3051415413417
188.946735312997 -33.1758172698848 7.90673953153595
139.302041965156 -11.9678267046575 9.52186541260287
-204.503484560885 24.1206875386936 17.2618905906227
-193.774389491612 -35.3624794422286 0.05377182817201
-213.00899914774 42.5561906575281 9.21410333099701
-97.0072464231565 3.62740512082419 -8.76192813939348
194.581123678112 37.014807492444 10.9781184889431
-27.0156197540103 -10.6198205559003 3.03670491803834
51.2630861036199 -10.2307817361729 2.84888703409821
213.980011598972 18.7402991561996 13.9021621877093
213.825435671085 15.7682700288424 3.95128288710113
-183.956956256833 2.27733052243837 -10.5312364185459
73.254065771754 -0.738737660784573 5.71348582468306
-141.068085316832 0.164251868413041 -9.6500874305759
155.008560278783 23.5933980030766 -2.51823088644191
-172.3918610194 16.1864028498048 0.737602273850151
207.185731953449 -13.203241989466 19.3099100468065
200.440485247861 3.81903033003728 5.38124356876919
-196.166446055302 -29.8645424100531 13.8021693780567
127.223841953103 -4.92636261908161 7.43009925300107
16.6964427556206 -13.380569786898 -16.1546621025451
-219.195429393626 43.4346295595797 4.16298748217265
201.432029647309 21.7899109889208 31.9243216546163
204.962144855754 12.3764728569009 21.7571584874755
193.711723600871 11.3223785520833 13.6206482517127
-206.031448569625 -16.7007141353613 4.87909472306802
-21.1926299974497 1.20688144195246 4.25254418911135
82.3220771953158 11.9383659859344 -13.3878030718065
-139.610455475758 1.90010992229384 -8.69678369338794
-128.145385603537 2.28405828237698 -8.73909503205812
23.6003340710924 -14.0755813099219 -1.80064482242316
177.655787679236 -32.5190490344753 11.8129766586985
-66.289596082429 0.0163613611355297 4.27071613158171
11.8455812098897 -14.0612331424352 -1.98423201400672
183.700064588474 -21.9323351759293 30.0980836012888
32.1095329345291 7.75208115515743 -3.46361584833777
-186.258427553281 -3.23147015341203 13.666645363572
-159.384284174908 -7.2541007233841 -8.67248685140087
-182.729153049629 -35.4427425532322 5.3758399953642
204.189974637996 12.9407748439965 16.566358180188
-143.072475914936 -21.0722613765671 9.2226174270624
-192.753516024999 13.7628483887904 -12.0956047369017
-198.32853000498 30.5076498258575 12.7364053027757
194.888214013765 36.147138518894 18.9346561066654
162.609707654123 1.95674711005925 9.48118828350047
-164.519062524684 7.69826667537805 20.7580502814119
-213.127834759843 40.5743747034461 -1.80143859989597
-82.2106787036379 -7.05632300749511 9.35792223808918
189.375091145006 28.1137926565402 -9.61197419940027
-119.959331826052 -16.9881864221069 10.1590582991963
55.0216659113529 5.95784050214023 4.7767688044039
-192.719318497702 27.9345040521899 5.24488425888792
-108.91998289162 5.54145874761613 1.48731105026692
95.3551033944773 12.4066677752513 -14.3910468595055
182.194607280971 -33.3903352727822 9.81227271377653
-177.603182203418 -34.4581976480373 4.44151344124649
-129.350285235261 -21.0412974345246 -1.88720188232504
206.858449559098 19.2562620519167 27.4817513106123
204.901661454299 29.4308806882057 29.3245882546541
-214.920168705151 7.94611171296548 -13.9967046644071
-61.3136566499669 -7.68788512859895 8.50606554108507
179.925749295629 35.943886667474 19.599111779422
196.322622473178 17.7796274311826 32.3354088650368
-188.479206925589 14.7748151392107 9.50844296401657
-199.409221958546 -26.855009404165 -8.13288994473343
166.911403378592 11.6864028606807 11.9725859236075
-182.802979781518 -11.5572234505723 -12.816705889636
88.4855456398432 2.61328026641616 5.05331086917432
-193.419929685485 10.6423703776095 10.9274427426822
-19.3784988427359 1.7422824816584 -18.2357704915017
68.8776370465288 -14.8407764368136 -10.5103749703746
-66.7726209801328 -7.62880340852775 8.90061758263266
191.05499650183 29.7697329393675 -7.04795714599592
-25.5553327720817 -1.96786121004161 6.47184438379012
84.6622813225007 12.4209164236069 -12.8483726484228
-80.763276779609 -6.61646234886253 9.10477284066191
77.0383306492517 10.649898285116 -14.702702859911
166.287170876177 -22.4567665882565 12.6956432084385
64.1976289249685 -15.4613246001106 -3.53804522439182
144.580663300809 -12.3301680459404 9.83599618613751
118.582987172299 2.73317388671638 5.59604192679932
-83.0686997042579 -10.9889243427817 8.89844638184766
-198.055864539105 39.3963883132658 5.74733674296174
-36.2489519362785 -11.2558400453138 -18.3383023598763
210.791890343601 17.7920647880611 21.1751261023013
32.9872654416464 -10.2698613796501 2.40782382944065
14.1058677665334 2.84654758658537 4.47978989034663
-132.885990719943 -9.13099769572857 16.3712582763578
196.193892395634 -20.4835900100419 -20.3835559825337
-208.491809778136 7.71550867635935 6.01126349910329
-105.897510760527 -18.9772031371186 -7.76484326992651
-87.1910349478657 -7.1042143359583 9.74545263687571
-221.29868322732 7.98395740695605 -0.0668441856748967
195.863366101704 2.71174005779761 7.30122118850413
25.4235257112037 7.93429125314167 -13.6158134671519
-9.20849225163897 5.50377606247094 -2.57668527179083
180.409191873149 5.45233021997071 -17.7104444376523
-23.8433905122137 -5.75851595774698 6.53743229709565
-183.377146444519 21.0915075599343 -2.29288208471258
-168.219426038562 -18.8968218620394 -8.44485233250322
-98.3669591709613 -19.3240068171935 -7.54222601671975
22.5375420771969 -11.8597266315068 1.34612729979193
200.951159469513 -27.3362372880543 3.05993729949835
-147.381003851267 -22.9477429168618 0.303134622776844
-102.050132040598 0.554404075587929 6.07827954708799
177.42999927795 -6.16698513726382 -20.3687306356967
208.224497445749 18.0778927777597 -10.2587336253107
-40.7149750436657 -7.89593048128485 6.1995502788347
-210.083190175799 5.66729265929029 0.199489368062815
-184.012173882416 -27.0562780409189 -9.51564692211668
208.922596677883 -18.1609186059642 19.4176305231367
-94.2460779610916 4.51848042196612 1.26544078925416
182.71921911322 14.496409952702 23.9131512246707
175.022854085888 -27.6748759225527 1.45044841283222
-134.211506730171 -3.84851970482771 14.8557495539579
0.559426661290739 1.31353067777717 4.99945499414749
-217.259289089898 33.6418762405436 -20.2496309262332
-222.320959972723 26.364943363314 -19.8096651051118
184.58058371209 1.59967039454143 -18.4570368319211
199.361471563486 18.1118776577951 -18.4088915064469
-208.347517078806 -15.0091281666252 7.51768239105995
71.3687026480701 11.6399820352393 -5.21504064020744
182.177974624775 -30.5914343129372 3.0390218445393
74.6455501220679 -7.71957290911154 4.81091868720363
48.745969666291 1.24899152507728 5.61391477060407
-194.595983708919 -26.8589698882967 -8.8958124019937
-196.186344221622 29.5066933392433 -16.6282974306239
68.3987753889656 -15.5303738075089 -3.4155984118612
-179.072602290928 13.1258455261625 -6.83155554595062
151.111839377468 -3.24143838137512 8.41509264335798
179.664027167274 18.528420362436 22.0144329490101
97.2226489666056 14.7554112480605 -9.09930966027246
-111.476047007961 -9.03246592156788 13.0545254329067
181.978821099022 31.2648487551718 23.8269879852816
-153.187045194983 11.4697835120639 7.59909819543279
76.7889566911359 -11.7223114540612 -16.4069304631211
107.756008006425 -3.38985034109353 6.56387985677129
35.3518863021764 -14.9125187276247 -3.35847436616301
-195.794831031623 28.1092610700569 -16.1713452618306
-61.7508635383261 -18.1427526620097 -1.02633944611579
-192.689962065827 30.8612862665616 -8.70356706362527
-47.0557207337168 -2.99595444411067 -19.125955109544
-193.00513141156 -8.01551326269723 17.3156638557833
170.948603354823 -27.7590617488493 11.7476155860728
131.840251701103 -14.6564411668685 7.62135557438134
186.976515548685 -27.3931561975304 -4.67337086330833
-106.962193000359 -21.1665849591491 0.689458100296451
-122.797134282762 5.75280643749389 3.48818594764881
179.58862451487 -1.63626867903399 15.1356362833424
157.128199992265 -2.04118640264994 -19.8509934097471
122.497150684603 -16.2632636443888 -11.6444728820653
29.024980559386 -15.7063437804368 -5.64223224947725
-215.125345388812 41.6274074166896 9.88516665102901
191.518820596177 -29.9290698981563 22.2580884518622
193.68709758482 -13.4627991744956 -22.3158564095174
163.955921330455 18.8694781436157 -14.1565780418743
184.788979135884 38.0699281050015 20.7925306592413
-118.460865182637 -6.37624828762234 12.686401065992
-191.113580644867 -11.8647173786769 -16.0184752847524
3.97413512080871 -7.11213033878674 3.85638731827802
-169.234111831875 -13.2267475204958 21.6931362650105
-96.108849915989 -0.212323328006057 -12.9880436750104
-216.856180644391 40.3770112882409 10.898112986707
51.3594586069684 9.46298374905174 -4.77984673716418
-104.994189488747 -9.98192590125733 -14.3355482077714
193.846619006881 -5.30604323072217 18.199360155145
-196.551028634274 26.0848307073184 10.9430894057927
-197.174975807624 8.01410094593985 10.8514819446018
-160.035973881647 7.09572175522318 -6.89599103063752
-151.320939333011 8.03207209776265 -3.16905136012702
168.308592446538 6.47650978926803 -18.5884303391846
-80.3407480657374 -20.2472933771242 -4.25166098509408
51.317571591352 9.94396272273716 -6.78692585343892
-109.310858837695 -12.1139232103412 -13.1367740752436
-12.7918831630064 -16.6461496482919 -5.1644220194283
72.3175745062016 9.61914393000884 -15.5134285456462
-183.70379917453 8.18478004457308 11.0710508491966
-130.536775833085 -13.8017123560405 -10.3952131292257
157.7814716757 -21.3387713995267 -1.99356021267085
-39.6127512824357 -3.9085903356808 -19.544912048369
38.3242515212174 -14.312700654034 -1.66262954323816
-173.803079909353 -3.54855338427953 22.6483648229353
51.8043808860449 10.268706276783 -8.94722460265834
-206.372080855034 36.2953595641605 14.7351048395364
-189.807118194734 10.4026944527601 -11.1877234155339
63.9410625785449 -3.01174489928046 -20.2895921072433
209.939220735895 9.7892439767875 -0.377044569033258
163.875482539894 9.58290203657262 -18.7669194571001
73.1351380701171 9.48281805605059 0.991715249049219
81.3218665263671 12.9782488463687 -6.37990701415649
-163.914780100726 -7.97609702298939 -8.64088077169712
-24.7980150027941 -7.4670924066221 5.24554295213154
183.419822504415 -31.8313485078763 5.77600753968852
137.240456818888 -17.4367860373383 6.21991368569105
143.212996670031 -3.67091525654469 7.81763629899536
204.988830463864 2.4618012164449 3.16690968379819
189.233174366079 -23.0964021609736 -17.5218669188074
-191.615618148106 -14.1553659318605 -16.2702340731229
-192.861705661531 25.8432801166778 -10.6189225830878
-114.702358090717 -5.86530316739661 11.9781989468959
-149.363960555265 -18.7136510834677 14.6349384466324
201.950707347776 12.1657836502265 22.7047269195348
-160.731655078055 13.0021324591461 4.04082314329825
180.017742192594 -26.9309774330291 -4.93559686305809
127.562466308178 -13.549103781952 7.53955257743687
107.84091136408 -10.4402605491815 6.68079780383103
-13.5080666899747 2.90483445882825 1.78470627427508
-202.773525821726 -11.6567865192661 -2.90966274337785
189.556378104147 15.2712300257514 29.0118912143811
21.3999966792053 -12.6222727420293 -16.5527566958892
173.427886630524 26.2590667043073 -9.53353955264076
187.837163971848 -22.680889767317 -18.8975179968851
-206.64379906281 -12.1709569763632 22.2754351501303
109.536109069356 -17.0701888051897 -3.94584955120261
-152.469803831133 -7.41921807702012 19.1841669423873
174.771284795045 0.24624097322599 -17.7810123961214
-40.1271108220221 -4.23471999855575 7.3679100423559
173.071116056323 -24.3955062708768 -9.463870981959
110.975875005868 -17.0366043073268 -0.814754420401185
-196.388009030811 38.5176896701597 -10.3235475006644
-26.9785570074126 1.15983032193808 -18.2044998020151
-112.61471207044 -18.6379395272622 -7.46540855230564
183.994735074829 37.7838073199568 3.4023803273092
-181.643781941263 -4.18564194971857 19.7424952436902
-229.959858506333 34.4019661196092 -1.50190999286848
172.929085196208 30.9255397951625 -1.59425598908526
-2.69874587496689 7.27358077348539 -10.4384438484416
107.850897396487 -13.8650851941381 4.96663211247454
38.0233425008768 -8.04114237738423 -19.240940738792
66.2713173209152 10.3552259232091 -14.0114221824391
9.90344357027871 0.315095866644447 -19.6163502974002
-103.62150181371 -5.40467293808855 10.9130310064008
11.2390636396432 -1.93098178850633 6.11921950889958
196.123509138052 15.4995649985328 -21.473955209424
-168.826660842959 -28.8637122925422 8.71547323947376
-229.190652711619 33.3283012046428 -7.99372982353894
-150.487882400026 -6.80017281956459 18.8246532297349
-60.5801329812666 6.68894164375012 -4.71024597519047
-147.210493961758 -12.4942741466973 18.8564147416367
153.381516328106 20.6414143242402 8.54080315971665
21.8917134299595 8.0674732143201 -12.7339234847877
49.0968539436922 -12.4590604825974 -15.6220161583088
8.70336461423756 -2.11648909843786 6.15115259828613
27.2538417294976 3.26129012451469 -18.6345623030096
-183.959830592076 -4.90282837623723 -11.8351762396175
177.941122762769 35.7344256703216 4.45229410670387
107.644408879356 8.42225494176503 -17.9536955434307
-107.666136026167 -17.6393089367303 -9.0893509839037
176.725954797669 28.8667194222716 -7.82137259057446
-54.6895866972569 -9.84063441106655 6.50821715657188
-201.928478024676 -13.6413084890364 -7.32137331199222
-170.423722839691 15.9401578213845 4.19209728502833
-12.639105846999 7.24796284667112 -9.80398284970143
173.256476892217 -22.7679215090568 17.3783875730096
-153.448916986133 6.93468605951099 -5.36828469984587
209.428628306185 -18.8064260200506 5.70800808429444
214.384284414875 23.4573974636296 14.3802154186033
-37.1284815699431 -10.4762214395849 3.77948807506217
197.345834612914 25.0359983199155 -10.3897064412049
-170.700539000498 -29.2282364644064 -2.60175696314665
35.4991908363322 -4.16797909720172 -20.0961580330685
142.907088389042 -8.15302318149847 8.94468300705264
-96.8890433781417 -9.09141914461995 12.2525927228858
212.992642771361 14.9833695336677 1.17312422977803
-217.807964227905 42.0288952647985 -1.84508760274322
-230.686486464753 18.6500118416895 -4.08947056314804
-187.572481548362 -35.7150158167241 4.17085440469715
150.65632506101 2.7252710207187 -19.9077568247753
14.5567337537787 -16.2575584317626 -10.7994049496879
-150.562036326951 10.0983775223802 8.0140579476717
-101.338719710853 1.68951624978684 -10.4009472517104
151.125630914175 16.9918166944035 -13.9125916113252
186.508356147101 8.76602780776033 -19.455267559994
-180.382052916755 -18.82337249733 21.9930248866732
-205.95176872214 -22.5527055563302 17.0463255700382
-202.403926596167 7.03583743865225 8.97033267294506
-96.8630112294526 -17.7531858468038 5.61656064253463
-149.21060386788 4.37194402653833 -8.13232623901308
-30.7890065353526 -15.6221567700383 -1.35733841879975
-194.563824714103 -13.7965897334613 12.0228524261089
-29.0939067051407 0.528975430972616 4.64861193932954
66.0805681386266 -15.0041786396836 -9.71349365078305
191.134308701119 12.6874922620337 17.743804665141
-97.6205445692954 -12.0558273066279 -14.3871350202565
52.7132175677823 -14.4826133045343 -0.976923189138108
-23.5574987337691 -1.19416814456706 -19.4830871988175
-58.2724826398761 1.25116865550979 -16.097872628206
-197.109549962059 -14.8307179361586 22.6157112562438
-52.4235316671076 -5.09047517224165 -19.1708805655091
-94.8294983594043 -5.54055811841253 10.2357864540427
200.989921527807 -28.9326604712279 27.5076415974309
119.091736784906 -4.00356449700006 7.00130642146931
186.595161536188 -5.51076333719678 21.756661380999
-76.2054422158266 -6.28291396900496 8.90046714051434
-228.375604456148 24.5842385816564 -13.4704450124639
103.549407064396 -16.4328195255341 -7.71606260802301
62.4339501937586 7.62096053596911 3.29958235453689
-125.094556293324 -16.3810650174955 -9.12866032531347
110.49799114225 -16.8703084614222 -7.042001159404
-203.832727603179 -17.2998932349464 -8.30729875878853
197.135412719144 36.6714818380332 14.0895439098818
-185.086172970731 -11.2859457706613 -13.8276173597152
-182.474732251175 -4.9516460317768 22.2865639730813
-202.628212741087 19.3154605679616 15.4273927272174
163.321931638313 -23.0827974097392 0.970920228550617
170.549840691619 30.8182858519373 5.29523187929989
146.108224675595 11.9993345175821 7.67788325420372
-131.838546666376 -20.4904328486933 6.82959389389325
207.12783181518 -28.3852408555811 21.663269345968
130.886760386119 14.1023262640909 -15.129760400762
-176.551976947473 -32.9394922917333 0.991209910320118
187.471661306861 11.0876935759012 17.2661416740919
-160.064585539505 -22.7257211102885 13.4259697804165
-151.509490098719 6.97516933089059 -4.82240030256234
-145.289973303357 -4.87250196047592 -10.0584949273827
-78.9305151158558 4.67517448102913 -9.85215779026639
158.541950328203 10.7826602841778 9.63323883032476
-185.559903623492 -32.3067569230984 11.6575888921288
-196.184164211591 -22.8580977421044 -7.84489409508187
207.591457864712 -10.4702256993516 5.40176331635143
60.5126352519371 -13.5852606447084 -13.5978303919664
-205.544555298756 4.4805489478532 -11.1150614291078
-17.9133152246858 0.349556293458546 -19.0583097962446
-122.315972034142 4.19854869293618 5.55969605686833
-173.101508718565 8.00313301761806 13.2266829744704
209.898319647999 13.2082939732144 15.8472488393397
30.5928549943188 0.893902317102937 6.0651498506284
-208.293493120712 -21.5952791061195 14.4452011499675
7.16707724601739 6.74495693031743 -14.0711991294038
196.662628384918 -31.3151804100728 12.0929452443149
33.1946722726123 -2.42609449029494 5.79917779593403
-18.0242183428337 -15.3750394177718 -2.71051034867806
170.967403094261 -10.2697563150957 15.1520050719091
-231.65589509119 26.5951250996741 -2.84077286508943
25.4479584269582 -2.92301955262248 -20.1688962530443
66.6821451408499 10.6534264304914 -3.6985753770721
16.5432531465312 7.50117148708564 -13.5022626976645
202.052819206748 32.8120325369934 3.69408727154434
39.7544025665672 -12.1799941347974 -16.2188900673978
-91.4331824358989 6.46747040760183 -5.98082948495316
214.37298188013 26.0618340256115 10.8804333643948
178.975463793429 25.2112446059675 20.4769844066945
-200.867815222899 -12.0553280479791 -8.38307995764819
176.518408282894 22.2629611160165 -15.6756883954311
52.2440088787885 6.04498191752405 4.67980414302631
-142.720820669769 1.15854441455052 -9.13493670404276
-193.983317594854 35.7051888641996 -2.26022682159737
