144.075925844785 18.6332779477202 4.36327872220136
-199.426556708843 -14.5204130741914 17.6986740427483
-107.350363603703 -14.6720790501119 13.4577451474382
205.309291157151 16.0803176428803 -32.4629138230364
-216.906697426042 -15.5781403097603 -15.1921777610025
207.360917634465 16.2348415506898 17.0647130733832
27.4540015278834 -12.7098736659794 19.4756870585054
-215.454589233757 44.2532533682484 20.201771045966
105.284933028021 8.63541371037588 21.7807957216952
-196.203284158753 44.6261078702181 4.7632253122182
-226.292492296715 21.8729475751047 -14.0508061775093
-173.719086174603 -20.3536088824896 10.1785544974853
90.266570647593 2.78156169662144 23.6672776324114
-215.592301937866 -21.8376029717047 -5.60273917677188
-145.263915111386 5.8178901975805 8.56577487642826
-200.835495096343 20.5065846829357 25.7920689824336
-76.8054170735233 2.26766963822671 -1.90938193548669
8.16491303583657 -17.962847864049 11.0927424273663
-217.127966918234 14.4298949608711 25.5880998116532
199.205838894514 -33.2023815790653 3.07758268458445
177.866320290992 24.8020724528416 14.1903694031228
-19.7321611160875 6.85065435173775 6.23778663139683
-232.051688819523 34.2079698395833 -5.0054034241873
-235.232538394031 30.1443761801688 3.24206698534028
100.910544851712 0.890480334718795 -2.67920576943565
-93.6212477721453 -14.6085429515359 14.5907447319573
167.090303672192 11.2002009871306 -10.3313273545685
170.195923203565 -28.8738302749589 -14.1319215680073
-193.063977656875 24.9387313703623 19.8422465437209
182.464352669629 11.4894521693596 -20.2696567229489
-147.494417054131 1.9006534461591 -22.585247348575
172.81307915036 29.4155596278213 3.28093314088303
155.84512678587 -1.68529209610315 23.7518938341141
172.429452799069 27.5489174949891 -10.5586559165435
-113.266513353456 -22.934226117333 1.48830506721082
176.504247153283 -28.6993091045852 14.8639135199302
0.897994653644647 7.22298437796773 8.75370119081963
-172.886097465998 -7.27709945605102 -27.8038140704891
199.159514217289 12.8199351277802 23.8751582027381
-138.187690114112 -0.200441766337823 9.77685667358857
-44.3668057788482 -11.0668830096021 19.9347953488427
14.1721614877638 -15.2374828549075 17.2206854363138
-226.078923162844 7.36396497856457 0.350043842174998
25.9508837375459 -1.10439899553943 23.188538205871
-26.507375783643 5.64405421958798 3.1754585783474
-151.909194683736 -1.3089568429348 -23.5113042662096
-207.923502242643 -23.8207582026775 9.95477897653151
-214.908356478582 14.8314383787831 26.3053282659191
201.372281094822 8.93280396248113 -27.261849342076
184.918145105785 12.5125276580446 24.1691388203961
-72.5137100941414 4.40222295474287 10.3012862315542
131.712280817103 6.77278604454687 -1.63801623667049
124.983418911957 -17.889653551061 10.96350762301
63.9996619442526 -14.7412343659673 4.82887487324012
184.203538038641 18.2931598625569 -34.2245043586475
179.262897137667 9.29786850160843 23.2704343696956
-126.214957868035 5.4434771915848 4.01538602252972
-115.575013773856 -6.81248286315958 -12.9392748706804
-15.9421259673461 3.29994223819747 0.282984653841093
137.857859306928 6.30857800470139 22.7067859043845
210.327677727489 8.20075541273789 -7.39794023712269
178.719795291392 28.9759813765476 -23.0671777075407
-215.293956131353 48.9008355372636 7.51984287264932
183.872372577677 -38.1678723642122 -14.1775849465341
-77.6151958537803 -18.9769004486735 10.0066718486841
-161.716095825655 -24.5000684806534 -19.4894185708196
75.4992263885128 0.239317715217491 23.6236476231613
-217.436447083798 37.8576802343724 -15.7143492951806
204.207857934374 -7.55393528624853 7.01854451023407
159.381674495577 19.2726313408728 13.8448425396199
-210.535150888114 33.7132161007255 -18.3933731320576
-127.530332962647 -24.7149747450961 -3.17644154338891
-148.594126939106 -17.936967048884 -18.5904024609668
196.703843329574 26.1627755430916 16.6626827437451
-195.102762372823 -37.4595069702206 -6.68816776138357
194.868675401098 18.7099723093337 21.8215443101241
-194.531558195566 42.2286262642855 -0.659501108046511
-118.273648331139 5.29447209410717 1.98314633143462
194.277983380234 -37.8556797200933 -4.87532657557701
190.993660690024 22.9875477715284 19.7526015647637
-211.928802583206 -6.99563808740615 -17.8761173988009
31.0359399469147 1.83093968672453 -1.93786299798788
-99.0336442204657 -4.56819228293284 15.3039396769463
-166.308251500128 -27.8179116040369 6.0850444309967
190.963550296427 -25.5722782543387 27.0226679008553
193.662157615671 12.8049025366579 -34.0534651153456
-168.432988280124 8.53338015658172 9.25098342614277
196.290424232634 13.5803289484494 -34.6255789904103
-166.634595882344 -9.90524364969941 -25.6476205394386
-57.2201873234836 -11.883897072471 -8.25679705199891
-199.904401786256 -5.83992604257027 -7.68704792141315
150.705850403332 -20.7767105272217 -4.21891848692017
-209.901760705969 -12.9260347116073 -7.40068671811039
-182.515391547295 -12.4408623389346 14.7808367794258
-203.645466816128 -32.3459791513944 -3.82259863266319
30.3397611974827 -9.39279444755529 -2.02915933861856
-227.404440975297 21.562778219636 -12.9720331748716
-109.468979541672 -20.5460951631748 -10.3717211509827
-97.8999179472454 -21.058802978642 5.1321633743587
104.840613126636 6.56283843035885 0.201971240265319
-218.050994494398 4.17839893649118 14.6286823347108
-157.03699851791 16.632376416009 -14.2311055405484
122.331961490647 -1.50088350126765 -3.45208244663856
194.257038492571 -9.57875232891077 -26.259141652675
-176.364943472193 -33.6714348880375 4.60657730194521
145.742422370652 12.6392165822032 -1.43844802297267
-39.3047207778338 -6.72683804864805 -6.65292066052409
1.88074732777935 -8.67961654359808 22.088439997526
124.11778605001 -7.23682852173708 -4.38161419109252
210.240375869281 34.359187672254 -6.53123407019748
-183.332523063649 -1.72337463927818 -16.250217232055
130.291022561167 13.3729206907842 2.98017101320791
160.320214988382 21.2751201413715 -4.84826640715952
-170.198067397269 -5.26354170922204 10.5723348696204
195.507000711266 36.5437743577885 4.83257887094865
64.2945712562908 0.592718783533525 -2.22538936386338
85.4384846036591 4.74673608593556 23.1495140524667
-212.626805235948 7.54584418082 21.0668002933723
192.160719619481 -3.95850689955834 -8.87240450401569
-197.752774318143 -10.1138036259232 18.0996158725352
-58.1616287118841 -18.1259852767105 12.6666829553368
162.184911046439 -25.7245262130439 -1.28237572808345
-53.4908450322791 -6.32366870609362 -6.92026418183039
-209.42505346016 -2.5394079637735 2.46483846498192
195.018072850637 15.6983992116801 24.217079251522
18.8987426424101 -13.6384314539217 2.9225158435556
175.770318908323 7.30025773720675 -14.0004700660768
-119.113931752056 -21.855063469321 -11.8655267009526
178.220773623967 -31.2778294936996 10.4281070860701
82.6243802513963 -1.51936037438252 -3.22304244833007
97.8339698791453 -9.03848813491919 -3.99717077050989
164.565056061922 13.0278509218951 -10.2520516625827
-190.01915705185 -31.0183749943272 6.88336514233431
54.9659184271663 -13.9685041169129 17.5510740054409
-54.2048627941017 -3.72244031322969 20.6794210569276
204.63258053142 -22.6782362637962 19.2397417958146
-34.1894052518653 -17.4384257284499 14.6067635758382
178.981959563639 -29.4753398244889 15.2612284378105
-36.0915413321389 -19.549850991305 10.454826928092
198.437572699333 -6.17906474340191 18.8661640726031
187.578064636568 -28.4723907076569 20.7840245936984
-151.606214443131 -14.0651490615069 9.93780933284433
-172.098003521288 -17.2037106886229 10.1173363729667
213.280057937884 12.2300487040569 -12.8527131796417
-169.569556791746 -4.82213829348077 -26.9277092932327
-208.500196661491 11.1153715028695 -12.6222924703232
-225.115972607046 23.6831844340906 -15.2930406188872
193.245088969239 12.0905853234542 -20.8576847830701
72.3691695803267 11.2978768027772 10.2440038756032
103.400752499465 5.05076588389976 -0.644946673023818
158.312756166139 23.0834698025587 -1.64088998808311
-126.520421884755 -14.0728257500409 -14.885468152746
28.0152869168302 -16.1406692609163 15.1365989685105
191.966952396687 38.5243129473231 -23.5281915950389
-127.746103486145 -15.3122492771431 11.7184618229304
-143.006337855766 11.6587876436536 -16.8222430705224
-136.063361940087 -24.9545636573804 -5.27052938000884
-6.47859526486342 -0.418105793021177 -4.57690776412002
-226.387213575861 7.28026547291391 10.7157435768776
-162.041689969602 -28.5004753035395 -2.137366150295
214.721083274935 16.1045153193553 -0.175110707516197
-188.793437424944 11.1287051752226 13.2572090021384
29.669987127978 -11.530959539885 0.49627368539052
-60.3037737803 6.63028814270922 8.67543080334972
203.448418894177 26.2236499411326 14.5777177691652
-163.328474508513 -5.80904988412608 -25.2406778816051
104.542508003352 2.81027707232015 -1.88583766947292
175.425813114573 26.5907868762622 -15.7806437143392
178.401351921839 -22.5055319006524 27.4254282158183
-116.164655645445 -12.53304258211 13.6821658288009
205.597561975006 37.8220130502358 -7.68457788080984
195.782763030747 -23.3934610728444 28.058337873676
206.107498475979 6.72712230891352 11.4382945210324
-73.783166083445 2.39311719999161 -1.72561723357358
195.905284550224 27.5366454833487 14.7033655445446
-14.7081875502452 -3.87551193363402 -5.90143908987864
-113.100690633178 -12.7182759936335 14.1174811737586
-126.103279949488 -17.0740943431208 10.5154379382033
187.847580031037 25.1579550057805 18.4038535591534
-199.301051878494 28.8657079432137 25.3995937026587
-140.772886058867 6.17497816019919 -17.6735932581514
176.800575804434 16.2755119448427 -17.0804295725856
-233.479771008471 17.3856391614255 -1.19566971050079
202.202479715404 33.1754398476142 -34.9704747869456
187.600356394728 3.54237619060758 -12.585526338477
-93.372367373398 -17.0315529144434 11.8137055632713
169.074347805235 -10.5562081721032 26.1375087798373
-97.0238494609151 -22.8183359318164 2.05939719853102
68.3115081331215 7.02595096421289 3.12427558996472
171.143686857356 -15.7975128650382 -16.8716288571492
204.490083813811 -15.8864570799807 17.5002253635463
179.098273830574 12.5677928396395 -21.7674122530942
-74.9192621940679 -12.4961988686978 17.6454760892353
-73.0151542395141 -19.672602436057 -3.25207325391259
-18.2896655205725 -4.58922753994437 -5.91418735543894
-177.01229513959 -34.3338914990144 -0.131136046666049
210.658434891132 10.8170792717774 5.75051418824029
-144.100744046644 -9.15106692589225 10.1679940085676
-163.507072459634 -26.2017059856606 6.63229677707873
-159.529281641655 8.52012448166122 7.34666576595416
94.5392214478671 7.01242168479106 22.5071774270686
-129.442973945453 -15.1892460644809 -15.4227558501977
-162.960472546301 13.4312328284186 -7.13766578987736
202.228935296031 -9.24574367801469 -18.0314208325073
-213.346121042696 33.6211571937756 -18.3482848625046
-203.47668850115 3.26032075044291 16.8823480629244
-112.813549703968 -11.9757249423514 -13.2753974591978
103.068359425458 -12.7214914746717 -1.60914709437487
205.284972369043 -30.563410767898 0.694888420309703
-194.213227942574 -24.8242563596599 12.51764458152
100.264169342405 8.79780215629656 2.22819244320757
-109.774293211029 -23.6995894270821 -8.3556940338081
-29.5013686763148 2.44741041730589 19.6590548553497
-202.349362976341 34.8126803307483 -16.0709444290712
-207.130868658471 -10.8574999058637 -3.49796341610561
-17.1251735806609 4.77689620448993 17.8466797475146
-56.376701697366 -19.6519450825677 10.2440600469727
-206.681947610393 -31.283449933438 -9.57206063932832
181.834802193286 5.82992693944723 -14.7344405318879
79.4015595684756 -2.50895019071968 -3.63860853530647
-8.56187494407922 -18.1011558062784 7.1948139718068
211.409133686737 18.6470446402741 -26.6796347795582
-199.239204658857 25.6115512801271 -14.3306541266252
197.954335699829 -34.0517276931397 0.110655830012219
-196.214857117836 -29.3219436419045 4.84949441506076
-138.63719494694 -14.4383754881313 10.9556791629699
-100.168320625621 -23.9285346081419 -5.10282319034399
36.5576778426199 4.93737218197774 2.31384319429124
-215.967891720766 47.6217800763127 13.1289032376015
169.071226318939 30.9951896210642 -6.31079318327689
172.48785652543 12.4066534382576 -11.8663329468849
-197.883173503101 -27.9441525032329 8.04289182711603
-234.863338979322 22.6849100123169 10.5613833862161
-232.252286426283 14.9950711470737 11.5247965228989
-209.128184341866 -19.0809644435915 -26.7127396403785
-125.377439270419 5.82952424483938 -3.60841744156826
173.896458261384 -18.0524073503669 -25.1888443391081
-61.6113021284211 -13.2885716874436 -7.31157850635256
-163.373270728388 -29.0520422289985 -5.54222217167485
0.0541362571933915 -5.42389307361847 22.8374990697518
-202.652989541604 16.5666344218284 25.3166004576957
-154.111793527441 -0.278797732331971 -24.4915158780196
-191.559556888746 -16.3139968811748 15.3982338973051
-45.8299639317371 -12.7303262301764 18.7347618430923
203.438999652573 4.65212079768408 -7.40024872718603
179.689387544919 5.08477153723492 -14.9502337688255
-96.8160825484383 -3.29196596015397 15.0764164563517
177.991802523867 -6.28709667334303 -19.1445396992671
-214.606712429196 -15.9062713703844 -9.73011169361222
145.955547752301 -20.7883244508391 -3.70718472481137
-204.747790841626 -5.65028448166758 -4.89977740259434
215.328703235816 16.6597930921664 -9.70581041273062
-207.862354887 7.37056400404095 20.4681867230038
-105.246267343624 3.83689714344475 -2.22694928869135
-218.813334654807 45.9168713529914 15.7376262191475
-232.886188824437 17.2468533031072 12.5699788143997
-133.4668246017 -24.6501892035509 -2.98566323688411
184.45069834009 -11.2997526404593 -28.6047984013509
162.909538653169 2.4094414307587 -7.19153487065575
-192.936327755462 -11.7070037930738 -29.4508960117682
33.8164061405035 5.08347520749698 2.59302106165026
-219.980037657421 48.5689311715289 8.84533713272056
-71.376577329536 -15.042142732195 15.6708296573499
205.458188497365 18.5163977001203 18.7761271870428
-205.799423576297 -9.30835298933603 11.2367997303599
-156.997147467349 -22.3890900946968 7.84116198711471
181.346284358435 -21.7265222028362 31.1271268449951
128.015422977121 14.3567359128689 4.58456081773278
167.460435422851 3.65300206804381 22.7034288589412
192.494826234686 6.79388361874377 23.6801685375174
-180.998732653029 -0.868486109935715 12.1482677054551
215.934126679905 18.333754674795 -4.58178715499781
45.4547112021946 9.22516371280677 16.4141177320475
-197.236394472532 7.35524439971192 -11.3137981010923
206.599738956556 -29.863510328036 -1.10058806991636
-76.1236935523103 -11.9500196126718 -9.98438450853053
-184.822058562012 0.0889471071059396 11.7433926580544
166.953336907156 24.8767839348019 6.74346026738777
-175.64333530837 -32.0699337247486 10.1765861377516
-103.414521404175 4.74718211854331 0.174577009793067
-155.807440843486 8.25927164177239 8.92231282386079
162.095915266687 7.38772413336949 -8.27410003949007
-32.2725379417599 -15.668546476989 16.655588155129
142.808579809119 -2.9192940470455 -5.15447687849108
182.791768442129 11.8594642210312 -22.4677601611328
199.431679077146 2.95275048192963 17.7636659856226
197.882438523277 27.4748023898214 15.1644375115026
193.10589546344 4.28605188429981 -8.70377983613564
129.470325638167 3.05415366877246 23.9313789202488
113.106022925232 14.3770383038808 7.47295967069801
197.072952176149 3.67221649560987 -7.36637287834918
-212.636808061484 -14.2657483169437 -9.4950984419848
7.87875645363116 -12.6772865803148 1.53345665962567
43.8368354520895 1.09241972426101 23.1775143585617
141.658305516687 -5.35191465244589 24.0518011387365
0.876077217707911 5.45974232494285 18.9621767311271
-171.817232955334 -9.49413596837907 -27.550838880122
-93.8804081658785 -23.4915187798335 -3.86767727843592
-143.572648918026 -15.5846216876643 -17.8106226097431
201.856515558192 1.64082859909642 -4.5397747244865
-194.142239001044 30.1539152342775 20.8094477449736
203.83969289929 -8.66839806574511 -9.7194930796335
13.3756164318759 1.04061774717217 -2.01257636810398
212.58486543424 30.8975794204064 -25.530512691243
136.543733093714 18.0536749251236 11.4197603356816
-112.565810717121 -24.4863997524034 -7.21802489386948
184.192318650922 23.1002876976789 -34.7567527710702
102.738133431304 -15.9963929039093 13.5864717990103
-132.709802512798 5.18353561866295 -5.71734017448554
152.843090941401 18.524319480458 -1.20692220272667
-191.607403829151 -38.0532887477695 -9.03398889761398
54.5977112335168 -9.00978979766254 21.7365546088945
191.293186505304 38.1889160782293 -26.8147367737835
-203.521239618834 19.6526518690369 -16.1363557566272
-188.541718699775 6.36189256585075 -10.9114269741888
169.77674010779 -26.2485512360614 -15.1078805598855
195.252981078997 -11.80570123659 25.8538774656356
61.5025023739779 -3.00093268759068 23.3706818337316
-206.977851455402 9.33076652435233 -11.8873363305067
160.646822614375 -18.1240380172954 20.3795849893992
213.962882007124 34.1041594225682 -19.1282978094716
-138.738262327949 2.21069684669413 -17.5690574186109
-210.756732469232 2.35376148956907 15.7003914632057
-53.7802517232717 -20.1139662898605 9.21030613711637
206.869655064118 -23.1156130978258 9.3905558145363
-187.211535787084 9.15243682270409 -10.0437981490872
-202.661586504313 48.3208751375294 9.30849432559862
143.741081464681 17.9647402016559 13.9576733856782
-64.4357696234895 -14.9330539546535 -6.11887450030988
170.875990859374 -22.1485916617334 -18.8181561761595
-197.705730200091 30.9156539528867 -14.3306904666128
172.352989927769 -26.1492769246183 -19.9149020675867
-100.190450670514 -6.616245770226 15.85673302635
20.7474637784807 -17.2813012257159 12.408926372542
-207.643779312007 9.03340054994216 22.1571997649238
187.666893889052 36.2272920229848 7.06169900165497
17.1773684697326 3.4727811933667 0.191083960264136
-182.030409529249 -3.649317266559 -23.6188164283452
-202.390576641723 -1.86341138689287 15.0824498382354
203.55881593666 -2.26530276469905 2.52912453620359
158.318520917928 -12.0937938970498 -8.89202270397542
202.473200264582 37.1591174164851 -1.80838387315691
-175.233707537495 -9.56272288684249 -28.7205659864952
153.289827418869 21.6019441630839 2.40151622459751
-130.00780054283 -7.66385232667986 -15.3282535381208
194.159317485095 -35.1433646397231 -14.8906687714328
57.5440727719347 4.50750749588292 1.33304244891168
-192.129638242093 -33.3081126074204 4.42091884932264
-205.957063417591 -19.8981108596322 14.2181810318705
-187.900129734864 5.10460706224735 12.3901165059456
-184.554984579403 13.4775437268971 10.7014533711328
130.499497169802 -10.923155699364 -5.00324703136175
155.458792123024 -16.7753372218281 -9.1770789175534
194.776893099753 -34.5391626458124 -27.4716809688597
-11.8282770374504 -0.114208016445903 -3.47549293716774
23.2437912413699 1.65346585490441 22.8645539710843
-128.166249828031 -2.98521000779029 11.1775527839764
-110.138539345387 -17.0115366587885 -13.7322122685941
-212.603665149477 22.1719624515141 28.9486788995221
197.451226400493 31.3710251684024 11.1464088278526
-70.5672403080416 2.53420753035704 13.5239241625369
-192.018158177078 39.0380037216133 9.73107341659229
175.411521551981 3.65803781538182 23.2082458954722
208.865582343051 14.645745459784 12.9901648272875
200.862522229509 -5.66732637113973 14.7984121079011
-41.7376267873435 -20.0334857848537 7.17466707870411
93.4460691466791 -16.3719803726645 11.1855419430223
-152.046317448624 10.2564461934796 0.177456593528766
192.538518346571 -34.1283228847939 -24.2499729483787
-152.486157093597 7.65686516801006 10.130903682176
204.904658573876 26.8021251890634 13.4875254586488
182.766140439661 -15.9282475883614 30.645785632569
-161.055671937133 -19.4195878769857 9.65211522597543
-224.236185927826 38.2481219756411 -11.8666097007383
192.180834756535 -17.7703669433542 -32.2948240287645
-156.535067535428 -20.1400489218495 9.22538722756529
-187.368285643541 6.57957437682438 11.9785976225704
-168.060807659671 -4.81147678110484 10.5451074382875
-175.125933050418 -6.50658327250854 -28.2908913303674
128.723686069384 -8.81028746767811 22.7172682418838
179.529219019944 -28.5858558716518 17.3379194179767
-218.255509676839 25.8294986866202 -18.6630913879943
202.157994471455 9.88033705894938 -20.9597678378391
-210.52246253017 18.0161867287497 -18.0549966387295
199.716408806681 -20.2001035809657 25.4000692939005
-148.027778268864 0.199198634505533 10.0167164493152
198.529663949075 36.3761666137349 -33.6752563440091
173.348375700268 -5.12503532439228 25.1653113733399
113.114348693346 12.499236024493 4.89545484420593
-193.770362595705 -8.69030325122467 -28.1945053197121
127.584696281486 -17.3484934179362 0.224107782502736
-62.841167391648 -9.68320877253544 19.6942804455862
139.181000375647 -15.8891034614855 -5.07864698648037
192.795805474678 9.39199876034293 -30.0166857995474
181.554933556246 -20.3126958947295 31.9739589371927
190.827385509955 -30.0801860931032 17.179336472139
196.21788395193 -33.9800376179347 3.13210172597209
-213.293444600134 -14.3180013456495 -24.5553659648082
-43.4336921236344 -8.75743881039054 -7.49984946308781
-60.5656048182713 -2.84857879270947 -5.39475063200581
-228.602489459119 9.65581316120322 -2.25816286967963
-197.615131776908 -2.90615696535263 -11.0628828914003
-216.732313152005 46.0692497231595 -8.3234535210415
-78.8106350915337 6.40266517220797 4.17230358718745
202.846584812177 5.01541976132003 15.3451490236707
82.7740761711885 11.6565188081189 18.1271049441618
184.230322438756 11.4839400317837 -23.4836670345416
177.902601870671 -37.2260850009417 -10.5680366805346
-87.2308421258046 -10.1709980295228 -9.87780449312895
153.365028157733 -22.6309573576516 5.71124497009164
-214.976087982521 -21.1450350751304 1.24687056443148
-216.376993559967 -13.0771273631181 -14.4705363844299
-196.31234172085 -36.8026083671832 -5.07940274688059
-30.5004244072461 -0.125715824147738 21.2984092928635
75.2200909304923 -14.5613825985619 3.61671962951458
132.128491624514 6.61507004239045 22.7808439483852
-212.018459336323 26.9658327724689 29.2421200539099
73.7004009581691 -15.9650214304549 9.0828462149057
-146.417181919885 7.09325566183884 7.7783979488287
-133.664503050194 -16.7503605077564 10.5744239413918
-189.297840037967 -19.0702447965017 -29.1023090854964
151.500414127751 -1.80811230635947 -5.83886164554406
-85.7915776920433 -22.6779300534763 1.94177795917562
-174.865950441344 9.3529368469885 9.20022474160538
-165.131782786904 13.8094796184369 -3.07653623175161
-199.767016677256 -30.05199762065 3.57245668984303
-224.457436974488 17.7988141537894 -14.0943034778153
56.462986670407 5.3244508962975 22.3929634526859
31.4379708002757 -0.873617001022222 23.2035735736957
-200.338851203882 -34.2764821396643 -3.5898122145543
-138.353205705014 -15.1898859343258 -16.8584825613291
-7.69551655395809 -2.14738617029933 -5.50585237668107
-159.731289812553 13.1306839993725 -8.79123898348267
-217.470166095891 24.1001622233212 28.4706771041095
-79.6503889873877 5.33663337499688 1.43289493107932
-180.238415538948 -3.46883843297052 -23.7494947191024
-176.717916042822 -28.7935634769091 -22.830127059213
-110.425024563722 -6.81659572685459 -12.5270501678623
183.564962202146 -37.6762803663749 -1.88697606388582
213.995504700896 27.3497511762034 -24.0911966267068
147.694824005821 -3.11966982704899 24.1580727703096
194.324094035643 23.2562658640749 19.2763302406163
-124.43692990267 -20.9956442691842 -13.6717476171228
-192.516464455029 -17.4603735284077 14.4812444135439
-203.258494999983 44.6698229821218 17.9355785438554
-217.580068943541 34.4554602280048 27.0025793207474
-198.342834973943 -35.9322908052736 -9.79224693602935
207.225806973334 -30.2376937931673 -3.82274618455648
-190.032143671604 19.7523261950505 -5.51595399709286
181.387157056031 -36.832969118099 -1.28684710827936
-166.213349661821 3.34249540302084 12.9448444163219
208.240840845537 -25.3507412921224 -0.834729125008547
-115.801321847276 2.27535268271082 8.79048470119657
150.92226187002 -8.06753383016587 23.9156461603615
194.556493657788 -7.8550405375836 -20.4394168931611
-48.5603857102131 -11.145349275302 -7.67651188549531
-191.944550417477 39.6971332457702 6.84123462992636
118.040632558038 15.5281627435727 8.53303473132097
-59.8930937057508 5.5468613196022 1.4938135738434
207.68243750558 35.3990287789534 -22.5035243140385
-80.6425964412981 -17.632690838522 -9.16544346302023
-127.381918422409 -8.14027808061528 -14.9411015446291
184.512219793954 8.86891029622645 -16.1184774198246
-138.532549112788 -3.33251527421001 10.7582941414515
-205.497689339652 0.780955026211943 -7.06657323901556
-197.779057028674 -7.57414529482349 -22.6920717156813
-219.380168966913 23.2654758870395 -18.0632980930783
172.802919508596 -8.69158335651261 26.146121669019
-96.0048763389536 -12.4063263714882 15.872487237904
-187.858931738027 1.68065468907988 12.183196264476
-69.2582370809266 -15.8650686954172 -7.15835007817945
-105.829768194364 -9.32048409811192 15.3646146160022
180.30211899023 35.3197672860156 -18.765770292728
-173.541786953236 -33.0256348200805 -9.22192054775467
10.419871783825 -11.6360027174109 20.6650408809945
177.48707460091 15.0237596041269 -23.9630045765575
214.645383811671 23.9555290566085 3.53629307811635
-208.88295525376 -4.13988329140297 2.90654154849503
115.485318987108 12.8254406495024 19.3335901301952
10.8329931314158 -8.5231784111521 22.1631767659425
56.2954061520678 -2.63363457909138 -3.70493513864569
-137.757905217257 6.82493810586987 -13.6718463187554
185.013933389597 42.8497215778867 -6.03958185492148
206.448095008784 32.4036949966167 -32.4913354623768
-73.7697991938509 -18.0525045052344 -5.38030398291786
-118.384955599748 -15.5268848315363 -13.9939098401559
-84.14564220659 -20.059619387935 -7.18996320424543
197.116135474298 -18.2803140182393 -30.6516492982789
161.445334217392 5.62436383946389 -7.59543225271448
-48.6847712493464 -5.95971308060808 -6.7663412486238
-145.627249453618 8.93945945064787 -10.9638160850943
-97.2262735396709 -14.4635615245362 14.4133198512327
200.480871356328 -23.5549889293458 24.3421196545355
-137.616076443596 1.74074092088674 8.87085501627604
-204.45792424732 40.4843506484715 -13.8617969305498
156.223021310181 20.4216022018544 10.7306064648771
-229.598343856623 10.2777549028578 -0.655364378267923
-178.179369271312 -9.33754866827284 13.6906317116736
-166.380832929174 12.4385586741126 2.36949470835785
133.93015352722 -10.2346174676822 22.347884590775
-133.153559306229 3.09682038002801 -13.2487735251415
173.180138623883 31.8170147687844 -11.6122863382041
-201.058358989178 1.32255209531459 -10.2587442825028
210.96422861009 23.9777280677456 11.2302683392152
1.22386386096516 0.868966781397017 22.5892904148232
-221.880192291385 34.0719960789591 25.3659393453369
183.11295645743 10.973149499095 -28.141119559217
171.288839056866 27.5563727858454 5.33636359565763
-231.560742623882 34.58819636116 15.6618022085426
-224.123464291679 15.6340856709765 -13.2746624248395
40.2904802122084 5.98353827316682 3.57019580782129
119.739674717664 9.61557564389166 1.08403646994628
-67.2629836782625 -15.0888982641287 -7.50016700090828
46.3129613049961 -14.3905152328453 17.3026321040306
-64.2618914627726 3.22467726160875 13.5290046527844
132.937196517655 8.39669794920853 -1.11620583590728
5.45975891490265 -12.4113220510068 1.20224779305511
-155.433659932669 16.1599528019005 -19.8405806469851
181.242497225389 12.1304808707485 -21.6328931339111
165.048576929961 -26.3115134032537 -9.3405816759002
-126.648067877089 -20.8850417767911 5.46198639860705
-177.578044467579 -3.79274712821347 -25.3865576177683
-208.191601280114 6.47694248718564 -9.22549067027319
-206.360728971162 -25.1447958906199 9.5025381889851
199.919349349181 -35.5266403976308 -7.97418277120364
-62.5318698463752 5.44436883201728 1.31191957264875
194.142983272866 -27.2096836490433 25.044489117993
-124.218445038113 -22.2348084007618 2.83580556855766
82.6851138666873 -15.7152141032854 12.9282683633135
-153.06824742142 -5.56359027251658 -22.4329126856018
167.666758855428 23.4212856444927 -7.87909754173237
205.143369016535 -12.1638663528487 -13.7769329407078
174.962466618446 -3.81982559881472 -15.3442380825761
-20.6188603862325 -19.2237033877083 11.0944998430615
-140.999480511905 3.3793654927489 -18.807284329137
189.875279566598 42.0567218943978 -2.16074618914659
208.010955414568 -19.9688069745091 -12.7624600026462
126.735589035463 -15.6875084794483 16.5087558566467
215.051559945047 23.9800847474388 -21.0826696569111
-213.315523203665 1.55719417399757 7.3696552296981
190.936248276625 10.4453181417726 -25.1158284344538
98.9605467346264 14.3619361168881 11.661976807153
-186.272218056371 22.9952706078614 2.53596957093026
208.912059145978 -24.80212628723 -7.62510564625771
211.24516623507 33.4925519333353 -1.53684508998986
174.31138363396 -27.5500734265734 15.3324118367426
190.307072524831 4.54379112717653 -10.2689267722114
200.532417137431 39.878707533992 -14.1643488584192
209.254583597479 35.2501699461763 -16.2136265980372
-138.721542570587 5.96630133728903 -7.0218965327438
203.895454802916 -33.8785980277804 -18.0867476577933
207.403670536962 -14.9362109252483 -5.59174886126845
-207.722753702495 -30.4952155280242 -10.751033779177
-200.794686631588 -7.88564132184454 -21.991754728632
108.845882292931 13.3534622042036 6.67197722627988
-212.036620850407 28.7299407478237 -19.3981754687899
88.4235168576506 9.00336884238371 21.4621779801828
216.853900038954 26.9381636686541 -12.6001136726057
-157.328212111392 3.74268575940729 13.1853134611742
-198.575679848479 5.39536672569327 16.2590625216317
176.614393080353 -8.0899061058213 -22.1599425985224
-111.409987816631 -9.76290906471702 -13.0182784167625
21.1391371172576 -8.59341998183401 21.9847778980118
202.11766051989 -6.5259861772028 12.6996991871415
58.4936950851204 2.05195182590641 23.3279005763701
199.285422161187 -7.93463689623678 -19.0721878653727
97.1958332371662 6.38745507847243 0.559218869764483
-160.529702043502 -20.1423104831666 -20.8773992600286
-82.9493467639666 -12.2381187983211 -10.4422073696311
166.687622047385 -8.47989798134316 -11.2413341398953
141.334878456539 6.69444251568324 -2.87875721186467
-226.804364175518 6.57004760636074 5.56438077710064
45.4738461917688 7.92386075436061 19.7501278425088
50.7183868074212 -9.27715035155745 -1.91243129492466
134.866204686149 8.24223915521947 -1.38938098723282
-185.092202633391 -7.95045519792509 15.3561973209813
66.3168471087544 -15.9387921532061 9.26641473177129
-202.777008814955 -6.20897224300257 -6.09071370383641
181.350848698627 -13.1921095780948 29.593513393589
-101.052007236973 -2.22271632449662 -8.60733066526381
7.0418773095736 6.97456636154202 16.751364998278
53.6767783998426 1.87260263258926 -1.13994838287554
155.678491300753 -10.4690277206334 23.7961075577318
4.98040276181082 0.740617911682882 22.7201496561188
-190.215322840965 32.6316418076568 9.05738460109794
201.460503094852 -19.9423809905899 23.570880455206
191.932862829887 40.1565910556169 -19.5072775238939
171.301339747954 -6.9995881779708 25.4176105213411
-200.275718051885 43.063550491802 17.7118997163078
175.89327282308 -37.6976192315878 -9.47829005409344
169.743726086508 23.952513529731 -9.16565980229847
-188.052674989863 -2.34069384137733 12.8912996300301
-158.899410336237 12.8940121242114 -5.28043926370925
214.659098734498 22.1900945289474 -21.3923370440867
-192.120781668373 24.5410502311639 -4.13429604223297
29.9824162675012 -13.4534705596092 2.93276196344899
-114.312793324864 -20.1575431220308 -12.3736048012034
160.036536434938 10.5751471173341 21.3498312543432
190.832851414741 12.1539100536118 26.1297319503665
107.077856994544 -17.1148374456266 10.1844948252589
-192.618474381858 18.526895283133 17.2747498907272
-201.668326534207 4.31759357215701 17.1866456811591
-150.844897305343 -13.7024635929685 -19.6562487277694
204.692110677714 31.8515576632194 6.44483743072019
64.8303689600877 -15.9067083709115 11.4381181275848
-219.484771573264 10.4717030999023 -8.72942497176556
-81.7000335365265 1.19755982565085 -3.29862667141956
106.717288171928 12.5289165267454 19.1275711518029
-197.652733952119 -23.583378486818 13.1240574307923
204.13993796975 31.3077105648664 8.01315464488275
-225.99601715007 25.4861579371463 -14.7813603272402
119.434060718734 -11.7833509424701 -4.01760917994961
196.037786741733 32.7774633473937 -36.8699522161635
194.997146399213 -17.2133118584844 28.3331859199731
-205.826746972414 -28.3941592857956 6.30876974373486
91.7016828836566 -9.41766772454098 -3.50124870839561
23.8793586752033 -13.2767637510361 2.57478690692348
-5.82445289473388 4.54028769645875 19.6505308694848
-91.0538989261828 -21.6181072619211 4.60758518497727
174.724993441719 18.529830022223 19.1875415713898
-202.71793744747 2.75023129440773 -9.83599280829158
182.982314939897 -23.1081051569263 29.1173111017647
172.761753332236 -24.4473642479696 -23.2065751861176
-222.751030197828 13.5376669711174 22.5839171887228
194.100797235733 -24.381391871725 28.5603970444806
-195.616267789381 -1.85614634980417 -11.7243628983674
192.641577062761 11.2076193313359 -16.7879317482443
182.662739416987 -38.3381919079137 -3.45106765131375
-187.664043824911 19.7451859876162 11.0119458599117
188.074876161418 19.1713067462763 22.1136241732165
133.840079075946 12.6879581803623 1.43407019970685
-229.578171084316 42.5406402992828 6.19373022068919
-197.506400973243 -29.9649291733788 3.59667716079412
177.935178627906 34.0131683053805 -15.4022634014212
-161.4647342969 -1.95590730238056 -25.5561552360072
-182.610013399827 6.5307928358473 11.1844766511433
189.161304978158 -29.3739239864971 19.2092374689709
153.171490931281 -20.8164972515649 -5.44245935693847
-226.407707002853 40.1462368463217 17.7822591455542
174.84529708365 25.2200487546928 11.6525146514026
-145.961317139835 7.00839587869414 -22.2731504950532
-229.795906864569 15.8495925332153 17.4086314361875
-20.7119524978249 -10.2279747480465 -3.46630688836732
180.444611381473 39.5993673789586 -2.03905316482684
-198.690773095325 38.5948379600407 20.966214943519
16.7874071319953 5.44719441243731 20.3458241412269
-206.810492368635 43.8542970943763 -11.4659819830211
138.979600165706 -19.1319702533473 10.8884657261546
177.08469892284 -29.2306434283708 -25.9116917320052
-188.348292533597 -3.20205884661842 -15.5237723330067
-189.520346427513 3.65752999928671 -11.3668192863987
-46.8629428470821 5.31996543325411 13.765933792613
179.460717658184 -17.0693547659173 -29.1594658693664
-104.904511398289 2.5485880220466 9.31465698329381
89.8796731502974 -16.2866850540956 6.84454547148047
178.327721137967 28.6816151860309 -24.9679518833437
-16.5225049812651 -16.2730607385678 16.2165970031842
-208.980925677855 44.7937311012463 -10.9442081845204
130.816554540774 -17.4711107266465 -0.585761947097257
-150.688009025307 -4.028700400537 -22.0890477897785
73.4646518057501 9.39127589163638 5.73889916781132
-59.2739538827308 -18.4485291961481 -1.00617330238061
-149.151057578965 8.63882161538633 -3.99373923993899
-17.4472133574437 7.27544078809268 9.32148751038543
189.669447586094 -27.165617326148 23.267156346768
-74.5799615665548 -2.24566710563939 -5.35926711926982
-228.612497352819 30.6011551415472 -11.6113142590302
-149.943626041057 14.3867961117621 -14.2677402053823
187.757043316656 -31.7984754329314 -29.9436232823068
-152.941151662725 15.8590053977594 -18.8193498565763
-174.807984142051 -33.1905759042992 -13.9536296624277
61.9559908141463 6.40352654069032 22.055165604818
-132.156587463078 -23.2479132145905 -13.1317110697326
140.22954455395 -18.6761315755684 12.8995172579685
-230.98279207794 18.2143255596788 17.2537642307461
102.096634360567 4.74745740763299 23.2940142118452
93.2611197005948 13.7898045755634 14.487459056222
-213.578953742026 -24.1134938079277 -12.8669161936007
172.343837328376 18.3298317098311 18.6441605632065
4.29273891062382 7.37984977522478 14.5398935440861
-138.119911400993 -21.9212194691484 5.07569390548953
-196.183255112805 -34.8093378918206 2.70374816262586
157.70554431833 -23.581290307854 -2.09359199805268
-170.949312304322 -23.6966490254217 9.92878657995625
198.845533167563 41.1032515787227 -10.2601607682862
-214.016593860531 -16.2184722840334 -21.9544761562926
36.6790275375228 -6.20898031774069 22.6686494946754
-195.147482777924 -37.0689047003404 1.67093670930365
-92.7105917156596 -21.2351056090569 -7.45555690141539
182.888282204693 -26.2152896581603 23.5297152802481
-27.3296711829003 -18.170388779318 4.81162462677259
-77.9241392098545 -21.3510762072183 -2.46897059850398
-15.0820695556976 0.869209184695328 21.9022425359217
-121.164349580396 4.82046041376923 -5.12359647986052
-213.221542884924 -6.76923753272265 -25.0558730894296
-211.91065449464 -23.4959629393119 -19.2244974355492
-159.282159872035 -26.3603033587499 3.76016046075936
-150.597466709959 9.21377419488587 4.43466236685334
136.195448224093 -14.1347145417168 19.7129018995701
139.963628608194 -9.72516982284006 -5.60863588483017
22.5357611146937 5.05042102022128 2.76024267101844
166.088907798478 -20.639681823577 19.9147515578581
135.0040321075 1.98117962047002 23.9313749953747
171.902114994331 32.2252026223823 -4.32927792271402
-151.926089538595 -21.5966325030717 7.80172626150597
199.274461335646 31.4917739677147 10.3284206315202
-208.390403058052 -2.83536423510376 -0.435464461817171
47.2941370984514 -13.415479819819 2.9580010798123
136.874299961009 -6.24199943918861 -5.02991747193682
162.350613888904 5.97238891366936 22.3207191832203
143.753416159517 -4.81947113136292 24.1190326287048
-39.3650256253429 -3.02396662130435 -5.96713920181677
181.638997669288 26.9556039713108 -32.2405152299851
-66.555478660206 -20.8789976997006 0.65954038268021
-185.879558041998 19.4995711995947 -3.68357392438913
-167.907681414628 -22.1296006607629 9.72847882449436
115.922089847071 -17.8892750300313 6.71713685163871
-195.274363572702 -6.97891824152631 -12.2804239888336
-82.505065847888 -20.2889454957727 -5.73900164139995
-213.820483157581 -22.0138991265853 -16.7566252712786
215.335551108086 32.7939625060304 -13.2344360004623
162.278561559801 -21.7431997745225 15.3318917430968
-12.5902628964292 -18.9961127413847 11.2477420698096
126.151101160621 -17.2097388377655 13.2537593112464
208.101712316163 28.895987157648 8.93003259106686
105.119839389131 14.2553959292543 16.6457845044141
-135.531209976047 -4.47262302222043 10.9542076597802
-110.792434456577 -3.56234661453567 13.2228251698046
47.1544631494531 4.79637711760306 1.68850043410887
-109.961008762658 -19.1511721273256 -11.9685977756616
185.423763973101 -23.8320376154076 29.1755746484695
186.200369760945 -37.1865656529477 0.333575344324657
-79.983076004949 -19.4134105202967 9.14704784176171
-95.6737907515007 -4.09047116228641 -8.7254315841406
-209.634939779164 25.3912718548077 -19.4451161794534
-188.363175703876 -4.52255148190411 -21.133839805217
-114.932769678569 -12.3804228097809 -13.5667169089895
180.895923213451 2.73241245947838 24.0067802694021
-163.709549935201 -0.669911805672479 -25.4527776613985
-180.921338197871 -2.68794680953132 -22.0009192471652
-184.395404043917 -13.8231677058241 14.8864521663246
134.596050300907 16.1810782548653 16.429207514677
66.9105664892089 4.90505119373361 1.20105660726257
-205.906547302415 -8.62467504991596 -17.8303973389479
107.717967994342 -2.83375789301113 -3.33238657831297
-24.1751899186938 -1.19636147707684 -5.85396646117472
-230.287194050579 27.7691266848377 -10.3055445278356
-90.3179787137299 -16.4470384396018 -11.6103168782935
207.041626657583 11.7886582904445 -26.0896038393245
185.65083882713 -30.7435268068513 -28.0535510819196
-132.634491375922 -4.36307876981249 -16.0446926550721
50.4557596682867 -2.27715523242244 23.3197600737543
-181.15496019059 -34.4156420189821 9.61494716942981
-30.4464108317064 -12.56213324163 19.2823524053023
-186.439443320014 -7.25435660503016 15.5285153615851
196.969314704449 -30.9811135535992 15.0037628512772
-193.012691587315 1.87056181078268 12.8665757622327
128.997680308048 17.3421725915323 10.7340166023338
161.473798035777 23.5594296650831 5.17059155569359
-166.892303999751 -16.2111556858715 9.80153369050183
-196.925642595004 44.6811657673424 0.201693958577439
-203.290835384066 15.7653396212193 -13.9305114609819
-216.573735206618 40.7947440287946 23.4284972761298
195.617297871718 -21.6546340033624 -31.8060884507825
-225.584556556823 38.9200637477326 19.6583869019018
-145.519351503667 -23.9603790092924 2.50310413902554
162.646410431695 14.974726151963 19.5680738700952
-22.0252531628146 -3.57489284194966 22.6170703125229
201.344068509503 39.0149183641415 -17.2282029938544
-215.005234250122 5.37518485901839 -0.710872747461847
30.3507449743335 6.3733866535131 20.4270015553695
169.217126849214 21.4353697644927 -9.56251417252878
187.741304970024 -28.1167970001423 -31.9166823180237
-195.590615029302 -4.16461219882835 14.4691591383333
116.329596773643 -17.6922612334726 9.50741493142273
165.280244215827 22.8151876394786 -6.87893162860143
208.609929167771 34.9166422796411 -24.5646974093277
-187.800898456956 22.018100249379 9.16077129321497
107.339904855111 14.9206974784919 15.4096254737423
-186.374268283532 -3.98241377480428 -21.9961798292732
-230.696063811469 40.7071873736124 8.93479349998727
210.033466099654 35.2127183980637 -18.7544827219406
-183.39384359932 6.25976471467289 -11.5912477725093
-231.04261906504 26.6207456919571 19.2096264291451
-159.257318477171 16.5890684067418 -14.9641774183607
-58.6315445632654 6.67557893211271 3.44360599735951
185.654750609968 -4.66807864822453 -14.718981886049
-231.128265410094 11.7625687134262 1.9421429868816
199.005461154051 -14.2515157411403 -27.5014869137348
-215.532084124447 -23.3685019929074 -4.63433979188012
-213.881801957235 47.9608566469154 13.1107489922871
-160.482766149424 -25.1104237666475 6.35442155996069
-211.593814915664 -10.5570239256721 -27.8930854111494
-191.52581184526 20.7951965724995 16.3296106414547
67.952357273665 9.68370745070248 19.482330603189
-194.680496890335 40.7663288260957 13.6965195632818
-120.297954363225 -19.424326372389 -14.2498176787691
184.620978092549 36.4363760225084 -30.513554444215
77.9998337955029 11.3955004937585 8.96188813059368
192.770475065983 -32.0981567870752 11.6971003844501
-212.382774848461 49.2477548333087 10.9460547982938
215.798209273872 17.8300727013434 -7.42648198195385
-28.0091234266676 -5.43266765075919 -6.29684065520289
150.969290180512 -15.960370340178 -7.69851097056533
-205.93012704873 -6.804166810967 -22.4685538338019
200.171096094959 -6.74567885151908 -13.0849405861783
55.6485777575747 -15.3726393119427 14.82820464812
152.439612007059 -7.12843649551539 24.0712360424927
-184.896822410194 11.4877943783993 11.3685138589136
-215.006594476122 -23.0518862229232 0.491316433366325
198.217087413095 -2.45071033219906 17.4831690563103
207.816582360788 -28.0540672951016 -2.58112923365074
-155.359604312885 9.61620808456919 -25.1634534011271
-199.092723093652 20.9383914792634 -13.1794373741795
-48.483515823927 -8.39679568138636 20.8897349356515
181.416325238187 20.1959937798295 20.8885463861356
-185.074493900919 1.58474189469428 11.3371417812669
-186.63196618525 8.44790545529284 10.8995891285711
-182.227175153889 18.9949782364515 -2.09987468949258
148.940806917214 -9.44389180500285 -6.72804339807524
-217.692669176174 26.3965283581907 28.5268326506368
-176.233092035066 -13.7686362310046 10.8047536788864
-168.667897993114 -14.8403586458578 9.56425347671272
-192.673833294213 -27.4470596896785 11.6269531096905
-94.8619174647447 -4.29885665211798 15.810662208382
151.143523150225 13.3439176912619 19.8523286720906
152.097019410604 -18.949180014541 -7.35027427531981
-119.851772922164 -2.6836980415949 11.7743628708236
169.121375798188 -15.1199370652194 26.3395867838871
-192.290689717264 28.8957020477011 17.4144671366011
-190.305973582518 -27.4518576493617 11.9787727008684
199.254907987082 -18.5197824253484 -29.2764837072949
190.673778667016 -26.3407981186305 24.9788533623519
183.733499511751 -6.86478012025485 -21.3666995038199
-32.3833257202146 -17.5746551812328 3.17583617059723
-204.29848207465 17.7601775733763 -15.0750622260752
-71.4071769569082 -11.0184576919395 -9.41500631117468
173.150096609937 -12.977650407993 -22.2346482568654
135.979376755896 14.5547246226989 2.75573462742635
4.1984163485963 4.17086328131606 1.57993114897947
-193.975960250636 25.5670305253115 -5.79670042074972
-232.726661073645 37.1443646754689 9.7811119786265
-120.460125785569 -25.0395012460139 -4.39151171762075
-223.433227244683 10.4999487153786 -7.87570214295398
140.380431959099 5.34478723402529 22.9580422415542
-43.4096361190022 7.24625906937614 10.1061142485789
180.06965991629 13.2411012270705 -28.6144409213669
131.706903794061 16.2283681080851 16.0684373935557
179.388345414267 30.8548688757341 -25.8569633481106
193.240420111131 38.1611686254208 -25.9637480042964
24.6238725243094 -11.4277896062588 0.361735450053397
-227.400505129622 44.6160125655878 2.02524485283181
205.433075792905 35.7179524355846 -2.0385385892946
-71.0340056507154 -20.0299455767919 8.84770998572524
190.695671678756 -7.59893124803827 25.5490868420989
-188.185715963905 -28.3063999560937 11.5417669490175
-84.0082707711925 -22.0542556247429 -3.52709545375151
-101.022317622397 -8.88894078945566 16.1282171336661
-204.961875719064 -4.00676579516904 -5.09000579262153
177.724303941519 15.4647169479075 -26.0099154942045
204.903313730849 32.4796559839791 4.84032161903943
25.0714907859648 4.67383286941663 2.14220221952708
-194.626308823232 16.2256440533078 18.2708218440966
151.985476796761 -21.4902220999044 -2.82245441339789
-200.409715616153 36.4798690356355 -14.2762799773046
191.33490237375 29.5096514162518 14.1084573307098
147.240719017751 19.6707585721797 4.22893448683669
-135.868180729957 -22.9724664140102 2.66424145717634
188.697982518071 -33.4234295585242 9.32683421124664
-167.79721293926 -1.16053381470061 -24.0068559010313
-212.831499739961 -26.3101986296819 0.642156041358063
-46.4433402322469 -10.316592439466 -7.7257574245636
186.049689770707 -0.492523441526426 -12.7002410815323
-225.226007612693 5.5553030876265 5.91131934346654
61.9172515973606 7.24584209599437 3.8662456631558
5.39454494175494 -17.9381855735009 9.24310465513359
150.117539959523 -10.6189661716115 23.274814106207
149.353874662884 3.31269296379498 23.2513032183076
202.790067081958 9.88913601353669 -14.2256473038413
-188.347621637441 -26.3008177532433 13.0102099702366
-191.559437960987 22.0039783380969 -5.09930295839807
101.446809445983 -9.36176718023053 21.5163639876132
-25.0256862926552 -7.24628639473701 -6.7357112275912
37.590780848569 -2.89786227568742 23.1298143925824
-170.404963303852 -29.2508104043528 7.53584532887257
-226.488266047561 41.7942339519664 -6.43518191297984
-214.609718525479 -22.6679977189137 -14.5566432305311
169.486467639544 10.7663956229333 21.5855263820215
191.110480736504 -38.4309066451349 -2.6297588067969
-78.2439708752141 -16.9269970875603 12.9318404669043
-2.37480146076561 -17.114063294427 15.0130310056451
116.125893396443 14.3019133220873 17.764896711258
-23.2093932621211 6.80144720231621 12.2730207133276
196.658029153948 -33.5840141173767 5.10785150239365
-58.6182304060464 7.19781489419096 6.31831061450363
-228.237137768352 8.57660185518585 -0.795863795537023
-94.6799930574471 -16.6135128335305 -12.3407290040981
-213.958617281137 25.743177863302 -19.4105917066055
190.930810982039 38.002508767556 4.00231847217806
167.31503287793 27.5637308765195 -0.215703519717526
-24.3264847807378 -15.8306500385978 2.27115617229762
-206.064420952524 17.8136028463233 -15.8215467160963
179.478576753484 -9.37369337607314 -25.2916149583287
-125.547220464376 3.19560737734915 7.67985849551614
182.79236386414 10.7124810903571 -18.9939094638229
-149.599042186196 -26.0221738074368 -3.97749797422794
159.168019328949 -8.10792223259956 24.351206279891
-195.513916952622 -12.4554542755589 -11.7929952100919
193.93144744298 40.4201796009348 -15.7223366493846
-179.088900326021 -3.98755023545547 -26.1615916299685
174.812118297944 -8.52879380685791 -18.8893534757095
-196.210381161724 42.0385403616932 -5.32550133001713
-79.1631384310335 -16.0970938995994 -10.1722878387439
-181.381242987735 -32.038607020806 -19.9577423890436
-193.494263274387 27.3177744006331 -4.59451560140402
-55.483214760938 0.413099284958522 18.6128923429137
-211.911409810924 18.9151327335936 -18.7855932360658
-120.98072564423 3.30305239402137 -7.27573069123988
