-225.730269511854 14.9810572050518 -1.13120146027233
-117.55061265044 5.68860112350684 -12.9612345615324
0.755953282577171 7.51149256323101 4.69466599670321
200.138810381237 35.3011893585591 4.49211619032851
-219.34798014354 14.6116135794421 25.5430637429236
-227.983710214341 12.1404768415585 8.42295282381784
184.466819795855 -28.452405267984 -12.5290112092182
-214.718323233386 14.991662410293 -17.7351954250033
-44.9312188213754 15.0467774616772 -17.515878112019
-210.235128538769 -44.2529082637581 -8.70457869031231
190.325729435512 -34.3171743761305 -7.64388739958001
-52.9289226691136 1.88380955015117 4.63530991523424
70.4353923908052 15.3376343281223 -17.6821720304861
171.573446653667 29.0452208919133 -3.87382373124254
-183.411342218168 -4.86562661672655 21.0585426459077
181.064456974133 -26.3046817513389 33.8944907841952
170.790550610772 -15.0483203397127 -20.4192170859319
-179.171459182098 -11.9213973280435 -7.14894298664178
85.0496649851816 -9.96308326050925 -19.8812501187575
-162.978589282349 6.93049899949511 20.4498222054096
-167.252358177245 9.88912830977771 21.3965568785381
-209.515092330893 -21.9545336973975 -18.6147096861777
-226.272937795241 -48.4814630281626 5.35295634184994
-248.948528711645 -34.6510933961709 -8.68311848004524
142.693711503169 -18.0503777411789 -13.3355838487646
98.703121595258 16.0947902279361 -16.6368968026837
-153.674879110655 -1.23983936045398 -10.0551417446435
-215.842195487376 -35.3160347498056 -25.0480349850337
-241.328775333306 -45.7410100343533 -9.63538806371306
-220.204645421104 2.66786121622721 -13.87775276317
197.9856601974 -5.07432165608101 -17.7822733369682
47.6023426095908 11.1789266749924 0.577471810611585
-217.122071756157 -2.49277279057936 8.35006343924005
-49.7682137253462 -5.07360821449741 -12.1202388786364
-237.89970448648 -12.4302632371195 -19.7003509110302
-241.624996996685 -12.3259749638005 3.69047961562145
-3.84759984181645 -1.44119600453884 0.345212518496228
-199.93560596212 12.5898240641741 27.3922926590434
141.036940783061 -11.6238360418084 -19.6197003322557
192.740410350202 -9.3276495869505 13.0772065394518
56.6082858318217 4.36832970199094 -23.8918451686315
108.872534857871 -13.74649662491 -5.83626036642903
190.7929311385 -17.7321562569086 36.1060264164994
55.6415380459037 0.720674036064879 4.30863146061861
-226.112918531365 -1.45837232642783 -5.6235479780561
-225.415212473078 25.0696277586926 13.0005124027578
193.723824881687 -23.8204505628567 -17.6517956828137
35.4347144401815 -7.80571682223485 -7.90301230387844
-183.824886778575 26.1214067659922 13.7989579387617
-55.5725352135876 2.2321112654252 5.62637869659237
203.28400407761 31.199899498631 -1.78180097827613
175.504850988467 27.0926297774077 -14.2857679752182
-236.242012923695 -22.1316742705907 -26.2497089006095
-160.706966804388 18.2238024137725 -4.46606758410034
-188.539909225439 28.2528816924536 13.6228870038579
-53.3649195118019 21.1797516052335 -7.04378465001308
-234.808961243312 -49.7134892425748 -5.4480658593
144.903856957793 -19.8863230181701 2.26234059728338
-69.7446326322638 10.2479382753225 -17.2393818597352
-205.832668580049 -28.9654856819369 -3.6237364321252
-162.663640574949 14.4362051393618 -6.59918764970354
165.236186931107 20.3019204354638 -19.9825939941845
-215.658328842896 31.716657906201 -3.2755665620137
106.653901596591 -6.42816417637577 0.960451594402375
-26.0692887006285 14.7121462890888 -18.5596476753667
-164.547708935634 1.76477347012902 21.035065033959
-2.9986081730363 10.3558900230441 1.5210523935535
-17.3034512862502 1.14966522428163 3.5403963344793
-85.6634067429306 -3.86284340499022 -10.6278201763811
-217.886114713643 -4.96075282320396 -19.1592459447847
131.64712267576 -8.56049064544052 2.26528555939237
-220.717925997228 -4.00789401654025 5.54731773763135
96.8404356565115 -14.4183864122812 -15.2189183197958
81.0494010697146 -11.902119680103 -8.26319919655746
157.481213313542 -4.86738563237978 6.22674306554204
-177.444922659931 -3.89133219078459 -12.2589308843625
39.7221507377539 -3.00886522000269 -1.85437066373273
-233.041470336099 -9.23015907622192 -1.56402078139168
-204.324896777802 -19.8969745308056 5.74081336369368
44.9843869065153 -7.96435518458307 -7.43130701409169
-8.40490723611272 12.5547857744976 -0.27108277903692
62.6230012723142 2.09722842142737 -24.0511602436474
175.414976625148 -13.191794195533 -22.3770340907303
-196.699363021693 6.43179501619894 -14.9101175017378
189.662090523994 -8.11666123003894 -23.3825846486494
-165.160856854944 7.07458437630848 20.9359398328648
213.365409209778 -27.4269792084015 -3.91114749982441
197.371395308717 6.79032414078772 9.91876916739752
75.2336598732681 -11.9796742875808 -9.43419055962054
189.003181889513 15.9914727501571 -29.2984534370907
119.482799260138 11.6137435746718 4.43598801660884
204.953303882571 -10.1369186272652 17.6627788463673
107.397231982726 -2.30045159677265 2.1693484797496
187.319253582618 -3.88648101485101 -23.3639985180237
-191.900525267626 1.89595738071084 24.4170323720446
-179.452098335977 11.8296966586339 23.3280254476891
58.3144865141335 16.6283089787527 -15.1492381081031
-105.33232922269 17.9166145540832 11.5816583835549
-150.378040992922 17.8803414229965 17.0832469635363
193.949935612113 -11.7630813241341 17.275755904693
-172.594704519858 -14.4157349533946 12.7207026600874
164.494286022189 24.4315552861482 -6.7833216475225
-215.573396778732 13.9471468138123 -16.6428780805516
-242.991431594571 -23.3132643910142 -21.9013941690544
-229.779541584789 23.0038859507552 6.0137623722025
-216.698350751751 -25.6250763759327 -26.6392328565736
185.88784625061 -43.2250174660892 6.80891601314059
187.672563251316 -42.7797286922607 4.18698796459374
-48.5699574814257 6.19975180591104 8.46015764254982
-223.854313236244 26.4924904729389 -5.03588854800398
183.518336896725 -36.6822045751798 31.9592830981107
-242.406263756678 -37.8615059319649 8.63809099756513
-209.610268229283 34.9016304481332 -0.542577124169387
174.854443958434 17.9521657382756 -29.7828864685897
159.642964079423 22.0056321915985 10.1124887206312
-72.840233475027 -4.90134428911459 -6.89393202193939
104.695883256869 7.84110450639253 -24.7353452840612
-175.74417274352 19.4208498689934 -4.98656041908016
-221.916289760406 14.4291420341277 -12.002428032678
182.673925241497 26.1536894743222 -21.7179033466501
-213.001374337663 24.4584712403882 -10.0724427479857
-193.381275309535 1.35981646830707 22.7603096378614
-223.499807791776 -50.5365784587705 -11.193492089229
143.589647279662 -6.63378351286962 3.7242006073829
193.618174874687 -10.9901255994156 14.9024260539261
105.860686003538 2.14752652967142 3.06004952724115
143.313241679178 16.9920342463617 -18.1121439438435
-162.457975908845 16.4901510727599 19.1442022609789
206.068065632431 -29.9973232758225 -5.56906312463127
-36.2840236156302 20.6595457437047 -8.81893964847653
-82.9721424309279 15.7049978089416 7.82689271173987
187.033636739326 -25.3822301454027 -16.0972211636762
-238.903717401933 -26.9085236740624 14.001031580141
24.0581267242554 13.8784284364566 -2.81061069147026
-24.0932500557538 19.8749140803139 -8.30543383465445
-227.224606184145 -3.25175191401344 -11.3555635224504
57.024432380661 10.6215997045541 1.24538370513265
-168.656328078372 -10.6919229623356 9.50984061430878
91.3441425707462 7.24059609729986 4.52128776744895
-233.988756690818 -21.4544982080392 15.5201420434665
65.5130755982293 -12.0628249150515 -13.5235934750121
142.651198788987 13.0404743581385 5.71440705330009
178.848746007965 23.600579726595 32.3122929157046
91.348784141044 1.45673212250278 -24.9032597999774
203.39937973726 -36.9579837210338 21.4828708435329
109.653210362409 2.44602704420186 3.12731094312465
16.2947400816383 13.6262563383994 -20.3620506233832
175.078399276792 40.0714394467505 10.9516991936017
181.906990419077 -35.5178743838686 -4.48943792150719
-68.3653976045284 3.25730895276549 7.13105180035043
146.568531737012 7.02664653310985 5.48059786027291
-187.006835772748 6.25245705947263 25.8006998338612
-39.9122764550057 1.64710102967077 -19.8583904863298
77.1945292273939 -10.6898343087883 -18.8452145950812
-196.162979232408 18.3690254310077 24.7142993353579
66.6754657413581 14.8669866836982 -2.21771573302986
160.103798849125 -11.8415001284395 10.3100836602773
-107.864067624739 -0.574072485095799 6.80353082198413
153.615743272041 -2.8497989283184 -23.8897837200423
173.611141043313 21.9357828248061 -26.0549714842794
-81.7440853915066 -4.74556912525024 -6.20649882215454
69.1607985978307 16.9953194801454 -6.25711089555054
171.087895148446 18.6131051109517 25.3901743607143
-113.413346142182 16.5444402898613 -8.82712816902636
-7.523963809264 6.51597842185042 6.10292285366727
169.423747384186 11.8331274883715 13.8397025548687
-87.5692938230914 12.6894611350621 -14.6461755299153
157.597920075193 19.5799818804595 9.59901399179144
-230.336198893457 9.08673401128775 12.078411605701
99.5179807672261 1.06472041913636 2.84198631017551
82.3648754943635 -9.18381784229821 -20.3025373289849
62.7137277304443 -9.82008254372937 -8.07306906007392
-231.640387047275 -29.3926734433938 16.8945472399283
-215.085851261466 11.6819853396768 9.95854783197071
179.892834169755 -37.8743334224073 26.1025813403843
189.277561432473 -19.8151728584141 36.5520059255789
185.274586703323 26.8693334490353 -20.1283740566082
184.130189777468 38.8123854034047 13.8935695884827
186.323651628062 -20.0835085298038 -22.4695600464248
6.3286732603708 5.78855488003426 6.34959212450726
-198.65574319003 24.6227639030015 -10.3035309664566
-69.3541024002815 21.6979943281768 -4.98521939912043
-55.2549354006639 -2.25921688581722 -0.491379876835448
197.294006687655 31.2834889000063 -6.71764988501116
-189.85188918013 -16.4236148332366 -4.25314232467055
-205.523878877398 -28.5941136414545 -5.85890336236486
-232.770431598868 -9.38082211535569 1.04201094441937
-225.116379521338 14.8478334696294 -5.09626672387879
41.3645350645622 15.0049612275868 -3.9402489220813
-206.073530739513 27.2185759201901 19.0410484376621
-158.677027218911 -4.62010678522641 -10.1429267367014
-212.972365506076 27.5584310404538 -7.87387678457346
-201.769752755148 -23.7932545260533 0.979899120711047
32.1978202826049 1.27451104812336 5.7762524597356
-179.969444944569 -0.651036612647791 -11.9231039814624
-182.647399456908 6.81208986284678 -10.7001959622715
163.9660365067 -27.1505288426892 -4.95161429228472
-198.76129212959 2.13057021581243 22.7370906656516
160.032048504185 13.2365879720564 -26.2623375169333
208.21577041484 22.0123058528877 -6.26860658650425
129.065955864492 1.92028884752074 3.49823929735061
210.343906944184 -11.0145767066652 -1.24700372657693
162.37014980086 3.25851599980071 8.12594830360202
184.201502335289 -32.8260493027006 -8.25944399940339
-228.643197706484 19.2464953157502 2.30194809705573
-180.399437602224 -7.11265800559058 21.2932527483045
-175.382217012036 -9.0863699257502 22.6541724418062
-159.123948086362 13.8586479590259 20.5804286861273
-6.20672468278899 -4.53508021121964 -4.4577867413416
172.890938645871 -23.8010759454897 20.5320323401234
-204.453750700851 -26.7467399754848 -6.83586747436148
-41.4485299317351 -1.32448088317923 -18.303476427273
167.317126150707 -22.2319336643645 -11.6832443185903
-204.232669276979 2.2213009482602 16.6073258685899
105.470851269441 17.898300685663 -3.38181962624126
196.020588896259 0.135526877019873 -17.7942033974897
-239.707440417821 -8.01849648228059 -9.08855162749858
-227.225271000582 20.8544223106996 -0.134630671516257
-104.329112847093 18.0535932358493 -8.71229119644161
-223.163811543066 15.0981298669253 -10.6205610115879
-78.8764508731027 1.47047858767255 5.90647645066006
-216.657674782459 -47.9265143884968 -12.6271473077617
-170.681587307338 -11.2480807844769 23.2171442196898
-225.9546158247 26.875806591148 2.92935859711503
206.257084435745 34.793813322787 14.8413899808137
-190.198100618808 17.9523635929214 23.74975254273
-180.222344853382 7.56359363735066 -9.73536207257027
207.346796317394 26.0008099607387 14.8864211112707
132.624211951456 19.107120996972 -8.49474631429285
174.428137756384 17.6051996573528 28.2505853398792
2.21088498570721 6.20306742404699 5.90634012286047
-34.4352090472445 17.5812532715655 -3.02542921706813
-166.366321925429 23.9668602565898 2.40472349936572
-84.5812532630444 19.697294193995 3.7718072792694
176.614187578474 -41.9637414367438 2.7032620326941
-222.35040947606 -26.2927608269886 -28.5345555165849
-184.823285706183 -14.9934509783362 -2.36373673893415
145.476546810596 8.84473848813109 5.53027655241859
26.3511053658671 11.4459267543526 -21.5926282529563
179.887012025521 -14.0896034376317 -23.0918795080085
-220.596681826347 -34.1987002639837 -27.4211587944082
194.053878206109 33.8330535746542 -2.97855986143606
164.012957105254 -20.5494287002689 14.3780996842194
205.82838536207 -12.5535228377117 21.4513882539593
-220.55071464713 4.54312866601151 0.0196532711722189
159.580239716705 -21.6168131966831 11.1874794527986
-77.9225455256217 10.7392514516788 -16.3435441588191
176.645622533423 -3.25267510649265 14.6870788068028
-39.90064293071 -5.83216105859385 -9.89717221664287
-224.488233938917 12.3935373542066 4.19186371144183
-226.324113754031 -43.685139474608 11.9373614529928
192.529449376947 -37.3085691891315 29.9571955167981
-44.8895811931908 9.52556566467932 6.32747437322312
-55.1757976649967 0.860844989563158 -18.2728003836522
161.977961800766 -9.90168989018519 9.6340027659488
177.079992634953 17.3410595629233 -30.4720882092529
66.9685975250206 6.5208591345131 4.92521517371745
202.263568617539 -4.07136465500705 -13.4187604161531
202.442781989221 -38.7589632193795 14.9661503263763
-64.317767870789 10.6710773849011 8.71622231311718
181.048297826354 -39.7941869046859 25.4486223840215
200.493678228111 24.1411944780406 -20.9088966361199
4.17310163655785 13.3506774723665 -1.8539915720388
-217.5477364994 28.0098157760973 -6.12193906744999
201.945669323559 -8.55539429167493 -17.2108057345612
-231.222374295093 -49.0659323333569 0.415551002141156
47.9481055146749 7.26564942314196 5.02543318495457
131.716671491674 19.9071753511151 -3.05044126178737
-208.502719945538 -21.5057867584396 6.72503510777231
-108.299280965187 -4.56943653895029 -3.67761027408793
165.603355751346 -28.883223780827 -3.53399784911696
193.329647906831 -12.1450127231388 24.3244450993212
-199.079365855227 -22.4283643947968 -3.71116824813373
-19.9509287353163 0.486016109715854 2.38709565022434
-134.023731392534 5.33140867848969 -11.2795762685422
143.378285040908 0.011448001127127 4.26603181038534
168.152012380044 0.517906293607384 -24.4502241977248
173.771835534895 -12.520011794262 -22.3475872107173
128.678178736597 -15.6276677554899 -16.249206019804
165.157527187028 -0.746284193472093 8.70712630974251
161.535204871269 -25.8431510269591 11.8605504513618
45.2333094980337 -0.150831650757982 -23.0645017038618
138.157942978856 18.3678979091617 -12.9204542967345
171.329403821992 20.6980210466277 -25.9717726274541
-173.094914459862 -10.2150186887913 4.55317780410722
140.964252388031 19.7236422433434 3.26909351228103
175.907818282342 13.927544920599 27.0030787620282
184.742667778671 20.0261951617136 32.9894591376796
200.534969309655 14.2960209688076 -20.8895064715623
182.56343156503 -1.28599471256639 14.6531620996639
204.235089979761 -9.96208415439982 -16.4264646894903
130.656315040265 -12.3160408720148 -18.9070850908292
75.8700108807307 17.5061177369635 -7.89230921041058
-150.368190450934 22.6980739705112 9.3698915012543
-185.589005919803 20.1997120624044 -6.33258413936161
214.997504403024 -21.79752201645 5.168513229452
120.89503365577 5.37438767113679 3.37044820131741
-180.4558937405 -12.1903389374435 11.0688311623889
184.8396547349 -43.2802889340545 8.23311577199699
-57.1911531469524 14.5784061346273 -16.6082520882735
-101.339915395563 18.4363776864864 -8.79304280669772
188.146435895599 36.953308339975 30.0289853536245
193.539579277562 -36.5912644909949 33.1228616998445
180.185102862844 36.8797130399993 19.4954474579787
204.348986057726 -14.6109932080606 -19.6582732401614
186.866764335459 -23.3593778077932 -19.083358229898
-102.22555827872 22.1554013385078 0.464041927699357
-163.846134520689 15.0178766718086 20.3387733851074
52.9200762151258 -10.9883011926445 -15.2103945568669
26.2288018158404 -1.96945035835615 -21.8655736258227
205.339499326073 17.0146147781507 13.9726143575762
190.439520027594 -28.3699362117883 -13.8503283100788
-54.0619016397002 16.9991324153591 0.647581120221183
-110.770996682761 18.1940802206365 -7.61555832503799
54.5578068911601 14.2071073106236 -19.4767021778354
-199.262499922617 1.71189731258447 20.7706279599823
-97.0121969029494 22.0820283090664 -0.916524342953509
161.862631474575 -0.847853180017817 -24.2634238324599
204.186137516125 -2.85182185728916 4.17316831522126
87.640422960489 -13.5810974202662 -9.61229281877909
-191.39982848281 33.224918930961 6.2788573785531
-177.606223806287 -14.038363091544 16.0783397888261
187.337054205831 36.5800738908877 -1.07324076081042
-180.062038253287 -12.8400216412227 -5.39403838679735
164.061300247751 9.91806351316445 -27.7453025284124
178.798981091684 33.6989266505919 25.1463236726537
119.902053721246 -5.60805081182606 1.99172107053801
-226.301589870585 14.6903618945112 2.60625116439547
-73.0912377377906 6.96391895413604 -17.6735022275218
197.496893726692 -38.5800143102703 2.98441644702535
202.485975668368 37.4752134917276 22.9494315106794
6.64509099377614 14.5769976959765 -19.7134056225484
-173.269729736213 -14.7942123623749 16.5481092716633
-207.150053900563 -32.3978524721736 -3.62594550306757
161.835904372309 14.5818004512838 -26.087975762959
-109.9326828652 10.7293509188667 -12.8861298557109
203.589624600111 -22.4941249056788 32.3865218679343
-174.641651457881 1.65514295269885 23.7165685536217
202.187652939733 8.76077540193034 10.1034981110196
182.024220852906 39.4234416815558 14.7050778686995
87.836542294645 7.86650193966331 4.89906872574165
165.295743887907 24.262905479303 14.3600384394389
-202.267576222985 36.6321804541441 2.69527430252567
-180.906158135516 7.83402526656423 24.2799941342266
191.090867238025 38.5266091942396 23.3437259580677
-69.8395277372299 19.4948657927707 -11.5584536833874
-183.593259131126 16.9201999133656 23.080566807635
-211.733782907426 -24.4466940338797 -22.8829492710025
161.040062433807 -14.1051033026309 12.7284275120926
-237.401128163811 -13.0071228145746 7.86897138652912
-213.570940432352 16.2761785875696 -18.0101932772577
-211.037692023557 11.3910328194559 26.2034295566629
-58.3725213893002 16.9136437966574 -15.2103612074238
121.266989653054 16.9505219342276 -15.6560374038238
-223.341168492544 -44.3356890041195 10.9441306723972
-179.053081874017 -13.0579266814279 14.6254128320644
181.158539732285 -42.5943333789546 4.13171859532408
-160.61466311225 9.11843932319671 20.3388907233625
86.6565793988814 5.8005972627666 -24.8533301587731
35.9561772063694 10.7712424749685 0.804062670859929
151.143788442955 22.9243495729973 -2.34091741328524
-230.241049033965 20.7274020585449 5.42459025086835
-168.671933729259 6.18423755756925 21.8107193886594
185.895320667248 38.2611673009789 14.8667124589327
131.502477027603 -5.88942320269379 -22.7809412158812
-174.355728733572 23.4399579738695 -1.49917080060616
195.750333241074 -10.3868679931484 -22.3631117124854
-35.5870543938752 6.25876400239237 7.81594364666279
-196.503739749919 28.1055585882022 18.5821379525438
177.00125928577 -6.68478495863697 16.1563871793769
213.609028708504 -18.9985341136912 11.6235413297977
173.201248371378 -33.9868959369041 -2.89573897745392
46.9416281679951 15.3631700099272 -18.3217724944704
43.9376479363894 4.55909537164884 6.50400841762158
-249.767975524574 -29.6189538876788 -9.7045519742578
179.825081608019 32.5060302994295 30.4192026537928
-167.642111030932 21.196150955784 14.8945864328542
168.370809289432 9.68873946070817 12.0241190301367
168.793701596285 8.17133954476935 11.9658570594601
172.16904718092 -17.8633389430865 -18.6252085069151
-157.782370277927 14.0899767089131 -6.88662584942003
-191.657072325811 10.5575554936587 26.6665952049398
106.673100631447 -0.206860210838624 2.65518115863895
-127.595644456281 -5.14862254022912 -2.82492956414941
170.400661995417 28.2449007977537 -4.43406146898762
143.517050156443 -19.924028612799 -9.46161977810425
-192.648358858191 -17.0578735956801 -6.05071020651792
190.478957004741 -25.8784924571477 -15.4608894770272
140.213391789211 5.55847903130689 -25.9682623697602
171.318194840899 34.5731883693687 5.48482112209039
-225.96362207223 -29.0001432787014 17.4444924294049
145.023442134086 22.3120521555006 -0.160920619780205
-135.901739712419 -4.93953730025759 0.958159888162701
-230.720806793701 -12.8340112262627 8.60102671493387
214.37872694361 -20.1370604289953 9.04036469665928
188.997477655954 -7.94631028778929 13.5330639654111
206.54909603924 17.0891013449069 6.52699305947958
169.310688449618 14.4194227237269 -29.6642576396116
212.921245078041 -31.1980950729612 0.818222807606306
27.884822177049 2.74182503822869 6.35813526020382
-240.087649353171 -40.447865673328 9.08834900713712
-42.3802560728756 8.88937574417312 6.51732191731442
-220.117482685646 10.8353871458376 -12.3781547451885
92.499628871967 17.9279842185747 -9.70027792678853
-107.926389971281 22.1655632034157 -0.057128508339023
-211.297152574295 25.9146714440129 -9.64443048462935
178.226921100314 -30.2585618064142 -7.84827246356447
-248.424129917814 -19.3263201774976 -3.83917346964911
194.374278617254 37.554937162117 12.7440120507817
173.119337240923 35.5009054330334 4.44136380881111
-188.823945435016 17.4585250768381 -8.35299714963683
-230.74497993076 -49.2899865153205 -12.9719226047148
100.579107385689 -4.49947461134357 1.03168360140913
-196.096604565594 1.45183095399117 22.4485127421217
-73.9789802200894 17.304469343318 -13.3855923029254
-225.520483430731 -50.4385238646233 2.67400916248024
-197.476883517696 33.0946346763328 13.0788787069261
59.696357993029 1.7789656414281 4.74491358405284
-155.563323219579 -0.506268920134553 -10.0260555642827
191.718823605754 -35.5370652904887 36.1436071535147
197.513552502092 24.9593686606017 -22.4778123214304
53.5361867964974 6.69960730682753 5.70482667604932
78.8422571227586 -12.6864745544672 -15.9980377602693
-229.555263736068 -47.7711393265463 6.61219299912131
-202.879942938344 2.96905186513777 21.3659708015364
174.071373770669 12.8951179261171 25.2835622879593
-229.485729282596 -49.8204098396083 3.27487858738185
171.757549690364 13.821599401084 22.2458340024817
-183.002895865836 18.2515382601701 -6.41210096093537
-130.922635525181 20.7775439499606 -1.90466606653833
187.577347601531 40.1163039566243 10.533857198143
184.584183055395 6.36482075238166 -27.2347006718137
180.891562174934 -5.18623747348883 -23.8523109979077
156.8964904513 -0.578939078410855 6.28700060526943
-213.532290511687 32.4253160920119 9.83132113868793
-218.856255903624 -6.0844725300512 8.92637127556764
177.25970021379 -34.53307380838 -3.72706702225258
188.15129125686 19.0340952269583 -30.1569368430329
150.00779106436 8.96891930410244 -26.0004199920088
186.581487276851 -36.8931034492503 -4.68200808198393
178.698441118883 21.9721680137738 -26.9730789180282
-233.39181429252 -19.7035775465129 -26.4777340249638
-216.218886753539 -31.46940921169 14.831612261365
-233.381050159462 -15.0173429265538 -24.1963445590937
-215.523703591437 -23.0544555171937 12.3674148544122
-194.395022209408 2.21278285598724 24.8620078489387
161.164423229156 -32.8404802314053 9.3443916660798
117.246147629293 17.345427372128 1.22278835584066
-102.060881815406 7.99560282222649 -14.5208811816463
103.003398811808 -2.45702365482659 1.86443732670889
202.202292541359 -33.8736126344082 33.7445273363719
-197.246890354534 12.6581257251981 -16.0638389793542
132.877888605287 -17.8694699008874 -4.0876766477598
35.8489974888498 11.093524742502 -21.8130206173388
-207.682661063519 5.03301167786137 22.5334290639273
62.4933406962089 -3.03449495567888 -0.824067043838724
170.820721879321 10.40887360958 14.3086426870922
-205.119242256302 -24.0802098040585 3.48104160338568
-77.2077043297076 12.1462472393851 9.56540100435248
-176.397642175753 -2.12694298440088 -11.6949862996881
-223.055245481001 3.74486058409192 -9.57871313843469
160.675669424105 23.4141125409607 10.2085726850995
141.521977274577 7.7448672395186 -25.7795582161476
53.512851696538 0.439080372046599 4.17800984489048
159.563903068706 -17.4581080676859 12.2557095641096
162.261180828605 -0.521278701515915 7.62591278957853
194.979293995783 -8.69054465032696 11.502804087986
-157.406062419402 -1.02951518575443 19.1085529758291
-220.47110856499 -48.5305823577793 -14.7925970630256
160.341456703479 -6.51172482367158 -22.7487435800859
-201.083042085538 -16.0316905158937 7.30712273925159
-210.841262518181 -22.7906922666991 -21.1575788856755
162.818413459672 -30.0353137774885 13.9850720957266
175.181657611223 9.64696115486045 21.746770714002
-226.6327090373 6.80611379050073 18.6766215810218
-124.260544215706 -4.96499382489891 -2.58622034915383
205.255220867063 29.9565192120697 20.6417009464605
-202.280992128961 34.5692474965861 9.26405834291335
91.1326076625147 17.8229865546876 -6.4240699394751
122.298681250817 18.9072901988016 -2.79668147985628
-196.774256639092 16.3710044808183 25.8104349234221
189.248971022105 -32.4162069053578 -9.99061915939309
-182.217434791367 28.1782721621123 7.14638545323906
207.924586949433 32.6019739427478 7.72631587649407
-230.755432892506 -48.393236631877 4.8710118940204
-143.818629299998 22.7342540252172 3.56924063867136
171.952147691957 -10.7612727238142 11.6804510378026
-213.506537456798 -16.988110865879 10.6367280095321
-224.125549653449 -2.88429218177533 -0.469235575123005
115.55720127198 17.410778440131 -13.8939265036027
122.417721452538 -17.0630613800167 -7.88381064843743
-187.654675628267 25.8430695017592 16.4757233975851
-202.625215939444 6.83454183570621 27.3173363337644
-216.731365960069 14.749601714627 -15.9725593657432
-145.968413854186 22.8966505100078 4.99137604084286
165.991721147246 17.5329369139472 14.3244808436395
-222.268171439824 -51.1043694582514 -8.50547847278972
81.0045210745123 -9.7966131276529 -5.73277003507473
188.939766626548 33.4130913863293 32.9349538435551
207.660584509096 22.9062683596777 -9.3211756696641
187.044854702095 -18.2095884300259 35.8116475516638
42.2173671983969 -3.96417399534657 -2.44347938702849
150.928509467109 -16.6152770364058 -15.2825164765703
89.787707628868 10.9184150716835 -22.8089081846434
-89.9249175591188 -0.201572598209462 -14.5477839684458
-233.044194842759 -37.8987185493851 -25.9737124757944
201.535320475533 -15.7713975466527 -22.1502092251115
-120.634819482301 13.123605492913 -10.3880752811166
-152.51057040777 8.39831378287893 -8.74381150751406
-98.2003254729769 8.75612013571452 12.887777927156
166.019159316134 -4.71358221571995 -23.4152832240388
167.209541272984 -18.0680878470626 15.5467895960071
170.715530189424 -23.4505444490908 -11.6679764616959
161.955246020093 14.7047029938964 11.6878941929153
-135.836310228922 17.4258168760351 14.7653207447553
199.112592978999 -15.8837974164067 -23.6791126557082
194.52235353448 -14.1761416038032 -24.8986534447673
206.677584715026 28.6647894959512 16.899593907127
162.002259684018 -34.9311199293945 12.2724422143113
203.663362324619 25.7756492289836 23.2102000323345
-220.652709282114 10.509082687294 12.7397979984601
4.88152262751407 15.8330226218433 -18.8131145676844
-119.242021727125 10.4272240257744 -11.8040480840968
199.665156594883 21.113249280967 27.3354203743104
150.835095742134 -23.895812876524 2.69580603274778
-121.47760093705 12.9946093178367 14.4428337619732
176.221917448357 -36.8551001831237 21.4012517024218
-121.845529766865 22.4933065700523 1.68508720929537
79.3691444358635 -4.56136137163594 -0.373925942328421
-187.666548186922 22.1309710046416 -6.1095578349813
166.77910040039 -38.4400907579637 17.3905518033667
-39.3538953944827 -2.39116963787835 -17.6380694619571
198.857421219603 30.1281505993418 29.0144116818443
196.138850483836 37.7341426915179 28.6348981103917
172.264751132424 2.00520425061499 11.7681407667869
180.464699697268 -9.77974074136965 -23.9612779342045
-103.078938142918 -3.76341212909295 -0.982288957329615
-178.249476666162 20.4726726375835 -4.70567781707414
-44.2127686950775 -2.52950114812864 -1.08068513882156
3.84491037837879 -6.48424449232587 -18.0953639269382
-148.301124149501 20.6037485635392 -1.88521515006338
186.582446822927 -29.4092312282968 -12.1466509464956
16.8766623638426 5.26651155543481 6.86353832319541
-232.190859642075 16.1403614442586 8.66811859586036
-202.646902704337 -25.3437442220848 -2.15371743754616
-230.637459388261 -10.0836100813595 3.49197905772352
181.179717621679 -27.9950134500554 34.0271325008293
81.9941421451677 2.30173046347049 3.2879556693209
174.678796806134 -8.63494230520486 13.447958606002
169.205758243875 17.2378811835151 17.3160544273987
-236.706145149512 -19.7771425268518 -25.1808282873912
185.935221645442 -9.32229276454363 15.9881814075991
-134.986290246436 15.8935224599016 15.335838757568
-194.370515271044 -7.52277648443473 12.4239420235303
-85.1349699686263 -4.72240773003391 -6.34394633283557
-232.219555323949 -47.8143715956417 -3.50663556087415
203.828216615162 -23.5841440322599 -14.2001235631748
176.893822677706 -26.7332797293711 25.2845494856251
-36.7550315706735 -1.04264216188659 -18.8586240960649
123.779676414606 -3.71352480326968 2.5640471998092
90.6535911586605 -13.294138561997 -8.36800024270421
-124.598361674912 0.931257910443134 -11.7892025378896
-136.984004173266 1.52429931178885 14.5347112224525
208.315369396368 28.3509907459005 3.5197464369929
-220.646339405929 -50.3020582587127 -9.44959290594609
190.026457069661 -19.6414403607074 -22.5522087276633
179.656695654337 0.173676952378803 -25.0403806014349
177.90925846606 -19.4755415438469 29.4814310354989
187.164482355321 -34.9048054507397 36.0964789335089
205.185396631702 32.9221547430452 19.8300516536201
-144.920020780998 -6.54575868890526 -1.50953350201153
173.537977814689 -42.0666987982919 13.2543493780182
187.564260301328 -36.6707886968235 35.0068648532158
-219.245949313171 25.3113511669273 17.9825623179409
-222.388115229627 6.50319358798144 -3.23229737369166
-238.086669695736 -21.1362358777381 13.5664225256396
179.84496181717 36.1227734822344 0.712031204673225
162.106757491161 19.6244796591772 -18.7718223229727
169.543453351158 -35.4568787386297 2.22773846394301
153.467119088255 16.6961708882402 7.96256645996355
-27.8357805288174 12.8148054000623 -19.3989434337042
-162.842931529646 9.14328597651502 20.7418433828877
172.362835797451 12.1782735851227 17.7255404740535
-200.566429252902 16.4388058535933 -14.4440042762391
-97.3679639331167 17.6097846331088 10.0511630809
-228.287399723731 7.62174389239891 18.9738363512832
-214.069057890066 26.459034675707 -8.89374015080825
-73.4164697033134 21.174727510252 -1.96306169467826
-236.003671979 -8.62328813056847 -16.9526805852276
5.18926545689699 -7.44344946483628 -10.6629706260709
77.6666870621892 5.37973506387721 4.53467371845305
-211.58827230771 -36.9438873381249 9.6495379639521
-210.692995572455 -37.0234435310685 7.00305883970865
188.572412122985 -29.0154344698895 -13.0411921743736
176.560768994123 19.8251345127906 30.4814193295035
211.061451707144 -33.6461051730643 8.86303878168484
202.967088107116 -36.0274900290367 29.6816333944296
73.2190584824537 11.570487486985 1.2718070089601
151.029646645688 23.7658358057177 -0.299186587116968
4.48979179763811 9.62084036714767 2.14543493239029
122.138238155826 -5.29981073917238 2.18240368774201
-158.620111816129 -5.47379511123941 19.1157917430663
168.981198236688 -32.0573080574942 -1.91341184864811
179.971306867689 -29.7009704596931 -9.25830316172933
117.074368881336 12.400533666902 4.52935585743133
-178.442535622805 -10.7375491265757 20.7573599275085
212.503086696345 -31.0801555739926 22.121737579942
162.913551244227 -33.7129232661101 10.1135394044836
116.860716389758 0.169652321299432 2.99615411334417
-205.881474948831 -11.3839657165476 9.90696305167937
161.931541689643 -28.4531664175358 -0.281576726964455
-85.6464136501474 6.35292491547895 10.5599223136575
-213.527555048884 -40.588399489981 -20.2427801063147
0.746487334549267 16.8040585512617 -5.91955539511929
164.75827998604 -4.40187281761494 8.89289502086179
-212.774973351252 -31.7565914005082 10.4193430336699
-203.960188702533 36.4643097359507 5.507446987752
18.9968157341188 6.36517955760972 5.67317356595091
-216.086372833534 -0.536171556805107 8.44976113830377
190.053546100222 -38.879555501856 -0.911478837116252
14.7303110673426 1.1528062962925 5.89969619305198
65.2089082743819 -9.39956007491387 -19.3154628946348
-168.274339556068 23.8938264139236 1.4169862458675
166.885678401592 -32.0840630806266 -0.105535854133852
102.298756116523 -0.189011027748256 -24.7225189097665
197.591343692328 35.6336328103383 29.2492863666311
154.850863466547 8.2461517007884 -26.495700700374
-68.4883345671059 -0.357157021346245 -16.5492571447959
192.041628796555 -31.9258944444607 -9.53983373604139
182.745602752178 36.6205402830674 20.2586254801697
-170.101603322528 4.36888269815849 -9.25543611126099
-24.3824260507715 -5.49455901787608 -15.3492158136673
-226.389417914202 -7.31777385731032 2.00375655146193
-211.646877424709 25.7021420761941 20.8996042628373
171.232246865045 -25.9430883814229 19.6193812988472
-107.238396805773 9.54270316870296 -13.6317291516205
-227.105772488553 -3.63359802557481 -3.03689025937133
-197.885275792831 20.7925564376132 23.538776346445
-212.503261235327 20.224314540424 -14.3733468511653
181.131835031616 10.1281628632196 25.7052836077833
75.494185826209 -5.65648865260986 -22.1096005800894
187.995688252255 13.1888659224215 28.6417224555677
188.302398359669 -24.6782120262739 -17.1631293677505
210.221886741519 -33.7015700484463 7.18897817637792
-204.625665084658 34.2686906230213 -0.936778513112872
-24.3164283713641 -2.8221697629661 -18.6770065410783
33.1031087275976 16.3064937460035 -6.50222128657867
-153.631825084317 13.0337964519701 19.3551167204229
-203.942321660107 19.1384064127256 -13.3238675225377
141.273079400206 -6.92884241406537 3.41627400087276
8.43777040656726 -0.565924333556352 2.34882182800302
-236.401422084388 -41.70534017014 10.7157271803596
-122.900504628575 16.8788541422486 13.6132036620294
209.054539415267 -10.0844339653223 6.81458030343716
-214.757116683682 17.3314623996916 25.2431175015563
175.249000021648 15.7755296599079 -30.430524737066
184.01809316706 -36.6742530026358 -4.67967856026684
151.205598705652 -20.4594643076544 -10.3648310940581
170.621778188238 -24.4596865982267 -10.3794426394821
-181.659102739208 -1.41760899031037 22.9093374163622
178.330072211766 26.6531469364388 -18.9654786196745
-238.582256222845 -42.805069976493 8.29569786763562
-206.891140820378 -34.1788380725154 -7.97389165740437
-213.533339206641 -0.145646567887633 9.43389261094037
-48.2823406431397 3.71435094735534 7.22158992724244
166.008808846867 -20.3477735514251 15.4133760860656
209.31823229995 -34.8725468644703 13.4827547799281
-222.270064009497 -12.7721939606287 11.7651727042396
200.458349132069 19.0989841617889 25.297505226785
-216.126223404589 -4.25482044061428 9.05882959935845
-139.667539066558 18.5148468783901 -4.49732561391868
173.052081632523 33.0654115902936 1.66241028911974
129.298281148423 19.2011227963997 2.37241334492474
-27.1791790290547 -4.92785923515497 -5.12989516326877
-233.948214856075 -16.2140849974736 13.2951155127894
-227.497552958315 -47.6069244833309 7.19753252703174
146.654407605353 9.40494964570813 -25.6854418168947
183.474844829728 -26.5851352776594 -14.2489587048319
-191.988579816467 29.5536452236946 14.2849497036659
-212.932884538102 7.71792690818266 -15.7947162441538
167.762916407729 20.7884439212293 -21.4576186976374
213.467518431441 -20.0053695120846 14.5300268777086
166.757328026209 22.8542060125697 15.165362732967
-172.43784761736 8.59104967227518 22.484053396116
-112.168714283648 1.48988384596098 -12.9831378802662
117.148898466301 -12.1792050052315 -1.86318176200832
170.319217442312 -39.8142693214389 16.67658525643
-149.170943527082 -4.00158833431039 10.7194921600857
159.147157164948 -17.5682987569684 -14.9700727337079
206.538684427008 -7.02621453431631 -8.65157310110449
201.490635110449 -38.5520568850487 10.2488132544509
-148.060710875216 -0.471799942146953 -9.95149983756041
-187.668440283906 -3.66128775858929 18.4494215344502
146.469924781836 -19.767248940602 3.02189066409432
179.194392687114 -3.57161539763922 15.3136263005296
191.721901806849 5.73553361398041 13.0952516073779
-212.491367729278 8.93540646252325 25.2673160148178
-129.061681678664 19.4821817273902 12.9475820277737
171.076909385768 14.7381295472015 20.6515329202632
187.645044791604 10.5675983594996 24.4781658011299
-220.679064665686 28.7151018976752 11.5126011588888
-96.4859157274422 13.8422498761571 -13.0852102174434
-229.543784336276 -9.36641753045174 2.96178603310165
-242.140191988984 -10.635906183034 -1.13457512803909
55.9055604512686 17.1978478007972 -13.0069620034881
-23.68404393812 2.33798099125365 4.98612588472843
99.4400164766205 -15.0996556231654 -10.1519691173634
-105.244861806503 9.16863074058366 13.4716747844531
58.4155136974509 -3.0302548358141 -0.95755509010776
-191.239642831519 -10.1074485508389 10.8853418974742
215.044152187488 -31.5188032866914 11.2868572950377
192.970546881479 -34.4199908212797 -6.63627407041605
-10.612283479322 9.77823379946166 -21.248180246297
-242.655261463336 -44.2984848723572 -10.7750167720092
78.87183711644 13.8571151645023 -19.7668211134844
208.553891177281 -28.9993317908649 -4.7597015548452
-72.2179961414386 5.49660954211047 9.83776425184747
180.165371692513 -16.0740835404805 30.816742068198
-245.034765595252 -41.4059439277578 0.693059790171611
2.26363411716739 15.3153993205538 -19.0997011140052
-217.24693783886 4.36828512932128 1.87842713098269
166.973505030537 9.07728874379794 11.2623155829834
-194.418966525268 -5.20894737762543 14.2019031636583
175.217162501568 -18.4087566201729 -19.3859694739287
-209.147751088343 35.8672217735217 5.66749512880222
189.589357957317 -29.4558836737052 -12.21916754655
-160.275195112631 23.5923071450841 7.83766376385978
-166.772408628338 19.4319022185599 16.8237676177271
-62.6081623029484 -1.78358840939643 -15.9452361391264
-56.4083982684751 21.2005032694366 -8.99949457956624
-230.68687784201 -32.3411693851093 16.7532630956238
21.4152741390584 -6.46445898665639 -19.4185920018983
-207.349660224077 -38.5705151779985 -5.67538918516681
158.58984729251 11.3558047768605 8.93577443513829
-234.312144174506 -40.4671641494087 12.6484835039994
203.729875624882 26.0503725052313 -13.8893974328042
-214.701242219578 -42.8541551458914 7.91735221160691
26.8246895596998 -1.68134038624603 0.330083147153733
48.2393261035552 2.4229643817509 -23.6072660022871
-219.136110185756 -49.7134374927394 -1.56566912398146
-209.929090728622 -42.661035255457 -12.2330093593353
75.6064301841314 12.782732260334 0.564802613347018
-201.349012006328 25.5107304166907 21.0008022508281
-242.901496175216 -29.5856668648572 11.09202347852
-188.725446505752 23.2416472769572 19.6678046465262
215.078807517339 -25.9523987330495 12.3191191153873
183.162182209565 -15.2974774133974 -23.7041061563401
158.223406780242 24.585668739328 6.08815477348489
194.078685436137 -26.1918176973961 -15.1782406038428
-197.372458573948 35.0300889106003 -0.754530145832712
184.242157519707 -26.3051494225834 35.7768632723927
186.416342589701 -37.5417612610002 27.7782075446035
165.409006912892 6.68756730949192 10.0121313722772
21.3273516609026 -8.6160598399938 -12.2559280440476
-225.738972352607 6.90291813699701 20.9532153162414
42.8081663348145 -8.34553911203169 -8.3891210048099
-120.55697765161 22.7394895030414 4.81976358359612
-211.867393534728 -18.1276802663214 -22.0993548480901
-216.70265595324 7.86159343706156 4.04764512771653
175.315828382713 -4.54476786667713 13.8728965385806
-154.886154748903 6.89662622674303 19.2632742364303
187.628964329527 -11.4033058390691 -24.7487026513534
-73.6274969896871 18.5287763032693 2.56279716834734
-235.684382540222 -27.1620533610791 -27.3209929518627
-150.814645547659 14.38515223946 -7.06055183206203
-1.90343226141634 10.0554509688923 -21.3732497329509
76.6528275660382 10.4661204390603 2.18900467376643
166.776748545385 13.4246590759499 12.9588171418884
179.790589994028 14.6504761743954 -30.728697766551
-10.812847785075 -6.58897821705491 -14.7229091774598
210.115349878332 -27.7160836960028 -5.51699010147142
-214.874145632662 -42.8770326035005 -19.0389826603141
178.387805728344 8.27252266486219 21.1796718532268
-162.680383350107 5.69117357876686 -8.95525216180478
128.862530789487 -8.76796665249291 -21.1223030506984
-216.761975520718 -44.8121213797247 -18.175721419274
163.003098620894 27.8295122915351 9.05600990658313
215.728702546191 -27.7575184022346 1.13733953408441
-208.924858541632 -42.9100707987435 -8.74122939065299
75.6238240028326 15.8221112810543 -16.6992292374411
-156.653615512915 14.7606759805415 19.4206454731746
-226.833799485321 -4.80946055828573 -1.47769428758518
165.164851599136 22.0646360885916 -15.2285661105046
-226.66630935052 -3.0216869748861 -7.6836570418683
-197.911834705904 34.5093164798858 11.069125174346
-90.4534052285931 3.66579106045768 -15.5972591671567
163.443107659635 -36.7279970888235 13.5413793620472
-195.151665531761 25.468538363657 -8.35428450098804
38.9360339927762 17.5911178556178 -11.7027881976192
-23.8354477591465 8.56411538086243 4.78789920418114
-102.328456788816 7.04039808160138 12.2843956263591
-213.994099726887 7.87015726081667 9.06784433350171
-170.319443686038 0.810914028577133 22.9587163973537
99.4076469881308 -15.1578027853927 -13.3834379469067
165.572560233504 -26.9884115243262 -5.72053178229082
0.578750682388567 0.470375754824639 3.75559700562053
141.880566158424 17.0862635549083 5.07007722036999
-34.3165276008392 20.3365416308481 -7.58739594166161
-56.9215335802791 5.08781596063422 9.09198037055964
178.772747631829 -10.6709074691467 -23.4264611895568
-105.15434812782 20.3921530120619 8.51377989564975
204.065213807147 34.2314656785584 3.928725110108
-34.0390563928398 18.0209414982202 -15.9180445602254
-200.940013279258 30.2410573137763 -5.51204998007397
-147.351459346059 3.6792489414957 -10.1132392342158
22.8054149474238 -2.85388488047738 -21.4201782355404
200.11215129501 -13.7944098878436 -22.2538601611882
56.6669437583939 -5.56238017081284 -21.520809029509
201.770439048963 -8.59499913030474 10.1996341824471
-231.799505946504 -19.7226724095643 15.6414394175979
179.825753599368 -23.0378938314324 32.421061795523
98.1300247717521 -5.46447199377289 -22.5803788296883
-225.279631868553 -7.38940503765968 3.28069291096357
-200.738312245235 -21.1281535931532 -8.76038980218291
116.265529582328 1.63368686819294 3.11996851373502
146.746677488065 -21.3529602004431 -6.01954976757025
206.056092895736 19.7656900085481 -14.0672930485359
-48.0241671748942 19.038916908064 -2.81023994860403
-210.513456377432 -29.4794658056903 5.64587433697598
196.877366356245 -12.0807374099395 19.3413989036297
171.320783155593 -40.0317925271937 10.9573945872442
192.718198496196 32.2405120051407 32.2562433362788
11.1422531601196 -7.61380848922004 -10.2415694937241
-70.9092912643626 -0.134607487629042 3.04745680160824
198.765835328638 -12.1157687742045 17.3659427652613
164.363638761275 -6.14427925801072 8.75875218533785
-138.655290589973 -5.25143473468575 1.09870903281268
175.483476098856 39.011879152716 7.85996723040951
-133.547218557122 -2.20623949312398 10.3409019649565
169.901436936701 21.3569659036435 23.5410791316878
-162.349066191408 23.4709302591369 9.28463678587386
-193.928122745853 -9.43104281076485 -12.5636403075478
56.4293129721387 -11.3677596831024 -14.5218633883293
29.1753612386701 -0.173971472538912 4.01378798561348
-205.346607090479 35.7100852518898 1.10161557981025
-198.772605014028 2.58390017096908 17.4166375925647
-116.546166734227 -4.06219357352552 -0.192304284779698
-20.2754296577894 19.731318789824 -12.2357041101871
-185.941484287555 -15.3548653102877 4.48177991172336
-54.7655810414892 7.56917447906176 9.65416031090496
56.1534623320022 16.9929041766877 -7.80335479347035
178.225917741523 7.50529769686051 -28.0456578795197
-70.1712333180914 6.10595818561383 9.79778523369047
-2.65428800682476 12.7750992338246 -0.866284173993758
160.28782751544 2.71534434820634 -25.4085924760685
85.8706671360123 -5.68076221057396 0.659341049614402
-243.59566201528 -20.4324099501924 -20.0967891941892
73.7345510998902 1.91436214088151 -24.4568075342221
5.82661159822247 1.26448947610254 5.97217902984121
165.175359295693 -12.1768297861796 12.282594121163
192.480511725378 -40.0191478833852 2.14348390085156
-110.205927346783 6.18719654425142 12.6953651588902
-217.864805086489 -40.6956752433188 -23.1122616977516
164.985949653177 18.9532432188515 14.3229634579809
180.20512919176 34.6670485470276 23.1763404789175
-119.861360323537 4.08106905144624 -12.7095748169325
-192.926323335665 25.4667573995661 -7.50084417907677
-189.337950493766 31.5600420449861 1.73261853690799
207.908846482819 18.7264918475187 -5.93219295769873
-244.448344832676 -39.1441520324837 -15.9543516112279
55.5013612940711 11.1510195812584 -22.1091985012239
173.596008414224 -39.5061850490842 2.13403139474559
-203.28452564654 27.6818552838238 -8.5438819861147
136.50286596066 3.11134714461233 -25.8149820453154
184.7030066982 -20.9010556715766 -20.5337892084074
185.957208611053 -21.2648090308472 -21.2154144986036
7.27851751624113 9.749689170432 1.83934896694499
187.055485864054 -43.4070563453289 5.90942960325602
-204.032861056563 -8.10640061067797 -15.3135632187022
177.75207136706 -21.3914592724369 -17.4086582378873
-208.993285552895 -15.8907719670866 -18.986393083941
-192.892191885502 27.2581360976103 17.2956465211032
-225.27667922845 -41.3329127668857 13.6566040127131
-201.380115735924 32.7213263385608 13.9103694813358
116.779998203445 18.0624895916223 -11.600633991605
190.944184224218 29.5870869935621 -12.8271523232726
-208.204627347301 -33.0634091078282 -0.0657842497306611
-35.7708443610475 -3.63041434447973 -2.71215931530695
185.226100266782 23.2380252491324 -27.6256499285703
172.458310987507 4.9347281743025 12.9483197817527
147.381220616015 -5.19164954735013 -23.0409934863835
-205.949049154577 -14.1196490484004 9.03833671825543
185.671293466235 -10.4193321968397 -25.0107299009368
199.577979424408 -33.0409566123122 -5.71509720608561
-74.7022585479889 21.5730245347847 -6.76696358986048
-223.350028112246 -44.4925788169494 -21.891277794526
138.297349951868 17.6333943438075 -15.4885323490822
-211.498522513976 16.5870094967923 -18.6253174436836
168.544088302824 -35.2848213672797 5.09076589869096
32.9666293047672 17.4897175749819 -15.2410757120099
205.191253345292 -32.2042939471101 -2.36393229611004
189.934471916199 39.9719088710416 10.3891109990068
-242.917537764629 -40.0207446412807 6.24517520987791
178.410782264456 -42.4752829455207 3.73471775617721
180.786732338079 28.3339667108435 32.7318723799804
198.56629428434 27.0711654136792 -15.8012549299302
158.004548560518 -29.3487021967263 10.5257537725307
-238.767678754873 -49.2990173057816 -3.03420594831935
79.1762536199327 -2.37496414528553 1.38617090947462
111.344640730748 -8.39866296443597 0.578669732551524
-197.083212829927 25.7514466483063 -9.11127841733939
160.02273810579 8.87163562625511 8.59806490506295
165.729499233771 10.0777759648952 11.2523817686228
214.976536591921 -23.1527434106208 10.6719076683764
-30.8108475161706 3.06022028426403 6.14978110099673
-100.601131909979 5.44904542347262 11.6516232045236
144.504298732739 13.1452518660048 -23.6826861807531
-218.41812296215 2.18964646669996 2.91185082757037
-221.144974096474 -7.83276878486465 -19.6428113053497
9.24877128904 12.808253992942 -1.5528851368802
156.626223188029 19.6134510191253 -15.2732992853027
120.738037090368 17.1301623568702 4.18148051818026
146.131651882052 14.5121728171158 6.45902474767426
174.407303433201 -16.500129656114 20.7942074341974
-133.900380688308 14.4825426081515 15.7275147397929
117.295775253794 -4.75195646877114 2.12181793580223
-90.2771797900871 16.8409406493785 -11.9804345899434
211.193988202159 -33.9151969722406 13.1455998273364
143.762236924903 -8.65643010578147 3.72168687312299
-91.8802310386361 3.65159694124875 9.9431378553038
