57.7374092877587 4.64431850557687 0.0311591996271298
197.999689208874 29.2001344206874 6.60919329826623
140.189208262756 16.0609521517853 -11.602649069436
-82.465228241176 -15.9341794222433 8.2417327397911
-188.952393541229 15.0160988688786 -21.3385603609322
-175.605950887417 -24.5320454179275 -6.57299267908031
170.512060414338 -33.485782319475 7.65013565565673
135.172370881245 1.42953934500008 4.9659417721864
-149.108454282586 12.8607289078835 -1.61075639594285
-169.570121264517 29.4796758695436 3.26086658617906
-47.6035394533073 -0.342677917051278 4.94625564437844
64.1279880133044 5.19904160896146 -18.6631992044992
-92.3555675658042 5.44073626483548 -1.95212679660472
146.25059910662 4.50827852054999 6.11423192340885
-129.406001220189 3.18170520632078 -7.42369150859259
-196.672101196883 9.22848252794322 -0.520200930414099
156.256888138163 -18.1356531758057 -13.9448715676381
108.321113972451 0.834757449486087 -19.7442056362478
-177.16063856984 -15.9511403782141 21.1329203991063
-154.153884603562 -19.4860742070827 -8.31747229571242
54.9839030603356 -5.48346159412961 3.60853567942124
-180.140828701568 20.9354660446801 -23.508558619797
-175.575123590752 -28.0375332204845 2.30478457581311
141.017001250241 14.2822935643861 3.58226252686509
-80.2962168508564 -18.6453069151955 -3.84006140250164
175.122122550145 13.0378223749732 27.3605815406111
-186.313720846052 -17.7974955105514 16.5649700858491
-170.938318767733 36.2547090598392 5.98788191180658
-178.201804706319 18.0873839984588 14.6812819452129
128.181031815641 11.3330277442732 -15.8070007237387
-9.31095556731906 -11.4341870542045 -1.2084896062209
-132.459553047803 -4.61824038102956 17.0356749089221
157.03825932044 -7.79054866549983 -20.9030025369032
-168.980263328555 3.83678486198274 -12.0799814112437
169.653648810502 14.4152066920663 23.4769013713332
-182.268522171543 39.5675314299251 10.0355799334552
-141.647188041894 -10.0780547877768 -8.4727757055578
-33.400303076464 -4.79100343190846 -18.096421027487
172.917597474662 -27.661259213706 23.1169788922432
30.9339116046053 -6.12992280683065 3.6029830053906
-97.0473143922154 -11.8554649164356 12.8410709226678
-89.1574166760739 -3.09289375416276 -12.8937800027325
146.158804020559 7.03803639475178 5.91973159000891
-98.5972816568858 -19.6312550881608 -0.771099512429515
181.718956149007 -30.1151986567497 16.3662472956654
-168.668446766302 23.3653898513963 4.78934507236448
134.211258162961 12.2588431155792 2.15535967484184
-143.586723260384 -5.51735619560305 -8.70842380076706
-168.844817681212 -13.163867260949 23.247106572846
-128.285093281951 -20.4327190993103 -0.341024700232939
-167.188484633667 -21.9488549377905 18.3932940456408
119.389109042178 -10.5134972169918 3.86182847717096
162.374230615976 -7.52757308238159 -21.2475725968775
101.95622709578 8.69756549424624 -17.2291958978636
30.1863345803559 -4.26200354683384 4.26141654292827
91.3063054657937 1.7147194257924 -19.958071230418
-99.806786254153 -4.92236352283109 11.3046630531236
147.090744389723 17.3923397158877 -11.3264376130473
-180.865563907011 -25.6933031200537 0.7594446096353
62.725397055962 8.1293725915007 -3.26783844774922
170.84814706992 13.236264543514 21.6576261265738
35.7490529103339 -0.608079244246196 3.81685089863929
-27.9270089911266 -17.1954160945214 -8.88707334862834
18.9076906650583 -7.13839603086967 2.17431240774455
-90.3670118369726 -18.6701277323537 -3.43401903526331
-22.6906017416584 -7.37610694331799 3.47939157475407
143.763940557873 -6.56082687840024 6.63623362704953
171.727557373879 37.6323841538156 8.72731647791068
123.210011808302 5.75279024243344 -18.2906704467565
-147.615582655107 -20.2303714007588 15.9642989480149
180.238084237117 -31.8438792523171 3.27363361298626
144.784406061385 -1.63538178253251 -18.9045451360373
122.179453592976 15.2388734230479 -6.70179208981406
-195.395425486017 16.3613329503576 -18.6719483611831
-158.13562732734 -28.4418492138483 11.2327925819621
-28.1113770072224 -12.3113789761759 -15.8748555996481
113.272606251698 9.26106123929432 -0.183299737872973
14.9118064588671 -5.17214304390001 -19.5083702651429
31.7204153015241 5.3154817765286 -2.00882036025618
-65.5737733350341 -6.84564098804187 9.25325520660481
182.922906249935 3.12827288924051 7.58551597411698
124.486041386007 -7.33017031145859 4.20575035733665
8.17636753506408 -12.6789089450097 -3.91260446175271
169.535605054212 -27.2770981476697 24.0592715288946
-28.7509380983843 0.331810259276716 -17.7223603162987
148.416634812821 13.6329756529649 -15.5244271177912
127.263239084495 13.9211409183942 -1.8383549467758
188.446865678559 -28.3925206254618 25.6031175016032
163.455095501949 13.7721576597594 11.4933325046231
181.05426824281 1.68231346317769 7.58472069539144
192.177210969785 -5.35754800232839 0.080636813469097
154.411333491554 -19.029807473419 10.1952708601472
149.440412155013 -19.7546782936046 3.17420909045458
-120.304352828961 -15.3251685647236 -7.61674770468474
-148.28067998696 -16.75677764486 -8.07353801833844
188.015412503273 33.2776849451048 8.43272945498098
-180.898005413439 -8.84995661138838 -0.321631957920657
-174.416546307702 -26.0151644358301 -6.02818640236619
10.9655639671444 -14.7597880724703 -12.565446061218
36.3901272125334 -11.5719699731361 -2.73381286388711
172.670968034863 -26.3937859830392 -9.55385659667267
168.177344910699 -28.4434231289165 20.1737999116578
131.61912241408 2.76148167080648 4.47002197280682
195.098405867631 6.64482800197359 -2.01187344241385
-181.297323482379 -14.3775260434671 20.9453661123585
-12.0551073560839 -10.5606603459232 -0.0354037768912031
186.491589970078 0.406874549339517 6.46684129679345
177.488304625324 -33.3798576661688 10.9746204576205
60.8574620662401 10.8322612247835 -12.4731346296826
179.706238303523 37.7047219056596 5.93948920538395
-2.23451317445545 -15.3320035041848 -8.24004506810095
114.228320998218 -6.12967787406065 3.84902142061714
20.420978313325 -1.71040164847511 -19.6044352931945
133.586905877336 -3.23086036705695 4.95070249541872
183.414287279779 11.320119744837 17.148022020326
-147.521188258097 12.8622086609755 19.8332929839939
-123.967907470329 -11.9172958434022 -9.29223358825914
-7.81951695794988 -3.1496602814792 -19.115296663891
-167.575054816756 27.8364914320247 -2.76882127068314
-39.5435705496562 4.82661161831794 -2.37428758949237
-176.48281100963 42.8783138615915 -0.892772839681779
-59.9815472896217 6.1615714792628 -6.81365882701764
-180.916878098212 -10.5760253854911 3.14560187394242
-16.7983719544076 7.97176182031908 -8.38380975941587
-171.046764964017 39.2224566408483 0.308617505048237
-171.292559725169 -8.31741111777673 14.7373881276553
168.879532261057 26.144529643053 20.1374348549446
172.811364376219 8.20351024189219 15.0835700379671
74.9434889485529 -10.2742637672379 -16.9516956594595
-47.8659808546481 -7.97249462626866 -16.9422393714793
-190.664871450327 31.5449081686661 -21.3855101040148
-73.7734685784711 -10.2567552086127 10.3811084720882
-134.698854143297 1.51364094819381 18.5879383430372
167.469245743082 -9.46768931482438 -23.5191703011472
104.57013622756 -15.035400856526 -6.14275853236183
17.3613454229472 5.76337568711498 -17.0007783417013
-187.591466924491 5.92144590508914 -3.87465282154588
126.826545292219 9.67458890785091 1.87772750161984
-3.86409964764428 -0.687368435042551 -19.0306854819608
60.1957262016559 3.95823853145587 -19.0802222217141
-32.5971469939416 0.458815360658046 -17.5208984450259
137.679630805472 -2.83026094105968 5.52302979119048
185.707527520162 -29.7815784754315 1.90550840293049
-91.9624417539362 -15.429512885895 9.92692512689994
174.514651848142 -20.0322812563224 -23.639821767885
183.090719687995 -0.477177525031566 -15.9727209558944
-75.6122285499641 -5.32132590009356 9.8564629532138
29.8770078180258 3.69433245866375 -0.465161098586499
-41.6904879845095 1.28526924336782 2.50924428772317
22.6138873587152 -0.445553555204784 3.83069661491352
-169.883266623843 -16.5121013620104 -12.9172997390865
-154.59383223515 -15.3056303904597 -8.87278131453489
159.602215576383 5.72177550548353 9.10913558976397
-157.908282061427 4.92719047474229 14.3616361244722
191.697731467877 -30.0201145016664 7.64425164723724
-129.178798934177 7.93017102317447 -4.80936846315775
139.396816729177 16.92873724324 -9.6716797132553
183.494348419327 -30.1485930244209 1.09542700534416
-104.877797062052 -17.2104535459381 10.7652123366805
154.808314296233 8.54286280439205 -17.4696724917828
-11.4865175422145 -2.17390185915078 5.01655435094403
-83.9206451471981 -16.7239703073571 7.61491341349639
-183.933821250045 33.7170119217807 -21.6686946095452
-29.5836452624165 -1.51941814381342 -18.0349422751771
98.1632811065061 13.1255321057904 -7.23037209749544
-193.000304282092 37.562364062518 -14.8224226509454
-136.16469852192 -19.1694126120115 13.0973653634518
-159.067170047305 -19.8128282701956 19.5445059188478
-106.203271490117 -13.1133489344014 14.1340591414477
-147.9559030817 -25.4172132880793 2.71342180216878
101.982811662924 1.81328608324049 -19.765734867321
55.9256789321145 -2.14726522189077 -20.053977441775
-163.463583374468 -3.33473735425533 18.6190336708845
151.933134087422 -6.31436282798093 8.27474519847194
-26.1415555506436 -8.20801547422396 -17.9583747110743
-168.311403780634 34.6956906586982 0.72009331539924
-182.155804613163 -13.010625895939 1.93449298752559
112.831839550272 3.13936490630222 -19.1950411034413
-179.074180770962 -11.5825039585582 -10.2198774757326
134.463596507589 -6.95625781011717 5.13783828011184
19.7008300751084 -11.398136953712 -2.47563004274965
193.393717350209 -24.3618451814444 19.1583499924403
65.4218543654298 1.68598489140291 2.66079342038006
-57.326450371542 -16.3887084921666 1.86234540922572
50.108605207903 9.99533774625648 -7.37938247878869
5.40804748535406 -12.7572803703424 -3.92105728216549
149.866746929907 19.7602402057631 -7.90372468963775
149.922621371264 12.791183014719 8.0708133510345
-10.5948605046513 2.37631267882961 -17.8937914260262
-60.0512310815185 -7.46670166013891 8.91922295016625
22.8560120097281 1.46914114565278 2.30145175562328
186.516073509253 34.1132635306311 21.0446275724881
-102.502665336102 -19.5400202693412 7.4809321600798
168.400874234505 33.6729488984113 0.360062156789
63.2356112619413 0.700381094563103 2.74890197097836
-56.6771513210873 5.71643401863629 -9.43807630877958
178.695893025623 10.0754135321045 14.6239431605088
38.5095411971276 1.61516276451007 2.78508520241452
-202.545807659801 26.3773392212869 4.32278363772932
184.185680374902 35.7982574052644 9.66639992474799
171.646765727692 -33.2150932047901 12.1147948812574
178.23771112632 -18.4158322532844 30.3238629006199
180.388417189584 -30.352807561815 22.2184592128352
-83.3393726743499 -19.5912235166935 3.1545132150074
-155.297807563305 -19.4978082242414 18.7359736473927
-130.884668728218 9.78384710711405 13.4406088666403
-91.5099873680721 -18.1891047134277 7.85954639163665
-169.447673484134 33.8091067655947 2.38558055791
145.205721653862 -5.46867009635369 6.68143103646338
-154.167520405195 3.1100502562561 -10.3298917642738
-180.42299303442 44.0860111533203 -3.43348720521371
-23.9481669218081 -14.133570686401 -14.6670790033305
160.748367980282 -14.2122708389284 -22.0884597654751
132.26462837469 -13.3707787918854 -14.2759142364718
194.528923831034 -15.431899886777 -0.0723899015611086
2.61317793139893 -7.13742989479599 2.81488282564086
-80.2953807260705 -19.5220041745015 -0.178492688842957
100.481764028626 -0.97886066461435 2.95292739039472
-167.470354741482 7.95177222691799 -11.8016312129025
-127.662536910567 8.74581531370064 2.55797411347209
87.3095791606783 -13.7164867403017 -10.6880867083222
117.9615096591 0.221532644917913 -19.5230497350797
149.729901669594 -4.76933749900264 7.67257983637484
-184.305083941007 42.3612078943963 0.2022140762724
194.983013412514 18.5872282648608 24.5747066711845
147.955764818544 -16.0324707462372 8.06620212239886
-198.595764921473 37.1288520069237 1.20468291895354
-180.285723505906 43.6861166427914 -0.124679752096684
-152.871854484349 9.86936630022889 14.3783562206507
69.5640480566575 4.88007523706966 0.695461965404642
-147.310739369542 -25.2946532643861 3.7395290086736
66.3030813403987 -11.2370125969533 -15.8678607935089
162.102166355257 29.6276828305846 2.66778346161442
99.9498427945825 -6.60759939717542 3.92142656698504
-132.70066435231 8.43137075518391 -3.94950383941202
-45.6584711683174 -13.6814138245525 -14.0613180260929
169.662825133677 30.3953976048573 20.450085982577
-176.956840417748 41.0240198673119 5.65092779848735
174.34392387245 -27.2933204618775 22.2629257126605
31.8006565988314 -10.5592528626037 -1.53345570394646
-151.884397493714 15.2459630947222 5.65203319154062
165.802946026545 -0.459438761243632 13.665731943922
191.191823515993 -14.1577386031128 19.9197300619849
-138.056156435608 -20.6640576896392 11.5889097785993
177.345649395455 -29.9020240724533 18.9887848392933
24.205278674022 -3.49938462193661 4.357418812727
121.940338788016 12.2180825719291 -14.8290061249995
70.52481117333 0.736818483887008 2.54213823540661
-176.896039108891 -23.9422575774516 15.9821530788224
-176.610912108484 29.7937123861789 14.8716426338473
133.600780427944 -16.0887132161533 -8.17501963674607
101.341365235558 -7.44652127624608 -19.0136428191859
-176.375719178515 34.7219549094866 -19.3787285580983
71.5377899754883 -12.6011192671675 -2.05357687366307
39.5415945791519 5.73085366266105 -17.7496358675882
128.67918948435 -11.6575493205458 4.58057281597577
-164.11669065961 -28.4569724640006 10.4701233876249
196.342748198682 27.3557262447742 -1.46581381081984
168.826224654631 26.7802789825621 25.342105494608
-146.673825460334 12.067328738227 21.0671512363008
-169.997105400087 -3.87137909560483 10.7917174890245
-132.29613112663 -1.5841552317364 17.270092652325
-76.5590536896203 5.65645244585088 -3.57676280155503
171.65365358526 12.937327082566 20.1414146364975
99.0540336837546 -2.64617913143676 -20.186631807994
143.214857670474 -13.1751795298507 -16.2168486187263
-191.043999527874 17.0293027528109 14.3995997016641
136.011530116364 3.5155193259985 -18.3969247102479
79.8063921558887 -2.5006233836377 -20.4339695027477
169.180587579762 -20.5280949323342 -21.262288022563
-105.127944708573 5.43956809514506 -3.06429064923434
99.4271008733587 -8.7707058705252 -18.2016627529141
-159.369888496543 -23.5221183716911 17.3463373504609
33.3705419149323 8.36340038169151 -5.56694294817956
186.220921950696 13.597849234551 28.1595535637266
146.125107759601 -15.1725108361955 7.70450014576273
182.946148914867 -9.52761441166837 22.6739733189316
-91.0738475995411 -17.5593946648201 -5.55891754178964
-62.7344474288061 -14.5155961392318 5.41561320179647
-201.593869038414 18.8170681417746 -11.9041978820665
165.759845072795 25.3221716265683 14.6894078562277
-130.30667333339 -7.25169299368931 -8.94496129627305
47.2715212832102 9.94989355308766 -7.74207357984218
-178.121202478198 26.6291234697933 -23.2166226793714
108.971412836701 13.1834686551627 -12.6025257716409
-185.977739858753 -16.7459358899126 17.8687250170321
-3.92984033112915 -13.7802687599883 -15.4351424025492
-168.984605366301 11.9527527356942 10.2236095515597
-94.0659172106252 -5.45462114430522 -12.6804757591279
123.823371052442 -15.5681779167061 -7.70763137621026
181.132076966981 21.9095436271786 -16.1770274681378
-175.505058842518 21.2854460374355 -21.7875579348088
-163.034240165051 16.8874775916117 7.51399064772475
171.572694074319 -10.2076895207187 -24.5936070267801
-168.221613291448 27.5485935077088 -0.239182014655471
-182.720950150235 -21.1832049078402 17.4451180736045
-0.438336631780348 -13.981385955946 -15.0001164843183
135.975997148014 -2.44362700469131 5.29237368231258
-157.648721532942 8.16602271770347 13.2711827602594
181.71586702956 -30.9752320953265 3.4145046940086
83.8277272744903 3.34955729169601 2.05068726636062
155.405376335512 23.5813943357808 3.26949977035982
-166.460268727082 -30.442642949779 -2.52062528363664
52.6063193888404 -13.261607203484 -6.82491211955282
74.919624811478 -6.69785493601033 2.89411914325132
166.384529195531 -11.4581971245688 -24.0280816706024
-84.3987439188299 -11.2211941843888 11.7206014347821
10.7750954156049 -13.5444858459603 -15.0219801403122
-190.856733986354 20.7321395786667 15.3568908193238
-188.830788713149 6.176313550592 -10.5709352926224
145.081991261589 18.9678771645125 0.469298135280006
-172.812425104003 33.9859968884558 10.1313591205018
-134.083401264645 9.51178483729989 5.21911829395268
-30.6044216029461 0.213403223190606 -17.6619265336409
168.925771055889 -8.09577216899416 20.9245819094165
121.754116018864 -7.43637427901408 -19.0590855388111
-162.166169806083 10.1236905685288 10.7213488226013
-145.096856563522 14.5131422068808 9.60608310959979
101.281153708918 -3.07401367565277 3.24718745729518
-155.846669506146 -26.8125376423398 -6.99886643128129
-118.322596965086 -14.5345173002612 -8.38658243148984
-202.62689912812 31.5116675599426 -1.85948962471299
-87.1374311174594 -15.3758983033182 -9.50102974412281
12.1412596609249 2.47437381567319 0.517376912568962
9.32888410811127 9.0906382319319 -9.56537668471984
85.1820819610256 10.3124672579775 -4.27470329675316
-115.996490876011 -17.5377489411803 -4.98343942141829
-10.7072477463731 -16.0819533175739 -10.7266169290823
199.968955156927 27.3523626927281 5.96516334912931
139.818548470087 3.63928530509828 -18.2389226747988
61.4045295901969 -4.05425116963917 3.66131327720778
182.92741118069 -29.2135161552806 27.984695904398
192.876533878565 31.6397270124221 23.204295087717
98.4638604561201 -1.62164325544212 3.02238191950759
197.790543028811 28.6362147787517 19.068166357764
-11.1622474700627 -0.0620871254269272 -18.6971859377702
180.733021369251 -8.89650452033805 -21.8097521742323
199.400033852999 24.2670676487873 -1.92121200866178
38.5221256752304 -3.11384862837253 3.73156682582497
-1.58261461352128 -6.86662381178701 3.45931126422033
157.485515337826 -2.30768807928473 -18.9892115757862
-98.3862986435597 4.0473040497506 3.3720878428949
199.05259580566 14.3257708438888 -1.52226224735581
148.473090983628 9.98889021347637 7.70518145820645
-109.844423667088 0.456165166391044 10.848074029426
-148.766634604339 -25.1064264430788 -1.28223694047254
110.552272089827 -15.3493172419444 -4.2850127036666
34.1782919543381 0.946138446881857 3.17875493622124
12.8068792355786 -4.39170463721586 -19.5198353940679
164.218755879696 -28.7300727266654 14.3460638544722
156.325911241401 -22.5509739646553 2.17563934809528
-78.6631326475938 5.58646639157315 -3.56388577734492
105.005801690398 13.7611449664992 -10.5173777347631
147.041713838639 19.9034385715525 -5.03347882809558
152.36308938214 -10.4642999401211 9.36357832646203
160.550525397314 13.8672604967347 -17.1259620913055
-111.954802127405 6.19311016961914 -0.516678868189821
151.366468905414 -5.25827337117843 8.0286042950424
157.904280743503 2.76505648218904 -17.5407215001556
37.4366823146204 -5.88223254637285 3.73299079521553
-111.396468009164 4.22580017267029 7.43762928859478
-37.1176243047764 0.917293218470031 2.95175171052368
96.2657899307085 8.88328185839549 -1.71350729360803
-32.3286404182371 6.78507576635605 -11.9057273213099
88.1395459376128 6.91596033656886 -18.2019755880755
28.8976464902721 -8.26565410821384 0.708098840190258
-108.569205953207 5.90870331032289 1.28185162831419
-117.011037153805 -11.9412496747865 -9.69304810662834
-115.633434386306 -15.3307621531954 -7.74973810824139
-41.5546303898071 -4.48884528258167 7.27252137834418
152.240252797687 17.1809627344157 6.64618414017794
-107.381305010824 -16.5966232678769 12.187988540751
121.502895935266 -15.9408596350429 -4.65184055150646
168.219969226031 30.9732661353114 -3.55077350472592
179.89253805715 -24.3524204829959 -14.6616654594627
188.479502722773 33.9525995098836 17.8697646530265
-33.4423032056003 -8.99140407442124 3.90947148301465
183.318027431526 35.3518339541519 2.01139443509803
67.5101853015733 3.92828425001893 -19.2737332638102
-177.289558457558 -20.0299414377957 -9.45855982656687
151.530467732873 -20.4952914765409 2.32594298171438
-122.081299833002 7.61905819731297 3.93106865529409
160.655419498604 28.2268389449359 3.48399548645802
188.224774309592 13.0595914050191 26.7732140350901
-171.635259857504 -19.6301587944857 19.851957906647
184.550251532909 12.2613790358759 20.9463250496696
-193.172918127127 36.9665087092129 9.66497849587365
-71.248975203991 -4.58064084142466 9.26169677157239
169.916142116809 13.7363328166862 21.4383542778538
-162.509432641815 -20.2850398591049 -10.6790651171169
130.236354272657 9.69235961841176 -16.7729713793684
-193.055433953713 9.32596141768029 4.67537571136947
-141.504190417342 -3.89554359463046 -8.77682208866745
-105.867073712454 -19.0868526244659 -1.62791826564538
181.891995068854 -0.016358563439493 7.47999450926689
-187.368235890491 9.21856233347729 8.59469013563712
85.5695516263521 11.5257026568337 -13.5858037139779
174.439864798943 -8.55521375842909 21.2645499965318
180.852853225528 -1.26099218152226 9.00052708521861
58.9996393886588 -3.18497233130945 -20.0421473490067
-127.36169961956 -18.5406138133226 12.1180782944821
-187.738465168886 7.0824549475615 3.05056108992241
-57.0091372078994 -17.0141869714782 -9.56318803076517
-167.699358853619 21.059360466406 -11.4824546949454
186.735623472903 -31.0581390855857 24.6535953337354
-117.70899165459 1.94040317843568 12.2776519398736
-128.662603134038 -6.37864033731597 -9.07929230351021
-172.951481032138 -8.7660676043523 -15.5574002451664
-84.0269135004965 5.41479577930128 -2.82589610996207
-175.250193412929 22.2375292702281 13.323303392354
-34.275069084026 -6.79862250212253 -17.8829948866937
188.005794687711 34.8211815429021 9.89179292066335
178.872082973571 -33.3459556608504 8.52689486663385
95.3235737303843 -13.5622456662104 -11.1939043377789
-131.915634653293 -19.5495823559107 -2.9245761676691
-115.186306996164 -16.4327867746397 13.0932325755373
-159.873917729782 10.4007287443974 11.2227647484621
-68.8007011391256 -8.66187024395975 9.73141633310427
90.8304128381838 -5.38539822040111 -19.8741891909387
103.59006163605 2.10650195873066 -19.7046525587542
11.8664620970091 -14.1681788783762 -7.07832892624275
-159.201378951249 -24.3630411203727 16.0903324184581
98.80369222302 -13.3258828124057 -11.7529591840802
-19.1571020916501 -11.603463985234 -0.745008759913947
-74.9101732759972 -12.971596323665 9.77284414375879
65.2998634571715 -0.810466493958103 -20.1922707727662
189.492719567302 6.79399059947183 -13.1099690385552
112.400809807608 14.0860607588898 -10.7950558172475
86.3671859835686 9.20891243936103 -2.92898846824092
121.827172251472 -10.2576827479968 -17.3632119574891
-181.691231815229 32.3148871630262 -22.1343716545081
-156.248939545598 -17.4650891247716 -8.90426935489556
16.3192432699704 -2.67612048125847 4.43786551669781
-183.129598318858 28.0096175307974 -23.6911538219139
132.971179279 8.7093425569443 -17.2419839743435
126.380320917332 -13.6303962211996 -13.1967031682637
186.011227959428 -1.51557501173082 6.89872859457294
187.278837009882 -29.1825478114452 2.06894212675201
-175.23429660419 -15.5127527466006 -13.4411636185292
-77.9207486038427 -18.5385294377807 -4.23839671067507
-20.2941981367848 -1.75031881978842 5.28921164811305
-1.47281747053073 -8.48717464814768 -18.4373977765371
49.041281346617 -4.89996937487878 4.03831620288278
130.440546784242 15.751188983434 -9.84774610153273
-118.776662493182 0.486590696552894 13.5022666041875
107.170168970448 -11.3876579003102 -15.6747515992463
85.3122228414284 11.6354226161597 -6.17627136657343
-140.408325886253 -19.4274403361148 14.1087931255456
10.8514161165114 -9.20650577313681 -18.3676867597777
-55.3500609946469 -5.26248197930369 8.31185608552716
168.076838676253 14.8442683743833 22.273842781796
34.713404162701 2.40635874245798 -19.1072075658666
-179.151258789147 12.6048697344487 -19.7280878740222
178.17477078148 -17.6962741256819 -26.0314175610046
190.482896570524 30.0129823435958 27.6429851737441
-193.823113681879 35.6729468617155 -16.5625632403574
33.3410410770203 -13.7903047084648 -8.38049121532617
-198.344767694796 37.3396259535315 -5.28671301524592
-61.4986487724611 -18.1567744894878 -6.37122683758346
-170.648596001299 -29.6841825753434 7.0022729986404
186.714835910291 35.4486580342678 8.04862809415939
188.662945555929 -31.657934808407 20.9331013405755
68.0245165840314 6.39316699813885 -1.1279306672427
184.835046790268 -18.4559176915937 -21.8604570953149
-181.293030420957 -16.4613668440174 20.2919006089443
37.9582234099636 5.16496320520965 -18.0689672321451
-73.9717089552176 -18.1448152076993 3.90832762272717
-172.053421071472 -23.5642648645073 -6.40179686686617
-113.745601466089 1.39392254212337 11.1830541979314
179.841902233432 -17.5804126901918 -25.1973206959754
178.596404751961 32.2732380092636 28.3918233747747
-78.863657566305 -0.666894639057888 6.80450938464526
-70.0600982886171 -14.0336651761154 -12.17942965895
155.709788328779 -19.544235100525 -8.80743961943234
-20.1443069137291 -4.23773095435927 -18.7240502378349
167.12823761326 -1.35118935994174 -19.0664353148473
-181.181077093974 -3.00093495776596 -7.46560599215155
61.6560206468581 1.73468114732512 -19.750230565536
-132.514891502224 6.10967749172597 18.3340859730543
-0.870749147645489 0.338087304781015 3.43265386607499
175.668504449477 -30.514700209437 18.0223685661025
188.256256009089 1.79392157325451 6.27525516305551
0.678836863017662 -4.20600543736662 -19.2673145966794
42.1828545406514 -13.3414428819306 -11.9262697214611
184.833948049931 26.9992395795205 -9.78126940661377
-147.218125427657 -2.66370835622927 -9.24252702841884
-28.0816603325759 -8.45639619751834 3.92176439512671
159.385711214706 -20.3777905257242 13.3385224786656
175.04921199375 38.0237060491645 7.771756420779
-181.864874240661 41.8474021115395 -13.192657599021
156.226956141045 -20.0407349149362 10.8176986932619
185.188459674892 -31.5561785421656 7.31578493321003
131.676283705753 -16.1009841437875 -7.62728082864763
131.993838611001 -11.821994786225 -16.3023908844081
-163.386623347833 -22.752049809732 18.1350690068084
119.599193584471 -4.85406297335143 -19.6584595363874
-160.472646355018 -31.1164358541227 5.29335597324691
-100.416461123253 -17.9844194891475 -4.23513160043037
-181.919594805087 42.152224521418 5.46398703187984
186.657691755258 -32.1828477628551 20.5020349489517
-61.2719875764652 -10.1915812399886 8.90061767319188
94.6532209004257 2.54091229838664 -19.7907667324429
-21.2647915389155 -3.15064089341048 5.48000624697522
119.117728411606 -15.6447274654272 -6.38649396682162
-29.4714256539037 5.45146038677968 -3.31373456729426
-39.752663466751 7.02025831818347 -8.92269256253094
110.458750085548 -1.12690520963589 -19.8878354526378
-123.911573556785 2.8297099156385 -7.38058380437877
172.814357167476 -2.37144260680377 15.4562126435376
94.4670639923384 6.52418391736543 0.198445521425469
-26.6442670425831 -5.78894626032922 6.14847863775762
15.0601285554375 -3.17960373785626 -19.6192572542452
174.171442236625 -23.5177416332566 -17.1864666506735
20.9706917455669 -6.64258085015277 -19.2314408753488
78.6099074979338 9.67299645880308 -4.13642220564062
-167.682778232283 17.2132315271872 -12.6290373702405
188.073712096286 4.59570399229902 -13.1225487738175
-171.971735226795 34.8669751907469 8.18908766540122
104.764328328191 7.61251224875535 -17.8702293974728
5.78824628694355 -7.87345463578526 -18.8351422940534
-148.607624341365 -4.36396396795984 20.8958430067095
194.272423179122 -19.5707562997588 -1.43806861146944
-121.161230680749 -19.1607937758206 -2.15266252821697
-180.365016739575 40.7252452087493 7.9450431560176
-144.999468966269 -3.01498321298004 20.3855994724291
-164.173512103052 1.51335587752169 13.5294891266229
195.436691607656 15.5084572893707 -10.1677057106485
164.779455935812 -23.1863340848723 -12.1404805840635
36.3581148151283 4.7852409429876 -1.22179959153097
152.541220409481 6.95730907024424 8.4899227168505
198.092581392296 14.5966511766614 15.8098318140985
165.824240080582 35.0272885317272 11.9560053184379
61.2043744343982 6.19601913389601 -1.15076677917237
174.41563250638 -29.0384162644429 19.9688519502073
-1.62213403569301 5.81558463980093 -15.807655663498
-144.680372276573 15.5170406711028 11.4296161455961
52.201825708209 0.412977675186293 3.2352970185666
149.675685140681 -0.94195729478174 -18.7623223876423
86.2575070892865 -14.0857593090396 -3.21723075837799
-95.4286008882526 -17.2577809040213 9.0432741457564
195.443309223262 23.8719328290856 24.6745537076051
116.521255224375 -11.6054560122777 3.09237068570922
62.7458000895795 4.71601525214051 0.682658102940451
194.108417431422 6.9317918353012 8.26842867065275
-164.585031521486 -12.6512052556446 -12.7149643921135
180.514151478239 -10.7210545615212 25.984600972844
115.097838019475 -13.9059106964008 0.920543717919895
-162.887202327165 -1.19510965433806 16.1063281985309
-178.150149276361 43.5369145085375 -4.33835345384151
198.297845031604 17.5572853009921 -4.97004102935491
-186.369085406455 40.4697071861411 -4.01890849094187
181.97557059344 36.2173777087467 2.85987935685403
-163.629436409316 20.8307312112986 -0.0408632463421552
152.677592827809 15.5337257092715 7.71158002529378
180.2411854868 -27.1998311353446 -7.53395494449046
-168.121688955402 29.4929939611817 0.269025392598622
188.289354161986 -19.2701943047269 -18.3015193482911
-141.583460565728 5.14138838247661 -9.00458586444823
87.2141715178921 1.55482691187352 2.65141683532672
128.326133410152 -16.172389305879 -0.803091455483063
-169.040130590586 -19.4645976557693 -11.4256685107699
-174.389334592644 -18.2400151254971 -10.2602018813364
-125.794003179176 5.55418833733079 13.6232652937096
159.747867800801 15.3714722401566 10.1699389154589
-139.106815238847 1.73317109715119 20.278499891603
103.114078665735 0.151403890703231 -19.9675653696202
11.0284563305222 4.99245594473977 -17.4702092569566
179.687026699355 34.0020896732232 23.8714939349164
-124.784703349594 1.61517645713269 15.080657448524
-161.749559767142 -1.84912683431027 17.5481258874107
181.678529008539 -31.2248520484221 12.8310138741605
-166.748917963219 -1.41184538292433 -12.2885076086464
-177.198947146985 -11.0411480688055 6.76738379585152
-26.7613705445316 -11.6328103847402 0.0976994645309377
166.623440257861 26.2228531752333 15.893611574323
170.346694999198 -25.0535082110336 -12.1127254221078
-179.019006034054 -26.0071396661923 11.6591236464197
150.902731001701 7.41708527286918 7.9439592633702
124.059749256948 9.22879336858081 1.53619726133393
8.8445636456293 5.22388908614399 -2.34022040496478
121.871691967836 -14.2954716993123 1.54438585864649
-122.01658458086 -4.19756144276957 -9.53224842906107
51.5927921838837 10.523814064131 -11.6099018452225
-75.3350407902938 -2.91477113159718 -14.5994302951952
186.007370588195 0.233461478935037 -13.7358371968708
125.559237468568 -9.83405220879114 -17.83422837196
131.9299479877 16.3671500804736 -4.9344850843201
-124.926844458535 -2.64873799444167 15.1477477280352
161.612996204848 -2.91743695277061 10.4865163678468
128.156195723696 15.5986891169928 -9.55861200421798
-164.181752448497 -32.5243207285037 0.866388646026999
-174.696348505596 -12.0108036851854 12.1600217029484
173.629052401355 12.1286082619229 -19.145832075289
-135.790723375496 -15.0576427516938 -8.06522079487017
-171.939477109936 -22.4250498172933 -7.67152618770817
-98.9079090206539 5.34397239124652 -3.73679377783591
11.2345708838551 -11.7391992596415 -16.7992452818327
-185.446727018189 4.43975280396649 -10.0159546897757
-57.3101543834976 -4.69829120307306 8.18425958016612
177.923197832044 -10.6700102565654 26.7400769023355
-156.204182826369 -13.5281658766885 -9.59757829065819
167.83985802215 -3.32069725798308 -20.1237154433556
-161.82249548091 -3.49220473592766 20.6696164058756
-93.5627234932233 -14.8154289836687 11.0995475661838
-144.521048750757 14.550995953545 19.9168334690828
-102.092416066884 -7.96822104531732 12.4463556841861
-144.776730805386 8.53894951841782 22.1852679898023
168.740282447372 12.8028654139294 17.4347705580407
149.083531675437 16.6520919799727 5.82298101821002
180.19698672726 2.40378921881985 8.96520511276097
151.357580928268 19.7046843742001 -9.00277130441799
-181.407645448727 -8.46736051019246 -5.46472960545725
128.910186422377 -14.8711848719811 -10.7528750161185
161.529770244915 -22.04753860524 -10.1355697771515
-178.772138381481 35.1629894017841 -19.9544548391761
-175.632185765589 -10.8664335234698 -14.7790407310349
-63.6581097750723 -18.2479716969515 -5.89603180569548
-172.493254080911 -11.9816065709599 -16.4196275814615
-20.3884485376345 -9.25158167544109 1.9894838026219
-136.339707897668 -6.03777234717719 17.8284696850267
-187.873352512313 25.661906298866 16.5298830250131
117.903202520738 -4.10878261958884 -19.7710996850282
-177.55346547421 42.2904381705175 -10.0436169087099
-74.2013178715408 2.83460656689913 -10.5393228212487
-55.5337764043106 -0.473373544645269 -15.8509644815745
199.112605961169 12.0746168383904 2.84568674239136
63.2022980707348 3.0194973998458 -19.4506213118697
16.9759890485819 -7.4454944450266 1.82997157907639
12.9281792289825 -9.98840129338729 -17.9518914019231
141.039182010204 5.53912760624284 5.49951908215928
170.301065411325 29.4008321587898 -7.40197639938892
191.311666004636 -10.7147377391171 15.0594469491855
185.362020485818 30.2110644370427 -5.47504432719741
-120.168737342397 2.27631719738911 13.0852740244224
-174.31654377057 -11.5359640111343 13.4351803438633
-180.147220966395 -0.897011424095102 1.69564335910132
-91.8620335449866 5.30371373129101 -4.0423797447518
54.4524500505157 -6.64192657076538 2.76939581497562
182.11433022801 9.74647787814259 13.6241642070783
182.983498293512 -8.80461757370963 -20.3183979099945
190.313061538612 3.29147023977242 6.35950649709144
145.527132255566 0.0185165613104932 6.40670771624445
-185.149002947755 22.65980947328 -23.9876579830922
-74.7682058359108 5.48694454789256 -2.3513978788471
-44.3380030707046 -1.62452135106188 6.08630864499956
-183.889311188722 3.21448090065904 -0.626455781355355
75.4068464132605 -10.7852015545102 0.329898082104674
142.006640327773 5.08756211577392 -17.9299439033258
193.736719543076 -16.2683688891946 15.2099134327859
-26.5754062797891 -15.7985002504677 -4.4934458029647
180.354712733441 24.3151684853692 -14.0863056132073
-142.034723860921 -17.7822213467364 -6.65845555371705
-167.841616430537 -12.0712577065593 -15.5101288570475
-170.041803781539 -23.8680995504053 -6.5854519433256
-188.580992841958 40.3809779954009 1.03907000988826
-36.1559552520658 -13.2845443850854 -0.00569558755895676
58.1394066700641 -1.48978004067905 3.15921945134163
178.763254780067 -9.69467098571635 22.7703306329583
-171.322372187947 36.8656148109496 -13.2601839580505
112.662412946996 14.4773465106483 -8.47470982760336
177.045609026922 32.3727483214683 -4.85367846351976
-139.617278726055 0.0843594383584534 19.8152161235122
-167.066863483948 21.9977901074892 -9.53541402232161
-170.453678990807 37.8005423860527 2.0229609360807
-27.8093039850863 -16.5556945105618 -11.5990091134246
-78.5867841403 -17.7770642543292 -6.15557356387009
-186.521235636043 27.8429944812744 16.5267846659853
-71.0066105244873 -2.19499923110114 -14.8451231660368
-177.995156310091 42.9001910506401 -8.41978767956506
170.576461826927 32.6609096980416 -2.51941268620149
66.9391229192989 8.34428584578788 -3.32365392654037
172.894859370316 20.0745424859948 -18.2136834766994
-170.445274472779 25.4966561119945 -17.6194049508379
177.109083773244 -29.11033778029 22.4156884970126
145.515161792557 1.41291529577701 -18.2353624607324
-200.566058803158 22.0847571034532 -14.983382893967
32.0033001082271 -7.85717402422632 1.18911433582904
98.2616270976164 -7.04035180882835 -19.2277919070313
194.069865382108 -13.5244588861701 3.47281678695069
162.407713116968 5.728536936501 10.1611246622769
158.977003201115 -10.4618383554932 11.3187685800629
164.100042541313 35.1087444696318 9.51542950249483
134.823998221881 -13.0176831416149 5.27788417440726
57.5804568704754 8.78970758725847 -4.50953130720459
189.138677280595 -30.9352215467798 11.6832771462925
-129.929794138198 8.82503825039673 3.46297510563472
133.449210892939 15.0067944950968 -12.1077058743582
-164.101451667077 -18.3544501925241 21.3829509832407
-167.943140168443 23.6113275127062 -10.4190644745317
3.86369490672248 -0.30837303215625 4.02674597083629
-9.42702782242516 -14.5494282835507 -14.5226267888346
169.87261015718 -26.8862116766157 25.8676157633251
167.550070489725 -2.21406429056008 14.943668110044
-84.1140647715519 -12.7549781481441 11.116443250987
186.130268907894 -25.0699399180059 -9.4587032070213
-192.947242124394 9.37150339282988 1.55407177326722
-85.4680385319456 -18.9620944175337 -2.80170668647669
183.099069229805 34.6209683275726 20.8658516034934
-169.703947377881 -30.6596599485207 5.06492823886019
167.686122616365 -26.3379869369773 -6.25774580656336
-87.3563884719623 1.79409514979837 -9.98442422496819
53.5331823762725 -9.54315069197833 0.0635173545257162
-136.08928373423 -20.7887777170232 10.4479922535946
-13.0634926730375 -13.2603767531317 -3.05088755636266
62.9766655883348 -11.294247570929 -15.70702199273
198.846069698785 26.1913177489234 18.1031021755303
180.631600776746 -2.17286389287767 10.4950904138524
191.167548057738 -6.49592088334897 -7.20955366098968
-140.273692873685 14.1582245245024 10.6911176461535
195.314521624113 6.78385778795686 4.38993414921776
128.754820293701 -13.9022021311992 3.74097794046751
133.167740766135 6.0463567602677 4.3432503360628
-41.8711607797399 -7.36055373921289 7.02868649041436
33.7243899785908 -1.39089560449049 -19.7297409550663
-154.601024968596 -28.2973844222614 -1.3137964581517
57.1525519017317 -4.70153182539639 3.63657565641913
61.7430689933192 10.8546125946673 -8.29229746599916
-147.73814335253 -11.399322706921 19.9127516053987
-16.0951218833041 7.18197355864012 -12.8613921925673
-163.689841202875 3.69592096809525 12.4639373023953
-59.0885403169606 -5.31726673253423 8.4649122639583
-104.318680529678 -12.2138836132303 14.2570553248887
156.980760581237 24.8425032776913 3.65018100524435
-178.632158987315 -11.0175234101731 8.590083697075
-143.878612362697 4.60349082686253 -9.41817369991509
148.028275144053 -18.8747562551017 -3.84480497895124
192.009101649298 -6.89700694377026 -3.87078313965027
177.592910188343 -21.2668663985077 -21.434694035786
-169.381648035208 -6.09014789521707 18.1305738885612
-9.90646373874317 -14.4839786457566 -5.25107477429224
-113.886607847118 -7.33458837439597 -10.4276531217165
187.211844430592 -9.03355511371378 -16.7038003582628
172.442988711913 -22.9916175015214 29.4867258079264
-183.097896909245 -10.9407542461955 21.7822613637695
-188.281746950981 -18.3876555669693 6.15460619578547
85.5845150906532 -10.8746432361429 -16.0202394755704
147.639836347232 -13.6103196806182 -16.636520532788
-135.301689337339 -21.3849195374097 8.84370123704446
-151.014474896062 6.01373997695303 19.3185683425858
-58.3865195548417 6.12376970393673 -4.33617227728012
180.1723337301 -12.0402176846782 27.2275117253386
49.1287747809374 -7.7183161865787 -18.7907541761625
-160.090268697269 -18.269951269829 -10.2519492876323
182.885483523371 -7.14213017315962 -19.3357618118763
-203.311952982932 29.375147242036 -5.59679294163229
-13.471066454301 2.57132891020699 0.732606315567917
33.8615156559134 5.96870891255013 -17.4383815013748
-119.026248526422 -10.4622823561411 -9.87106138940171
172.311365069004 -5.78529499989502 -22.3344757842926
154.177981297276 -21.459721130573 3.82984030833252
-46.8926788078073 -13.584740413776 2.22088213994051
157.365873501693 -9.33283847079213 10.5114821600641
52.7073520464917 9.40667112998875 -14.7226261458676
67.9801906205147 -2.76802777783029 -20.2467334557705
-143.48076567404 -10.6194548501802 -8.46345708818221
-173.389803277344 -11.0385694693013 7.15044089979334
154.643154583634 13.3874297915866 9.13900875066474
170.161398618494 -15.7218770909943 28.2885693228598
200.222975577765 26.1582372487157 2.96117142928019
-130.854453553761 -14.9814246194888 16.1028078539822
121.606672150906 8.88052481870477 1.39262242555639
168.330714053964 36.0172571773298 14.7726025625508
177.039638829808 -31.6961953285161 1.95606009248835
-166.571367755496 -13.5062739802455 -13.4204576555471
-58.7227770892198 0.181790376087407 -15.1249637375572
-173.393477922831 -28.9756415838896 2.6135909276832
185.623741465474 15.1902107499472 29.5518493670135
-131.509476924049 4.23037501380437 -7.31060906574957
139.858080192373 16.9189442386476 -0.393430066262107
179.610357666505 -10.0008986428511 24.3254897969171
-181.071334972103 8.31076481549884 -17.0353858232244
-37.5880046796253 -12.1172604217691 1.40171793106235
-178.015080803223 33.7586960251254 -20.672564288107
158.938959351645 10.3584924652362 9.42369244870729
-200.53077155215 12.7498251489858 -0.301298865080976
-26.8059449753418 -13.9379614532167 -14.787720456206
171.902004471755 37.7738030734264 13.6024866088876
78.5299434746054 -14.0289831715889 -7.96034282253791
-174.672280597569 -11.3280966691785 9.31398559673414
-125.653862643864 8.52149814353088 1.81624669648409
168.913684127469 13.8339855602867 20.354144711411
198.903231959212 12.1886949054643 7.45845996529121
97.386927828054 6.88130672433019 0.144194006142079
-137.696914819796 -22.2379339043505 7.78721574485803
178.697282786124 11.7668636428773 16.7144213821709
-98.651341723956 -12.0382377370461 12.967691653723
86.8640638766662 12.6709203204221 -9.56995989654848
-107.776793130526 -0.108004771364788 10.7070099344977
-188.266478480986 39.8733736379226 -3.19166298225831
-192.06417592717 12.3882643807264 -18.2720004620836
111.673413242126 5.05152541326195 -18.7679194344067
-137.190720367771 -8.31200846802044 -8.52540241166132
178.38460568416 -8.05433190996531 -22.4042664699559
-185.066734864905 8.22557042254259 8.35467826669809
-84.0761102806751 -0.670944828430675 7.27693139402625
135.846713856853 9.75035592970338 3.92269475619639
-94.599596488799 -10.825097276982 -12.2159909950116
167.627902567066 20.2670679580056 23.9119583309094
-34.280756652302 7.29479637494521 -9.96613814329968
188.17872990103 11.6294240224223 25.1871275285133
-10.2545448266037 -0.625118322031597 4.25843964255541
166.182879417512 3.98561670196034 13.5714552588069
-180.578582579434 23.665097021262 16.7620209241287
48.3471721954363 9.32811680721276 -6.20686932906619
-132.127143398973 9.86075709386476 0.0346839652628059
-51.8494710379275 -9.62353818431948 7.19337367992367
-197.250952325525 13.1549700078554 -14.6076674912501
-160.956036812691 -8.71941512177581 -12.8056757047162
185.564152389398 -14.3375601204947 -20.8326139624362
-22.1396387930121 -9.14325988838744 -17.8071164835838
-138.507842229638 15.0483815327548 19.7272572380827
-176.35748283994 -10.4384113290338 5.246469127918
-200.37531862543 15.2187758163167 4.42009487272717
81.8628614769771 -0.651299016934118 2.86226774463875
159.42981351918 -21.1009495166032 -9.24379096955011
-151.701317371565 -12.0658472634242 -8.95914299189203
-172.970826192497 40.8490897506709 0.312644933023545
-170.911666546556 34.4494394375651 6.48323462087009
160.43790514563 23.4129303879321 9.35877222259747
-191.973732614114 10.3861566307159 8.59826865674537
174.840854835606 -9.95230483139732 26.0448600337702
171.520199743854 -30.4291767907995 0.718919113426348
162.990432343482 -19.6064028047012 20.3584309541529
77.9026691131666 -0.911472822166021 -20.4783011405751
-81.8851670279412 -2.74438093352627 -13.7587962097713
175.364285347126 -17.2975054724548 -26.3713364041334
104.072926790865 -14.3765408437958 -1.5272745226727
8.45847466747809 -8.9894818183475 -18.4876804191936
-187.138318471938 -13.3605689066031 19.606128328941
-203.947993714643 20.6449154402713 -2.67272425792667
-191.882317353004 19.3757346971982 14.6764549530087
-143.506090906022 2.08097725841145 21.126507004306
-164.025036137239 20.8282729128484 -5.23088518594763
-177.341554031445 34.7602685823283 12.9521388669762
-110.793800624181 -13.7056037399727 14.6936844018354
165.961965977367 -14.5620041655417 25.3078032837929
-18.844513471239 2.26838257395918 1.31289599312669
-9.00282502228845 6.07445523983662 -3.59686728320767
-149.136890618556 -4.46374977199957 -9.65835648723914
188.3643483168 -31.4184620223562 16.341130928366
164.280752687474 31.2882032735588 1.31798275244303
-58.7415736944727 5.79360563747591 -8.64716131516436
-173.972567975144 -23.309496092746 -6.0950503181306
179.277178165068 13.6284359707642 22.1632897849423
-73.0832748876758 5.79166746315915 -3.79844625371057
-166.124391347582 -22.749177019149 -8.54121203059544
127.62212730963 -15.5170530770224 -8.65772295131014
193.425813476697 -28.3358571291805 5.94780946558468
-13.4163146976992 3.78771951720505 -0.842315139363493
-175.433277241175 26.5455975234953 13.9193624794438
113.472571496878 -5.33179983778592 -19.6786513457278
-156.771203628744 -20.5223225862974 -9.43473852436018
68.455937357176 -5.64796527008398 3.34316754464574
-86.5087872366391 0.127728009391541 6.80810387610387
-61.6608820838406 -0.290238905141663 5.45842186074924
118.613626333626 -15.7986635115324 -4.09781038323199
-49.2360496800577 -10.4166708277352 5.8668187451597
192.483040714863 -16.3637556813757 -11.6124021897265
-200.000068564246 12.3717841483589 -7.98783898362688
184.007012382385 12.5244144614102 24.4935952398822
-147.594487747798 14.0953583150881 3.33563234685436
160.200900093813 2.87071869510013 -17.9087758170625
194.470207846024 -20.8603479980288 0.404410964327683
-174.836154231509 39.2936862256717 6.7729035934901
87.2478015946982 -11.6048127693353 0.624145908622713
61.368342110158 -8.45122023037603 1.27943261633939
-73.3363060890917 4.54700814128949 -0.19743554147647
71.2593298108434 9.17014314857885 -15.922111006503
180.616625228459 29.1170185384144 -8.71596538197532
-200.424667688744 32.6652627317863 4.61522126014509
-137.444432199733 -20.7358940126968 -2.31157031149468
187.177442118379 11.4002505477272 18.1147125384752
172.678579153928 15.5566880445651 -19.4829328935061
-162.466733681046 -6.61347879803656 23.0402819565644
173.438528552347 22.344998968923 30.4359446395412
171.067793036202 13.8501858052489 25.7919564771891
175.655301958651 6.85044441551885 -19.3091816785958
43.3494264196347 6.18955578903725 -2.40462356750014
193.911268744923 13.4567809393958 -12.5759160756291
-184.950400085754 -18.6029102554105 -4.45304400114912
-195.477252141033 36.2495502259478 8.35058897082294
-203.566531816373 25.3213660660895 1.67326195911284
6.66490928191053 0.6005232371588 3.15860156909303
68.2497447370424 0.362163240694248 2.60475272184636
-113.81411303723 -6.03029051056522 13.6327820191929
134.80664802793 6.15364389848977 -17.9506671070901
-43.7383476494188 -8.51867211421706 6.52447221967556
123.171103532686 -1.48796835691043 -19.581117171675
34.9005321145083 9.4039330101156 -7.50460256752514
170.230710949673 25.1461556783374 27.7000663752615
-126.330964980532 -20.1625538994957 -0.690059786883304
-186.176620435192 -24.2559900191418 6.15619631877011
-128.610945995345 7.64439284516224 12.4659164772939
-191.997606744251 39.334667679803 7.87687059703469
11.8546590135154 8.16700289560753 -14.0700312993442
126.589731070176 15.160092432351 -4.00965731391633
-169.435620215698 22.1838621238251 -14.5387310803281
174.185583168568 -18.0689162653232 -25.8106104233049
174.013949336385 -19.3171666766296 -24.703697102533
-147.877129692928 -1.55763807316511 20.9728333089551
120.195142066373 -14.4453328591579 -10.6387966116732
-170.796895713508 17.4374128919321 10.036906099196
164.743105075446 -2.0836087231047 12.7495688307882
128.570499174417 4.56170820324155 -18.4179077288578
-119.386095254423 -19.0571504314632 10.0761874724814
169.639827131855 35.8664286842253 3.2270645733277
198.54384098837 29.4582687679198 9.35386466152768
-162.077800662645 -8.15488566663953 23.8040126372025
177.79053644694 34.1645253046478 23.9690548119718
170.563822293841 -14.3069353261414 -26.4188042406051
128.671526313798 -13.537986491204 -13.5850471276085
169.695601752074 -27.2604620031302 -5.23355366237677
-55.2062637064849 -18.2397562457437 -5.7575371894131
165.107000551635 -26.8035090998678 19.7097124018329
-61.8164755944609 4.40288919894536 -0.860795436614109
21.9737161081578 9.37525225579306 -12.0758673938109
-10.0647855621702 -15.5226696453686 -7.22251012891898
198.900599116046 21.7982628871471 18.5813412257542
