-127.796517015094 7.99324657201835 -9.60375065629722
83.130033239683 14.2296181630442 13.0748379917903
167.238626502943 -20.0878332913446 -25.9994060004493
-193.116257663974 -17.0574907322426 -9.33160926502307
185.64654681624 29.4318121631812 -1.06851956312118
44.0865176530443 0.605264947115464 22.7245487635228
197.950395955203 19.0801508697782 -4.88404501747548
-133.640868880059 11.9928803614689 -7.65905711445819
-168.570488610333 16.7843313987776 5.69949094467036
-129.766466371302 9.6426713482166 -7.04103115205681
170.303953746854 -16.8728170440754 26.0148007217496
184.322623419677 -9.92361361038102 21.5592667273222
141.079998279793 18.5294819546597 -9.10501737174138
-183.707255036801 41.1896714223293 9.41800622261695
178.341544450148 -3.20042727991041 20.9764407352964
-20.398198740546 0.127475040739092 -2.36132086408373
179.54502174463 -0.46961253867545 -9.53620705770432
-168.645660940496 -22.1268264724377 10.2750773864389
-186.347221672226 -13.5006806153832 8.08078322603103
-209.612854079265 16.2649310210682 -7.9983323500343
-90.6574211675657 -1.38238494891822 -6.49818147517565
-110.302988723012 -5.83422769874297 13.3448265841699
190.587774953581 -24.4613604133318 8.70154588684166
-113.973093382387 1.56811289429481 9.8080678086795
168.661162050412 17.6861423068686 -35.4875730688234
-89.4502774248377 -12.3219126718885 -9.10219360848892
182.27310992596 8.52074922005538 -25.3879742207101
-19.8713447210251 9.39768576493681 9.25362908201652
78.1689736204005 7.32500586336958 20.386440013079
195.48338713658 11.3458763314732 -3.23323838940021
-50.0846251102105 3.3520465437572 0.310622358847339
-193.803696803298 2.45291119499015 9.71199169496406
-158.243944253046 -12.1030967782386 -25.7719545702288
189.082701142868 -16.9560723713204 -15.1957927965087
-166.56040520489 -18.7696786849246 -26.3837134297513
160.323023707599 -23.5293459107834 10.5141459924448
89.4456942092953 -4.94419459458231 21.4913338432728
-163.106406830951 -23.7250497043314 7.96429480192491
152.92776550722 -0.710206038403872 -9.79240865361711
186.676870054348 2.05521683337997 -7.53551297884008
106.428279834773 -2.90216560476877 22.2459982652136
-80.8966319200096 5.64027078470628 10.8963114594164
136.755754918761 5.93543403691731 -6.37991163170895
-168.919055166204 -9.02641575977686 -22.117445168218
-91.214157402767 -6.03822378270571 -7.67030146351745
184.269842620061 -30.1656976495355 2.22139414295991
-16.8282728781598 -7.88255014465852 -0.679386080354332
21.3674698621477 -2.23362848971136 -3.96311468666977
143.322385211786 6.82435584822714 -8.1553576058001
-141.639383180747 -4.48945913944915 9.08157188222212
188.286458631488 31.9343040317491 -10.4605539643207
-150.776073561661 -2.98671147305957 -19.8436541588302
176.479738205731 7.98234345985854 -25.0632590576272
-2.88578048639761 5.88931315536135 20.0728281128291
-209.244274463965 26.0683590971555 -9.45533313394676
-183.300151528378 6.10351166803079 -10.2394115584631
-64.2191700957759 -16.7103023529169 4.62777535512053
158.578968130463 15.3460267152348 -18.3608817160351
189.788306498622 -15.3981645772607 -12.6256630524361
-40.6417219069535 -0.40071764036089 21.1916458124101
-152.533827604035 8.40401130585662 7.70070794451262
-212.328865649644 28.5236735033032 4.81841098355081
155.95023789647 -15.5708692457839 -14.1013509795557
176.832918999291 19.2544821111195 18.3826796245221
185.650302779503 -36.1527831631055 -14.158088669032
138.482498749643 3.83368447675434 -6.42551262862163
-134.192224371815 -18.6252159701212 -15.6869341539665
-157.247468029068 -30.4240653588377 -15.4634862420025
7.97016730000312 -12.6938118859773 10.7699218961936
-186.890023899324 12.661186053801 -15.082111688078
-76.3378142277325 2.55594781250452 -2.06992562066357
-116.880720868481 5.89063752129989 3.16816192951761
40.0846564347871 -4.47836861320178 -1.85661430021981
-147.577906063914 14.7491213584228 -7.6431034138372
-68.0217365667564 3.87351585882005 15.9479161573125
37.5795978440323 5.99848754054741 20.7375714130577
177.360802329681 34.5909564739771 -7.96130933223488
168.687673322725 -10.296268692076 28.3664425505583
28.4074275926866 -11.8531371351443 8.5499871294269
173.380856410053 -20.5414809274095 -26.8364474707643
-172.558456448491 -27.3139587363539 6.8618922691506
183.811026016686 33.2693774322611 -21.2971647179075
-150.212372555016 5.29332033537935 -16.4235100368436
-193.263906986879 -25.1221281626271 -2.32450909614221
-165.917932287888 15.9643318332983 4.20054425939492
-187.700014920634 -25.9097647126292 -21.7979052199877
-158.979838568296 4.88239689085198 8.98324913682436
196.912167301103 14.0437219388854 -11.9108595620056
-168.388471651841 -2.50654479086173 -12.5976722023193
87.4638184532489 -11.7328573587262 3.8492206053957
185.98203265474 30.3819391659221 -3.15224086039364
-169.662113074353 -4.2559397754816 -13.280779411981
194.995695974512 11.2493506648001 -17.0235494479766
190.867615426555 -11.3216585387339 -4.80272117700791
184.110267907702 29.5073778159179 -34.6940973222824
163.00067400105 10.4073322842603 16.9447907252267
-146.849721968139 -12.5010533090369 -20.4067688836957
59.8870663422156 12.4536293847859 15.8608239891186
0.380505776430233 10.31173148535 10.8051745602046
-185.057915966919 -2.47598138760204 -4.48711165717666
-158.753177799121 -29.3079040816281 6.2096971882297
149.553617085038 15.1175028591362 -14.5062521537944
192.765316220194 -26.6382344402409 -4.69978257177635
-181.05229301754 36.1822741682019 14.7833406816823
-187.333816495942 10.9347949004918 -14.3375776134945
174.338072839305 -19.2700860396336 23.0998842248488
189.99318305811 -20.4020410016551 -14.7338991422675
-187.99289366497 18.0950850138359 -18.0607712023096
-194.148922692313 -23.0665489677996 -15.4065731622766
179.214895463909 15.8356703364101 17.5047066372662
-134.398185038515 1.34960350606933 -15.4988451901374
-194.309519170201 -19.4752631509166 -18.4848240670122
133.187696500787 -12.2654060561238 -5.29315262270742
14.8980385635745 10.5591760278084 15.9374690123008
180.99845179467 32.4699535835149 -5.06406824018028
-148.335353080623 8.37571854198946 8.50613286029724
147.417042841118 21.654721515299 -4.9015192042192
-189.5392537701 -28.6093534894472 -8.9654942229329
-154.892995995173 6.45271519622103 -13.2178531275082
-93.7329568105838 -13.4283758432846 -8.55103462324089
121.721612959006 -11.8706997751404 -3.02089796855927
90.7359686089374 6.02721556678452 21.1277812152948
194.895650456875 16.9985162710197 1.74430148151451
36.7380735427673 -10.1324520383151 4.12877737124337
-178.168480675362 -31.5951297593099 -17.8538590827638
-85.0481011156718 -17.0663520759973 8.88894773343087
56.1421198571491 0.339497007263664 -3.86854361199995
-189.965934845282 -20.8636866701828 -22.9412747001175
-199.056748596823 34.0142556931619 18.6771702590359
78.9752692184821 -6.0376599469312 20.9816524534196
27.8079254166118 3.68809010504229 21.7114238883147
-187.15019475263 -14.9208722065134 -6.21372087062008
-115.385821072523 -6.20875721521023 -11.0843196461312
180.372692335705 -15.9818228915022 26.542909302068
194.425461452622 9.02868270122126 -4.45406253139383
-185.094384141304 -29.6894345212176 -16.9117399504739
193.43186711776 25.6321371474232 -31.9509601135024
-82.8818568697631 4.65274301739004 -0.0889841953044551
-150.452880995908 -14.5385446223109 -22.0642607493046
39.7345230760448 -11.6386476572893 13.9881809947447
180.086664267443 -26.9593777501618 -24.765827688654
186.587276463405 6.54596641519437 -14.4077176245293
79.6024464704473 11.5813644294135 4.52344499170183
-130.167895575652 8.58175697050049 -5.7057412171015
59.7920788736947 10.0337775229248 18.4873705833845
-193.244073322632 2.60396534112543 2.72704153917239
-74.7967544958697 -2.11405806205954 -5.88699908694618
-6.61164668194163 -0.693796136819357 -4.22585664197538
166.203721118315 11.4843479879013 -29.7975286949368
118.907581809915 -4.32731981257047 -5.37056699106188
149.937498991428 -18.0002617393534 9.49309389004033
-116.86629623064 -2.54364685109648 11.9009222078777
-175.079092424136 -25.9930104247112 7.62786634833024
-153.395278458 -0.209007615642497 -17.7214611202228
-24.3577485005129 -6.82556168363871 22.0289304343912
192.576602499964 -16.0603366176715 3.8450786124525
-193.220859381034 42.8953614097587 -5.58504426876192
-163.157837787267 -0.856352067953444 10.5232626691065
163.169148563754 3.29081693979642 -16.5220175847705
175.547542504264 27.8235207073677 5.00681389020006
187.917090364733 -3.92079671106409 10.3694213354803
-90.2732650579115 -19.6036358162168 -0.17447610092422
149.52374700444 23.0248277214271 1.52703210781939
148.237795247714 3.0612014034101 -8.70420600786533
155.680348493779 -23.5823091888878 3.48915578163739
153.360175938734 22.6394069187581 -13.8101118577914
31.5014863125769 2.83456415179002 -1.03397146238509
184.590916906316 -8.78633924489887 20.5768948768908
195.615734510776 11.8544585899545 -15.1099505027316
-193.83429145547 29.36309748774 -17.577865002295
155.917048080689 -27.1448306572629 -8.61672580106193
164.908675368963 -26.0223803512538 -24.9926979240403
-156.138053404905 13.3714885891216 -2.29553225392316
-77.2589699798225 2.75418877511063 15.2332954767426
-196.717398455199 42.2159814342978 -4.10194307387175
-193.683881941072 -22.6484263930931 -0.137921209848926
-194.366590086782 43.7477206955376 6.0979756751436
23.2747496788066 2.84523358556504 21.9176458413755
152.853421548864 -10.2929007919213 22.6949197231391
182.714583238788 -31.8593370418111 -21.9269035088437
-103.891546673998 1.20789105987241 11.7928971579268
157.027533601728 19.6719467961266 -18.3610099914051
-13.0399205841575 10.1389555790738 11.7742738598866
184.772967312462 24.8104295761833 7.90557030036348
-200.483369711207 36.5152781419468 -11.7219279579008
-160.642577308083 -14.1511419704567 7.99954698946034
123.896213807819 -7.62952186941673 -5.78596514526225
181.998499545077 -36.3806327298203 -13.3234376349731
43.6866334229056 -6.08655447720213 -0.414843628147817
-126.696495414421 -9.21396862068056 10.5370832535981
34.3282892022628 11.3259700579966 16.4925546332086
173.924356430513 22.7381159624977 13.2520523214016
-93.8679407728309 2.14461290787017 12.907611761006
-176.293979530309 -12.9407860610055 14.0651578839315
134.698449050795 4.14085640883197 -5.9055802562038
190.327772459923 -7.78018996292765 -2.03667768337733
-143.714249222087 8.66507844832263 7.44845536064468
152.439474024236 3.91523833123151 19.4247322450114
167.296514850041 26.9228548761825 5.81790368221944
183.522908335283 -6.20029277585087 -10.0777709686875
-192.202987708644 34.2021006003432 -15.5071117537273
185.010823506493 -11.2557431840561 21.6477627069721
-12.843733214729 -9.47288107212179 21.0114103997795
173.705580054528 -18.7808729981141 -26.4500283669302
-206.261870584725 30.9806267414429 15.2225046155124
177.468657984357 -2.23162921305166 -10.5391608545929
-192.699968760296 -14.8392615624271 -22.3909649207561
-185.072833859275 -29.0322198284657 -19.023099091731
114.54366437707 -4.06438677683234 -5.42735558426987
174.904628227112 20.1657837143697 -39.6432401782891
-126.187405057818 3.27602232749372 -12.1504290378058
141.215497399909 1.11678404204787 20.999624644243
149.343196077361 -12.4995730391423 19.5616857916504
-187.521982367217 -27.2745458350379 -22.5782744305016
175.686863348667 -32.9475426715604 2.05468653323313
-181.534205770876 -32.6600668550584 -10.2958795585591
-206.831575514327 37.2523730108195 5.08950183970608
-156.659261303261 -32.8510124781085 -0.230861587665368
-104.288716417547 0.302572049161741 -7.15611485330491
173.737551456609 13.4391128474178 19.3155219482445
-73.3065358131199 5.86906718021668 12.2945090622417
117.224719044543 -12.5257835571443 0.873682288551888
78.3037125686608 -0.962007219854645 22.6488389952794
-123.562459524434 -22.0271229908173 -2.56087869388515
31.594593143505 -6.50238675548405 -0.0266745176391646
134.941471820605 19.3768815726036 6.71472409173066
162.898904627281 -14.8603495971575 25.148042373005
98.843764536292 2.20530252986168 22.6144449240284
136.538774035299 0.497854651675323 21.4446605446269
-151.702911663512 12.6318250863914 -11.3434366336696
166.446914315194 3.74187125895815 -17.3011537084904
-22.1748493429332 -0.954497854581936 22.2775218071516
174.40446604536 2.40755467191158 -14.9061301480122
-186.028784632976 -24.5804118234046 -24.5210248537008
13.0910850887632 -12.1697369989425 15.8819520687427
181.567624486911 -9.16331020728788 -14.2962449823349
122.919336108877 16.4172675270675 12.1657254858761
-187.345259347846 -15.3674200867802 -26.7093998371825
-204.204930132129 17.0703030677147 19.1163570310943
-198.475963494824 42.0653730151472 3.89329952834481
109.502319873545 -12.3455829174424 2.49958672298543
-149.881379378474 14.0754940259867 -12.1615561520042
-203.479703827462 21.919140511014 20.3981050362352
-209.653825003258 18.1582370975047 -8.70113315897546
-185.346513861107 -15.4849704057986 -14.7326821525755
-149.735096469816 13.125882914333 -5.83175353886285
193.040290737188 9.10013500378656 -15.7296111436763
-185.337606773433 37.2059229185208 -11.8273375150086
155.06559921754 -10.9635175616887 23.4463548258446
-184.562998063728 42.1109033328242 7.61773360761668
157.266591998514 -13.9739276902269 -15.1463597659341
170.229074516533 8.55105349801043 19.4242465433912
-201.484311502063 35.4235918799622 15.6572542877655
124.604200863777 10.2821775022516 -4.50505894968679
-155.986263038798 -22.3814386565591 6.51193161869582
-119.715197001638 -0.872796312597113 10.9392037076379
188.083751317399 -10.4823986936679 16.9722624452094
187.202281862234 7.92161133325891 -16.9623552020551
180.772290850801 33.7955740092301 -7.17405915508019
169.931034825289 21.8859990353889 -37.0147704076609
148.759864537411 18.2087367087285 -13.9068265980986
169.895964816985 -3.79581234926595 24.6620595938995
187.582266494587 -9.30846387801204 -11.546974962155
-211.196530596654 16.012534373094 -4.64944495499032
-188.210497106885 16.2013861677926 -17.424019660705
180.542496171297 34.0265317418979 -19.4325129075126
-5.51219163967615 -2.90290729997183 22.8824921205618
174.346226824675 24.5878468527382 10.2786198220165
-157.363085620821 6.14455769562061 -12.4049808327059
188.41551470661 -1.85063536867096 -2.79809683603159
103.943002067037 -2.54808707411063 -4.85775268141912
-195.525165099425 -16.0921058843783 -17.5468407425658
-207.55560806799 11.5711936231131 12.3230403380876
151.03559498554 9.69880520324603 17.0523395850632
-22.4681752753637 -6.02909371627311 -4.60015203639
165.564459977011 34.33158800484 -12.3979609241556
-155.169083918497 -9.03425025340015 -23.9464427689207
-50.707156004753 -1.17359028949051 -3.29491297601834
-166.834167272102 9.85756050708588 8.6467156707705
20.0517455923596 -3.50468831915855 -4.16151120270615
3.85082107461007 7.80910983547636 18.9385379373777
163.479745550552 13.9892407458612 15.908309692916
78.5655534471629 5.74066108518649 -1.72146929413303
109.076853312225 -2.63304037689826 22.3097210453949
-162.712107048779 -1.92353646962873 -15.5717228958165
-188.043075197903 -28.7841492775951 -3.75115711720216
141.662021905442 13.2492680727073 15.2946106354567
139.457334353536 -8.00997763922362 20.4713053836876
182.585172227987 -20.4584038200999 22.0859452509657
-138.552396342916 7.05933962619639 -0.850014390417621
-182.492851408907 37.6176833217895 14.4856066868816
125.90741353839 11.8288669464988 16.7428063226424
191.887248684808 -22.9295433699025 5.20851818488082
-48.0332622852831 -0.840607162158651 -2.93019209184701
-98.1233693186884 -4.61673048035632 -7.97342587656624
-194.998423030567 40.6360368071928 -8.91158531493008
-197.859979325845 29.1506496383566 -16.8782872588122
-85.2184350129649 -8.21782146902703 -8.02286948521953
41.2555696186257 3.68608449060252 21.8151185225263
178.659296834448 -25.5748291861691 12.9161079072289
176.476325305025 16.088640717948 19.4393143964663
129.145366790059 10.6434749444185 -5.3495021142764
164.832797640662 -31.8284723684847 -10.7822219908984
155.023280764322 -5.81885117081303 -10.3545419826255
-201.723647957196 38.3057893658351 -9.05298642309852
-163.214162028575 15.3077555470979 -4.7681889271411
-183.293529231261 33.3092922202936 18.8233535902338
-148.481007322376 13.1344093354865 -15.2984475112631
-73.2908102064128 -16.5163366536481 10.3804791172223
180.459288042494 -13.5003923747456 -20.7215229328976
-164.95625821516 -34.3584976695395 -12.3194723434778
-184.959891916182 -12.3850641456951 -24.4352033001739
99.1437724002214 -10.2201406092999 15.3501895038461
177.927257826712 35.6936474878484 -17.7915226128876
120.062838020966 -11.0469817348484 14.4685776161908
-72.3054552710334 -4.00491093133127 18.7352700945757
-44.0300487894882 1.52754854518111 -1.02144083881107
-193.507377285825 32.5274395366764 21.3804621505273
-176.942060782194 23.1613567224535 -8.70936913954137
96.0409449994377 -8.26765976216867 -1.67508816241324
-93.6982284371485 -7.80741552426963 15.9245822922845
-199.610896855066 6.14695011307993 -6.46556418484523
196.134076828559 22.3100691798599 0.543724231358046
197.860261116134 17.1121350767979 -7.00544907902097
70.568725587166 -2.0121129516826 22.5246506728363
-162.699329948066 15.5035499296357 -2.8471963749816
-208.050796310637 10.4415322636646 -4.71980997337563
63.7224660227106 -8.97628059944189 18.774080135782
186.084673243175 33.5943444813004 -13.5716150815439
-199.047531224679 24.3855043912673 22.448144213747
128.542945701051 -12.0923059826209 -4.78275196399223
-9.33975821334435 -13.2627850647348 15.4931829395736
-130.111345382091 -1.61604972209476 10.4750916594751
162.107734128213 3.09808835162163 19.8119615788828
161.836352360892 17.6007741594865 -22.8378854194344
12.0539523808208 -12.1391271630167 8.77302099975009
10.781756380328 4.17404327177153 1.10129199958104
7.03007908913976 -4.09248151098098 -4.57004472160157
50.2583551986878 2.35153871637932 22.3113104677805
117.699003289228 -9.79743593351714 16.5829014178687
148.350162835781 11.7370601916876 16.1501605210969
-11.9100315986162 -13.2775057062371 9.36770898696945
167.839632485017 16.4218402663579 15.8973444352518
-74.3430578137605 -8.76388005177848 -7.9998065974039
-169.281339324025 -35.9564374852942 -1.13285172769991
91.8651813663371 -11.5969808071965 2.91805428274887
-88.6110802757231 -4.05635176541612 16.6131370266292
-133.76607128185 -22.1162485332911 -8.32340539776317
117.614623526353 3.26260575239266 21.9866261048813
-4.84373279669113 5.02800549834874 2.41647167081963
-184.955641020256 -28.0616121484198 -22.9620669342345
23.6471325727071 0.63060057159609 -2.97206991752055
93.9490148833238 15.4260512017209 10.2558023952529
155.127121124802 7.48372779715832 -13.2758204985059
83.2098802897735 11.4818782742182 17.5728054641384
-175.908137262047 -15.7232149202278 -26.4436226965928
-166.750050777727 11.7875811590241 8.03319697181262
185.887369239362 20.0711759241201 -38.4504077200113
-145.712475869881 -16.3037891039192 -19.1396782544484
-134.607296976639 -20.7880567739637 4.16483949448101
190.982132281127 5.37666655584608 1.21451721462915
177.01161695534 9.14420101272338 16.322148106319
182.137017958182 -34.5592318862506 -20.741373941298
115.416073032918 -2.15591914237192 22.3239881221414
171.038887930389 30.7129186467595 -0.488184028954133
-175.452116357086 -11.9584211656397 -21.748799473587
-164.716842637101 13.4113978591283 6.21211145287788
101.141964292711 11.4104768961379 17.7780796429996
-28.4228997899384 4.21901570742573 1.73806858998427
144.251356031561 -7.48678998340341 -7.34638299136639
-5.83116855862743 -13.4108694005329 11.9682974138082
149.08426691093 1.60988745769045 -8.69828874646178
-11.4922298207216 -13.5665542436875 13.8554780415415
-142.840733162431 8.88809996226412 4.2539396063812
153.628247930241 3.5570988747546 -10.8011711510724
194.183527727896 9.79048281282724 -13.4669450200923
-9.42665524100636 -7.06990100468792 22.1520301036715
68.5562339154591 -3.56502817655213 22.2652700037632
-180.945925658107 -14.1309869938859 13.9839953733338
-116.486867928271 -9.75392467144961 12.1323946686594
170.117221734418 19.3706115321288 -36.970232765943
102.80662673337 -11.6967181600907 11.4901528937666
154.976224013721 25.5961524238073 -2.59060975381654
-180.747496865099 -31.9387337674135 -3.49585496999058
-189.792262040559 -26.0118535400267 -18.2434662752249
-151.697299619852 -14.3422475019351 7.63237819418104
176.97704539591 -23.2046455984986 17.5746595530812
-205.579661154223 17.9220618142086 18.2405581516932
-156.856949972745 -15.6757876588238 7.55442812432747
-177.586905050368 27.3136815283364 -7.24218197451036
92.122879398626 10.4402006818088 18.5847399231871
167.759448355612 34.7587959084373 -9.64538830345116
-114.72639140979 -1.44380685344664 11.8589159769118
-119.460801376603 -5.64340643817428 -11.6703170026726
-3.33860094971475 -9.49401654194158 20.9014313973818
82.2449684225406 -11.6438853360525 10.701984976696
183.144304994897 -19.0260482727927 23.3895061546532
159.547001671485 28.6443292112282 -13.6858520278813
83.7662175730793 8.96982928486927 0.913725805155082
120.654446159406 16.7055955812659 11.5059584329634
146.675279954916 12.6499794119476 -12.882614761783
-174.881591349956 23.7797885415366 11.5127034165812
182.321269900435 26.6995634585852 -39.6249328273594
-188.886559544025 -15.5386302510154 -6.52620584868397
-200.781494871861 9.13812456194689 -12.0963041782294
-186.344875546152 -5.24903857368497 8.0733871829517
189.584804929345 2.01690067353272 2.30104902759898
-131.346418641077 -16.2426081902038 -15.1238618790512
198.233466477298 20.2359025027318 -17.6523377178823
-139.549060163958 -3.15073276046544 -17.3049492311381
-175.273578310536 -7.05480669636225 12.6440224700592
-184.250412988008 -18.7700806091236 10.7611478755589
131.624326870717 -12.6505299041797 -4.84218645980198
-75.8022003244395 0.299113946489979 17.1490800952756
186.593815023633 8.02287575145988 10.3920792819954
56.4440682623272 8.60354124182386 3.85642018045757
169.327010969023 36.3895496515876 -18.7771436608563
-174.558073923928 -27.3184402344573 -22.4771102362995
196.506612495293 25.7413170439871 -25.9453527177127
168.02723320761 27.7747892703359 -29.1541983953363
164.753031789819 17.8641673111669 -28.1410920873268
132.824109327132 -5.61900427517663 21.182773338081
-10.524912126258 0.438397461323272 -2.1468720992053
164.425675287126 -22.9267094212486 14.9373311526839
-188.599739469487 42.4924369593104 -6.00300784941393
187.273803004581 -35.0799005858291 -14.1025352948417
-163.409806589832 -4.20252405547055 -17.8629548707097
100.272193859459 7.11567337400084 20.5916565123386
50.5722776287478 -11.6677206375233 7.81553278012653
-59.8031860757386 -3.11456659184311 20.0980916118771
-194.288620487333 -21.8883656056381 -1.64842262139515
-161.864350455767 -3.6646294937519 10.7836846227533
173.868573207252 -8.4906287764909 26.810382864852
-165.720763263623 -3.75484779372785 -14.651893904878
166.333517667042 14.9905110134977 16.0185852007771
-108.137542982013 -9.40042767045533 13.5466162332864
157.650213183788 -14.8499617016156 -16.8632271735252
-211.06227999121 27.9036401455514 10.0639717995163
-191.925586925314 -15.1043569761072 -14.2887605501373
-123.830267236323 -12.3084093482392 10.3506574380158
-178.655440044002 -33.5559548153173 -8.12544028712407
-195.02337456587 30.3067283107784 22.1832173406646
166.661206259627 -6.44322066466085 -17.3992084435427
-170.734309655409 -9.42800338180717 -20.7849608951365
-167.369705303375 -36.7040902137326 -6.56863378663493
97.6251162313074 -12.2969725667898 6.99975563359551
-192.312978289592 -22.1837885531845 -18.7464217042484
192.167081860273 -26.679990077012 1.08994232847066
-188.68228996702 -11.112502311521 -23.236311566587
-197.201506364787 38.9376722848884 14.2879295477116
168.237174556558 -5.54665930984651 -17.1889489580242
-192.065224112703 -16.4412824978 4.49470426610851
143.265006643972 20.903439729314 0.413002020384973
-208.638275282986 32.2363928086594 -6.99556547599858
190.012282690286 31.2673405213869 -17.9084878899567
154.160445716685 18.4808651802047 12.5107563196237
-197.831120739983 4.13797145302962 11.9101324459335
195.094494032714 18.8727661191089 2.23577492665409
195.390960686608 13.6757342977506 -0.769723922139175
-71.9868957137337 -16.3558554235329 -1.77115195018337
159.388366211929 -12.0143650771665 -18.9437245554992
-202.800274946745 12.8042122721417 -13.0075288593354
-114.610440644831 -21.3935400998654 0.412814499585613
-200.92343661486 39.8594357281082 -7.59995637360461
157.753097972223 17.2320481613869 14.2408809578642
32.2696039337414 0.976051008054581 -3.46264048865194
165.972354313939 -33.6268617706046 -7.14381457940691
126.81638756538 -11.7803884793341 -4.73910288781775
1.60271883925597 -3.94266555720142 -4.83077000790333
-43.3926584239529 -0.262207918172545 20.9984164586733
-171.13208397912 -9.55882578834314 -18.7905556014159
40.4274189601566 -11.9144182604309 10.9415313093304
155.211283525258 -4.39411754292179 -10.569669367429
-163.37530010451 -29.9614362883411 -18.7663116138622
180.865648648882 -36.5162724554377 -16.9072850417189
177.867805749105 -16.0444026240712 -24.6492399556232
193.859149856891 11.496351115569 -22.7052290824635
-192.111343445574 4.28389096859966 -4.2616260444448
46.4706314383303 12.5157594870677 14.7542533645815
-23.1228739621626 -2.57253930295548 -3.94018470473586
141.914780570808 -8.76048404562408 -7.06657967081355
43.098608613968 11.3196505632112 8.93341309390236
-43.6074596433566 -13.0855796476685 2.01133999052794
-157.671442187648 5.96355525558835 8.86736018483174
27.2500463916926 11.3242961419111 15.7012374088539
179.424482472328 1.60157098904119 -11.0461005677287
-185.556708355902 -5.22874218976789 -2.46533057970169
161.603118382326 -30.0646556631431 -12.47407758848
164.792006647126 -5.36242296676193 -15.9973742133309
155.30607317688 21.9719809346754 -15.9112299077037
194.291452741691 17.9630287168161 4.23345721520265
146.426715333692 -12.8998987588663 -8.61276096429476
-137.011824829831 -20.745367792276 4.56838180296942
-150.752632656652 8.2926659621724 7.49164610497879
-147.962611156495 -0.67273596759746 9.79198683964507
142.92203143128 1.17903469624058 -7.00063107987666
6.89764102612926 7.8066266151496 19.0492860295882
15.2545470593891 0.234130030241109 22.4235701222597
147.636614320122 -2.18123904993109 21.5963312224364
124.342772749471 3.39576855409581 -4.97158936315564
-3.74560679789065 -8.27916637342688 0.976141871260809
170.650335139195 12.674981942171 -35.3219426958983
-115.373259757056 7.62381928738185 -0.709155752311033
175.711819364901 -18.0344641339648 26.4219210251134
113.005498408876 2.66150487393261 -4.1983382864417
-126.08050087197 7.12745580467335 1.04001763698222
-123.817363238885 -5.39213035229074 -12.5998877677863
-191.66319308206 -27.6320958591503 -12.9500557600306
174.843471817926 2.21174852783982 19.1282797704725
186.272315380531 -4.12255548032258 -6.7735178377134
192.998594483177 -23.0442038253399 -0.879881694639338
-166.615477138141 -27.5692792314238 7.27390730779575
111.971072589813 -5.45600058540823 20.9633101988176
-185.943028881915 30.8861184156923 21.280182703743
191.405943708495 10.4223469588783 5.95989702384011
-157.692702048855 -15.0188551848939 -25.7077622531576
150.335278032765 10.9041140452067 -13.3341920164869
179.621064281035 31.8599926489626 -27.8128509143111
170.428696062688 36.1458377033477 -14.6535763005093
136.115677095899 3.49374723149667 20.6127999842819
-153.743437711859 9.29639227486997 6.84757742082845
-162.398608385625 -20.3234215437418 -25.8169933158655
-39.4767662207102 8.03669493218361 6.49798183844981
-191.969280231843 5.31267279505883 15.3998234502202
79.6190497625983 -10.9838638625959 13.6998009116946
-206.3278223062 23.4619460514391 -13.2699865308018
-183.035602849531 -32.1023567387886 -9.22126865303011
149.026261247378 8.23678050716578 -11.2505421085612
-154.765132692779 -4.06445321182538 -21.3671982493449
-177.04893393455 35.720554259809 -0.171705218557072
185.977289985946 -19.92717204742 -20.5483689598023
66.880408874851 -11.191051014136 13.5533825213058
3.14636330623933 10.5305156430303 11.578575593401
112.593853917242 13.1826400468085 0.180981209457176
-80.5236489790037 -4.47544064089776 -6.72181401290572
-190.389126889986 -22.7714004706341 2.62892657386102
-210.736872859031 29.817257806235 -4.56195563491769
-192.014415133645 -25.9969324807845 -1.55716977016777
-178.845411544734 -17.9835375852828 -26.3102278914907
-180.821276029257 24.339309542523 20.4946171578954
119.897226277394 4.01538566620372 21.6010383309736
196.437487413364 27.8666619950729 -24.6962690094118
-27.1279233273341 -13.7846881424265 7.65324609789434
131.386999545149 -14.4335741924669 -2.32545643187655
-135.396242278681 13.3682393663978 -13.6286003868919
84.3138911994248 -10.5633739525565 14.6313994003418
33.0562946126259 -11.6939347301413 14.3947922898203
179.749942822855 25.3511455398636 8.33427498392345
2.37663562879655 -5.1261506636046 -3.82971566744611
-66.0921825736362 -15.6740178666081 12.1872023508534
-181.421055051831 -11.8589122272341 12.5374954347546
47.5784601941377 3.65045998058411 21.8918346166903
-199.624771272034 32.090385347707 -15.048873098448
177.520261653185 34.6285821425128 -20.6858282860179
-155.458451179316 11.3090300403752 3.20963282527205
27.860956489669 -11.2177003265581 16.7990925592728
188.003120516452 3.31615141225621 -8.35614331092209
185.075899087652 21.4365071824115 13.3568187620388
-116.908478904375 -20.8749450028852 2.32255721924488
-149.363476328779 11.5957384444665 -4.21631621726122
56.7018604710198 2.18244139741681 -3.6490864043342
139.388883784394 -13.6170013625496 13.7623273234445
-161.763223777145 -16.8622391892435 7.82820210447305
145.237286139435 5.24414757942467 -8.25294902217185
158.329136643221 29.1798193671156 -18.2840871212558
48.0544378650084 -4.34544083387063 22.5071679552785
169.980214326583 -33.1193162542187 -13.8318741800741
178.581695979397 -13.6616249301417 -21.3718743064948
-70.1980507678657 -14.8577546358348 -3.73350130462465
-119.124143114803 -9.33402681623724 11.8225392159044
165.90182893286 31.5101462219839 -26.2534897567935
35.4218328025296 -6.67164687406551 0.149694017872456
146.142466767686 -6.62796180681616 -7.61041089660783
-184.131684800158 -4.20818433329121 -4.08310528897522
-179.7408392721 14.0338198222586 -11.929439999478
-185.870977043521 11.8630913854053 -14.0742875524806
104.195387443422 -0.603839042283667 -4.36195482892403
80.8855749261308 9.00122594318679 19.4268964536803
175.009882037111 26.2179972028181 7.57226260609592
-175.565399519473 -3.39293474018155 11.3660372923729
-177.599571677765 33.7865463917637 13.469870681601
158.92102125241 17.8914169747572 -19.4332977600042
-172.2348136287 -36.2749061352289 -7.11927946883129
-119.075792161902 -14.2843953805533 10.0253890844049
-98.0060349800737 -13.7048987009106 12.4531739219597
-205.259528764886 39.3590883921506 -1.82513254579142
165.374579875406 13.3486318528927 -28.9676970758978
-160.127170622001 -27.1364716274274 -21.2502137621006
185.886776141796 2.17370120437488 9.58683940019814
-46.8239887051688 -14.8225553496492 5.17233433041
145.815611803879 9.49061395938904 -10.1545027945927
192.268859525525 11.8130211056123 -27.1403345018577
167.918521411446 7.34402249192979 -20.5624854873056
-206.813203236621 15.677744922919 -11.3810873509827
-129.365224902074 7.15007456759594 -11.4589245254363
74.1037326697447 -10.4162779526255 15.6463473138273
194.729223890672 27.5673283893172 -6.0705034659078
-119.289710462125 4.66203175486819 6.66524961535348
172.870183844507 1.03359843948115 20.6740809548925
-18.1228045692448 1.12980634466705 21.9111281844003
-153.34503087457 -3.16182615103941 9.06757752159453
11.1323351890961 -8.44298528600557 1.60462787913425
-199.798305158175 43.2510013803596 1.04659957334819
168.663436622352 -35.8438653549995 -3.53974043373463
195.709839118366 29.3924576630244 -21.912635361295
173.841690454795 35.8848994257309 -17.5478178060549
-162.146145355762 -29.3772835526676 6.96297261664902
39.1618870242871 -1.98539511913501 22.8785775011372
187.1409134084 -21.4683616867346 17.8964112736368
39.3254914860455 -3.08462873876918 -3.59348409816998
-10.5547707138519 -6.80857386896412 -1.41145357454378
-124.121162377697 -9.17145325987479 -13.0105968907932
-185.611419652691 34.5695635795659 -14.0279572375871
182.414272570245 34.0237935053991 -19.2914248482305
-0.205225506252883 -12.4273441665754 16.8939724784742
165.733857779327 25.9818441602768 6.96081451221987
-6.70506944086722 0.271167482440975 -2.29748065968021
176.089925306307 -13.4554254525613 -23.6705687361595
-67.0542793696727 1.88547079665967 -1.87116228536045
-137.201860235132 6.48593260670456 5.01891982767695
188.797957468748 28.8116061962469 -34.4603388651973
-185.336605463369 -20.7852845062695 -27.3281659038169
162.219606747763 12.3166523208698 -19.5322415468566
88.199372903724 14.8621350423195 11.7123998032438
-116.8148089628 6.58397982749831 1.28821270976296
150.66416150885 -3.64678705174355 -8.74715137799428
194.125698176946 15.958191840089 -27.7188892691774
166.147235479136 9.64555452781352 -22.6954612921497
166.992310503179 32.9955081618372 -26.2972089810959
175.373008801305 -33.1340044926202 -13.2676618667075
-166.683752190601 17.178151372675 2.76923535402847
148.737786495463 -19.8385339763582 2.14265336215486
76.0156320718128 8.89831133993634 19.352856799564
-201.711869660943 32.0649467513473 -14.0694020064831
194.178913472783 30.3108102374206 -13.6961972677638
-32.4043878001337 -8.25303688639596 -2.95174046281267
59.4783741332873 4.83886864209266 -0.244211451346588
130.142208676269 -14.7217469548222 -0.461584107340522
18.6768084551013 -1.19809764555445 -4.00459338472678
-159.796071268344 -24.5068421283795 -22.9463676335226
16.6302662291399 -8.40596721221812 21.1639594214304
106.679497824829 13.8370615898027 15.3493617584136
166.943283455496 -25.9972953648507 -25.6512976187448
35.0529071775752 -11.9571670159889 11.8650349869175
-192.346489690518 18.5693621755552 -18.2001730994109
-33.0550162765698 0.735426520204271 -1.37904696013298
165.648236232075 24.6939594344182 9.28319698559591
19.961153844644 -9.4672146030081 20.127274850211
163.080785997938 -29.8244419281148 2.873820641649
72.3687789161383 -11.5794323336217 11.5176930088712
-89.8931774284174 2.77810910838883 -3.61092700377437
181.345384930828 2.02652017747905 -9.95168465187856
177.523737889781 -34.2632497008094 -1.90503139277152
174.143948295789 10.5316679021161 -35.9017069024536
162.2646393474 32.7689602889276 -18.1080646603524
166.989012123351 -32.6242508652241 1.28023112013662
-147.133590584377 -23.4914788379991 -16.050594487865
162.225601770516 -0.397997235285927 -14.3528467210259
140.213090384125 -17.0716460635618 0.56041007639411
153.150616004532 -9.44864931415433 -10.1737857627403
169.074484263806 34.7066258834108 -26.0925195335741
64.0406545522028 -10.0998675570799 3.10158353107804
45.9233248104478 -11.8508248579285 10.0740021735103
66.043026311917 8.48008817825058 2.8482263212938
165.411576962174 -31.6983571331227 -15.5828985336187
-159.765086177728 -15.4805983173352 -26.4081533094135
-202.639897198214 38.847627793679 -7.61254617846792
70.9967382342108 -4.87678119412889 -2.45700056149701
-177.100596768956 25.5522134471833 -5.5144466435139
9.27431423691331 -6.98996149473357 22.1272632414265
166.897314075598 17.2448795957887 -33.4637016671068
-206.149270237464 16.5823331410978 17.3618805908937
-200.837496669448 24.7913858284934 21.6562490394078
115.937483044356 -4.64653556624002 21.4534733374012
177.998930634702 13.1468361759154 -38.175467450038
-148.341076724236 -14.7023252870327 7.63838269232514
-195.654547248928 43.6143623868002 6.83308090389183
60.8562665894274 13.2638657934264 13.2836199047725
42.2447288450285 12.4405758213858 13.3793967717915
137.622054162201 18.5758745490773 -3.4452138601437
-196.151710877627 20.5661213275277 -18.1570310129163
138.951502873554 -16.0529846165659 4.91353048622343
-189.252375448347 42.781515986894 9.27217207960783
149.376480099056 16.1973788268083 13.6055733577684
175.869649926393 32.9725048529282 -3.95685446320519
-150.196592554252 2.77383760158667 10.0848619632433
-144.813136068207 7.88944493150758 9.15687590670866
-38.3449875569897 -8.92013087310404 -3.11529303612547
167.483479243233 8.52754772068148 -22.0149887832347
-125.645219646513 6.92361197408623 -3.41689752320224
184.922220146454 -2.32134377449434 -6.35147741281764
21.3375518771584 6.4828631073282 3.63833005558864
-186.555762677121 13.3059580580748 21.0018749183326
171.344018764819 7.03495333323383 18.9152265111358
153.083938660737 -20.4171451814925 6.67192365674618
-63.4901634795435 -16.1017528272184 11.3852285698651
-168.934465750643 12.985349410317 8.45617049264687
-166.526116337627 -7.48338404179597 11.7970452010705
148.203594655023 14.132219874694 14.7376846723263
-130.625671159137 -17.8619864623748 6.99803728961145
-125.193208393728 6.0589056629762 4.52652649717621
-26.6342606808986 5.95860800376364 3.47082454199475
-183.200805371426 -30.1632101510206 2.33006172569648
-190.604436749693 -15.6187753995428 1.05466997384432
-61.6122908947315 -12.5672321382933 -4.79325172731561
112.72239782285 -7.08309207152248 19.8231493444082
173.500604362207 17.7988855251084 -38.724426380021
182.434463147433 35.3420496415124 -14.3816186469883
11.268202174591 1.33323494018005 -1.63035006505655
21.1767284238682 -12.1928918655106 14.3267719400544
156.012161608057 -8.89113329603368 -11.654424519845
153.533325171543 20.9197783593124 9.1993604484251
-136.578148600197 -3.36828081754861 -16.3183755788901
100.58351477188 -11.0181905683052 13.5444528677533
63.8401329081794 -9.99587690015931 17.0186778948386
-91.5129847150368 -8.68947968847603 -8.50901869876268
-92.7503695620404 5.96579471488934 5.59530443668357
-192.604098115787 -12.811436925483 -18.5436719158744
-69.074177041521 -17.1874719659936 6.73110836416221
120.623026412115 -2.86442164155527 -4.98833894201049
65.634920985701 0.934746451712007 -3.83484678485659
-161.590277182459 -2.87726406108687 -17.0748770279122
178.701427186744 -36.0278976671695 -19.4303908951027
65.1150581791106 12.4649812033021 15.969080378044
-195.245213181428 18.3916986247691 -17.8794149136739
9.23625095552417 -10.3631791961324 4.27911515518621
-130.280806359894 -22.8287750033415 -1.6793587896304
-49.3783534567401 7.8831528821134 13.7330423067347
103.069974165983 7.78850570978633 20.2228111779134
143.234106279817 -10.8632580213629 -7.55391913370985
178.260057915312 8.32764316500974 -19.063092132914
-159.810618217046 -26.4378877315777 7.36450718516569
-79.8310116352435 -2.2199209777035 17.4770908329383
176.37419860866 -28.9177908365915 -25.4994364245526
172.936739041578 25.806217399326 7.98940346128226
138.256380887731 -10.4946193743646 18.4680808401907
-46.3521035760839 -8.01153132972455 20.5568550697675
-153.105495853541 -17.2374457737177 7.10754122143199
159.419677439912 -11.3170940029212 -17.0456794055715
-22.5101370099977 -9.42539589007588 0.726789320116609
197.821349899792 18.2330226097308 -17.6983498882473
156.732326504025 -16.9748975567165 -16.2411539832261
-192.947201685089 22.9531693774988 -18.6773632971925
-159.59217918139 12.1067113949754 -8.83297919758955
-145.888104708544 -0.236023702933365 9.70306682720313
-206.666594404055 38.1285130523642 -2.07972045846597
-188.689713300487 18.4235326872683 23.0861922508529
-212.913045097739 23.687814246563 -1.84642225698128
123.68157635226 -4.63659962359751 21.5348819233756
118.054215560353 8.49596516667559 -3.7105022953629
-146.618831190864 16.2575749381449 -8.7297493616508
162.086788888504 -34.9252481554195 -5.13883539161814
179.717144919107 -35.1253975259872 -20.9743007573565
167.395635582495 -30.6489706086154 -19.9162676779809
-40.3570298464294 -3.40571355638899 -4.12646359046384
185.7099460485 7.54402012144048 -16.2441777629167
-58.6384098398836 -16.0543287274511 4.75193483136216
-208.186624441559 23.8970546739178 -11.2779874920791
-195.022381982344 41.8186459468324 -7.2612860308987
-186.251913134039 6.85681113900569 -10.5472255258712
189.74317609178 -5.17903863491686 0.156081607302418
186.405763557938 27.6341864512824 -37.3472896452291
1.84625698709462 -9.99858845546686 3.3871612123374
177.168174948974 -34.401503393137 -16.7496213016657
2.57220326852759 -1.27768727998323 -4.04706848717829
125.149343177434 18.2392353175892 6.83067451704938
-96.1456461698306 -9.67951649489964 -9.33846363878292
183.581340781721 34.2253707084666 -13.0429273889069
-182.925613542646 41.9462452583688 3.08464860567334
188.856403978846 -10.1714897323111 15.3074026803691
-152.404179008776 11.2368516735777 0.182499482788699
-81.4856600916099 -11.8300596561758 -8.59000392082813
184.409832909778 -9.05258286388117 -14.4676289448555
158.097666807689 -12.6012363585308 -15.7330726499561
-171.004289841281 17.2528863321514 7.66243043170501
-210.275809873051 13.6655670789443 -4.34545737685071
-8.68826987688306 0.534129871676364 -1.9484930027001
8.18727019796971 -12.387785740829 15.8089144845782
-157.142652918512 7.81673864429584 -11.7075710958507
156.259938614504 -22.7248174690175 -14.7865166746861
173.757134459262 -9.3165182893678 -17.9816191005018
176.081243348535 -5.46595813465744 23.968540651883
-197.856655315937 39.2926683566592 12.8452342375026
-210.482937236158 15.2550479349071 10.7105548010387
46.2552318502941 2.08590744840185 22.3861473300281
-19.1590560791395 -1.02009805056372 -3.73711898033219
51.8500919484455 2.79082406473676 -2.51311194693889
162.004672355604 25.8318055965991 4.64074284959293
-168.584635203598 16.8126142734591 -4.71858320899422
191.392358780057 -31.1053380866276 -6.27512500880626
49.2027937817013 8.75221727038166 4.6241688556843
-164.45255245276 -32.0049454372783 5.04747425813043
198.316460828598 19.9140553505023 -15.6819470800258
-111.195641051652 3.96828983322494 8.10023537448201
-35.8735342396758 -7.09905380889295 -5.07199251646479
-71.6734202252111 -13.763079493621 -5.6046230900665
150.769478913324 19.0115389670893 -14.4853061930991
-129.025220391852 -13.7222868365464 9.36817312556737
-178.419158392761 38.0285606771712 -3.62077420301928
-168.789944726047 17.8984371785006 -2.82652190450884
-79.6109659017424 -18.4957753833299 2.73951941531588
-196.66603394108 26.9468281333752 22.8410011989336
-186.836056140989 8.29480706432948 -11.8502756659693
187.137939838775 0.201126821361377 8.55564143063442
158.399186570808 30.1694643505871 -19.6841432538648
-185.845207945961 21.848929318024 -17.7199724956963
183.092302990162 -27.6593540600286 7.27951076546613
-33.2353549875134 -13.1402332664838 16.7942600081252
86.1743115588193 14.5097712365783 12.7752803635306
-186.096855478957 -12.9051562670303 -2.59224603435549
167.598565498562 24.8990559451492 -33.4584508089833
115.627574330886 -7.10088077445794 -6.16508821280596
130.256585432478 13.7764390372494 -5.15365332350518
125.381887847637 0.898261055632009 -4.98649362311222
-10.7305153726403 -2.73374658121666 22.7293207227578
-205.203096811521 5.50034819435794 5.22824258673124
163.896884902447 18.8793961100101 -26.8376568415361
19.4929196670573 8.10975010332557 19.2228218365857
-36.9158166962233 8.88179994480463 8.86842169843019
142.517914222437 -0.145053089718751 21.3038578474544
-190.813469895652 -0.438333218924607 3.96020020341622
-207.333507339572 13.2585072915016 -9.32255811754433
-190.430817380438 -28.6511572093885 -11.3192157449631
17.3288415534779 -5.22693902695278 -1.72732291451736
-6.16722174155135 9.11033682968687 7.70756638696196
-199.247584328082 22.653200698501 -17.4595425766212
-82.1652624331679 -6.09713313324259 -7.10197572135307
-176.74519328262 -33.2923526329785 1.7019399250216
147.84367703813 -17.5923717213352 -9.86529798414666
-137.75141104609 -17.3315565034489 -16.4845492684066
-132.839463732343 -18.9693200670596 5.93184728040225
-182.267825912174 26.5353508347459 20.9664898044916
-198.111229214773 40.2272597921958 -8.64047648817771
-177.795324010833 -7.54083772762571 -9.37267045187812
-195.109309556954 5.86838982338781 15.8175707965498
-126.928162754112 5.88092497326039 5.50382795593178
-171.395813151238 9.4662319692641 10.1707352678438
33.8672689849995 -8.59849978706212 20.3058058640597
144.635457179547 -0.154029870766214 -7.15982561169043
-177.233091085356 -28.008669853303 -22.0913696714881
47.6134891048157 -9.72487347918167 18.3476241687592
-137.724934325871 -17.249467094176 7.58500597942265
164.473786359482 -19.5804154386473 20.8789770340523
-69.5089637368293 -8.70424215945717 -7.48184802767518
-175.823749891325 21.1738621643192 -4.70201121101138
189.956911791795 12.7267424555695 10.699284219046
153.300795340989 11.7041981197122 -14.7409973662386
-135.373156685997 -13.6613644951892 8.62594331449036
70.1518416046112 -10.9026383490541 4.25510823825611
-173.061507666378 18.9468500160906 -4.60821171379009
6.01004597200506 -12.3213806475757 16.3741197916617
-193.935140193495 20.2506355849091 -18.3758009847767
-136.581957872407 -21.2615269258911 -12.4829653469412
-128.281346543698 4.19031018800512 7.61052133139024
149.944848300151 19.6450858963469 10.1289474693375
-174.586662825243 -14.6216571791638 -26.0066276748305
24.8834826779522 0.443268874555278 22.5591768371934
88.6721325423841 -12.0817144964867 6.33558693913863
160.080761956203 1.99282541263409 20.4408138150739
195.026027446391 12.9449039365521 -21.4413908637724
189.563763008246 -6.91165992047508 9.45171496636977
-59.3770435321991 -9.12523187984586 -6.92126460815321
-188.531975684583 -14.507687712951 -2.1661614070287
-112.17039906632 -4.1532239733089 12.7547634159709
-69.8651188892257 -11.5066171283025 17.0412996972433
75.2767456169697 -8.2737734806108 19.1666328083028
-189.814165578895 23.4387294752664 -18.5737545543482
-122.829647715866 -20.3260780115032 -7.25005681870037
192.880375192694 30.3720982143304 -22.0540532709893
183.699104602978 23.7185870401278 9.60677561277542
88.6236244185694 -0.596800961224346 22.7588383958631
-193.434685798635 -18.5767714371835 -1.49624224220091
161.310154303032 -29.7410100639306 -16.8511383515944
-189.137859328673 -14.4904693672527 7.65249057066406
160.808299839901 21.9758159839293 -22.7908390383577
-45.4693680993115 5.19395671150723 18.1951398350641
-10.5221338957165 7.89844946399969 18.2881090511639
182.104925442764 -27.2941819827825 -23.6560998370049
145.11958384368 21.3933503130784 -1.07075888554602
-191.234274502282 3.08815725879724 -2.39316836073035
-191.96836306035 43.0303816750957 2.02515745122899
-203.583986060043 31.7297918815469 -13.018969703618
-181.33592405656 2.01584103921246 12.8701357575127
186.744048999683 24.3841504957391 7.7688838230152
132.15289246795 18.4671485087809 9.02039027060302
168.072617074197 35.9975698253633 -14.7240549640384
-5.43030546746684 -6.01543816001124 -2.20697191993501
-178.678190405963 16.5665904706889 -11.9829814606966
-196.44962921485 37.7682411995355 16.424171579041
164.918921802859 9.81722021010249 16.9612863394976
-133.891320210486 5.17205980476183 -15.5689087293371
-7.39020516535024 4.37828574869977 1.81533488708101
-177.471278224832 -32.8108326235766 -15.4342104825255
-82.3836390769386 -14.8128767653737 -6.06233114914451
-147.231448173563 9.38169254184318 6.96982601984975
32.0625959147902 -2.44205204379695 22.8823003151914
175.06405930588 -2.90546597656559 -13.6031586724318
-27.4407035934136 -14.2129587663241 13.8594914277358
155.901535911287 -24.6365159210778 0.904494789502459
142.367638249362 -17.2434721636805 2.8036363098401
-155.656734525583 12.6514471407195 -0.311170562456907
152.002923081666 15.1755945424056 14.4846546371404
174.665891389631 -22.8814731045384 18.2630566026987
42.4402180506055 -2.6428450443725 -4.09850932519841
162.512065192301 18.8388779785134 -24.3152838228256
113.10417931295 10.7191760898679 -2.11323718344966
158.30250461031 26.8198438454443 -18.625755116218
105.9383222404 15.2467688941636 13.1800830063365
178.038945271502 20.0598813127328 17.5018757774855
-14.724693073471 3.13473201137595 0.763868245702002
51.9038942203645 12.580563370819 10.5043757138536
-119.20036895649 7.16679408076338 -1.06671479490722
188.439571902364 -12.6185141010615 17.7728464323263
82.3685129827146 13.1190592197012 15.5004454418336
139.626753111464 17.0320890389699 -9.29977116350702
-143.878963348758 -9.96401080750165 -19.0377603422502
35.5713951712458 12.0297337212377 13.9127415882994
48.057932333352 7.50772953676717 20.1030981308139
