194.207550966153 -39.0715203639645 5.93782172655702
-221.610903937432 33.5796456275668 15.4054708059472
-159.161755041625 7.06539987827128 -0.128337663986847
122.517351326473 -6.00233594541841 -21.32872655534
-26.393635267383 -18.1464232589606 -13.6294961243288
-136.322302748082 2.54289319525942 3.71019402982996
-162.903427696092 -9.05705762183222 -12.0608826494972
173.890255869628 -19.8603532965176 16.3105111262526
65.9919379217081 -6.8379531652526 7.02893093576378
182.744397649309 2.23091996975221 15.2164456043398
211.928092961641 -36.0392224477808 12.2362965053907
-212.032375964627 -21.0935924675534 29.6412000385222
118.997081970869 14.7405766553161 -1.65439170476046
115.188120128012 13.0820700010573 1.61187117679743
185.030886974754 -23.8648752223266 30.7910807715489
-213.977525865368 -14.5499927285145 17.736743533651
210.75935143859 6.18696240563809 5.3438200204833
-186.084197134079 -29.0093006839522 19.2581999372267
159.638412169949 1.73233716576226 -20.9107977897867
190.922868578037 -11.3785185297966 -31.3531807198502
-176.037735683764 15.6763752715065 18.7728737279083
203.676297686275 -25.5565180622888 30.4131318408921
126.822509311297 0.803550345672172 8.44111079175716
-15.8209444301747 -14.7794269610059 -17.0165974814296
101.587654991909 -16.3113124317008 -9.61361446028063
-116.228497047221 -0.0714647813131444 2.8862508877512
188.040833681413 -14.5160408267258 26.370660079995
99.8703354673042 -16.5316308273296 -8.23198283900618
-178.370514507096 -14.5747756502542 22.4895848769086
35.4280685780368 -15.2107774581267 -12.7965598789124
210.870902120441 -23.1921864290948 -21.0635330373566
-60.4219288366957 5.46473226117288 -9.15510169252791
-229.317910953311 27.4813845875917 20.6600127346024
-255.829130449224 12.4187019950205 0.508844645899686
192.320326349546 4.73533155938302 15.158703719173
163.997720641784 -26.0783117699099 -2.04088630502204
-203.773232033072 13.9979621667372 7.70133127468226
-109.59945280292 2.44276040339025 -13.4959015804708
148.499324868401 21.4643648482598 -0.948715299803216
-107.120955101429 -12.9630045027918 7.38449622632297
-113.960207192768 -16.8320169038237 6.43071051599927
172.398736457451 -25.9150802669153 15.7199596911744
196.391428858137 23.7851321412038 35.2716993488311
60.5334089077335 -14.3488042569304 -12.1951234727117
162.406905836839 -20.6263083428104 -16.2411911219071
-239.235892017762 23.5925378975722 -26.9834502556465
-157.662333509014 5.07023015749306 14.1464698597062
-226.23987495704 -17.9713610111994 -1.14278688834291
187.130382079669 -10.9679898242932 20.4092757845481
142.948632345814 19.4617112763454 -3.64911402061297
-168.904826901307 -9.01286018472734 -11.6224077690068
203.336594123346 9.03631170064928 8.85918961079697
149.680267394122 -22.7672524065427 4.44966906100163
-229.706746406261 -4.20541641947168 -2.25761765305668
-229.043371517912 -16.0785560316096 22.137949482024
-107.538944417362 4.55872737858329 -5.27314754075211
-201.102814432924 -13.622965951679 -12.330264906863
56.1790169358246 7.44378346035306 1.99028422668574
15.5732718162823 -12.4835024595727 -0.528298589703028
-232.886242173051 19.5074773856888 -26.6647134064139
176.943989670246 39.8746396375937 6.27214080347816
209.310376344334 -37.619604066955 22.1986566512531
-106.872521679827 -11.5568796676297 8.28474614916042
160.091965336633 16.601832364186 -13.8976035718315
185.320496990453 -30.3745150671206 -14.8517684260872
-225.86883993475 -23.6412881822472 22.5484975423777
150.666941186234 -10.1862344085613 10.1906065764313
-205.890630043895 -33.848245494797 -2.05752759276797
68.7728666001567 -15.0960888935108 -9.85923267572439
198.840137006157 15.7275077298809 28.8724491280167
151.514266440327 12.4747239533403 9.02370900672511
-124.994452266796 1.01291841751283 3.06664138049404
-181.037585349516 -19.2366321375464 -9.22345070658334
163.003533815018 29.084637162396 2.76473726376951
-168.906514213468 -4.87451524619875 -11.8620949397464
-149.936359051343 6.1458887453206 -1.60897529336513
-138.813984061232 -9.13206741824922 -15.1641686937051
-258.57793145683 27.0925616994302 -9.93355202595052
187.507659861196 -30.0344015770314 31.8416289409044
153.319852188617 15.8748388829237 -13.204144631528
183.974710249618 29.1952752635115 -13.0426690221285
-187.163028147769 -32.4537795795251 14.4891930739713
-106.640577830805 3.28631985278341 -13.0795834919103
124.481853892028 3.10987643530223 -20.1592094577436
96.8411127519202 -7.18481036758524 -19.5227110027012
-25.5590185838839 5.04493117010778 -7.14720625311951
180.229807689665 -34.2290678309635 17.4557735980455
176.149178699179 -16.6032745916036 16.6009688536356
-199.185640727086 -3.30610513273317 17.8818401811251
184.752148533306 5.37767869864469 16.5649543010836
108.141750497889 7.48104927176403 -17.7838007378694
-206.720314817248 -4.30957072915822 13.5636401821998
11.7538924199357 -16.9125033027343 -7.01344424687071
116.508322678 -12.0652102734206 9.11671023269193
-223.141080281975 5.81649432879475 11.2521675012796
-189.117102861515 3.45943343076001 15.7794334711031
-201.228406555103 -30.3938068353487 22.5616909799362
-214.252472054501 -35.3199803943367 -1.18347395953857
169.079271195612 -30.079202439989 4.80103455135275
63.2939070265624 1.95724444931449 6.10784725476207
72.2583764125567 -14.404424674524 1.02625598377391
93.7051181483386 0.940908891656982 -20.0917299898514
167.376474729825 23.9183383502823 -8.60718326507467
-38.4619651246847 -14.585268895929 -18.0437954514618
-109.412439518967 3.71540078322374 -2.98914577291121
-248.314039574314 13.0934292590347 12.3952305545139
137.206738162188 9.9011666759928 7.48077371717915
64.3118206247448 6.75035958932849 -16.4574155471008
-226.94288873348 -24.5458362893365 -0.547560884120713
-254.509666836353 13.3327456237409 -12.4118185634596
-163.389328044336 -10.2148707281002 17.7745578475612
97.8093872153149 5.41469722568692 -18.8284672656404
95.9124097202077 11.1084997330025 1.60725014027814
216.203099083903 -16.127195881801 4.72506207627847
-178.266931758465 2.45809468268853 21.83654044244
-237.695775506234 3.82831923932058 -1.20437199459037
-248.960545314418 5.84030843580409 -2.14675760459702
-124.604979048567 -20.3309373186635 5.1146631228698
202.466432867575 43.1529367578542 15.9570675294326
173.732481983362 19.615184665585 14.3145393874285
145.107704683758 -16.170304087387 -17.4863623893245
-217.033533522165 31.2565552379105 -12.9504437191228
103.566136059872 -14.3248209668966 -14.4180704184377
-256.220743876555 17.9632200717228 -13.6532693227216
-54.7566258275971 -16.5995524501567 -16.307545510444
-146.417550015919 -8.73930567726034 12.9824715417591
-219.702474741423 19.7035658158524 12.8808130542169
-58.8164668577529 -17.0827103977727 -2.22931606051403
178.179479816991 11.3471942375282 -20.9196811430776
-195.601505360699 11.9973079773478 7.70755931883906
-128.056706296822 -18.232612551326 -11.9468246830131
-225.014861613593 -19.9108966500998 -4.76757595363925
87.2216455758146 -4.51597254927217 7.7666379106617
-220.547528006525 12.3027193513428 12.6671664633631
-67.6085628487303 2.76246238888513 -14.8169377459303
-21.9691938873317 -9.83812668571002 1.30929777751509
81.0288487588699 -11.2337182585206 -16.3841530965489
-58.1318139734442 4.89397762600219 -7.14815218131308
190.401782604348 24.2862244244182 -19.5419790039007
-197.558465452558 -35.0372436691632 -3.15747532646339
-198.653908919559 -19.6688533945699 28.6900047823373
-16.614690005536 -6.64745938326756 3.17562490164737
-215.191697174842 -2.01542248085045 11.894968903646
217.145674838384 39.2689528005108 20.0553713672997
-59.8619265603743 -5.46671163484825 4.57820138259453
164.680283516486 -23.7870632674623 -10.7764890718569
174.486587532531 -1.09226273731845 -23.411117280572
191.870534487528 44.9259575762742 8.02777716561422
-227.139806373186 -27.0825218494564 0.322074631738553
186.47794846664 41.2645184948999 20.1458954307397
198.868350490954 -30.7721005474595 -17.0045366535039
-4.60170706276393 2.0589781821366 4.37543650621076
147.672737831545 -17.7402651547888 -15.7271864385477
-69.8438773952322 -19.4238928995305 -12.3833088418209
107.497912924422 12.8621632341353 -11.9575885004419
-213.908826971042 -12.8889678069359 10.4175290466846
-232.710389498495 3.43307779784497 -14.6712351829911
-226.166536330166 -31.4668825566857 0.637838290961489
-229.023089894489 37.642279622166 -22.5963490603343
216.101003703532 23.686638076367 22.6211398664334
81.0035976063721 -15.7893417792632 -1.70660893407097
-166.61207730851 7.94199438008329 -1.38080705211088
200.948474792743 42.9933142063197 17.4766060858082
-225.037620008169 46.1374037347773 -2.1861567654917
-14.9089754381876 4.32509099709141 -3.14483870259621
204.602092081794 -6.42169674797104 11.9265651802264
5.80720119088463 -17.2464696650871 -12.2738658770919
216.269953173104 32.0868595262097 27.8141642910353
214.026033266976 32.445820468646 -5.52913181339556
-245.385038706106 14.0939973904196 14.8217827369509
90.4574847881728 12.4542495538908 -8.99609497812556
203.901896245136 14.9873970464282 15.9531975332741
41.3140369165679 2.75721383543191 5.61218607736825
-4.20530587253506 -2.92272407608247 5.15763869374039
95.6308115963185 12.224891596334 -0.568296472787741
159.831335715995 10.7281911440318 10.1289779645312
179.319383063969 -19.4087714052538 -28.3372635824146
200.141163570403 37.2904432721967 -5.68219889484546
209.300020064072 -32.8597424074053 -9.45229296144688
-186.321491031644 -33.6495432300536 0.212486912253381
-238.527174504992 48.4867154099085 -3.27583250560899
220.178494600876 23.3158188977233 3.55067680616694
-234.344653690473 48.2878911830084 0.287634420432617
219.288665094622 20.6062315877814 7.54673700466697
-231.41479380783 -1.48879825808491 1.93511828143132
-217.895875064033 12.6071324821773 -17.4946294457643
-155.836857655474 5.33651341975516 -7.3517423012629
-227.400010571864 46.8252185113655 -6.01208810685501
-214.46097261575 29.3801509123248 1.14827945490034
151.672582233947 -19.0719584017645 -14.153307367469
216.261249087526 -15.9575007483398 -7.27695529504939
-191.349664616678 -2.99309965164859 23.8820038642516
188.085617629525 20.6274911154849 -21.1462788466052
-172.795868116022 18.8993266878759 9.68705976593198
208.415166216638 20.6394467059302 -22.3718951767295
132.532257642678 -6.25984147127117 9.73043066317421
182.460060701393 43.2982058072451 11.0046925567674
-217.343794021427 -18.3191023824718 -11.6652771063638
159.928097056305 -18.9068639936022 -18.2150130904029
139.305478754718 -15.3717616561161 -17.2941019079581
-157.742314460512 -5.43741844844127 15.4579388841486
-203.441408124052 -30.9149790213424 -7.26005597206572
-166.836055408763 9.37035908191049 20.1072451110872
196.661037271616 43.1902038665111 25.0909336916501
139.711933949563 -1.67409677253981 -21.6295460160661
109.964625215405 -2.40077046337111 -21.2258468816031
116.64044004221 3.51854369762046 7.4773618181129
189.780929539065 -28.9974162103109 -20.2022878591118
-237.373887369212 12.6344058430797 16.2926163456596
196.313839143584 14.1727588050122 -25.9946782490093
205.42598151265 15.8488893312665 16.8576239364961
-253.398559807104 16.0393391915984 -16.7663142944409
44.7649967073425 8.76495185415976 -8.04338919717463
82.2135469039126 -1.54349448724505 -20.0469116564854
184.334315719464 2.68807575886093 -23.6195487007531
-169.779836254992 5.98715632192951 -10.2517807926605
172.045750244742 26.2893001051067 -9.0005870078008
165.915605939055 -0.415008694336358 -21.9729257952731
-165.313763789676 -1.80981141381206 -12.140158833561
-7.36441781514898 3.61310918893469 -16.8199466035222
193.300539088784 30.3100134211549 -14.566769223174
110.056812256291 5.59137162239224 -18.8639256730768
-159.885841815166 -13.798364669489 -11.8165280893148
58.2931360454948 4.00810135339777 -18.2772561419469
-103.943762391687 3.24671348808419 -2.56185334635883
78.1604667523772 -15.7166481543255 -1.75755625529604
-152.788399729183 -13.6085718188705 -12.6040561354471
204.933647597104 -35.4089510300342 28.421198671755
89.4222343996745 -11.4715996524395 6.83788937833828
-58.152684291418 -1.16161155800966 -20.3084420772882
97.2540562639872 7.59738872921873 -17.3942816525481
-101.498778674899 -21.9814426346221 -1.34404962662779
181.497857476796 40.3454827818334 1.24139173417705
-35.1355934694885 -6.65342948626074 3.53214794232051
-218.99468632966 -27.5989417336775 24.2366518922281
-246.957147281582 45.7923882870218 -0.173042741265159
-227.140236989028 -22.0486994056726 0.45967955866236
-212.088782447651 27.4337364708544 -5.4466444935788
216.413914744502 39.138579108802 7.14030579791184
-198.74017204861 -0.0388003670988544 -13.7835394313824
-256.980773553646 28.537800529172 7.73870966705507
-225.702584972999 40.1818326545741 13.1761082473337
-239.069899186019 48.403914421002 -5.25017524003036
-45.8406444518543 -19.2089360956396 -6.47354543660317
-125.874694899881 -18.1182943249836 7.39416939237222
156.352431123619 7.87903226138458 -18.6603422034723
-228.194015853471 -22.7265054593413 6.09573567077505
-187.563480862606 12.2596332468006 -3.24929464424647
105.436060420069 -16.339638087966 -10.3095437428616
-248.022522586974 31.5688670430623 16.8538718384166
-214.84756279326 -15.9434998337797 -12.8247166576942
147.276359916233 -18.9730214433465 -12.5243688060306
1.80814947505259 -7.7682006683796 -20.1959068348167
200.189173758247 40.7589328005665 0.686041803577192
64.522627184788 4.60306172254084 5.52811330281284
-36.1685131066528 4.21937172422305 -5.10668360362732
30.2792846796061 6.24875661488076 -1.3621472996742
-20.9076825477928 -6.46985226687326 3.21502172881874
201.695410748368 43.3485235803722 13.7923709531759
-255.576553130344 27.8237278007305 -15.9153468115011
186.843468433956 44.7990905420293 10.8238275837734
-213.527991140896 -36.5950464504997 7.82027823470548
65.0950457591737 0.604474531452694 6.50073364516922
178.604004810836 -25.2532359195251 -21.1312809803319
-236.972976466446 29.26314252098 -26.8670162683287
-237.929240638851 25.3290328847396 -27.2286824226836
175.508935770447 9.02198512394547 13.17994640754
99.062101111843 -12.969762172485 6.32702251896655
215.494425478649 39.572661536524 9.5593227778451
-177.688569938867 15.8843265093277 10.2909854287422
-150.257479460293 -18.1430600705436 13.3895078533184
75.672890844615 10.9282738335535 -2.30660427032144
151.576112222437 -22.4350997988881 -2.04837523640162
162.979141115038 -3.16665209145908 9.78654616845508
-178.541861079318 14.6811066582863 16.0797026854547
-213.590272089883 27.7832737959148 1.64021406571933
95.1473370427778 5.8019243656903 -18.5592295303892
192.699199883278 15.027691188673 21.0941962919779
-10.8103197034748 3.25957491700263 0.0858311373890745
210.108673802148 -27.8437835619774 -17.7307580815857
-159.407793079814 11.2082641333804 9.11115083630055
-141.621097093779 4.58910910919132 -6.44203996092636
100.223681234463 9.98010877651313 3.71708224294929
-32.5631989046939 -1.68236641057931 4.23687378069523
195.097177669102 34.0595874784096 -10.5383298258175
-208.600934092233 -13.134535205164 16.1276547632934
-214.165002070235 -19.3951379495546 30.3863396710155
79.3407271146116 3.82754823015603 5.99538975385897
-207.33124437481 -19.9240083315307 -11.125083397581
217.530973022608 30.4616421075793 25.2029460552407
69.8128917403203 -2.80210207284886 -19.7515260552694
127.803175446516 -14.2108920142951 9.22433469437139
-250.672258705656 12.1287119762575 9.60350289919153
216.884514466401 -27.0510676140246 -7.19821946629629
179.339735165118 3.06089559806963 -22.128132465934
208.33267221033 -4.20298157656951 8.4376410648549
160.716288755062 5.37748037168707 10.0260333727569
77.2446990249392 11.3319953948111 -10.010450361201
65.9567957013748 -15.3891919118996 -8.17404903587923
79.2395307251666 -3.62964557738225 -19.7280063159132
154.699674958087 -3.45291638278741 -22.430390271354
-62.9364294656148 2.52908690767825 -2.74538997262731
-104.817936487759 -9.44868573129219 8.41956074230881
186.184975697773 39.5871027388564 -3.36597109323008
211.585824673611 16.4236144728664 19.0204995543206
-250.185541550099 40.4364755314965 -13.2799471730337
193.744241756355 37.97155420944 34.2323253985288
-227.26133442246 -29.4314949973492 1.43856734804818
213.790142688009 -11.8724657426451 -12.3006980113882
162.322459153257 -23.8270834348737 -8.58802904494562
-58.6014567607002 -0.700415562209981 1.59725297506171
-231.177676149437 41.0665252073902 -20.3101132684309
24.0475303323424 4.26760477971476 4.49385680444437
-204.584710852224 -6.68375423855418 20.9920476489793
-102.688521944727 3.71780617556575 -12.7462969844173
-155.655646241963 4.17913949456458 13.1579501097493
44.7349568012554 -15.9101062980971 -7.10362230188488
196.478246049025 -39.0616453389345 7.1254071032013
-210.188151553818 -11.5125989040099 26.0486482248696
-226.320451389278 -32.22210527168 7.3319986356749
-98.1804352337461 -3.53329811410421 4.36081007349742
179.374946486889 5.07417134800143 -21.41574871321
46.9985437456929 7.7750615292009 -13.7994387611729
-147.737092244072 -0.503794739620886 -12.7744270290416
173.830626992246 -11.5146900254068 12.6812668954128
-231.730117213106 17.494371065333 -25.7295556897131
131.13828353293 16.8274576877837 -5.05532999707516
221.286510550694 28.0403213572901 7.54904752666687
216.088999385704 -25.4088596210541 16.1419212863033
-92.6104273828855 -17.861467144826 -14.2956075708887
190.025852459135 -10.70126115931 19.7687222367297
184.590494937859 -18.2784089171542 -32.1306297888057
176.673964857936 -36.3624856438474 10.0786294205419
-152.750983822639 -21.1571028464304 -7.48667618369119
-105.375965073302 -17.7338771836106 4.47115588377511
-221.590859943282 -12.4216572413319 18.035115290474
-69.3727149467783 -12.9207937048457 1.98638076987952
207.182400279277 -34.6793234107085 27.3530171882043
-30.3044270870293 1.4432210371425 0.697448452560116
-177.433100966336 -9.34961887274969 -10.8268767494969
-103.322312856473 -21.2967639875039 0.0192381473844045
160.380860168697 -25.6733029936171 1.60468329770535
178.488062387069 15.2015074116038 16.2240291073566
-227.136851244323 30.6412310560186 -24.577933218667
171.816143292556 9.03100220161336 12.4915874835587
30.1918399716015 -15.3354425100538 -13.0479497089715
-200.454423868693 -4.40137246169669 -13.2151067356761
-229.859201100928 45.3177977936781 -13.6807167261878
205.528332971596 -15.5348444316105 -27.0893882813562
96.6110865269919 -12.0552967360353 -16.4799898055776
134.121815930315 7.7910624508027 7.61189034813449
-253.00804063076 30.709532263028 -18.5411126831973
-176.36493788017 9.74475528749759 -2.86540624208976
103.275151146751 -16.9619998286328 -2.50534314802787
2.14761847296947 -11.7003553172192 -18.1747907329362
159.815670170626 -24.9089403145322 9.19158604645797
-52.4342346100905 -15.6897472225575 -1.65639607773238
217.909959872176 16.3552846397571 -9.16343692794409
192.200159269342 -30.3175975025443 -16.8313230682644
163.000034789866 -21.8145945987297 -14.356528362021
-172.82852540564 -27.3529223870125 5.71316415541385
159.321357526694 -23.1497503828773 -7.83216117631624
75.1683396864838 -14.8852132312852 0.422722376387472
172.332438515347 32.8697165949193 0.862114343270832
179.615194830289 -32.3922101751269 -5.65371892545832
73.4020848860861 6.74924798432015 4.57744592136961
-256.915096868755 29.3678088649707 -13.1081405995008
-217.382249752987 10.5301409742004 11.5843109281648
156.545512697389 15.459318890007 9.85513805480005
-255.998507741313 37.2493315428197 -6.65433299262669
177.196327185639 -22.7899487869567 24.3165114072446
115.168204382436 -17.1364997122275 -8.9767111735078
-211.025522218851 -27.0309756674581 26.0204323291517
-221.784695436473 -14.7941947249934 30.3812617361383
-170.674560884591 2.17207673962797 21.0337196613809
-190.172966650518 -24.5985427417501 -8.10692962106631
200.977150232272 32.8738718360119 -11.4015825609891
-196.640416798827 5.66014140397357 -12.651474980218
152.922253997248 18.9418525437531 -9.52908981930487
-194.613689982582 -28.9787775950194 -8.24680159613296
-215.155686280922 -6.51644157977424 10.6878670601103
-165.104165965508 13.8725142936153 5.50656007144847
71.1375109222747 10.4130914716398 -2.22724305500339
-172.424138099792 -11.9189277895757 20.5616320388008
32.3256649561133 7.79865928975355 -7.65716270536066
51.811492423414 -15.6437712245943 -6.76706138330098
173.79656944613 21.2250528816307 15.0333605560419
-167.371078412609 2.40097065856245 19.9488326311996
-256.23393616669 23.0974924542309 9.62489151703064
181.733191408661 3.45421499314019 -22.3936455773964
187.952915448824 38.8605474733813 23.5715917608781
-214.831079793448 -7.04400233091993 -13.982871553403
159.829905601618 -3.4487715411993 -22.790720451724
83.5801951670803 2.88594608687415 6.40382351349141
-242.841287565819 32.8104229348902 -24.6357437652293
-149.759377447231 -21.8384831493344 -6.17450063328083
-210.851641820301 24.7838766791954 1.82196717304157
-172.061201926981 -26.8340580098863 8.6229655380569
-111.101602916194 -9.45324338640238 8.60515341940901
199.101828914397 24.8005097106662 -21.5089534056698
121.088937770322 14.4221578154224 0.56408876951116
177.125853115559 36.8961897835138 1.08029819452363
-169.454158814281 17.8463796129442 7.13823725470661
106.481323822197 12.6963505345821 0.399203664450149
-53.3351192125175 -0.289617445063328 -19.9045866305719
113.037300611016 -15.5578403257667 -13.3181750389195
197.03636529743 43.7623956947846 18.6648840872195
-238.510295492849 7.10514668372984 7.58894476842195
36.2496062419099 -1.19541970674131 6.66762821840395
152.508213603908 -17.7196531314054 -17.283132928238
164.435791624893 30.5268673322641 4.9226718604078
169.699780475196 26.5030650446459 -7.01035717932475
190.549162210648 -24.7792844603206 -28.5676917197911
-192.513267745289 7.28486853702804 11.0040727904308
-151.723850098586 6.07898635459938 -3.93246943134557
210.864904987231 8.94462639477509 -16.7045198201097
212.5265536809 2.74437313775206 -9.49396064586303
-179.375277417571 -21.6444871157324 20.9747007383734
131.546005481206 13.9352502403808 -12.9018671625041
-24.4699088551384 -6.06197442678488 -21.5371778205716
-254.334548083103 31.4300026169464 10.9084265746072
-219.949160305623 40.2670403731043 -12.2738415618275
-259.322559824564 28.2754924710765 -6.11303122632111
153.132130000514 10.8583862991988 9.34992860936524
-182.768786163638 -7.94223386717512 24.0181085452486
87.9353596330528 -0.450311722905312 -20.1355752540806
18.7954957998663 7.02514832755645 -11.1411786546461
-69.0011648201636 1.70655703016088 -16.1300266509301
-141.907859042132 4.9365897344485 0.0101437691950389
190.505337075713 18.0784354773488 28.3052523449745
100.743742783978 -4.15738652447063 8.35500168653713
16.844046078999 -15.9584097269326 -4.80786312404905
-209.936395273015 -28.7135340656899 24.3389293258016
213.204527443171 -34.7008788716969 19.6990804889504
-228.374382789013 22.9701148945754 -25.828570013809
9.34120235067992 -9.24475374374346 1.7088090873207
128.921591972438 -16.7112738618637 -13.1574304226472
202.318658207248 -34.2680587146015 -5.29706228343563
4.7783482444542 -17.6217521304708 -9.43936882615546
-153.630692856533 4.6142385000941 11.5357564027105
126.163331134893 -17.988164335509 -7.52575872087658
-45.675094766364 -14.8266125129979 -17.9522464078816
-187.713240869244 -10.6726048230219 -10.7794929818062
-222.970987262443 -12.8057097041554 14.343367765637
167.701138404464 20.3990470071774 13.2409984179637
-213.166007670936 -7.97242902343312 11.3987864232495
155.197830972338 9.04253195327613 9.5579456257543
180.251557451683 -30.3091249195091 26.074294064694
23.3840770013804 1.53012899283973 -19.5357156932299
142.802988436403 6.17938542328428 -18.7052629283887
193.633552209514 3.17192427480312 14.5049610728903
-249.527306285211 28.4512431371275 16.4798790558883
167.465108317013 -26.5337367418007 12.3520161479766
166.057770041028 31.1991827046022 6.60701541753835
-233.429753274522 16.0905477756522 19.0885391116109
-133.323657151786 -21.9620297904689 -6.48401732154637
143.231497790666 -6.10175246270398 -22.3467843198565
-185.747259857393 -7.94038425655542 -11.2749526840442
-141.601972322818 3.5258992032365 4.03033150203855
100.227008639259 1.54577080257431 -20.0649215719002
-170.656760483158 -26.7230806941068 4.91414813903845
195.55788491989 -25.9133313217324 32.7214308365266
185.308347469271 -25.4367196410501 -24.9338224429544
-126.479604273663 -15.8363493547893 -14.1170937422208
-41.4038978053385 -16.8099740907156 -3.34336227372272
135.055285821026 -17.260715453367 7.755562024973
213.157680085067 -1.95904341912026 -3.42544188736116
195.818691276643 26.4119413581281 35.9068111437096
-121.010844864226 3.24423623920556 -1.64694893338426
202.845334741049 18.624170815195 -25.1577644114994
-258.040910515796 28.2161040113078 5.4858191271204
13.5333467600982 6.74707977053563 -8.93939166971592
197.020092147291 17.8839014370224 -26.0821962555833
180.567058727283 -25.6478335709866 -22.0750055997449
191.953760105561 -26.0896692287644 32.707730139227
-233.052710494785 3.04696180105729 6.01273545448197
-171.727374382986 -23.4569124922128 16.1919237752046
-151.482158066672 3.45952145351435 -10.3789821252829
-233.731701363816 41.7587344148524 14.7756871254818
-29.9030292113784 -18.9038050954403 -11.7896816392942
-187.233966441277 -14.288170778617 26.1163135417282
132.010876919008 1.7143865846592 8.52180775260553
-225.730030565002 -12.0903568308778 -4.8436149149904
-92.0585831391085 5.16564989310488 -7.1371925417039
191.325784912643 40.3933189570452 25.4188023348919
-171.52981788465 15.8702203639872 4.92946760659883
14.2703073646053 5.90061448048638 -3.71765523969094
-160.131517613069 1.89218159904704 16.1433296071912
57.0238682183316 3.87240088666013 5.8260939275896
141.443615867319 11.4521815545838 7.62664065598405
-232.465171918595 46.825831833209 -11.0313968523705
210.989497970207 33.7999272486492 33.7033730197627
219.951579776802 21.3076315130106 -2.77059051366046
-148.667444427758 4.2710990729984 7.75353608660215
-246.148873774246 46.5035896569703 -4.53155999868557
89.1801513841895 -15.0228807243027 -11.568590524388
221.111959599593 27.5698696229459 -2.56485182251733
176.986084192379 -13.5865993996846 -28.6896690267902
92.8288406054792 12.1931892860867 -10.3646458480306
172.156123909007 15.4254910094905 14.2945523432385
-216.167133681073 -34.6727395198972 12.4425452532325
-228.338195467381 -20.1673666192717 20.0413905905457
-220.329468949168 -25.6068026431536 25.3044687628638
20.8297158878434 7.16550777378687 -8.80392665047169
-174.32046675239 8.78170165729562 -5.76224987528396
-190.739969810541 12.0873364291642 -6.08662786542155
-184.840542682571 -4.18838087680967 23.7510963630993
-126.327371338142 -23.0784725776177 -2.33006096479374
183.863056451719 -32.4419226843563 26.3041127722157
154.339493448962 -21.2502392941202 -9.5812770431148
175.060070690635 -8.8998357327512 11.6752684058654
-150.828544044637 -4.58521251803236 -13.5701989701261
-91.9841740840986 -14.0954783699457 -17.8307890683808
-245.114277673125 42.0799290446851 11.6510468934217
46.9307384065444 -7.279165881034 -18.7794896073622
-151.794671704842 5.90855705198088 1.01127235473638
123.950100104209 -16.7757386245356 4.77637975230583
68.9202807099724 7.1699669638659 4.16770674099172
194.324171242649 30.841541985431 36.3685891466485
-244.097847536283 12.8943144274495 -22.4494129692977
190.352310544226 34.8289169281965 34.3952345375182
169.058032100145 -0.148308603027774 10.6395599331513
200.954271272484 -33.374396730286 -9.44377893217008
-179.550527357795 -29.079080089938 -0.729217801812718
7.57775118622413 -12.622791025839 -0.586969791007866
-3.82852221239113 -9.83809359554093 1.19553866432897
188.259481694308 31.509393543594 -11.7741501856555
-212.55808917349 12.3341161292829 -15.6535295511158
-217.852592429384 28.4571824668819 9.60956548300941
-138.324174439093 -9.88827291258941 12.235136300884
102.102500316541 5.57845131669003 6.42265103019895
159.84250432345 24.8283103728856 -2.06105176164829
203.194621171668 -20.3087032587643 -28.4826422439492
-242.457532160549 3.23251672030349 -11.2171257265328
-193.134973891258 -26.8311262593829 -8.09195542979793
-221.837900240283 3.81557386035273 10.9490752068627
202.913095772159 -32.6305521831855 -11.1509061809077
-222.50633484279 -5.1197954480102 -11.4037142285424
-195.423468603499 -22.4452020542229 27.1713493682707
183.854697201283 -28.5962341097539 -18.3990139622491
215.255225102482 -17.6790482250211 -12.9970179317211
-5.15663047039857 -1.19300641293916 5.61186051607766
199.342654571156 43.2668739237094 9.22836334132597
184.921105137141 43.4696278334845 2.75889886649167
165.108007807526 -25.27648674771 11.9481230432303
-218.157332432518 40.6549763756597 0.23416365925505
-41.9134266356114 -12.2552447661865 0.376097528439732
42.2637849988547 -7.63409789474199 4.37975840740779
-29.039881061158 0.650251657402279 -20.1053105590783
-257.507611100316 32.445708949001 3.66185951179833
139.715352218403 3.84886418853368 8.66030685551977
194.649166822682 10.1717151399941 -25.2253788467697
87.2427773589496 -13.2089023714465 -14.5646162772552
-146.681335801841 -5.22844340554593 -14.0994279053858
206.174900790943 -0.615934226473834 -20.4028119752977
182.257820965178 43.3478915678488 4.99742751032169
-257.109555009817 19.80251453724 -13.0009351849557
153.327550348318 23.1857085768512 -0.717796249382739
4.43083148533667 1.32226275026729 -19.8995259251633
168.514584940744 30.40680147937 10.0282558515529
185.994090675627 -32.1907645584944 29.9079643761646
-192.786169430749 15.4733512076485 2.71447427665723
143.270610367645 19.6867780742127 1.86749376821394
-237.28756157699 26.5363994327574 21.1772902129568
131.364955886564 9.35754980141891 7.00330933442561
118.400764953677 12.3611205003421 3.61398881332985
213.477974028961 26.4094583158325 -13.3439102334322
-236.568494514599 6.70313772369298 8.58609937432074
80.3126212483227 6.92613396693294 4.553365592064
151.691356525089 20.6325888421351 -6.05121407866463
203.356952870494 15.455690391968 19.6651986581439
207.508065675765 -1.87769581593682 6.80844055750664
181.113647459371 15.9153156080554 -20.8496831337408
-226.479062869598 -9.51210585775511 -5.06536280779292
-64.4691462080767 -17.7289388072506 -2.19276202224361
73.311017264282 -11.087965104546 4.9754212606698
-95.5375960356573 4.87960876970596 -6.22101782926847
118.503515787896 -11.0816405386437 9.53537022359011
144.976198223334 19.3468729769147 -5.51285414426147
201.138419377419 -20.313671770352 29.6705140151611
43.658100243961 -15.721284016821 -10.1110265308688
-209.646001664505 -18.0272762785947 29.7171459318339
-118.325505182154 -12.5593908075046 -16.4719321934371
4.07805750739613 -12.7479104397487 -17.2397198146417
187.185482462046 -29.9274245198851 -17.0030318249622
200.650298045374 1.69597244709484 10.1050261521614
7.73121498225422 -2.56952072780407 -21.0485467547122
100.385602028613 -16.8656303559812 -3.64839491570552
214.79235583653 39.3163555816996 27.9762217786224
-137.596762352856 3.85245342383164 1.68484979366157
-71.776474961865 -0.133177296936973 -18.293392029252
-200.315527268095 -28.4058875322006 -9.69032075655559
-135.201988808687 -13.0138260987246 -14.6897933826763
176.304538664682 -18.0158016352935 -28.1191653109632
214.358229919812 -7.40833196552321 2.25070620151416
197.929128999873 28.7523477908842 36.6848688272342
-216.670931904288 -13.5413590671951 28.9374556489654
-170.001737308711 14.9882595538018 4.28530836017084
136.886392916531 -8.23225187839715 -21.8612904635852
-209.525648702659 16.4840345886141 7.84084485408563
90.5346459796649 10.2757423979577 -14.2891956228893
-134.323170865012 -19.8660621939464 7.43279955365612
-190.027031423749 -0.563437981067484 20.3682045618014
-210.873079558312 -15.8624575114195 29.4687819748448
173.768016152344 35.4061123488145 4.53706377951705
204.116826680009 31.8319114382525 -13.3155890533836
15.3435992677155 -1.41178376047323 6.10569611518257
-46.1905703282404 -1.0614314070776 2.72887238296824
92.7456406508393 -9.76024943025827 -17.9628478933814
203.213281152003 39.8724421654159 33.3835592603658
-245.395769357946 44.1489670097258 8.80518212178266
-220.27892472022 -33.2158295249825 -2.78502418335117
132.179313129712 16.7166684528756 0.106963619807147
216.800352603435 -27.0778612205425 14.172941783144
113.623121018189 4.74436407554031 -19.2128842686729
-228.820003124959 -20.973899712991 10.4549689535399
123.952648206331 10.8970510912953 -15.5965173601887
-82.638574192942 -3.85384778799951 4.28112935605641
-204.851789796289 10.2168582441418 9.32518634894874
180.232649229689 -31.2601751892535 -8.76827947617758
38.8717576393028 4.12072456521234 4.92722637739637
158.889825305157 -17.3219430186487 -20.0137018043154
71.8887237131008 11.0513006907356 -9.00365357725053
132.875331821055 15.0916770420218 -11.3043919850846
-219.958869671205 22.6743333931153 12.8836897711394
-119.070498318854 -22.7316487951795 -0.407832728887137
-58.234083541556 -5.72850402646343 4.79372956433387
141.272407631398 11.2005472148558 -16.0520323263512
188.710019016289 -36.8743182377114 18.283111817899
-221.955679550948 -33.3398281281411 9.23848572999564
215.092721519414 -10.0355233236186 2.60387738287015
-217.446033988338 -34.3144327116056 9.95407481852147
136.525251897305 -16.3517297922781 -15.5017336641222
22.0892446918973 5.03668377680684 3.00425457278604
-72.4215124111686 3.17474148484004 -14.3932212163281
-204.407184341439 -29.3836181040178 -8.55670146768239
-225.274767019679 -28.8413173510639 -3.04255624361372
82.960263109108 -8.88424499558051 -18.0431289941162
-202.023786513682 -32.080419215708 -5.90984661915299
-188.701970978535 -27.9468832294593 -7.02686334270873
189.861657482691 -4.33546185033196 -27.8619310998847
-180.768358077834 10.5291348944479 -2.99175266932197
159.09024574863 21.2411717185341 -7.91450835266335
-241.154039191735 46.3828684830371 -11.0624876688951
-9.1102518413152 -5.45545659353672 3.74398447216102
161.561303809636 0.21308838675894 -21.4971605114179
147.512234359479 -15.8378934549345 -18.4161139551312
-187.163478768425 8.18636737202533 11.0015823283572
216.425734930401 -32.3247805393257 11.5135290438272
-128.638912624945 -12.6880870730772 -15.4295516370572
-77.3260400062906 -17.8467843639397 -14.5479433009959
180.548758503681 -32.1644427884964 23.4458001869964
34.941656413241 -5.41016709850756 5.13147311706899
-98.4572881235993 4.02011285758538 -4.19821010799172
-196.889147395342 -23.4234348999085 -9.01011675499389
213.044270158934 24.9006679530994 -15.4671918849923
-80.8943907129283 1.23717568175024 -15.710087910087
-60.5682927969334 -3.29264619090564 3.88234943023223
163.392137345931 -24.8482573385958 11.2164672509311
-58.8141585655348 3.89073940845232 -4.95474526694145
-92.4468009760846 -3.30396875595417 -18.7497792384658
203.216041353066 42.5879766514474 20.2538096031959
179.159066669692 4.92234047842391 13.7192653826104
-250.005267130633 5.95885399539126 -4.70676410757607
-102.592955063032 -0.143491590571268 -15.7995368149182
32.9640683636746 0.492643476618569 -19.7196294721232
-182.626113292141 13.7655357762551 4.80728918391344
-228.513522378022 -6.75646792862878 3.47353872356597
205.383264554327 11.7757260610232 9.09144458921624
-227.397605432609 18.1293771680514 17.7826001684828
-125.7020348649 -3.31137340044379 6.86336321693162
-85.47661696221 -3.22250888289165 -19.3654720096234
-119.588080254988 -10.4321505979344 -16.8553717768638
207.662738355866 29.4526575601628 34.8360803853221
199.226252121552 15.3651702465235 19.0309265070781
211.004204382856 -3.84924921829185 7.52489327662737
78.0729803858691 -10.861901123558 5.87457609613933
121.01864749468 -17.7903073839258 -7.07118984724243
150.746736919828 16.8416824796192 8.01932502286133
-18.0062984315831 -18.4778215202142 -12.0873858343885
-217.419994251455 -32.9571803224995 18.6398427580611
-220.633736073657 -9.46211258553423 -10.6918652138533
198.146146385482 -10.7846741614646 19.2687800261739
39.1737983690606 7.43529346885895 -3.03350800139305
-193.376778309952 -37.8123211602877 -0.0335570772503229
169.679532369588 -20.3356770813835 14.7236912065646
-226.433964602094 -21.0468114776613 -4.12366464350179
186.170811879564 24.3744142033775 30.3150000580543
157.809584624329 20.253076724755 9.52840701259785
180.799279429993 -35.4575781526944 14.3676065047906
145.8689758903 -5.36806363264934 -22.5067847178024
-198.376476032111 -8.29311204060957 27.2827325098213
-223.068635444062 13.7336363917858 14.1648950143124
-187.106907136837 -1.49648455557698 23.1462775496197
183.472735935958 -25.4215312902805 -24.0195884612928
-181.292377256207 6.52372326617857 19.7992222492718
102.494278370182 10.5598123368899 -15.066842551135
-245.63783169615 21.0146992092061 -24.5930766221091
112.56565418431 -16.946725941434 -9.29411509476443
178.570973876853 26.0382017214211 -13.6529238769358
167.51752124756 22.6544319118357 13.1034088150137
196.90626058694 -22.9398040329298 -29.8810669552877
-215.345763826229 -30.5851987455694 -4.1590278624697
-192.027730890085 -22.5476642919518 -8.86679624278656
174.148919766697 27.5337602645856 14.743670617516
-39.9760611323688 2.62297569734153 -16.9600727000397
121.332070891031 -15.3331255005706 6.91097995634194
211.734910315912 16.5841000260328 17.2397877615342
-204.002477765744 -36.6516365129025 0.558038520410539
-130.340232834779 -16.4693450206838 9.19414414842206
190.421640928275 19.3664866902942 29.9642935136434
-178.977877931154 -0.432710168704124 -12.7816549412088
51.1384655539329 -6.30990813537634 6.05111963064635
-256.418720624289 37.3469676867781 -4.0867928604019
-163.781690322393 4.02291432455491 -10.9256536779509
172.455833094478 -13.6669586852428 13.1322389965438
-204.611906646089 8.14449270473762 10.0719689955885
180.259213286211 -6.12311556979959 13.9901984891832
85.8078333194115 -11.3642261707098 6.46823743874299
213.485057004638 39.6845106641199 29.3823741940501
191.849070407922 -16.4903619643994 28.2800321331521
-201.144201639416 -1.84910230734844 15.0701459394426
161.194773778551 20.4628922004836 -9.64032149861564
-45.0151972653053 3.30838474769872 -3.77642450691124
-107.452962767631 -10.3302381622372 -18.0888638320422
181.423854957608 38.1643680925748 -2.03837387242015
-123.862448844627 -22.7265085697414 -4.40142593583936
122.524364618345 6.16392659771864 7.24417703354442
-225.818728306991 2.11949621873029 9.43044095948221
63.196143818324 9.16562458042216 -0.895037190029138
-222.298332184351 -25.7746001851992 -5.72053186373745
-122.123074974872 -1.5271043583203 -14.9093232252412
-256.190840440346 33.8313398233013 5.93623944149061
-240.458911937316 5.14737646773909 -17.081560448393
201.170144004124 42.8517396706822 30.4515900354157
185.912299534736 -16.4945350765377 27.5103956632252
191.990853335758 -18.1502730192276 29.8790842433136
-164.353225717114 -5.98818738009982 -12.2087434017782
-205.134503822603 -21.7476214111467 28.6893778536511
182.64964902239 16.5435385766949 19.0435231173647
220.3369470412 23.1331086893502 -0.708689268111392
177.361626943257 -30.2094568779738 -7.71504676993778
-161.206619610758 -3.39953380226734 -12.5216230499321
71.8551590934882 9.78229678792207 -13.1802539990759
-206.98494869634 -37.2511046742772 0.89039823885053
-85.8745946076006 4.90089569618048 -11.3670064759367
-210.316213175683 -37.4962452850773 10.2527137680877
131.975914774826 -16.1484588595497 8.33045439122589
-134.570143715475 3.2819053737655 1.69489240293041
136.416780627616 13.1063009101658 6.47122456570432
89.9650717593747 -9.4131722479174 -18.0275959150516
-255.974966562875 12.4196586285056 -6.16268821166752
-245.970994734226 45.8992126256968 3.8833311104559
195.410028928891 -5.32627344073294 -28.4044296198443
58.8819959005933 -12.4923743278771 -14.9711619769094
-89.6486841292337 -12.4404939256148 5.45639207072946
189.844921735605 44.6589544216012 3.85372702865725
8.03612557382587 -13.088151739182 -16.7451804359456
202.685571806964 19.4104440526267 32.3732099998459
-244.497910146643 4.60463082116531 -0.693911668422996
194.181629211169 -23.5740770946454 32.4430833579237
117.062668942764 13.578680637657 -11.4424502529613
164.602056677962 -5.09992264087748 9.95882539171055
81.6543524290088 -6.66849504493965 -19.0047233186424
-213.870642315362 -35.7515195014319 12.0680088134107
-98.8712637229467 2.16547767438843 -1.38978089414487
189.399198353672 42.5850764357188 -0.163691631616169
-214.636654420077 28.8021157070241 -10.3803667953787
93.7851790861079 2.26223335770854 6.96815186753889
136.776955777003 -19.1258475103653 1.86076076244018
-227.201190618448 -17.1679951603209 13.5619994586235
176.814005883369 28.1292406014278 17.2693637819151
199.220030808247 24.0980577103784 35.5299284373216
169.316268262324 20.618463473395 -13.5253349149522
199.458814023649 -28.1628859572162 -22.7185512895263
105.429236250638 -9.65723263091827 9.01960949647883
-219.935751596826 -5.3046410812066 -13.2428646110989
-117.067066609409 -13.4513266569877 8.08150125099905
-116.084785069825 -21.7468716723661 -7.47708204069854
203.482749935861 -7.52839370918061 -25.5814925542694
187.84257809499 -12.2028558180804 -31.4086073229493
-222.294420379917 0.639636560914542 10.1637258004013
205.951747959989 41.3091695166583 4.61453036045247
-212.548158906439 -6.21945156135665 -14.069510770624
206.335334800581 13.1219427169952 -22.9561337674208
201.567276082577 1.05318995499772 9.11998589625119
221.156082265339 28.0291142841948 9.97639210654591
-207.106251872443 -11.9158400058182 -13.5514510241275
-216.071150723479 34.3733137269095 -4.6210417542444
-129.066924339979 -4.46040550019668 8.03857448876149
76.9622146081608 -1.33492230573507 7.37385696485556
1.61735487400469 -17.7792783988378 -9.35478815364332
-230.213918755737 4.26323544528484 -15.0134316139775
131.303373109961 -17.1664325172148 -12.5429805274409
49.6939933521126 -1.45505689980061 -19.9035505583877
-117.561987699473 4.80049389285043 -6.79496645835039
78.028314555317 -16.0109778550033 -5.98677853637752
-216.257290302653 -13.5527405009622 15.2733512073704
190.208764588691 -34.975176622764 -6.35934251318283
149.092133064762 11.2408628942203 8.73612986329837
215.253360474984 19.1092348475079 19.9398390413886
102.677266483564 13.4231646531009 -8.8554016667748
181.183217315146 -37.4238047168983 9.02089808016731
-230.837205809351 15.2624906072892 -24.4436608843325
141.213340757994 -19.0742994556098 -9.93179458981578
156.152335488071 -25.1478683063939 4.68986070824035
-168.184736484965 -16.2886119140097 18.7819039021659
-121.152980635783 -12.8077545052346 9.44345091963062
-228.495411258347 -26.1326053067116 4.32326786765023
177.221113751105 -31.9033747125887 -2.87802484262814
-199.488249899315 -31.786258023154 21.0766826264781
105.19421181685 9.70722615820077 4.55355317260182
-238.650806733265 4.40926211905946 3.70611910834037
194.065671244547 29.1292063317359 -16.0568417935929
-30.0711928007871 -17.2742032959605 -4.83782471091164
-174.897526063534 -20.9247335904404 -8.41740940117935
-191.082741548523 1.43601791045631 17.9235486421582
206.96264281023 -36.6941122370865 26.2605932400942
-130.181769912949 2.77198970214484 -11.4199002257638
-55.5334578800941 -1.14423714799572 -20.4780075266298
80.7644840781622 -16.0861826461658 -4.12732944625543
56.5991868140001 -4.04056390028725 7.30569385642305
-95.8590777024549 0.361244191550481 0.953982742015299
-225.625230649061 35.2895927764429 17.1858153453283
-254.17765554267 28.4577025581105 -17.8337532344364
11.520579087331 -14.6914214887295 -2.79392621349992
-224.625255344796 33.8372356073085 -21.8022437361218
-157.71643377822 6.09733746300472 -5.91890823344658
-219.476379155768 -34.3698422801041 5.78455458308293
-149.830060345787 4.48542352974065 -8.44839267874412
206.618601093405 -24.617105318158 28.2738518031408
204.605461996231 -1.06574984777909 -22.0246824933241
60.2849730481925 5.44971462650227 5.09927800405995
-100.361988772506 -18.7768611843106 -12.8840781458268
192.912706607619 -27.5432509156759 -23.6095859136446
174.1370088422 -2.97111850201633 11.560309407974
157.86958038098 -21.301945376463 11.0951163254723
12.7711629993583 -15.8875703615947 -4.6431100390941
141.986158014955 -14.7981401779716 9.80105200219402
219.055893374051 18.1998337084063 0.843531903466963
-250.001765703315 28.8083101984743 -21.9192680776674
219.674323404934 25.8740281447408 -5.76551389155657
203.191935779081 32.609817150523 -11.7383245547555
184.039679691183 -3.75236234985074 -25.9314930518357
74.4051379311709 11.1633399127722 -4.18978229529803
-145.137733946573 5.62010400688637 -2.92595358984171
-30.4853283753373 -4.65885911521283 -21.7707552670716
142.428430473878 -15.3311238799852 -17.9423678165233
-110.921984969024 -18.0041979785335 -13.7321148253962
84.8116930925189 11.3865477201442 -0.775010814246311
135.385402363831 -10.5434280230048 9.96265997945666
-222.231697189072 -10.9823644432439 24.8204970012027
-244.06288268539 18.3078473501879 -24.7062848227536
-240.012111426573 4.32404601488249 1.26985579417325
-229.971727302579 -29.4923416492367 6.1183359736162
-229.687281371394 44.2133186294837 10.6096662218787
-217.515867230854 -32.2982940289188 -3.74229520787288
-175.338209225102 -8.46093056879637 21.684240917607
-168.862095015181 -17.2175451875452 -10.2972454262139
199.938420692993 -35.161796120163 -1.52286448473658
177.873210977538 -21.9960292268757 -25.505876013969
184.668995405497 4.57192166922241 -23.1667303205711
-17.0766421864755 2.74728993005299 0.289155707834819
-19.4913211403913 3.14558517174144 -16.8514499919426
205.693640787646 -4.32727798094199 -22.0898311398549
-217.845798073997 14.4662190496659 11.7044416396049
-97.9461290369773 -16.0455163348604 4.20167944490669
210.283797121783 11.0375612831286 5.72400299688383
185.321245455023 0.823039229089767 15.5599953773831
-175.644913623251 8.13725887126458 -9.88496909361894
175.915632529941 6.6478939185179 12.9659323258289
77.5942052815087 -1.84399698026033 -19.901325876302
-30.1183695569304 0.0881025399136597 3.04483154814234
-116.329678014024 -3.80196279062243 5.78360381909109
199.5037190209 -36.3323880322813 0.862695409576046
2.60455634731754 -9.77801495166083 -19.2599846237316
-163.604759903313 -4.2082115732276 17.8742380530275
-231.33940550115 41.6952500448616 14.2819293743316
179.653405201746 -24.8758988030773 27.8722373309374
126.239521626608 -17.3131377389945 -10.8677652585686
206.907452319537 19.8991433404566 -23.3572899897738
186.428664375255 18.4081628710217 26.5244087152281
-179.467412533292 -23.9440833841031 19.998030661229
117.097751637759 -5.58975854893168 9.31595515193007
-178.015647764143 15.4472983944517 8.58380082358891
208.284178585086 -19.6344221413839 23.6845773121254
164.384036868485 29.4430336838625 7.68645015189581
-209.887907197297 -10.2642549663916 13.0890796402181
-258.948893178394 18.6887153645207 -3.38298206282936
197.146084234771 -0.286949945083579 13.0708532845112
126.76688034876 4.54830586357014 7.67870232244797
-9.49694667983957 5.29760858135904 -12.7354503123937
-72.862944721299 -11.0863756807627 4.06158313010564
-26.8064815550551 0.792359053802459 -20.0372493084548
-259.12279248134 24.1469840443227 -9.13456431850596
214.674774065336 -12.5252647296828 7.30998155300793
-171.96854318467 11.6538616496171 21.0838849537998
-241.707682421583 4.13598530777848 -0.199111289214147
96.7601448745071 2.04717009284928 7.15940735149758
-219.177885532152 -27.2345693470394 -5.85078139127567
29.240594038553 5.71811137986003 1.0851080206765
162.513400553695 -24.8966820791579 -4.9897621258518
-124.132019665739 -5.16557298190697 7.97931827582811
139.29822959779 6.64992328176531 8.2493132824937
-69.6597541239042 -11.3100831226602 -20.0306435988185
-227.408227213656 -19.7473069611757 22.9253348879539
211.145987614439 -15.0555366115967 16.720987739157
32.9130006303007 -3.70852447381195 -20.0763298179872
-205.624820306129 -10.2807532078853 -13.6535820253085
171.690490589972 10.9800031584974 13.2520221747546
155.818758303623 4.51880308163214 -19.9573475973073
-136.875138928885 0.243508892395248 6.42870155426982
167.417514675326 -24.202780873382 -12.3332284610951
-222.050594704188 -5.18410104735096 8.82251935360911
-65.8007034772185 -5.9577181820266 4.92484268628785
-138.765610400912 3.06679903714466 3.7111793583756
214.064889673342 15.0543469041341 -15.9519124456508
186.9852148417 44.599621269791 14.3799325304487
