185.359164197827 37.6284066870796 8.53167534592242
113.751337573199 -13.7588549096332 -3.13306663926877
187.583981917354 31.857455957145 31.2733165414932
44.1460909626925 -4.87010540446697 -1.11255311936253
27.6113594300111 -4.03515466589983 -1.4449781087967
-209.174576969594 40.500185599268 -6.67294445884742
-142.367980725085 -10.1397893160532 16.7354139667174
-65.114310224122 -15.2478418779166 -1.32426210286449
155.803466046853 4.88393759311993 6.6885792627589
194.191897069375 32.7497672931955 34.9713091988948
207.905048861619 21.2392026744553 30.338768645198
212.361829936103 17.8946640589596 9.75867743335589
70.3287950101872 -11.9811859056639 -16.3076829551284
52.6661134915432 13.521006296662 -9.35844151053405
-175.133983696754 -26.8808808852952 -5.55035263188192
-169.864980964485 2.36747395992637 15.4389864012923
202.915212026612 -17.2371102426552 15.9500155265838
180.0574160926 -13.2086497154398 25.1620821681188
165.495804298363 5.32763100161691 9.58337068771497
-68.683023202954 -9.79364184518421 2.37944426231332
-196.616617157384 14.4011630103218 -15.4865071139958
-218.650659446073 30.9651248239694 -13.257403756125
-190.153248694282 24.2833496525111 -11.2279416818466
204.120476980873 20.8687016127875 -12.3617778900404
205.134288412859 6.78477494139273 11.6698384806745
-7.42082992530739 6.87963503515972 -3.96405223739933
142.923788384336 -6.42798055534973 5.3452286174591
-186.597664498131 -36.0239050173763 6.40766757672027
-188.636461280627 -5.80297860199935 13.8994874852369
163.651563193352 18.8957309150343 14.5929407203258
-191.785235974786 10.1952527042814 -11.9683416623651
49.4943060098482 3.64682626272257 -26.6501452183245
-14.7247372919702 1.58377813171121 1.6003376824382
-213.592133082146 30.9463538977942 -16.0349838933398
-137.073776546745 4.06862430522135 13.778573246101
123.781838200604 5.19014918508663 -23.6508700530898
-156.881567477034 -26.5364328817311 10.001360626598
152.446643587126 17.8157678966334 -17.334936827375
67.6663913158991 -8.1863936758119 -23.1225366072257
23.7019537860165 12.7086092041375 -16.564496963461
-70.2740521727418 7.56952597685955 -4.06202524304416
-183.174230414606 4.28372712385009 -7.6606980169896
-179.360574506568 -14.3830511486513 -7.8778264372045
41.0446767376679 -4.89973876031112 -1.63591246083101
148.734897192498 21.9747009535418 3.0069767414025
-145.222714740345 -22.2661331592713 11.0907570953421
-54.1080412699882 3.91569364892512 -0.145297377909475
-188.985984514817 32.5101891151238 1.46007426584706
180.607308124903 -31.2871559004638 25.7066932622103
171.138150510083 -15.666099778544 17.9588904596866
171.797518680481 -17.7669533182752 20.9540818210439
179.840127939171 27.4020062478714 29.4150562866344
46.6699605743834 -12.4981888424079 -14.0568551301729
200.326679447905 -15.2440229388851 -17.7971373019937
-127.728226367035 -10.875985926154 13.9919439933339
205.212280359354 -25.7548898491733 9.29677282890077
-165.908327230014 -11.37612840276 24.5821290345159
-55.464499166677 -19.1303878065641 -14.9914164041661
-113.047270732551 -2.32021176198933 -13.0210647041574
119.384456340917 0.903513197037448 -24.7916873016106
178.015989388787 34.7502438909266 20.601085823864
208.586262058876 20.0470228583146 29.138066448812
184.778583476368 -17.4464327135161 -24.0624044097147
57.8611700121644 -10.4760165614523 -7.90588162749923
159.371038234395 10.0264679810187 8.73477678282844
177.175553517055 -18.5126638037987 -21.7609723920545
-101.143279569238 -10.2096524092819 7.97925075993548
-189.746955813652 -13.6136940999354 23.2310200124202
201.542969742753 10.2670283936593 31.3472829689808
137.552848109892 22.3021977926989 -8.02072656058223
-153.805563604673 9.74497819987615 4.54094859319122
-188.517640054927 -4.24328931578054 -7.3889821394369
-51.8515105386653 8.88097230652244 -9.5845452557523
-191.577392772502 5.11739961358121 -11.987384661577
169.43558861668 20.1795723322726 17.5860583941674
-14.5342580504194 3.85328972553142 -24.6800212397235
182.361372702701 28.6329417838323 33.5931313316824
121.145489040039 17.6371323107985 -1.78507804070992
-85.057413646087 -1.52793128400072 5.31058389976167
-37.3162059282036 9.41573513930862 -11.2939433672655
106.354129052115 -13.5171418068708 -5.57626448239149
162.723216967141 8.23813283088783 9.47024138147062
116.813283759907 -0.823338955357238 1.592128580598
-89.60285877261 -14.6849280860292 3.10483649700261
157.682277554558 23.798576064234 8.55853356210381
193.099896032815 19.2793525106895 -17.3338682507568
-177.257810698145 -6.71763181900657 21.2465693993722
-155.013400110984 8.62560395592347 -2.10954599735325
-195.182926676077 -16.3269059025983 14.7248537429131
124.174746312524 -13.5140699572105 0.76504276576594
-210.708410183313 35.1743486705985 -13.5798677450566
193.458400945179 5.18942026968042 11.5200189947316
-159.843503306947 10.7309939272689 10.2044531406799
-224.247949808285 23.0018769136045 -10.0692123905705
-206.645921257078 1.184333854194 -2.2919577614182
-5.69613483321328 8.037502628216 -5.33779516216172
-205.948005372717 -24.3888262760173 11.9442248473068
188.16599471927 14.165979112199 -19.2437215804914
175.154812448661 15.210881024639 24.9376995191341
167.466799645594 -20.0136926426634 13.9525680995262
189.84280735996 5.57024304034811 14.2774165712031
167.737989375049 -8.86864935116252 -22.6480071377611
-32.621466170332 9.56246129827409 -11.1903507764903
-202.864499304526 41.8651001058403 -2.08322786096098
26.8762208970296 -3.14310540154508 -26.6202700403457
-47.6528775452116 -17.7866315617927 -16.8958737178405
-201.112077811853 5.67074891594867 14.3301943578862
-114.367936259639 6.11936814354113 1.84606941531516
-217.911016009767 35.9933826373162 -8.8188762981227
205.48428616047 -22.8186021578621 5.9011672994662
-153.735274576017 5.07955322167645 24.2449381163263
-147.755901772967 11.954933745637 12.7610471390442
70.555215046245 3.27731986601149 -1.10529059065097
150.87653527547 16.7701970462387 6.86358492398138
181.621537404856 6.61252759903585 17.1029387673928
203.784571571869 -26.4166221559887 17.3906383753802
201.495446348218 -21.0094826039574 22.1160813257601
47.0379792662746 7.10532383963804 -3.35711265017671
11.6422550151894 -14.6672652503366 -15.0409446080248
184.184794339227 10.2992612485061 27.7863147432416
-85.6662175916362 6.96871409594655 -2.24885729282063
163.242435744788 27.3225875437485 2.85184339705947
-127.851947592854 -18.578173643375 -6.43820510466683
184.511588598506 24.0160505850146 36.6172477296109
-129.153146262777 -14.7346131527237 15.4982889860236
-197.183775789657 -18.663041339024 -2.62362463074015
87.5831140061627 -5.88000131069176 -0.174676311039762
-209.559838259889 39.7380974240295 10.4345997389992
-199.716163185769 -22.3798314597162 26.69783010313
-10.3900140027244 -3.30055387069062 0.789544979199542
190.498556202436 35.6746306959254 19.159559793775
-105.197699937273 -1.7070581314366 -14.3895510398402
130.521693242444 3.14324868590128 -23.7275007920115
0.733717045184966 4.30034458352291 -1.52472792613614
195.044896827212 -31.2504759069494 1.8371931411709
-183.755792690123 15.7808589632932 -7.03103389896232
126.19417967585 -15.7148966542651 -8.10103153717989
-147.68914047108 -25.3627060333366 3.43268024948044
40.3485400466441 5.06445031425449 -1.52170205378041
-159.171914538136 11.5336897725732 5.45984156812858
176.02499508981 10.997510860252 -18.916546860335
-141.752932095092 6.11955461084311 -5.20917244299048
175.238990096382 -25.2336325900434 26.5183396554401
48.0931396841091 9.78668103311715 -23.5293530651131
132.376328257341 -16.0026564703817 -0.509414164615295
-202.515534218821 25.2975893580031 19.6512383808848
-227.429862723893 23.5120680535085 0.13400503279443
166.906592821671 -26.0302673377399 3.53514384094073
186.882446906523 17.1254874787114 37.5037368491618
112.55899354349 13.6718163891514 -20.2670081765411
205.401879474915 -21.0194557731514 7.60709669260516
-150.782390548202 0.579123635930649 22.5079503577231
-164.680963462992 4.24051637156811 15.9541290968742
-175.446886607142 11.2515884550632 -5.36383789946837
-135.687727650374 -15.2026199198646 -6.5352419760937
203.599414031231 -30.6386660599999 6.46968347426473
150.136457372175 -11.2512924796095 -21.5449497128266
-209.587183147565 2.76066626354166 -4.49287275094244
-163.183992336315 -28.6832339974275 11.7091354089877
-152.836530698742 13.7633471892633 17.2684556145756
34.2834894899721 -13.2340727032536 -15.0907507943619
204.13189822531 -11.3278385247468 5.41625146678889
-188.699519724004 20.0278673646606 -7.85803775058122
-78.3251600907075 7.88608172480339 -7.14173210151689
9.78043761487383 -5.75788229733578 -2.90828256953053
-181.230097845578 -10.3228910248475 25.1026609121438
193.266653678889 31.4647579025066 37.1936072960842
-197.483684884321 40.1749160704387 0.232175623588118
203.619783698852 -8.29194811486455 -2.82295503592794
189.123802545311 -3.45726818549993 14.093571302098
-178.52371112753 -3.20113084969849 16.5457680517676
165.248079556847 -20.3230742621961 -12.8689283384173
-40.0668911795653 -8.89193113529354 -2.63962469945762
191.900688471687 21.4794700336125 38.6872841613168
-112.317270382752 -14.8849035670523 7.52627231633155
164.083349123813 -11.0289692045696 11.3205230518622
-9.86793902338548 3.50821708659197 -25.140943755607
162.709850409049 -6.8268211019118 -22.381504703798
130.969178458558 17.4214357944767 -17.3341102124526
84.8121714624444 -2.81314130837609 -0.306862023392777
176.299494250095 35.3392028714624 13.2099811602368
187.943749968034 20.7815358327316 38.1620702851174
-173.739435533516 -22.8104022519023 -3.80764866356745
201.462748729175 30.1582037516601 1.90192536293341
20.1984093640197 -6.3471866958295 -3.98273221703247
100.45390677867 18.209776679576 -10.0765261533569
-40.5707165429377 -1.75993917282059 2.50102737008531
190.619468872516 30.6195395306191 37.3081069310822
3.40823327814624 8.82513571942711 -22.3914965998932
-197.322005548792 6.62657741310192 -12.5472609176557
-145.557547092999 -5.92624111989749 18.2517320794979
31.4498009013507 1.27603056700048 -26.9046816640969
176.361261211966 -5.28480454627941 15.9098193797796
180.580551001226 -12.2589974875862 23.3604262116881
-191.093151865791 30.9920342692391 -9.01319657719831
-172.262362607917 -17.9561625614565 25.549831988651
-217.645914078882 8.162225037109 10.7093113756936
-52.7249318543603 6.77474855166258 -16.5773682056447
201.664827905856 26.6305651863695 -5.39284811782801
-199.980874436463 40.7495139500263 -3.65453158508241
-191.742913331757 26.9480173305353 8.08081964500069
160.256799954206 -18.0077068161737 9.69733435626638
-199.472441207494 -17.6822787829449 6.05937106568559
-225.476090400094 15.6422908414219 5.72381201033234
185.343757603796 -23.2616882706168 -16.4134053128205
172.227271486803 -23.2361823148946 -11.7615872603851
-146.471542222534 4.72700645536525 21.8702844153656
-204.104299951524 8.22554949686698 15.3550697114934
-66.8943705026974 2.96949784498044 -18.6278508453297
-148.580659907288 -1.46060640833193 20.4938933388151
141.468419997428 -2.64778164152716 -23.6648622811331
-78.5908267410791 -10.4938106520823 -18.5931655889684
-223.412966573807 12.9054380318228 7.65257932110837
-78.0931237339383 -13.5183835335514 -17.3787675635741
-133.319365526428 -14.682296964851 16.4262359347489
204.40219409838 -28.5904947520983 14.2862043240269
135.987857752285 -3.58062317256977 4.1206816709467
-142.564763464345 -23.7387941771542 7.43784885592131
85.3670292248711 -6.05425192305772 -0.389645291247107
-132.570936064207 -5.54041785712973 -9.80610326835732
139.985949407334 17.076793856501 3.79368306033098
172.848734868272 -31.1553632688759 9.40340161642729
-153.555030122872 14.1941012428711 14.2531258635463
-187.610793480626 -11.3215549281043 13.4406559644894
158.289857747838 -16.4852128122956 -17.0982997694027
-205.590808867803 3.9043502953697 10.5378629449253
181.467174799312 20.0532129647297 34.5091105526815
154.533006921496 -20.8380945826087 -0.60340171892496
-227.106718323473 24.7227597101551 3.8399509185696
-52.2876037690637 8.73212271758221 -12.1819420082464
91.3532102726668 17.3870800487841 -13.940765370909
168.295456541488 -6.03274309397363 11.1174173564186
27.5741023892278 -6.95929782408064 -4.74810901185578
-152.528510722298 6.00655020544272 -6.37906202741098
5.01792945078947 1.78599335454816 -26.3532937752678
113.497127948321 -13.5278861088429 -12.9115954249549
34.3815009100859 6.43851451158042 -2.86225032246207
161.067505380677 -0.900546693053839 8.16357975865946
-96.6748204380526 3.01137776276907 -13.4172065507623
-93.3981919107915 -0.873394873359503 5.85929173504196
-169.996742739415 -34.6418653683473 7.1667979587607
161.67538985887 -16.7637774282227 -17.6567134008086
-103.137251692953 1.50094010772774 5.45240448304207
-169.67554818803 -16.625741122931 -4.20897570646925
-96.8806858685416 1.10584452435166 4.91871109967184
-183.999194102441 -16.2006862029251 -9.32809597351692
210.813634728486 14.7513864775604 4.14037375343275
167.456946974619 29.0768151300082 4.24825184997477
131.550299915684 20.6436505248648 -12.6482637191123
201.165895482192 -18.29905213149 -17.7923883906224
104.405659725976 3.97197528139817 -25.0989175814589
202.456234815801 -28.8836694930032 20.7303641189011
164.59654748631 -23.3854422975774 -2.27805971048517
22.8864715044771 -3.0978496391057 -26.6231812946794
60.6324527459911 11.7293443796087 -22.1613988315253
-208.546144409663 41.2152248809572 4.09116705843056
194.114215288162 -0.50836239049321 8.93364426722025
83.0442795383398 7.46842901612253 -1.9494436623555
143.985033909247 19.9133925566216 3.22845771245517
206.083856843776 30.383920231816 10.9122365111143
178.347100522693 5.57855491148308 -18.7342726979361
-193.93587806946 0.0832580205004715 13.291561270253
-19.2721013500613 7.34358930328893 -4.90192954181103
168.591279847456 -19.8947545786068 -15.5279394135607
177.713118231894 -30.7928226946032 23.3344955209191
89.4875890003747 -4.5624937463041 -0.212395011652053
-39.2080832963006 -13.3097703830972 -20.645904401037
-111.791713260864 -21.0046064628906 -7.60422506157545
-177.69113184939 16.896358905148 5.09799092495587
-180.56051211412 -32.0568880918621 17.5219135610395
-167.785055749396 -0.131879978709828 18.8713515351223
184.587314671081 -32.7445201702313 25.2201700545187
79.480693189022 0.205818214926744 -0.772021598614044
-139.044175477052 7.00540885612627 -3.246020629097
165.703410049431 21.1714807612223 -15.4496494665518
143.377462469381 -15.6607746463818 3.79624091866294
-189.484864654479 21.8392934716571 -8.96289775401295
174.124834165385 -9.42900902839273 15.7207838260811
-116.504268235563 -7.81468864309065 9.96173689940447
-45.2476346165485 -11.0371846727266 -3.00725588474138
199.509561776457 -4.64171244020885 10.4918116204008
-100.857701339041 0.0730440155184603 -14.513289879047
-131.512384205512 -15.623811481116 15.8844552003012
-164.019126949978 7.60193661418007 13.0119519113908
104.079311975805 18.388644765158 -8.85842384801113
-151.659291719749 -13.4273820109938 -4.80570852371301
-171.73205243958 13.765470308127 -1.49013303391793
119.299612324397 19.7542625118252 -6.11000538177763
175.484640114283 19.2221165321391 -17.6889316365875
111.236460934384 -14.3584452519209 -7.31744710659733
-193.193340059687 -29.7764765624357 21.3577485769913
155.119122818129 22.4090873951065 -12.503724887009
42.8454539785748 14.0997628064216 -15.3071976202586
76.2349996584964 13.8329295803341 -20.280084879947
-212.670107628378 7.6686335859377 -12.3896966762539
-135.595495164565 -9.65639933463818 -8.26941651025496
188.643870793671 7.81018736606557 16.8466982087218
-34.0993710694496 -18.9186978382552 -13.1010250741295
-172.18185340079 11.0862599722001 10.0889130251243
-149.671355277711 7.66426528784972 -3.14902148340128
197.407655466045 9.74178026316373 17.3746002233785
-34.1681663543474 8.11745212882683 -18.1445533545926
-197.321957815805 21.6587246941413 18.3625854053072
-188.801430055245 25.3277027854977 3.36657928576857
-9.78642391944531 -9.89094162092405 -6.3323358662346
175.863483439775 29.7712787729282 20.5353115815455
-180.230462962722 -4.06718092047867 16.4021210531891
-144.34552699945 -17.5957765510237 17.0526037085919
-186.840670757234 -26.7625641174176 23.941080783478
-44.176375707386 5.17324141285573 -1.66434466291419
132.275173504193 7.91051185341846 -22.1738535303599
182.401976693548 0.554311088832472 -19.726869645272
-203.541110379699 -24.7307011145948 17.9784648442198
178.583281379163 19.2657176764938 31.6942651000551
30.2909882807643 -7.10264774037874 -4.91013143221194
-66.764235370821 -3.735478600904 -21.6492858846087
118.179532447651 8.97794329127833 -22.7087274000462
189.723786662428 12.0465114670018 -19.6758122418585
56.0024302653337 -12.1940651418292 -12.1651667832145
-209.808186377195 40.7748619171913 -3.01835827100354
-124.47885325905 4.21207760998739 -8.57328694597348
196.790398439856 33.7958657742205 6.86014014252585
129.135409870579 -14.7609471816552 0.577045747499551
-84.5766669718941 -22.2313645832847 -7.34261367410564
158.588678146691 -5.22338732896797 7.83726386591081
176.78488598831 -0.551048340888537 -20.5113585733698
196.073279936839 31.0314182411579 37.0199185080495
-194.598714424462 12.6669699959742 15.9278465291035
-123.062790757928 -13.0282397208546 -9.65675866683228
-163.348839860114 -26.883303813686 -1.14174283489934
6.60456554144481 -9.65578968637163 -7.04153605130638
-189.015769287363 16.4765565500629 11.4567347369774
180.571688920602 14.1232041524437 32.7508651686693
-10.4332450431761 -4.75458534740949 -25.7748546837071
-2.61006431970156 3.28263257564693 -0.632229042052441
156.868505214098 -1.78473039886841 7.19413892593396
176.788933861913 -25.5577033691849 27.325831970979
-18.6999876001247 -5.44221687256731 -25.2703454541722
-193.643994161845 -33.9095468394158 7.41776950214299
169.237099489924 -2.535425537039 10.840803502605
187.346333427275 -19.9006490281314 -21.1153452379824
-207.400927819961 7.02661522631553 13.1362769316708
57.992594202263 -9.07206027332137 -6.11653738898208
-187.626004429245 -23.4521688851029 26.0244791947232
9.86850391959993 5.44311766345845 -2.29480680308291
-202.439157223902 -17.5307704885058 15.6521823187992
-46.4614546151707 2.57438428104113 0.959587879351237
-137.449300590847 -18.2599812310733 -5.00663223330787
-197.367066233451 38.5422641465444 -6.19296779466449
52.6996581429881 4.491761487803 -1.54307498495048
19.2429387466617 -8.77573575898659 -24.6296603709314
196.32009613753 0.170316776853119 -12.0404782686546
83.2920164337448 16.2989462608533 -16.6745959298938
-205.935837748398 0.997722372255703 1.25238401984702
17.1367421207434 9.10090590840069 -22.9079421786722
96.3928054794697 -2.82541781437038 -25.3006974246858
-175.913146880768 -4.77556515090951 18.4962839407405
25.0235234264605 -8.5872148781813 -24.5686212530159
156.519754005067 -17.3330279573349 7.58355065756477
-167.883341581679 -26.8861153483904 -2.5310731939737
-170.215758190049 -21.5569226558864 23.5682844274002
150.20934862719 -19.1679811886412 2.53955840141891
166.169241916518 -9.62735933215785 -22.6510467925215
182.694881517637 33.2097126759612 -2.29003195878418
-182.202613947593 6.34362854427622 13.3732179418348
196.661955705496 24.9838341912518 -11.4250866889355
-220.354015020794 7.37888185513231 -2.44085328290862
125.065557042997 -2.0820606129567 2.4635506071866
-50.6414904144918 -4.06772609881839 -23.3278748477948
179.931198797606 -34.3918394933868 7.022643295529
-204.688163836555 12.4594200301808 -16.8865843534307
202.705475486933 -6.05603273314927 -3.36705628739547
57.7159702964622 14.5782077795794 -11.0296918591157
184.695700888533 21.2776521317095 36.8575597839819
-4.93877308473526 -16.0354136541484 -13.9015936770006
-141.364307112235 -6.04050839004617 -7.92961597224198
32.3541071423965 12.7908132094508 -11.2631707330618
31.2462213640202 -13.3527182576966 -14.8671114917541
-152.748270645331 -1.93249191252721 -7.17591289904419
-173.910668745127 -31.3837601511825 -1.7509775592061
-160.657353021766 -4.44040998108626 23.4481570879924
60.4643382561986 3.96073106753985 -0.908507962946442
186.285899268174 3.58244989580343 15.0549261847949
59.705442720434 -7.56702558621854 -4.35780884618985
193.877253473793 13.7178320276069 37.236409145402
152.679381824274 -16.8837480197326 6.12882257986122
107.9669133913 -11.5127619888785 -17.3648551519855
-103.961998603027 4.53575647730456 -11.1536182612122
-201.492390600283 -20.9196865422586 25.9527614789434
-180.00873572419 7.22927058344924 -7.28017586354471
-197.574039406847 27.5860305055107 -16.483286679886
-4.57594534170601 -12.3691474591268 -22.6064511480006
203.566078503612 25.7908293384272 34.5639474788496
-194.242486310665 11.2846240179373 -13.1264949324869
-96.9903028761814 -16.4103997217873 3.641406426455
-198.207742533074 31.3778342966647 -14.9375473025551
203.186710177781 29.6190008672754 3.03156093753999
-177.052250599065 7.09514376961449 -6.72629464232644
-187.012853911059 12.0649829377348 -9.55573192477307
14.3880943580344 -3.87822251029145 -0.714229054727224
178.762502077733 -30.9462728694746 -0.68535190218581
145.070359263099 -5.26120461769128 5.45428835200676
93.2081081466405 -12.2397222069835 -16.2215570834984
112.044064671857 19.373859045267 -11.7002843328215
-212.543741344378 26.8710405008084 -18.0198628777169
104.434787670813 -6.10790529119383 -23.4807067064876
204.707114575833 30.8823812205727 16.0854024586559
66.4712731002072 6.84274659108273 -2.15809393874616
14.2808207430324 -11.3574537217524 -23.1356410045249
-2.27099980753989 -5.67204962783714 -25.7918561966784
-142.04245870429 -14.213675553322 -5.85800887942943
-183.526192161553 -35.1599571158654 4.2646848500284
60.7534873792984 9.94690812989983 -23.6599369750915
178.550069610462 -33.2644194711668 2.34654121169807
-196.671832814494 -28.7403826084214 -2.66398814428445
186.588109177444 -9.97011648819752 21.1048069000882
-153.812098943151 -21.7861846582532 15.6573557817054
186.526035886762 19.0118799546692 37.6058263938791
57.3209338418177 10.9107002840492 -22.8198314356018
65.216423639373 -4.57750252895579 -0.70182748988599
13.8623499906885 -4.90608821712109 -1.90418041227751
170.435777102411 -11.7283271078506 13.5723565100097
-39.3550469391039 9.32916763912123 -10.9619829790031
146.276229548055 8.75290740492883 -20.9332680638923
-23.3849375414039 10.0365474500002 -11.7014082483356
75.5934196130528 -4.769303278112 -0.469635354958069
49.4756392808195 -12.1490952780707 -19.3629815025809
167.171061577792 -2.06888611945271 -21.2494929132667
-47.9247942683031 7.54541899011083 -5.49778829937062
-58.659554631806 -13.6443403163701 -19.2661997612327
-165.181426289914 -2.47939300839805 20.9377025211231
4.58188362969099 -11.5710408443546 -8.98997914975475
-204.903395851972 6.25170101466136 -12.8788468803143
191.098160348284 -0.503815195380175 10.9876762427049
179.877503154406 -18.3514407469874 -22.7197289571601
-213.710032222687 25.4789239477471 -17.9153076767983
133.025916071675 -12.832343722931 -17.7032058644489
133.694534761687 -2.10581026842442 3.57661720803365
189.671040308926 20.3816985602352 38.4639812345297
-169.801892252676 -32.316078897613 -0.70873644353883
-198.74503552442 -13.9034670024548 24.1477323227341
-224.393003905196 16.8990949601336 9.56319796153292
-225.696507480428 17.2519304971584 -5.34674318555955
178.952914037415 27.4807727642272 -11.8541504421688
209.622576167257 28.8476725640583 4.37177588652381
124.700776550045 -8.38025069587042 2.57067525728395
-220.511095819154 7.19922478627933 -0.678268119571381
-126.154445755788 -18.0027906007025 10.2188391102389
-123.609104678467 -6.60584417302101 11.2307239318736
-153.783913610545 8.18924001132279 -3.49807969652971
161.935545148691 17.6178793045512 13.3750143561489
194.415596978434 -25.0782962918123 29.1843983378451
-221.207997335423 34.9145989217849 8.98215854154841
-30.5073156493837 2.1979146474916 -24.1043342505303
-188.789587769988 22.4245508391414 7.18865326880645
-79.9358095051127 7.41777617273516 -9.4037155702943
173.584270071568 29.5392911029057 -6.4733581339956
-155.706947243553 1.62310058310516 -8.19742728330217
157.443751895021 25.2388700127748 -6.84001987650702
62.6770242522402 6.22520653089866 -25.7113489616759
109.178101855623 1.60226262992206 -25.3193396760644
-210.03010811632 21.6376357236163 20.1728308471656
-99.447972847198 -8.537819281551 -15.9439580976292
194.85943245051 -22.791423609122 29.0677156976865
72.3692377012805 -11.5269806469616 -17.8685438987101
-97.5343842001849 3.98096273002265 -12.4416676073578
171.87259936255 -16.1910370275809 19.7373967775537
206.852007253411 11.1419826109839 22.1730481448865
-89.6679385365537 -20.9389632172009 -0.719374349185466
-218.409377321948 11.1376410485611 -11.9933646521937
-139.822548368186 -2.01960903127881 -8.68400265080771
-97.180386789316 -17.2246985358562 -12.4570895880802
27.6235109191815 10.6074151825228 -6.98626145779288
203.976800592002 -24.6234495358714 17.0572927708735
139.256919863356 19.6371119589265 1.55849602982082
201.342719309997 -12.3426106130583 -15.0061145785685
-38.3737903199278 -18.7907701108192 -15.4264268729836
-129.506607341376 -13.2115311862213 15.607499006026
-174.292138548885 -8.18040551364153 -7.34675082410647
33.2017414474582 -6.89860496766339 -25.3070681628415
54.9998986430593 12.3225253010172 -21.235089210713
-123.220811954717 -10.1375313480425 -10.6718366798571
63.7927220029863 2.70005213358811 -1.1855022083557
-212.590295355022 36.9974253763015 -10.8616335160048
-181.28451706485 11.4535072119226 11.1929405032829
-212.58653994835 13.7514625567941 18.5036014527629
-91.0004600820373 -12.0141038173367 -15.9857644618924
-182.004248617176 -14.8275369498539 -8.97413388445245
-118.658383782236 -4.40830390250474 9.44953365541449
-12.362377416517 -11.7745625570334 -7.87835678164978
142.300013602994 4.17283567720609 4.40549155585665
164.265756860671 -6.82311930121235 9.50814535924614
176.73479209962 33.2292050622572 0.729339280884293
-201.644817934893 -0.736258952861754 -6.10477018645629
-176.500284695587 -6.99778612911173 -7.71834586884878
44.3215579530116 12.4820322168203 -20.4459724699694
88.0101811563594 -12.8493767751971 -12.7465916784933
-186.749221150512 21.5145316927951 5.7895606593747
1.61721864982996 -1.43421403743703 0.756189647816076
77.163328655587 16.3395147047727 -11.9088557192179
-194.459651259252 35.5425092642411 9.53601090458731
-85.939023468354 -20.397255479549 -0.877376303117981
-194.145067706022 20.4780941077901 13.9592968396303
195.110081503542 8.59350217839256 28.5294117409679
192.039013560533 -17.4200130142722 28.8813136058891
-20.19460720968 2.66571115054512 -24.7742354412237
-180.321027786949 -1.49182659963035 -6.5623494644617
-31.4105576617103 -14.3036160733028 -7.199907339672
63.138764545424 15.5058986263072 -13.7170171529399
-164.211408271231 11.3594216413489 -0.486913177099026
198.192897379121 10.2344003277025 22.6039341886802
192.528333013974 27.9488428395028 -9.73747369987754
-193.391571388651 12.2252943099175 14.6825653621523
82.8819931983018 -2.13660674482474 -0.313828628645707
-8.43190589321311 10.7501761345332 -16.3456612220773
-196.172186726968 -34.0084187673086 4.77098084469528
-94.8876094098946 -17.4985420481148 2.97458164749734
-220.592258472654 20.3795664947073 -14.0256915741436
165.399756932437 -6.05297240108521 9.57133199024691
-167.636432155584 -3.71321030688047 21.5693623974734
-219.328206727311 9.11055028919117 10.1744632120727
-146.300160254108 2.06386293752852 -7.61694519638671
-148.90973473311 -8.75264905879205 -5.89899593569705
46.7974827398447 9.27735328474788 -4.79162910566023
180.51340577033 8.43548153978708 18.4114127940897
189.555421571061 -34.389349896292 4.29807783537257
-116.599791938233 6.2760357420101 -6.96976475539086
-137.154056204964 -4.27066896795737 -9.08357807675406
-183.388398623989 -13.9243531715103 -9.73796744330272
176.207765276766 -32.4066252083644 8.72238910579275
-191.298386526487 30.3651369277662 8.11209681585623
207.788636338568 29.6856400515884 9.34034837239981
29.7662147020207 -3.77310076570641 -1.07068591746081
179.485607743346 31.4130785503529 -5.32807137017427
201.579882826793 5.42882567777304 -8.57406302375411
201.78661024574 -6.46282704204145 7.60390213999459
72.1530040353646 -12.1602538260606 -10.4415307953767
-21.8772468500862 10.0691918615944 -15.3167381942567
205.642511999515 -13.8507481403984 -2.45701323257255
-216.31706874116 14.1844921204136 16.5614435742837
-73.2084302664143 -6.40852997316395 4.14045708319535
-85.5677089420057 -12.9908471741131 2.81117055802532
183.891520326681 9.96979336210471 -19.2172612180806
-200.327604038749 2.66910762208149 -10.913696498359
-58.4452610751472 -4.09136860355393 -22.6075016370913
-205.315496655204 4.89639442730151 -11.7622804688193
-32.7206698832013 -7.27598774128114 -2.21673088321687
-95.9962880252489 -0.873008985301432 6.2272607483654
174.481716873861 -17.7220619349785 -21.3094816903873
-41.3213422862132 -18.9406741305044 -15.3728581013395
-121.014268129308 -21.3121273670073 -5.47783421681788
96.44213531891 12.1161755023255 -21.7884170141416
-192.447906461246 -16.008809595165 12.6049164491185
118.838882615354 -13.237419888221 -14.6116441469368
49.8663965159745 13.8679561890681 -18.0328387249348
46.1046985793003 7.1926112714903 -25.2593672816665
-175.068576502033 -22.7273268305123 24.6746345761819
-199.774092019576 -17.5356768817437 26.8033701962767
-122.55310823387 4.28086001434246 5.84764961483054
55.0179454082449 14.5729420890649 -11.5343118358132
-161.500116108137 -12.1048792021222 22.9807511442333
134.480667900661 14.8269044045523 -19.1988098867716
187.146198754336 14.8965640698112 -18.6365853186844
92.1060081660491 11.1890784460821 -22.5399545077596
203.989435638071 -15.4755644409934 8.54985772211433
-201.504785611584 14.4885318502722 18.3062435736085
176.417708894094 22.6170022141469 -16.1848817247737
204.676277130118 -21.4344060282683 12.9440048328165
203.87030580706 -25.4904648619793 -0.631244394201631
112.201996581423 6.814210709707 -23.9286157354613
185.704517964774 32.4338754531407 28.9127004476555
-91.4706600794861 -8.97635118107507 7.0201689699529
-65.0108876170968 8.20840433691707 -10.515306550008
178.632841269108 -32.8629092095982 8.60240605356705
-37.7428936926568 -9.60284297549521 -3.27207253878046
-164.118479587305 -28.3585822146549 14.8677672463832
-151.103671522689 9.26709087484603 8.00306606270488
170.116731132849 -16.2051574392562 -20.8059936676601
177.269571345182 25.6017221930014 22.8910219057181
195.681897808014 -4.07643056872996 -15.111608445307
-185.360945360851 12.9809925973059 -8.08948283562541
-227.096338766638 22.2338128299557 4.27710961607594
-204.512635420142 -27.1796438917622 12.0397598064973
-221.802157449346 24.962061915858 -12.7171944591743
-165.870559165422 -27.360784934343 -1.83497952004404
-201.077089606694 -2.91969490559678 0.143668940493186
165.365162049385 -2.5975874677129 -21.483371323594
-192.812903201435 29.2173427331361 10.8978546646515
-96.4454013212504 -3.176707460379 6.21386752725813
-146.313425248197 -15.820840223898 17.1389864118383
-50.6720684311728 -3.31809119410847 2.87397830360895
149.812029365885 9.22688670686039 5.89725216890122
174.912470181247 24.0995895659091 22.2394988568284
-0.500470575339684 -14.9326972548025 -12.5173073248917
-29.9868564249486 1.83498163253205 1.87123160746809
84.0050639034019 4.43647732392678 -25.9001494449984
205.025819152348 -27.3543062235353 9.84884637121736
202.916804307923 0.672251654063308 2.47667439810111
182.235953811206 -8.73214789877552 -23.7801762001604
168.642702939653 26.6086219172206 15.2436950108262
-65.5345497605678 -20.9096082587599 -11.3288231428794
-10.851631679706 7.01808964501179 -22.6755036675498
-185.320624324054 11.5199103172268 12.3402137132593
-207.688725900131 3.11549296648649 -9.00186366614399
206.463056463009 25.5105738404031 -3.8364958642562
-196.174945978308 -19.2797681670118 -4.02186587855591
-181.68430313928 16.4148083490582 8.20819253660443
-182.951333930312 -18.7611383424727 27.1992015869381
-140.640202958954 -17.6713567635224 17.1865461855736
-206.585831225582 7.82461271029888 -13.9343485344449
185.766193793668 -18.9007199663583 -22.5250630293462
-171.155067194122 4.69433818577386 13.5954224884884
-201.651535003866 -30.9267932013879 5.24184638463209
183.321764339431 -26.1231560555778 -11.3149821553314
22.3479678460283 -7.32179203791353 -4.98125986961252
-154.785134078499 9.99975252149506 8.61214959364412
-222.419799560688 33.4299141857695 -6.83511674096718
203.766139350776 31.1147863104602 14.3359913277455
177.662582228748 -33.4610952925302 6.50370912434998
-226.718254079282 27.7869402653538 2.42324319728489
-168.704005035813 -33.5772265219872 11.3861862808227
-203.947901592875 -20.1130123354187 22.6917972782909
-79.444247805487 -5.2374903958056 -19.7038920505128
-110.381848960445 -17.0864504303688 5.74233658717878
-170.213464509753 -23.4380016741024 22.7075162281532
-78.8081842122095 7.06866994579534 -2.73691635132311
-188.703953798868 12.0966124793902 -10.5883012989759
-102.334308196032 -5.92384622292657 -15.6919016280121
181.849714082817 -10.7821550829392 -24.9043913295629
166.075351706615 26.9678121838259 12.2727928510395
16.9483788044705 -9.67483756177508 -24.1947332521135
-105.540179476469 -22.5326713327589 -6.04637066210796
-137.467898265385 -12.1367573527628 15.8040523343899
206.473419509577 30.9062434027651 21.1329494990083
-57.6728176086183 -20.6149084248947 -11.3639406427115
148.16740602959 -13.1602638171453 5.94853326947337
156.802035529947 -21.6083573220063 -0.219190027644923
184.424324413376 -21.6176518372172 30.058553967386
-195.317906556201 -26.0318843927044 25.3742616027858
-216.755793321032 24.8594685084966 -16.5444383151869
38.5335488037217 0.712021980803272 -26.979267867408
-161.887129537113 6.53194938876603 18.4123430800553
181.186788003438 -15.2330343283568 27.0965834897625
123.11374826301 -0.856688901071035 2.23694277458363
0.674219284260601 6.49193039665526 -3.57858540960112
-44.8871211836821 0.970425420010889 -23.1718375911282
160.692092559786 13.4768787624678 -18.9231053618253
-172.334993195503 -7.87949368689015 -7.32294749300073
-60.6310968264544 8.08981338572872 -12.1169152827601
174.347952801649 4.67803967056261 14.0400596561806
196.206932983057 9.63451617841067 27.0486638237548
-154.571859794712 -0.23551828705077 22.9686140265536
190.234500944919 27.0918238829035 -12.0031472387755
-110.575433327802 -1.56440021594764 -13.2165571258736
164.231307087555 -23.0173157457935 -3.5399384159885
-180.004812347283 -9.66201274349744 -8.77599624700104
-86.6532954286482 -22.4776822375775 -5.29808437914928
185.809672077543 20.308404881426 37.3607368347112
210.604470486366 20.1677550423377 25.3517896134734
-17.8258336488226 -3.40133234970798 0.88447072012925
-181.660354268127 8.53479249394601 -7.59860416839248
27.4823623004769 -12.0511346725816 -11.1148733805058
173.243050097566 20.9653138763043 -16.6521739065823
-97.3622732898953 -10.0908652395242 -15.7180782830693
206.132242491904 23.9734722518592 -10.1490093275213
198.192063366988 34.5035386020397 16.474049620025
183.070309107565 -2.28936473603004 -20.585054286962
-123.194242680831 -3.61863014215034 -11.5811959214107
-205.48775138984 23.0365581694262 20.0521969785961
-221.075695961861 22.4196276015406 -13.6675917915123
-206.054628553609 -22.8627198843007 12.6240608828343
207.22885939354 23.240309475197 -8.99505327424846
199.372400349948 9.9511155021284 23.7355319848669
-199.145310995122 -21.672923997594 -2.92475065318788
-116.385139418167 5.0157937940966 4.11880918284491
195.759826916079 -20.1502365242346 -18.3537541399474
179.098020256541 -6.2645041521985 -22.6010835729072
-44.4044814922588 7.22810058072776 -17.8528976578297
204.771487210746 -12.4300796678509 3.44941059042921
-76.9689503543137 -0.981447102266662 -19.4869176550983
-70.6293364800657 6.12560800818928 -1.59187195394054
-55.7906331258614 -2.25057831055908 -22.7943523542297
-170.593720160873 -15.449962762823 25.6998382931731
-227.23701490456 22.0959632401382 -1.6312350070678
206.44731273634 30.2915065095191 29.6868080843747
212.306883503401 22.9901679338154 8.35609441950694
-161.513081151702 7.96629271694231 -4.66026801106314
179.934706771852 -19.894227119303 -21.1956814482918
-95.9011126136547 2.72280585460798 3.73248528121751
186.783902696148 -8.28795894653604 20.0312276990802
-78.6865506318151 -8.81954453564211 5.19780358616073
-223.613670560155 24.4671946529564 -10.7470062232395
-188.772914215543 14.8300390113963 12.1597788048205
-185.209961906404 -23.2326916016299 -6.53395952864588
-160.403844752284 -24.7357032211106 16.038492901392
-102.791872051832 -7.91598670838139 -15.3729061210254
205.752635535453 27.3058696031215 31.9027977577075
-211.270106842894 21.179892566202 -18.8011136158776
150.070047778324 20.3101498202047 5.6193171782892
-193.822907174049 -2.09618179968635 13.0120823878028
199.660938775598 30.4290994532991 0.181235604605341
-185.652650312711 -28.1042326947402 -3.89581146295547
179.196916471322 -24.8550482808018 -13.0661889148863
111.01971134991 -13.6703839586401 -4.01451101711765
-187.71777506565 -28.7056540791288 22.3000027610365
176.959991733752 8.10662520586562 17.0469598005817
196.435118007005 32.0865882231808 29.4734968477751
-44.3562298410615 -4.11219493382963 -23.9063735738754
-114.434512112874 -19.500943945804 4.84436910828381
198.469613237707 33.5908687508811 9.14655635656353
-185.243062577135 -10.3798679432651 20.6039837480709
211.56301511645 24.9954355252782 5.4390990700707
-70.6741872889874 6.62969284624248 -13.1353503638352
186.381944157586 -32.9096349588302 0.475428774815136
193.899088583071 9.72089591542263 27.9815272086954
17.8333381413775 -11.2230118332588 -23.1611295984645
-220.499676406888 15.8736469979691 -13.0166138294686
57.5590252159506 9.02249857423735 -4.05503922145571
-185.166333759482 -10.8062395969454 15.4464493974782
-54.3610087931481 -5.0270623240188 3.15414031212629
189.117282080946 36.1338299809191 16.844945070715
-196.301506799643 24.9980727463272 -16.4241195074566
194.017017911018 9.97590239461124 17.8066055681336
-52.4357198123761 -19.4426807495168 -14.4877136581483
-196.123951392919 29.3921507874406 16.378084063765
-53.9027006341306 -16.0454185374666 -18.0581594494951
-148.297915864628 5.35708030478177 -6.68276583227606
-59.6190899988797 -1.2300532466828 -22.1967557983902
-187.864493486081 -13.7070757582427 21.0590495124777
59.6471922326958 -8.32613930678837 -23.52809754259
178.921693591801 -21.2741381079373 -19.2685352247475
-171.235309633157 -3.32705884515344 20.8944376029743
-113.787368520952 -16.841683289308 6.7812951504552
-203.822754531344 -25.9936789684143 16.0101698867487
-170.005445064676 1.13054748451457 -7.07007686857021
-189.780554979403 33.7143084592172 -0.505434322751433
-87.5183255470888 1.65316193380117 3.46530914566701
-186.819519582465 -15.475952369429 16.3668104192753
200.319645022043 -28.6207039654716 2.02461339977767
-118.491902387208 -9.03667160361677 11.1122015965394
-201.970293807987 1.49368684488008 8.44698145585466
208.113788597169 16.0674221618902 28.4161270640431
-12.4772589529887 -14.377812797461 -20.8752761845425
-200.574058694694 16.2979258280831 18.8820102375389
-220.213058182672 17.4423069223551 14.989751303745
189.267723173271 -7.16451882579479 17.5877704423489
-150.049243451804 7.79498348538152 23.5627087437907
-198.903416246715 14.104132286163 -16.1976959204912
-41.5364846611421 -10.0803902821249 -3.05285627478838
-103.910246592503 -3.50633706115883 -15.1858606756478
12.4425287579897 -9.13146719133246 -6.66727950335685
-207.322862444424 13.4312166510425 -17.475028139273
64.9383221991219 -7.23421259241281 -24.0863864452777
188.779727349378 35.2647734246596 2.99275037654396
151.408530136007 22.864936257533 3.25268746794259
30.489178085046 -9.48753513796785 -7.07435253767058
-187.269583775512 -8.96781382345504 13.9938750101937
-212.30126527944 3.70005449053665 -3.91225540097932
-99.6357908376006 -5.63570840575827 6.79838564034716
-135.406347529806 -15.0617896480821 16.6998376184468
196.591880977339 22.0567328139586 -14.4146038478467
153.093492712592 -11.0764106671756 -21.9295803763479
-187.489603096322 -22.789969012192 -6.83677788135446
-21.8673797763464 -17.7504940767267 -15.3995517136679
-162.562668106423 -6.45698032836711 -5.22576223889699
207.324641050655 10.2053953803012 -1.07815387921937
168.214769137206 6.81480570904673 10.7693548063775
-164.772369522764 7.98340554562288 -5.03840929467925
-205.446659803887 1.12980355023014 2.98129718418265
-150.584371107175 -11.2427767874345 -5.21751457210649
-42.0926071617309 -14.9883444195027 -19.4428387277723
-107.029957525593 -11.4117664577396 8.36765199374184
184.979651660911 -8.90965240731535 19.0670502616323
-167.546744761232 -2.80871614559637 21.0054292610448
118.449436190443 20.1917610457431 -9.45288259490675
-125.966875420055 -6.21456588028879 12.0596740801612
-19.1468968367439 -12.2443302051963 -22.3119750698847
-145.737559507961 2.13984823581877 20.8995242916113
-211.662616838292 38.9750951811966 -7.74886874271537
209.491486502178 11.2259934695978 3.92757935390234
192.385132734312 29.4245197361994 -7.59267347786207
105.765801973046 8.71847993783303 -0.163223223536194
-65.9816899545028 6.14676711486369 -2.0054505070717
172.843474470009 6.49859880729515 -19.0031182947898
133.637254757087 19.4091605908015 -0.239396454912247
158.344528121492 25.9771787171254 0.0599979891494625
-212.264517288925 39.4487630874778 9.07969124639845
-126.210040263274 -2.54109621330316 -10.7225976098046
-193.633104543223 -31.1343080534599 19.5682202504229
177.433749763749 -18.3446449818077 27.453284642089
62.459970427507 -9.97445682185405 -6.81351281007169
174.443658604256 -11.817064003986 -23.9566456160567
1.65569723091803 -15.5004493698441 -18.7113067158587
117.80061512284 5.23113440365834 -24.1359590447653
117.377729679221 7.39711128711008 1.32843126417325
-202.353626686955 41.9899115163435 0.128938845400283
138.922503099911 -13.3840186901605 -17.8895886190697
-61.553074958575 -8.73702424521611 2.27875180683187
140.999529792906 -10.4469931035089 -21.4221563449616
77.4621880050653 16.3802973925721 -14.8571222722968
211.058699309526 13.0168619661525 10.8570287075341
-49.955286918452 4.2962675046214 -20.5124232447008
171.991546322902 17.7021482221738 -17.8616719075221
-194.793043377066 20.1790270982286 -15.6920610295221
-91.8600291403573 -13.516695048721 3.37662535197823
-190.940935902158 25.9247749554757 -12.0507965264186
45.4734734649639 13.3556690046024 -9.94234494114191
203.215376324062 -8.71514362803645 6.07487838357495
-90.8277594794979 7.39157264897743 -3.72352770050535
-162.853964019156 -21.0100872602592 20.7785608068937
-82.4296833873316 -12.8568390662837 2.36733107881282
181.489172147054 -32.4006319934125 21.3486319321731
92.3940224422049 13.6216624999306 -4.21931950660777
-223.351084823589 10.8313138517983 3.58771943893542
-133.762578186484 -3.26711225597701 14.1115230927063
-97.5220382382921 1.55331388951225 -14.2657397123642
206.16802322745 15.5311162658124 -10.4495194382699
202.688178645221 1.83800360762653 6.50973811349226
-208.378743226071 3.28157230525434 -2.76009792067576
208.119559873963 31.1358483260937 25.8589333735574
-195.219502837027 -7.27010251961568 9.0254257930707
-176.214067673444 -34.4664732446716 12.4003297746963
-87.0497465437701 -0.483761294723225 4.77527606719537
-215.322349001222 4.37257803693796 0.184169175400614
-68.1962429027558 -6.40934789514826 3.93016422543257
159.980845166596 11.885985618749 9.53375292710265
-184.617922826259 -4.67328047496139 14.6618407728497
-174.041763253748 -7.00670138381892 25.1111047318626
101.41737937311 9.67534812492569 -23.1424888319245
-184.231783515902 -36.4224492104242 6.39510082249017
182.235434047629 -34.5888869767526 4.25204544350704
169.921692206775 14.3052268332908 15.049328095528
-198.334953893934 28.8777291131736 17.5661020631663
-204.538576616596 1.11181539484871 5.10742920986505
-151.688420321301 4.25789099207436 -7.77076347055753
-116.570279415467 0.448893981809224 -11.5878195383524
196.028903050493 -9.99924867394758 23.1800532764244
202.768027418027 31.333029789376 25.5989423324851
150.898114776184 -18.6130753600849 4.19443069940836
195.388249739443 34.6360548227774 22.9231411978058
-198.875270349369 24.3612971003802 -17.7401241724947
-137.585334683009 -20.3463295630982 14.8071977879417
44.8388696372502 3.6007266381997 -1.03594500564221
-181.46641500429 -29.6260960008862 -3.20623060051051
28.5435659101339 -5.65740097320199 -3.31160534161793
-123.196615357744 7.10901651046733 -4.56459891310195
-120.125599982776 6.03478563352683 3.32165708005648
203.688944519829 -22.9346539424936 -5.29233709588437
-113.249108697791 -11.8894682968979 10.2888529103055
-150.624139414532 11.3565117854571 10.8177904586017
190.277134592761 10.1360285281824 34.4963816137345
195.805429594133 14.8400071944935 -19.2054923124442
174.839737176224 16.4613590435742 22.7872744109681
-200.52991177276 7.42531844064526 15.4773071002813
-92.9086274061694 -4.5182740213866 -17.1997370502296
178.444198539423 26.8938676683787 23.2807160256397
189.322116707929 -8.444638357892 18.8869451372043
-48.0943550150923 2.23445229326305 -22.2976814125384
-76.120123372298 -8.7961698827258 4.83531059840463
-2.49550532356235 -8.52189439052357 -24.8310973328472
-129.998641349618 -23.2479764284345 1.72908574617815
-209.905042374897 22.3717063985168 -19.0232745860993
180.493077325047 -28.1397751219181 -7.82835837862549
189.249383556211 -14.9078059514642 27.737029434416
210.429014549832 29.0162722118292 24.0353934263743
205.550756089228 5.23480539302192 5.09102835754845
-192.272040279708 25.6718495434337 8.98511945636338
211.070408588386 20.244000695125 3.27106409807341
-175.482213551045 14.8452424434077 -2.64092851290582
189.155740708155 0.180343608650597 -17.3640370975464
193.105492050086 11.9785041760582 -18.6452085709501
-101.339650395115 -8.66232539359384 8.66970231684149
-142.532231488825 -20.6033623304994 14.6272571754194
62.3897449505936 2.97985603061399 -26.6587058425058
212.509053921474 20.4079869497184 16.9978572155212
84.7729070297121 -10.3831454902883 -4.63208833675702
-205.064956462183 33.1282605213173 -16.0627651049219
-115.392476987125 -21.6838553026696 -6.09889910855335
-84.4717687460474 -10.3187245438347 -17.770218956005
-153.002765171563 -10.4344209053457 -5.00617169592928
-188.820728047611 4.35896833487415 -8.9055368644201
197.039446870306 -9.74998671281257 22.1023798844393
-66.262331479296 7.3165306975832 -12.7445044207416
77.6854980500153 -5.54714817336025 -0.427976285180335
194.521971783903 35.6367242728776 8.96970450099882
-152.449211915004 -6.61174609877458 -5.9673596916019
-214.299504129955 31.8015041575706 17.189515807133
178.853239646082 8.26181862120037 17.9867114492708
205.238297196918 7.57193566434463 -3.42321093338118
189.761977934119 -21.4762562968376 -17.6164181022722
203.993367238823 -19.8241807839798 -12.3271828772889
188.029571371139 27.0338010543299 -12.7177982147014
-200.841354636168 41.3553929055191 -1.97019387602559
-132.358514416733 -19.2095317392078 13.5117327289719
27.6987273345982 -7.91161405982563 -24.8320914414405
-158.656613196999 -11.9087092216158 22.252706222864
101.25047506817 8.83029413945075 -0.69146319678619
-30.5732397989708 6.50844681281996 -21.259747004515
180.441491603483 -34.0165289761776 3.50305222231742
-131.897775721424 -15.557159641336 -6.88756041416032
-32.0133283832992 -9.40208746631496 -23.2233415740966
-95.2497118406736 5.04720707423403 -11.7420295010868
163.277266507047 6.37008834809499 8.70337146097277
-99.5933413455301 -17.8782565726283 -11.8076240612316
212.603843023726 21.2956051770393 10.2024764453451
175.258956236477 14.2071755303072 27.3836590375013
-206.295110319644 31.6931466385469 18.5893621455444
167.238319615365 -7.50585489364061 11.0848799396835
-191.061134499934 -21.1463776978513 -7.69976628210871
203.730086099294 -31.0628610844124 13.6111220769846
-162.955082026479 12.1179117449266 4.84823436639943
198.126926211625 -13.6298818550987 23.1092582172654
179.240628637436 -12.1464225957739 23.8262429965302
-43.9400462268255 -10.2679492812382 -22.0606524501321
-189.794835097052 -16.9463219130821 -9.48330075399281
181.451936521312 32.1210320236251 -4.36422529001054
-75.9564308513119 -15.7920416208483 0.633704591321822
-176.828542000688 -35.7178348798416 11.1652357750726
