179.552504064431 20.0350820158975 -17.0889715530391
209.735599901573 33.9648241289323 -0.783422755725642
15.8948190201724 -16.1726180595847 -23.1651048512201
180.899288176915 -21.0147203988452 -23.3231760627441
153.288548943979 5.73016751231984 -21.823621850486
-183.225205405652 22.4845406369234 7.75827722629221
-141.529952108573 -6.31335072479087 -9.02927762110335
-191.310270870288 42.9375868671115 8.71784350440895
-174.405741122093 -28.9957485134622 23.2901259805063
-132.550571553395 -1.88269732936464 17.5864536049183
143.512080548807 -5.65379170435486 7.2488581521262
-44.0334562294562 -12.6150717471887 0.654852231364164
-202.508877381583 10.502947606386 -20.7429326599606
216.788790052846 37.1092857984031 7.06089842584678
50.3048847580025 10.4097372482455 -10.7839635092166
187.221728341918 -12.0927784099082 -22.0987803794483
-183.056595658016 16.287042780182 -11.0027979251181
-31.4446588897888 -17.6794393343518 -19.7536339097907
-180.421158378291 -40.337635630111 8.22718886505979
99.1371908376 14.8176844639731 -15.6780333780842
42.1658922389765 -18.07901393995 -13.5455847642096
203.288409653547 -30.1907353360002 -5.17304167425718
-201.748130043147 -0.860992017101027 -8.35046224085125
9.88492663280287 3.27227330502269 0.368870919011257
77.2990074676533 1.90815557992212 1.46721968070533
159.954203240936 23.2553862568862 0.510629568120417
4.16205249276955 -16.5658693783721 -22.3822965478571
-159.409418965031 11.8674160235997 12.8678004500958
-155.098858712131 9.83265068389102 18.8435561262403
190.26453746183 8.33650257836298 16.8738024118744
191.200165607738 -32.2963864739073 33.2539215272727
-70.5021081719208 -19.2279790490171 -0.563456536666115
-211.034133303383 24.8479391917697 -22.2626655870771
-156.549041481102 3.61373982409785 20.1293053763436
-176.864603570718 14.2758800829182 -7.14390996791413
-146.173952503548 15.4388473198586 20.5836855575913
-225.795347973076 27.0015890528587 5.11281014930389
-199.116519461278 -20.9780366974938 8.81119074610033
196.82368950803 31.5673298544068 -7.78581681268132
-188.944276432382 2.96435668395757 -11.6014414335237
-104.383480261284 -9.35201825513574 12.5059143563024
-2.84503682355962 -8.67605150285506 -1.16618277225282
-151.126544171238 -19.3231536987017 20.0643649799895
179.322111144131 -27.6659084515454 26.8681687281346
123.527061374707 -1.77996580897988 4.92577428357336
174.095920916197 -10.618049318051 -22.3133923950186
178.360107379174 11.3975332845367 13.0551355294966
-151.896879132458 -0.562455858368548 21.8661348869544
-201.346344025048 -33.8662738330336 6.34346309388305
143.471568053303 16.456888218958 1.96944221177012
-205.221024310829 35.8058467095521 -20.1385671545333
-29.6249255076971 2.74417058427725 0.523918622602349
55.9215478002205 -6.95384164406168 0.548348006672195
156.398396581391 21.3303185124176 7.68826095210138
-181.600587851158 26.1745134378739 -5.31862452254951
206.8045674296 -22.137044692903 30.8346949485518
169.604174766594 -1.20913966623735 11.0552564607342
-165.472763756309 11.7673277178291 -3.86728335138821
180.02788925855 -25.7972772783425 -17.8451093889377
114.270667492843 14.4755201857659 -4.85157891941969
211.279871527641 -24.7006759348149 25.2234426370767
92.8787960038046 -10.8842923741769 1.85141523060092
192.835107999321 -19.8214673630712 36.7182605639262
-138.953374351812 -20.0353977461712 15.5142359054399
-184.905863628366 -38.1540902445301 -4.43744185911742
-183.802644744865 36.7326393593079 -7.88571839958831
-221.720523818217 36.5826288669114 5.54939764974165
208.156129651242 33.9540959199992 -1.49270275521052
181.3559953694 3.24852208227219 -21.5753203686144
177.847725542175 -4.09639624143666 15.7344349996607
-103.878986119693 -19.6975525353078 -10.4059390028919
-194.11351562843 -11.9452197648669 -10.8927672629946
68.7316124480144 5.00597465079789 -24.7989108796474
-184.120201034093 33.4764400977469 9.65413255032294
88.3215165039891 14.2102573390183 -15.6204227741024
-177.563858713564 -35.2028874367872 16.7485375825206
189.691191622559 40.4105670442364 20.8590977287704
-152.052274688209 -14.4329190783867 22.6389240788021
-142.003172702868 4.48378977053364 20.8445107969435
-155.188249710734 -2.91967045463841 22.6667183072054
-5.19497456517941 7.69783120391072 -6.26998951081042
195.373627009034 -7.74504502139904 26.0180955690316
88.9743422745837 12.2236892290878 -7.80588612770861
-161.421485650172 -3.37386076666399 -8.14305952172478
203.878944986556 40.8483886759356 7.69134669412795
112.023541571301 8.25407247726608 -0.569313132658178
8.60756967669902 -1.52623678058317 2.18147748817514
-192.247168192969 8.08356577334041 -14.6276689588274
1.07773652253886 9.21648817752367 -12.5951110012967
-209.385863749294 3.69932511802934 9.4815984303417
140.083041934424 -0.900795016219955 5.62455634162539
194.777244887574 8.28973354900525 14.7100543190366
-182.591588279638 23.8474575087274 -7.48673635676336
-12.576340809773 -4.1728150253274 1.47783812905888
183.571503934847 -3.63445938750004 19.7868133236442
178.679773695154 -28.5177667166203 -3.97599190348283
-201.317628979005 -24.8119288755539 20.7312251753969
-204.378408669962 45.3706998635417 -5.49748686377917
-194.498756167143 -37.0898647071628 1.85270781427556
198.309780842835 17.0848645573511 -22.4816821382042
176.767427202759 -31.0134008750449 16.9039648964098
181.382577924223 27.4971413347056 27.1781757728279
107.171529471473 8.19036685882956 -0.884844913900177
-62.780431749141 -15.4433326322769 1.79117522634138
-135.401256246971 -26.3740684445854 5.03757393648696
174.521667469316 18.3669032590056 13.4798047563386
-219.532766721838 24.1787377942373 16.7779062163789
19.6326509193026 8.2892016633021 -8.49495121689927
-144.966891860529 -4.96391716257317 20.9366134323206
-161.64281000587 -35.1158879070802 10.7118083411846
-149.477559886175 -17.0336297720733 20.4071162768339
-129.542471614208 -15.9868260266528 -10.1842997577418
121.573999423862 16.7142608945079 -13.2027489724539
160.089520816018 -22.1779232733552 -3.18237501265165
-194.068553021179 -9.51051380647869 -10.6880750864377
203.316406594344 6.28661021825131 -16.8851536631647
-193.815435022533 8.45890565077423 -16.858236715778
92.8324056154841 -17.886184953017 -8.67694100859147
-215.658148697565 32.3358422585735 -17.4279925819071
-67.4626164380596 -17.8077782460495 -16.6440573857779
-106.095029669524 -20.7833186035016 6.12634247270619
-196.232559125582 -16.1224548882579 -8.55256324819568
96.0405817188225 -16.1707986082248 -21.4272317856661
-111.750675646631 -23.8144510575092 1.0261055922743
86.4074622086721 2.0115856788562 -25.5057795016546
-196.015262427533 -31.508750214808 -9.74984367185643
-157.919850067151 -9.31026323041985 -7.62832444984392
-138.022389743861 19.5007980245812 8.81119711254222
-6.14534402477598 8.05985015142061 -18.3535718651218
143.844807223959 17.0921742558304 -13.7242300637776
174.985451198621 -24.3275667863887 -14.9665584985351
168.06571043576 -4.24859249785716 11.4906573482339
-163.357844602748 -12.2536364854837 -8.45799572970018
-204.546065493646 30.4869070387101 22.4927195674861
-128.403781443991 10.0624536949463 9.41576695627788
188.346175997237 -22.2723156013328 36.2526032475602
176.009983548653 11.8079748593363 11.783921089591
-126.154439876983 8.84559314345366 7.32492917237321
-199.434029385896 -14.9966514443253 19.1149150755316
-62.1987703901847 -5.19264273468466 -23.4000066265184
208.819551748464 -16.2085340367804 -8.98451100057046
181.132653316948 27.5568685681505 22.6425184061186
40.501863854242 -7.64889746845695 -27.7628022567225
-189.184767881382 40.8962755339202 9.75539730038644
-27.3360270952767 2.38252789938693 -23.8736714725874
4.64332053913888 2.49442076296784 1.02629097530783
136.94045734314 17.3031789990895 -12.8888586821815
-183.047102689612 36.7026263892272 1.18938192254847
99.0511622248872 -5.23485515351539 5.31353666548428
153.208583977829 -20.5313082996974 0.17737744805869
183.734561921414 24.510927215112 29.5840829657334
208.309005299329 37.0890300893106 29.9388911320637
-152.386491195769 -1.04011334836351 -8.06135299804149
-40.6195617944682 -6.40827346447784 3.8867828053101
81.0555852495302 4.9521262924616 -24.4538466524842
-186.657086478205 13.9974478343383 -13.9157041974638
166.472007487374 26.4940886964169 3.71938229250708
157.354961875671 22.6338429044134 5.65552796806381
-145.110384204613 18.1209094947458 19.8646902460158
177.77629154336 37.361381788862 14.5545636911789
210.024308023445 -25.055415391879 27.0474392235033
109.284334347458 6.88696848040607 0.0680346913657046
-111.16080187861 4.7313336029328 8.19002746713511
-146.663750326387 22.3683835924575 10.1781885059027
-205.096029399225 31.8222286682377 -22.1650639614111
-194.687623776522 -25.8248169001101 24.3960896958158
185.865358193554 16.2157011541434 -20.6524959182407
-197.522120692499 -21.5608958249178 -0.813325928134595
137.229914112534 8.87369043086329 3.49459503346859
159.810194646588 -5.68309467312534 9.530655884097
128.933528186616 -11.5353421611209 7.52356118395733
-181.620623368929 10.989743948154 11.9984856423468
-186.098001966099 6.53055145796157 13.4845277050789
-120.009818248339 -22.5712826529235 7.53510998054062
69.0997698948425 -17.6363899432224 -10.0730116474587
159.796008081859 -20.3237384205638 -14.6257406339307
-196.628820970196 -9.1354191337439 -8.80546048510331
-221.697107937377 11.4938009331001 -8.74029252674953
45.9125943338858 1.10118950321171 -26.7522262461647
142.859777526254 -16.4190774463504 -20.0046879288761
-198.733647458834 -3.81500990950114 2.8247874347642
157.625801260051 -17.1040822064337 11.1571677993795
-225.342084634354 31.1915165702707 -1.44897732542247
70.6881857466958 8.92074172623053 -6.36659465504094
17.492566707794 -14.4252374562681 -6.51063556710756
59.7008238105664 9.54656240675485 -21.8272325253571
-78.959686605349 7.98292576603348 -6.71318065792123
-106.508560753017 -23.1419142397235 1.79822786292273
-63.1077271146534 8.41811010390283 -6.27396656312226
166.627802205793 -22.2450112005271 -12.529640010413
43.2636285791044 -13.3481628864721 -4.72592027011819
120.406669038038 15.5439568770228 -15.3573477525682
171.12188742329 14.1282601982789 -18.7258634865474
-208.700535413603 1.11844259944801 -9.29107614596096
-172.727881705007 -17.1477642112413 27.7834422399535
213.287519395947 29.9721915763228 26.9913370080917
-221.450770899767 20.5361150235582 14.5641151085157
-187.06756535029 -17.3305911932896 25.3266142660397
-148.669596029019 -19.4020503100959 -7.79782585764138
176.578752447958 32.1104549123219 15.8608268640457
-25.5665948619147 -19.7794105686938 -14.0620280562391
-218.242599348662 6.58648017316822 8.82545970284109
-161.707527711673 -37.0810645257787 1.88899224075996
121.142036792251 0.0341116793154689 4.11081508984013
209.907816943056 -8.78624188169885 2.27178850507533
-11.7758914456767 1.86185762343512 1.41290804588375
210.580535797701 -26.8746745841122 -2.05766282277908
211.690112884926 -12.8935803811687 7.34421784916348
25.1081945912019 0.485246632860607 2.71114142491653
78.6932187398074 13.4541453843386 -12.4354994686312
133.827400529714 16.5800061767598 -14.0082687799666
93.4958416987454 -15.6993141049909 -22.2238878155782
186.567997274531 -3.85365012175944 -20.6277268509655
171.771899051189 28.6098068880282 -0.109787259508201
206.90137105691 -30.6053683092791 2.00596441046231
-168.88909793989 -15.5611712329403 -8.73217888952346
62.0726188518466 -16.9778126485208 -20.8393427514016
151.135370792013 -15.4632717728937 -21.3912218871055
-188.676945365366 -23.4853292335318 25.1378066978844
-206.746013425744 44.0033708262962 8.28131827852536
-34.6347768306709 -17.8824964087584 -19.2849966844919
-217.570742602198 3.88470662218895 -1.22495151422897
-203.415271591634 44.363849145497 5.4826105350096
99.5310750909282 -17.6760785122996 -17.6864434797172
202.081071326742 1.76534289785784 -14.2611100501795
146.877566910331 -11.8630710694473 9.18865384624851
214.868607820612 24.4159123383236 -7.63482629750722
199.153539420461 37.9526763511448 33.2878852433027
-127.254191521955 -10.0993806212897 15.9670301556738
2.12783265535022 8.7648825902082 -9.622585220799
-29.4901374112513 -11.1299635926025 -25.658151092907
3.79428804337853 -18.7652851223507 -13.2941810412032
178.814126596052 27.0179770141858 -9.5310862540249
-180.2584978775 -24.6565925250346 -10.539956789392
-190.646438632096 19.802672324787 -20.8832370336043
164.118929854009 6.65596889954059 -21.1003288436568
207.285201260071 -0.99345756763116 1.9130839744361
-46.6994668797799 3.65427180333908 0.902212539755885
182.0050594247 -1.92608965852024 18.2079356087615
196.939229698759 -2.61508684850638 11.0341062852379
174.82161691202 -2.32956523902752 -21.3685443842689
190.373853007179 36.0009343529242 -4.27909147048142
-186.278402813872 30.7591043796673 15.6911529396033
218.559144933321 22.1680098703191 9.82324144426329
207.970926308082 2.56706674221516 -6.15146427656239
-180.873316754412 27.230657532046 2.34672976470189
-49.8705439339927 8.32334155714401 -5.591871558413
-205.634754661486 14.8600137484121 -22.3111806736885
-218.651785390952 9.61289818515069 11.9216650730943
104.777600287241 16.0869254531495 -12.2341535409952
176.223857154164 -15.2010804340404 21.1406850256049
113.417555920268 -16.8821663714938 -1.67329385665656
-57.9836735534853 5.9028398541449 -14.1979148855128
180.346344522975 -31.5874125365307 5.44452431299756
208.881008863196 -26.9376520234211 28.4545717704358
199.806593885692 -33.979859736267 6.89715824399151
-173.304409214132 -4.88956952346507 20.5402904781706
121.002754609097 1.94237340827311 -24.6480042274962
125.946786846507 17.3021575620989 -7.07152131325216
188.777848758402 -15.416631477568 -22.7968291715816
-149.955610759967 12.9592046112119 20.159468410165
-218.589216058205 41.0095585708339 -3.21640550625204
64.0157516802988 12.407698561982 -14.1686007072461
-134.418369748438 18.6870007953474 10.6073915878062
25.4690309684481 5.4110773177817 -3.26621256233384
126.41071087603 -19.0590359439566 -8.74595379251602
-163.320429483744 -6.40090034564283 24.3221345470002
-53.1877397595946 -2.57886854214747 -23.9145482958202
52.687678389907 5.3118362498569 -3.86408129575758
-199.942596227405 43.8654101818831 -11.6473785485145
-181.400462019723 30.152705233637 -6.18188499307922
-189.854602555733 -37.7875027738898 -0.0383710570694058
-147.941130119743 5.3731668818653 -5.58897228948126
80.0070333176404 -10.073759007675 0.844972635508768
-163.515036727176 -39.5865301260439 4.81581213909559
-21.8827484026759 1.79438276931429 0.890789472366765
175.845491237844 28.4264342796886 -5.90391883171733
-111.546529086019 -20.4777854253666 -8.518025244404
-165.259755307149 14.3725053182958 9.20312513713885
-160.641596960636 -30.2965245345535 -6.67972979763667
179.295033003072 -27.0965364325887 28.5115992886541
-138.821100088833 10.9705726043226 4.63549631829264
0.782567560620774 5.69785525111694 -22.7154239110164
-201.092846031352 -28.7283139467252 16.536049525991
93.1765785111475 -0.663445255449198 2.95950728488697
212.009318577315 18.7102719055425 25.1603082764487
212.614158666555 8.98985298976753 4.39897252818971
-94.3322570810419 -7.6447639012736 9.30705777990838
-202.999806210208 -27.2394919004095 4.02131156813788
-185.342006250748 -4.08287373784155 12.8934451021358
-181.776419138765 31.27041153869 0.983917853581381
-163.198537505017 -36.9317237131795 10.1421798752015
181.230747291438 -7.43008117277627 19.6508553636197
-183.15676535373 -9.71565521291693 17.2760130050019
-93.8620862013886 7.35908482968854 0.100798523854156
192.54375756482 14.2984601891235 -23.0833618287016
142.139254076656 -0.951662221735064 5.84136065143325
1.65557384393272 3.96817905541085 -24.7479707679035
186.904662893015 35.8089740273403 -3.63624299623296
182.475269828501 2.54937045584976 17.0047306274671
-144.480375278417 3.90129094925007 21.2429696311333
-198.809275588021 -32.9899856093982 17.3045978137469
127.815397240924 -15.08149756655 3.13902737338886
-88.7528558413459 -11.7826398176627 -18.5948011292231
-223.650091817794 12.3517043289851 -4.42778292133841
15.1359531551658 -8.29458120214825 -27.6637224607014
-175.995394466023 9.61631867708891 -7.69211904739122
-160.127766216142 2.65187378742439 19.4373148131533
153.111007516634 -7.98296288755552 -23.3878519363911
86.3499212253363 10.282200443239 -6.0860864266445
167.636600726407 -24.083055495749 -0.517427343583712
-187.851911684317 30.7790398050339 17.0418755612658
143.151352366134 18.9688906297804 -10.1116811013194
201.513841014153 12.7521257049833 15.6101883311496
-138.287832728881 -26.9600042635745 4.91340873480974
32.9755657514074 -18.2737153310317 -14.1170306138201
-145.438249350775 -0.902294491335841 20.9420747761189
-160.223513120408 -26.6673598669796 20.8218935949935
-124.76904324442 -19.6093170647186 -8.86414488723208
-199.750861392281 -18.5673241893109 24.8768101388421
140.352708080813 18.0295128577882 -2.74046044385169
145.721997934455 0.794395117994239 5.74311772076074
-140.819985504815 0.147208629039543 -7.70142788744881
-167.742430360014 16.6746402636668 5.89005836404309
177.096419513721 8.21071232926681 12.0546402609382
-168.133825651802 -3.21202459232014 20.683849453503
164.316315532497 -9.83094579044305 12.4782558722881
-93.5368807521249 3.90085799701591 5.08366685501851
-91.0031825999275 -19.9374336984378 -11.3851425269452
-104.626446364354 -23.142102481894 -4.45666154373478
-172.140144187938 -9.95600281375437 -11.0408612845089
53.7687084988815 -7.98252815161766 -0.193520090458612
177.911951580067 28.1270569476128 -7.37562123114494
-128.685340942749 7.48287598802893 15.0413900251337
-219.255470594909 29.4405874967817 15.8404905662024
27.6561341589036 4.6888390925696 -2.09268372278452
-197.245352490118 -14.6748869702667 -2.60374955788027
-57.5816828037932 -14.0226513892367 -21.5389341394083
197.978905847852 30.9421312572378 35.065904422757
158.143168667638 8.49381051690096 -20.594782468172
172.636011820703 -23.7913377965288 -13.5362179818804
189.347717123084 15.3342852004783 23.9090213613847
149.459872766074 -20.3648320736826 -2.30216932230042
191.802554409182 -35.6519633960892 20.1675337435891
152.524564218115 20.4166906279071 3.42054911357277
213.130116597479 10.5913645569054 6.27310766348385
-81.6219116880724 1.08369923460178 -16.1215822638982
-146.32323450755 -7.36331836515756 -8.35695352896652
169.816235024517 8.62182813604345 -20.6477123126866
-112.921362458516 6.19509624472922 -6.04730522553263
-130.757398689179 -23.6824393897151 9.13182413960397
193.36189846113 40.0950987113819 24.2896791798823
146.545166712772 0.52784615019084 -23.4515936162368
87.1619122729819 -18.2880111772176 -14.143912889312
174.81674290421 -1.72845412438105 12.9901338296138
169.604672879503 -20.6733199239323 -18.1575580689816
-122.004982025031 5.65883977818445 -4.59668603762693
146.860616466843 20.0188138134381 -4.61362093732751
-160.93276369769 7.84883003058922 -5.15578306202038
152.029059868639 16.6355538924126 -14.9085070166889
24.7537154686827 -10.190549287821 -2.73700829185963
203.192552052886 24.8672173934997 -16.401323710032
140.413420817925 12.8888433541427 -18.1216788727738
87.7162164690715 -13.423973432383 -1.01908636034286
27.7635949310898 -18.4873566479682 -15.1178148163356
-192.769929515973 -12.955987979971 6.71405026207011
98.8189018245333 12.2189735979504 -5.87277563960188
56.2358268188398 -10.2798076761326 -27.133207878476
-130.562402716106 2.96204795638761 -6.8994685794885
158.582083793066 14.5256006125122 -17.1231271592897
-226.46733239253 19.8260456496299 -2.47532980452995
-145.784890471742 -20.6844767090622 17.3948611842128
146.020403672974 17.4808138863739 2.51916416397722
115.591475355147 2.33626511813627 -24.7296162462864
183.534700486981 -29.109441625269 32.7239525342033
-205.798923993074 2.67440748962213 3.60590454906402
-195.114506729942 45.424033960148 6.28719632697753
114.781424707679 16.4776960433638 -8.59337416883236
2.12904977689225 -11.228076475785 -3.05123907505132
71.8424320910933 -17.7992846628733 -18.6283761150664
-195.759174351152 -15.1770642767777 3.56114746803597
-207.101990682543 1.23651567822669 -7.58498325191829
65.0059158893194 -6.74500156103869 1.47370440653757
-165.943611177792 -17.3291344233565 26.3412536656138
141.514230059461 2.88379127036196 5.06978167558084
-202.782012825196 27.1927569998046 -23.7813377374523
-81.9934319018852 -12.2787503443301 6.77374998931114
-207.342697272894 39.8522060301263 2.91646420368816
-194.86411093192 -5.82829425467084 8.11242964807725
-67.7663599285903 7.92126188837453 -9.22785211511947
165.886664412082 -19.1349492135162 -18.9883960403805
-179.042873428574 -6.81906909832206 19.8847341160064
-151.441459148642 20.7136463931429 9.86677663197599
208.47609355539 30.0633787617561 -9.77686273547468
-188.102858889907 11.4194008098056 14.4389300199466
-130.22468346199 -22.4985119531705 -6.11897156265566
-138.115353127602 -25.9838073431808 -1.3871357491561
-68.8962012720388 -21.2108738267923 -8.03438228711605
-193.180139275938 35.2420030696116 -18.7443852475333
-168.602103300548 15.5947395136313 7.61801352874952
-28.1399989647703 8.67109471158196 -12.0587117510995
175.621190453722 12.27515754657 -20.4706159589068
-200.16524709848 -35.1361806011224 6.15061678874816
171.034229861782 -12.0131007914575 15.5145899579981
-188.051161677837 -14.8114876380581 11.4440091754087
151.291489923365 18.2777819462866 6.90032226076157
-219.737275121449 10.5455918459273 -11.1226057270662
176.577455753747 36.3140165270653 11.6988602239215
24.838870956453 -12.2734399458325 -26.2920264162556
13.6146339991133 8.2393999028784 -20.3738016386976
-223.808607306087 34.5938360782284 0.690068476978254
201.636332312486 -29.0213690671014 -12.7338632180888
186.689762260543 -16.9502039260654 -23.144113617736
179.168605991794 -34.2958131325597 17.5560339269041
-103.048250771951 -12.838192391404 11.0669969823783
-11.6855675793463 -1.19342913756109 1.79882123953313
195.309324783372 -8.69585982458904 -18.7895175696581
-226.41231354436 23.8128703314197 -4.11474960153884
170.996557319942 -7.44976589246261 -21.4827050322839
-160.034001727452 -9.55492097634642 24.4496443338399
-221.790341346711 15.3247355591205 -12.1255878840827
42.8962828882723 2.12509922575465 -26.4050357784617
-204.570066898303 -25.1274912477922 10.7661015099786
-217.709940210803 19.7223446662097 18.1883194574374
145.878547482057 13.848458238521 -17.4130082577149
185.735193856762 38.7996566455113 28.1610209748967
208.199935351716 32.1062597755288 -5.72207674855095
-111.730796225536 1.82333912105786 -11.191752127263
198.266345406634 12.8340636729381 29.2708860935719
-59.7445645423045 -17.7297739998668 -17.5428150903238
-224.611694078304 19.0892167485447 9.06242047636035
107.334354992457 -8.61710303986824 4.71105181161161
177.407681897167 -16.0093271604262 26.6938502373497
84.1565605022091 -8.42522808447241 2.27635242680308
-67.2607268458931 -7.61887540592619 -22.8272548545017
-143.004045274129 -10.5974343129605 -9.0201969556063
-186.23946386447 29.0702303008914 13.3570672118034
171.008478861342 17.8149858655633 -16.1218078047418
-15.5009540241526 -0.474122223345719 -26.5476549356751
192.665542726717 27.6953650748419 -13.3591883454169
-213.197632952302 25.5394905550063 21.1225143444996
-186.53967058557 -36.3596275618077 16.3256762835859
30.2736964352536 7.7591855626687 -7.22363043900721
111.68202715493 13.3703229006775 -4.30142184389745
135.494735292288 -19.399512586085 -5.58456744332146
-186.067231399089 -18.9149298347694 -13.3377271769828
172.092677989532 20.6570907783576 -13.750680214484
117.177638666843 -12.3276429646195 3.84477438108344
31.1104156797731 -7.52333664081724 -0.93660904331553
36.4242353510762 10.6034712395239 -15.1483944576062
140.77981200384 18.2571717616855 -11.3836665917389
38.9654081759158 -18.3701060907352 -16.220564519905
136.754805813774 6.71102112544938 -22.054217486632
197.188022921747 17.5078384692872 32.4240790276329
144.374316961863 15.2756307106628 4.1452760179323
-204.586155224838 45.2013316623977 -7.42569489690128
167.524691580258 20.2144721210306 -12.9853897710779
-185.093744859357 19.7567829353275 10.9197850878499
185.25976964204 25.4743905459282 31.1742978926035
165.322305438923 -6.85814263548242 -21.7037960196216
-168.845521647043 -17.6129747818802 -8.24550919917881
164.352699937852 10.7048730140372 -19.7352744038105
180.475988339291 23.0951615008634 23.7065232906847
18.8935553020796 -7.3636599859535 -27.8602257602033
-225.905871610197 18.0929846531104 4.09145128950884
154.838230176411 11.7516153995699 -18.9982800295336
44.1528859372484 -6.48747170982129 0.10644488497805
-144.317820170153 -22.7927075397588 14.7279237719587
-182.040630502851 34.1904851897089 -4.06929490817444
90.2974353362503 -18.0604889957195 -9.80704805518165
153.015500629716 8.25712651070163 6.88694196877921
197.63917633708 -35.7669230614534 10.4236387079908
-136.283456720986 20.9860594481152 14.6081855043382
-138.650370571979 -10.208050354516 -9.72945348640213
208.610992248863 31.3826427005871 31.6018728143758
205.476235294621 -34.9735423831769 20.7519338192534
-208.809664771431 16.8886784268053 22.0442774184031
63.4228959047802 -3.25257267428003 3.01870749559568
-193.204071587322 45.7026853529219 -1.79879334036167
-217.559493017833 42.0531437750965 -2.32748192895233
192.957213358029 -33.6702772472607 23.0388700768756
174.527949940916 9.07844911523367 -20.657567706923
-107.291995198998 1.00402949104013 10.0066987053699
-194.434524846798 28.3744654298511 -22.3281290889011
-210.854379304698 6.80565944723512 -16.0213446724637
-187.618570608097 26.8724069643508 16.5602445652965
200.539579042351 -1.36641669457373 8.04332687279892
-167.084969186936 -25.5686614961435 24.1204266818256
-183.500928807506 36.8686774880261 5.64080245611111
-132.190630239126 -21.4446803233278 -7.17951395249641
202.283086443514 40.6422225705869 4.21526981053025
-184.260330276421 -11.1686676910463 17.9677065398575
-74.9454805216121 8.17143373929908 -6.85165470749818
184.828204262776 -30.0360286819131 -8.04900528002931
173.674723979649 25.861366239676 -8.18536772624625
-164.770097094797 -1.63174737397055 20.3706406890516
200.0548936155 12.8203259938968 29.0418107970933
189.200304149214 42.3873324922669 9.34952001768528
202.018444339071 -33.8367493910553 23.3566104094919
49.2199189936632 -11.7854958997802 -26.5148979858591
-225.582663947891 27.5244463192217 -5.93499821113971
210.965190635886 37.4865537276558 8.28260454888426
-188.923982918767 -34.3198135217885 -8.32039427980778
-196.947343723304 7.72950738024753 17.4290258722999
-190.431517606566 -16.4653621697499 9.0738865183852
88.7107202778764 -12.390738419473 -25.7288505973059
128.079357195121 -6.79429663839529 6.98119063329556
-162.476638430188 -1.21474807058104 21.6832310793456
125.098440104663 -7.89722563208403 -25.4739868276546
57.279912615499 11.123408151346 -11.4481460001645
-7.94741644085667 -18.9566916060931 -12.1722404467419
208.930552462208 2.33760598089536 -1.76142805738587
-219.599147381196 27.2579315085378 -15.9758123335475
179.557966990373 36.6006921833028 7.08571412747434
172.995177485956 30.9030653077284 5.99716012465911
-191.65148338769 -11.3783719051055 -12.3975063031906
-211.109125604645 40.5625126971894 0.34755610543698
-97.9893290957112 -18.7908670972848 -12.0701245354362
-149.431799773787 -0.53489810046332 -7.81034412244446
98.0994956167741 13.1059884439303 -18.2219846384213
-98.247288839322 1.94471076850044 7.52379700453146
33.032487787569 2.22228506918076 1.92224816517191
-180.128701091971 -36.9982229506702 14.9536842293309
-123.529226037752 -22.7014948031395 8.34802916072116
75.1608832863112 -12.0830594508538 -26.1155927009941
169.664045685679 3.00476012149818 -21.0154657197047
-146.822266564882 -15.446351582993 19.8505739976402
-151.883764629188 -13.8313445190567 -8.16786355114105
196.985437539764 -7.7165813262183 27.6261747132238
-40.0630632441026 -14.2351923033728 -1.11097675772069
197.58378343214 -4.00856471039449 13.1501797912103
-166.006922076081 -20.501716012664 -7.74694380273223
121.355771163009 16.4268945108787 -6.48848751925307
178.107842840562 -19.6512181606932 29.1993740344963
35.4283697538102 -16.718380383138 -9.74155665709999
114.926306970086 -17.9059184230711 -16.0736892095592
-174.073207137385 -30.6098723282552 -9.32778577528777
98.2887490290106 -15.2428444562235 -22.5280473924652
15.4110973828669 -18.2349995008383 -12.7153960860449
-209.246538504506 38.1388871073813 17.0471468222928
-204.736252752904 4.22918860267624 12.4875001735032
-191.953886171562 -15.1829393854139 -14.1191401144621
-222.116170037422 36.7446303778207 -4.48144740603958
-171.074705845492 -3.55883150117026 -9.74597595276866
179.134755542908 20.9726018416264 18.6958498980484
-149.662307899471 -21.6480983940243 17.9781041699203
75.7557535727597 -15.6183041173915 -4.85935373646023
-143.725972830288 19.1074397221241 5.54097592933053
-211.802547298183 42.072509225073 -1.42095320183919
-203.382009912927 0.310792576003597 -8.05411961357987
177.270322917356 -2.56229506861828 14.8579556603215
-203.539297312843 0.242079001693296 -5.4993498099646
168.178882258449 -23.2288047828416 11.003600712613
185.699459123842 16.9754153724722 28.3290683673733
121.960036942191 14.4223829862657 -3.68701177537
185.94601919068 41.2712420096979 18.7500581946732
214.716068458086 22.2606677409394 24.0197564587559
-209.21801547038 35.1714176716954 19.2691576629807
91.5374692943557 -17.5509369792688 -18.4761638869088
184.95181948294 -28.400349274326 34.5762289119933
145.347923763251 -19.4644637574867 -0.374512006356404
-145.666039017814 7.12684043301606 -1.09994924814769
15.4253713135706 -12.282563233669 -4.37113200918352
169.691078913197 -14.0381056693248 15.6632786563787
-188.564325334836 37.8871390015985 12.9167977837701
168.716436989622 17.7675826019884 -15.665470628607
13.9272280796041 -1.10485001557316 -27.5808192743806
-37.5363440827184 -18.4976518926773 -18.0601414015416
52.1713418943105 -13.0242717503591 -25.8123631407219
214.833455060244 39.4346545890044 19.0894435525451
-198.91499798671 -29.4933232596307 21.3481967864462
-59.4386345674633 -5.21671289865246 -23.7814817642461
167.824632868596 -3.2822084939489 -21.2589168695473
97.6335770154637 0.820265695127798 2.6812586787161
-120.059286723696 7.37493732116704 -0.445203687122024
175.167420022272 -23.3502627241158 20.0321554261083
-149.908888979144 -12.108544514994 -8.28912434384286
141.739547107251 8.91955082739876 -20.7774049085534
49.3690741241191 -14.3041194102527 -24.9401146259477
-218.38830946647 41.3833426949582 -1.47130963935177
169.316118396116 25.6702263647552 -5.55224704061214
206.92475811713 -19.5449801749483 30.0558100161778
164.064368343698 -22.903076998747 -6.56229771251813
-26.3551998625032 -13.6623362013714 -24.3805878053461
-160.108047209168 -30.2177551200988 16.6979410799993
152.417559864698 -10.4579572383299 -23.3249129664418
-89.4593188516686 -18.6593835778394 4.7308631557615
193.970609946193 -2.71935291383335 15.9190864904998
-18.4842683066901 0.538870656581119 -25.9552127732242
138.801082539757 16.2028080580566 -0.609922601606368
-215.802510986185 30.055963807934 18.48255190857
146.978396399136 18.9278461349964 -0.51701078672292
-33.3480483368263 -16.241737395521 -21.562048235609
-119.312581912912 -6.36524769432174 13.7456978725378
162.248960815652 -21.9814460947213 5.54967664811357
113.739976351488 -7.50525054224509 6.60130062384288
-183.71188384378 33.9542489351396 -10.8023793458861
-108.222690489156 3.53415808686536 8.67036734286905
183.194659271646 36.8249727843331 18.8395149993438
-124.030650342983 -4.92428330668522 -11.8574254404985
-140.545727795241 3.71934841413409 20.5359276213324
-217.797694104959 15.9988175994362 17.1857484396403
55.9120247028173 -18.254394726164 -15.9498982256455
-0.655609123510996 9.1507640923136 -15.0518653358145
-210.43839712893 43.447861706453 -4.85019909105603
55.3676002587129 11.7852268990613 -16.4018863771575
-188.423531341426 -1.17098866660361 -11.2453346123011
183.56772653752 -35.504437630458 16.7370747511821
-181.247686601895 0.682682175038148 -9.34609336713947
187.093111950551 -8.99431984930088 -21.4046756954916
210.557659646631 -20.918872776481 -6.51476881599493
-189.486849657111 18.1088632710244 17.4561308538839
143.053288078553 -19.8585555839769 -10.0587526441289
-19.6792971817829 -11.7846332278981 -25.8415217835227
130.359574909169 10.4888106840497 -20.035558482122
156.84419718829 9.93436834815095 -19.9749751574093
-42.2873145151174 -11.3939587873542 -24.590912995242
-170.506379333749 -32.3103340715073 -9.78584179011163
-149.849111048932 2.9062269473983 -7.36460915323368
-164.334440393959 -10.5855138636326 -8.67412361404826
191.132207988413 -37.4111472584079 16.8760595083055
187.261049876419 14.9616333945817 25.1709957827582
182.228679193764 26.1800041618096 -12.0613792006703
-101.482904830401 -7.00972722282185 10.3497765132198
-215.40047974373 1.99222101659727 -2.04506796090899
69.8434954580006 -14.662263407946 -24.1539351043453
-178.814634360709 -35.3764180687023 17.248136045713
212.458721253458 -29.3514216329043 19.4509883633284
172.866247243267 22.5417977139371 -12.1580598729691
163.818481090991 -11.9437746589399 -22.1235484712825
-46.4988239369105 -20.1226576020583 -9.35215102677134
210.108128573117 -26.6757363882309 26.6311820392378
130.986741660291 1.53472325925714 -24.3039245863209
-72.7179560173614 -17.2176952991765 -16.8150885149929
-153.637502107983 -20.2533466802672 -7.60034423993032
-155.489559375312 -29.5892527581377 -3.91378698275729
-203.678333236271 2.52678353809038 7.00939629940993
-50.5492590344504 4.79614090974333 -17.1217308529112
-169.880308168053 -5.99792805522761 -9.26195836819416
208.955868114872 14.7072238880109 22.5011283954458
-149.769387216647 -15.6644727670144 -8.18283005693491
-153.756102674817 -15.1936020339364 -8.06766050663018
210.531689978747 -10.8339689223877 0.842513151295194
-192.845880036312 22.0654385365297 -21.9857205005413
87.9906555377738 11.0695347553733 -20.3292526745415
-181.684421213326 -33.7496268994013 19.0649061827569
-176.359053605382 -16.0418241196394 27.3344047435435
-145.764700851184 7.36939272094912 0.535832738302291
113.682492187739 -16.6520621079173 -19.3350222909825
-111.283939001158 -14.9381794286951 -13.227661035235
94.1668093130367 -17.3196256109843 -6.33654855043283
-216.907654464977 42.2063150802923 -4.28279691394447
-152.408918410674 4.56751179101866 21.0155271040116
-208.760320118835 10.5055371356714 20.0146709812571
214.98311978394 37.2354678037459 21.556005989242
-219.255824149188 5.6242062726271 -0.87809505810545
197.370090436362 2.67133486252486 9.31739822677318
-171.364086314597 -35.044912822611 16.1631900500597
-5.89233270669154 -17.7228218606326 -9.57041029656834
-124.844231480794 -24.2329505506767 6.15621650077023
-203.296320952346 -18.349658587359 19.8817673164739
187.196640103869 42.2370890105801 10.2165238907454
174.61756518865 -6.40327699318263 14.0978515847566
157.607187813608 19.4086838815355 9.29281458063445
2.33495801717339 -6.1829573542302 0.0345036689200024
-158.747291872231 8.4387446515168 -3.99632486679845
-131.343127382624 1.83288187163007 17.3033039585858
200.901070298807 9.56586491335708 12.0463784675871
-165.661644492352 0.40511599875524 18.6042230998219
-146.358828553831 -10.2647989290312 21.0857813581945
87.6985337888338 7.88445462340985 -3.16430773774327
-147.265126793968 -22.1616802863199 16.7513470642803
153.918853081118 0.851639511459889 -22.7543252195829
155.232528856185 -19.9969883894779 5.92394006535764
205.003240170536 23.9890271330039 -17.1899994818492
197.103707274297 41.2862270515936 28.6312681915102
-130.063909995662 4.63977808533374 -4.97854828348792
-173.607435260671 -2.41115852197452 -8.92180522993132
-10.8671732979544 -8.10495284635928 -0.495795961909776
181.327448684897 -15.105686578345 30.4054431227087
-157.933071632916 -5.68338078170408 23.3036084932888
177.586178509982 24.2457287408122 16.6651352927035
31.5712669596569 -9.97343603964937 -27.2223426630009
197.959356572798 -7.32235050478851 23.1737781434043
-178.553855348339 -40.4124350679206 7.90352902480326
30.0272561313181 -12.8475882830825 -25.9563955749905
-160.961468630172 -7.93502406108339 24.2920754743216
133.796084547429 11.799568372279 -19.0699675025889
190.794531419244 6.42423784264136 -22.5446334306081
-115.275754259665 -17.6786778674632 -11.0937904693344
-221.459865109187 37.0213124614396 -6.18439015689674
214.573749271912 39.061742239637 12.3291015613791
-101.74477623844 -8.78738878053963 11.8376259459395
8.5195546913193 -17.8839843067672 -11.3552260910631
173.993240700489 27.0337275916352 12.9523891462517
89.7648590600629 -18.083129297265 -16.053916302757
-139.993257153076 -24.5085299244153 11.1111900897094
184.897149481779 -12.2270339342402 31.753973528037
143.150253650599 14.716096870342 -16.656488621722
-196.07498927787 -22.9977863513161 25.1361326712551
-209.744679625021 31.5799592027972 -21.1333996037108
-183.625828847411 38.1661626951927 1.49663533539163
145.99955505253 -13.96584654051 9.22599032512883
-40.8621804447973 -16.4235226645541 -2.96859046388278
-69.9113842274731 -2.03578244346128 -20.9688821884759
-139.333286685839 -5.04847588581751 -9.25667255435456
-188.472785415156 -16.9024110882569 14.6119676512114
-189.201452513355 -11.890369453875 -14.0268912031552
-126.079609098178 9.1961951414598 10.5722624015349
-44.6391097488445 7.28685440396954 -14.0979724974457
142.951224882679 -10.2642919453087 -23.9823739254342
89.9058153314764 -13.7660934381369 -24.6283513307894
194.037441699097 -28.6719737181153 -14.1513500193147
-124.598111692887 4.938154827819 -5.16936402929025
16.5333910936374 -16.7687154201501 -9.65433081699665
150.267024774705 18.4933960808836 -12.3965100925134
-208.971108672952 43.3718988667448 9.28480829676531
-197.726415323403 40.4965840932323 -16.0524686894875
-39.3747549986272 -20.0057786596785 -11.0410078317226
-190.223904835392 9.45697381658651 -14.8469433585939
-180.022195055616 -34.4982381295821 18.4144435783706
201.241773233813 30.087680326635 -8.55920189466365
-212.718031401228 43.3687130330635 -2.21367230352265
-115.190146609804 -22.2748255535883 6.70063014884651
-166.24118972239 -14.8084191994875 -8.34138963876966
-180.932460696492 7.31361584601859 -9.01965939784729
199.486574174433 -6.74104298995673 18.4531942022503
-188.064817359376 6.88327324467244 14.0211296607537
-198.754014601147 38.7187435964763 -17.9337415650932
162.864746782806 5.09963063772841 8.53234748968973
170.308460128521 -25.0180856502841 10.6218095673269
-44.8206104951333 4.00675277850456 -19.3984942634702
196.66644608461 -6.0563423136555 18.6589779464925
176.130265908695 -6.64482286492828 15.652189731351
180.362482882688 7.39487856950575 15.2490399311542
-152.403296797632 -25.6179323758039 -6.1607482346447
169.206379282242 -7.90639805410046 -21.5609417870278
-182.575593921952 -39.1620097396141 -3.48043267761726
-142.488829573296 23.0249900690325 14.5623013646028
44.0725650399968 10.9446861850933 -17.4097440263968
174.766610000009 35.4892327617206 13.1375556184422
-197.542980459713 4.11020078488757 14.2658829273852
-202.716106158685 -0.204662725110575 0.253988458565778
-94.6772097001309 -19.4890606125852 -11.6233395515859
-187.745400896613 23.3531594895573 15.5121547080911
209.068406682724 30.8454390631385 -7.82749156138274
2.60971858706355 -2.76377495040415 -27.8877006244266
203.345159163652 -33.8537020690793 15.2484310046733
-152.171742384285 -30.4640269237517 0.325836990297487
214.546162839732 28.8688959808872 -8.12840117910577
-176.613558984063 5.33903086157756 13.1762843301706
81.7660683243598 -14.4628116226682 -2.77817795846746
113.623024490742 14.5707477286111 -16.624585720708
184.39143142951 -34.0452988405073 18.6791775733628
151.37546614843 1.38627559430474 -22.9122610808908
-4.8557713522439 -8.46555874045306 -27.407375102204
95.2028235586772 4.06854412362791 0.504100377359372
-196.525786124459 -4.00709441949807 8.16392518418262
113.816169350917 -14.1908047589438 1.82784863070322
131.140857955614 -1.70146175139014 5.26441371795004
-190.41996206289 -24.5728777677803 24.7062682427842
58.292941076854 -10.4943009116879 -1.39387178655132
173.284804975577 24.2529798318083 -10.2020710860667
-7.8674096561846 -12.1364750249444 -3.14500579697075
-160.273551161494 -8.80135084333591 -7.65500026681055
150.9644294752 -18.2035110802224 -17.85632323098
-185.909615095011 -39.7107683195255 6.66653820465691
131.881253205229 -19.2648476310623 -8.20837114334971
13.1028047109503 6.35336017126591 -4.23769851869756
48.4822866228147 -16.6621412924918 -22.0305485245243
-45.3523666566096 -9.48671833011424 -25.0643772730817
-181.440886352432 -10.4103876393186 23.3413537043911
203.866445392404 -34.0420877992923 32.1537635134599
-29.9039658058345 1.22560598938368 -24.5486554773729
-158.26624756825 -18.3537720208189 -7.74269375642962
182.945039150137 -36.0043400927466 12.7366598385824
-168.551665344745 -33.3679940505493 -9.36722967859101
-178.719401634902 16.2966928399973 -6.24943096117123
206.061791559408 -10.9396182268632 -10.3318957117898
-136.785929002676 -21.520604231853 13.2903132684162
-216.143596113891 37.7592399181212 -13.2183607538646
193.922104022131 -32.6203799909845 -1.3739932610555
-220.630754773766 38.937068322604 0.0495964587055093
197.156859992913 -10.6617866770782 32.9484944179567
-80.3997091598851 -20.9673911199096 -10.2927625120235
22.4614927172033 5.62147864890186 -24.0410674431674
174.035442349056 24.7743437505621 13.3435827486474
-30.7262391836775 -2.98124011228526 3.39831841554261
189.950172684072 -8.09756328318051 27.9016314204465
89.2866739164655 13.8688043398574 -10.2654457510069
106.632581594323 -3.91595196299949 5.10468013801817
110.936630531123 4.17880014033804 -24.1027986936531
-47.2114679522318 7.22271022922354 -13.7297401476876
-163.740157695221 -39.5157654372929 0.395148466975117
-204.215508409706 -24.579493998725 8.31162627908746
47.5887012317229 6.72011480504343 -5.61134920231521
39.7739036542059 -17.8638429498142 -12.6597521488139
201.327486302415 15.1158686327457 25.0450579775554
32.3453143680222 5.16114450800794 -3.23522131815719
-66.6994540387444 -15.1448175690332 -19.5691745832037
200.407818783244 -5.12939372403184 -13.7712797133825
166.30268034607 6.41890542364627 -21.0054194513566
195.170716878193 -33.6304249029876 3.91614827679704
174.143675234197 31.0116174231495 4.008744658348
95.6568964483291 -5.4697304755841 -26.9085591889738
-178.190983942416 5.22705348040818 -8.55702228632427
208.930618061082 -30.5990598675326 2.19717727516188
91.5486904050181 -12.0383991886272 -25.7555872864884
135.167310487965 -17.6176438239274 1.1371736095142
147.934500100459 -14.7332773805729 -21.8190228012256
204.425068397297 -35.4343723292849 29.9113444392957
149.89501410563 8.42612390373533 -20.8306281601932
-216.411462836035 16.9915172955199 -18.6413096852928
205.068193870634 14.9679500348479 27.8434866518984
-174.913652909542 -34.8227258402265 -7.15234016738332
-116.495230849756 -0.857575738905874 -11.9323692180675
104.317760909698 -10.8538103959686 -25.7020790842468
145.288383038675 18.300239003181 -11.9303781241793
-131.755274991176 4.57516956560103 17.4095255480036
181.224564311021 22.7853463294183 26.58313948451
-185.330749477762 -15.2101620076204 24.8855538162152
146.844583445006 -2.38878632932754 -23.806047364459
202.963434266069 38.6669526528584 31.9841449428939
53.3884716759818 -9.92257325198184 -1.35427973072169
196.921767543828 20.6001554067202 -19.5941201540979
-31.8792234600077 -6.1493275429031 2.82300046199967
-221.28703844374 15.0838206254224 12.9431549155994
-182.127664011494 32.9687890322082 -6.64032586577921
180.378034604477 -17.1334708362975 -23.7912716839784
-140.219052963496 -26.5827903460321 8.00363922092209
71.2942850211122 -0.532247637176917 -26.821123335043
183.088189720722 4.58802615363083 16.9867665614058
-202.410042032235 45.1369515726717 3.17590229245281
197.591355252234 -35.6024628474933 28.511754201603
187.470377549044 -31.1843909842816 29.9927350534913
-192.614994710632 11.9063533976965 -18.9859082800357
-222.58069121875 30.9252913511502 10.6804991219822
-122.868181975309 -17.069345772705 -10.6087875895519
167.459215604158 -13.8045677741928 14.7234531528498
127.753579210221 -15.3175482472199 -21.24505539777
209.715596327664 -33.3030930095761 24.3892972722573
180.793888427147 37.7946329978128 6.58502157835394
-191.985211414597 -9.23916101022925 7.79639562723309
-199.886563859385 -4.63020465011363 -3.77185913725337
-155.375639674901 -10.7529133958437 23.9016869155798
-100.541067164708 2.21520405042946 7.91424905190186
134.955254132061 8.87478698963342 3.09301696079793
176.590524548866 4.16843017515408 -20.9842364538122
97.9343422323386 -2.71137141218421 4.17814323826771
206.926500748904 34.7570533035897 -0.563888123408125
-208.76783610907 24.0827046584888 -23.0865214373974
207.204290646669 -29.8184879505966 30.3890904537232
173.690019513659 8.09187469786826 10.4181786062207
-221.307474185212 18.3072865194372 14.2562436500161
-214.275241506056 1.36171302447062 0.700593952009934
199.990115659554 15.8849561450195 22.7507315910415
201.718595317168 -32.488001964154 19.1709895474176
-111.640279904067 -16.2803826002485 10.7193283843782
135.818076310612 9.09324669128308 -20.8333701054861
-163.280443146197 -39.3201742300178 6.86499492249688
-91.2340492738007 -11.6744406999936 8.37687097918128
166.598968920899 14.4793924004702 9.68504254320235
-174.579058166581 -31.0733259557807 21.6685395448843
76.7674419687048 9.32726475936515 -6.10962609497513
-202.187211680939 -18.5577274299377 15.2259179993033
-146.746390343655 -3.01760768219434 -8.00523899639477
97.2893206360756 -17.5190597292023 -18.4423823399176
-0.159088310851494 -11.961866399057 -26.1903661175463
184.876941037546 37.9367440112343 27.4318259811771
218.627628305873 27.2640422909244 1.54519797544471
-150.05373796151 21.9191900519979 11.5522564182055
200.234823720129 -32.6481525879018 21.4027324615241
-88.6443938899111 7.22131593765029 -0.0677310086279006
-170.574036529073 -18.2960612436209 27.5229825949985
208.51158251089 17.1379053683323 -16.8930398581027
-128.938742218368 -18.1166156591694 -9.50268980625334
204.394180387978 5.85483341038135 -15.4638177231986
213.136225147147 8.94387694386816 -1.34823237522204
-162.437349037114 -27.4322677930086 21.6534627093262
-74.7214635573343 1.61725314190348 4.14805770745663
-178.091364813807 -30.8590025075191 -8.38223954843791
159.936244951705 -10.0699169800807 11.3863155078039
104.177996328528 -17.0004619791881 -3.74337910554479
179.181995741615 23.6473479996766 -13.4914505085632
187.104658640165 39.2750211905494 29.1327100531853
193.630922240374 -8.03715052541017 26.6581945004435
77.0955892722688 7.5141826131393 -3.98747162165468
-189.696756245286 -36.8017758291515 15.6923654281246
215.324143378586 33.7990626225971 -2.20164753418442
-167.577046843933 -18.0916696893022 26.7349165052743
-171.437074834031 -20.463737647307 27.083823598714
160.454203758012 5.90229695662054 8.12708293896062
-41.3116847787815 5.34330542417278 -18.1059677837532
78.252452251986 5.48402559480027 -24.2418977434381
-205.734721571807 6.86921202681442 17.8087349581354
176.149485103936 -4.44553207650593 14.8328147932942
155.056674079996 21.5849921546202 -1.32814157671436
185.811360397014 27.4123624751209 -12.0153184667909
-30.6007799593655 -19.1862251521074 -16.78616688072
-213.812458897252 6.98317014701978 14.9190345628957
211.588715085917 25.8564506067332 -13.0620715890452
30.6684014527189 2.41955297717348 -26.2152320336713
-74.1633032315856 -16.2069433081739 3.42977018903793
-219.940842239154 21.175094805228 16.3109112664461
-141.920875035266 -27.5721053108135 1.66558532574745
13.6879178555149 4.60638063351907 -1.50023886419945
-202.646458883821 -19.9288110433567 21.341209900887
180.782585422598 5.46098247350359 -21.4575691095125
-206.542733925567 19.8032755878147 23.0546996238526
-185.833787281603 4.53071946962518 13.3033308353448
-147.690205826365 3.90167335087067 -6.49799048656844
-193.005365343218 17.8505651119679 21.3076573267113
-197.765651578846 15.5646295158891 -22.4015854565913
176.831513340312 26.9886736175284 15.3121914402093
131.081682629865 17.0183801005596 -13.1277312851691
-6.5452206321709 -5.8150649822582 0.508186588266456
-198.620853897112 17.8221170041508 -23.2833168613586
81.8167859934852 13.5515241145414 -11.6019548511965
