-206.966053701985 20.892899676618 12.9129674611528
232.638449505953 20.2545124730111 26.8057515941485
-73.5495389377758 10.8095984649103 -8.54753646877178
127.262684357754 -7.77301718684549 -5.2747499732866
-163.408192944389 -6.12603571345227 10.5513091749094
-187.348148447214 -28.913585328173 -2.0724805255224
246.141850237849 33.1951458102528 -5.34857453344998
52.0504586604731 -2.86815449612823 -2.54059072672267
-179.479633024752 -1.9795320077937 -23.0611154026631
10.7301362426029 15.2459710275662 -1.30696109384982
228.463843620113 -17.5048436211697 21.0580534795168
-166.842479097543 12.812111241758 -24.7202403757066
-116.186726812444 12.4425122880758 15.27086114993
94.8398537940269 -2.47645988599844 -5.78969566935882
180.291085283109 16.1797823081982 20.9136418943099
173.050199704305 -1.79398790755683 22.9054269927312
197.665580270837 27.6970279455558 -6.76864805745681
-219.244256365782 -7.99724854554176 6.56414216278144
246.742967990832 26.2846918398381 4.65965334912234
102.910614640413 19.2028955068937 15.2470704063531
-205.862299786421 27.965394670473 -19.0879271342477
-175.967222373045 17.9270009260127 7.63026597518927
-169.323335372108 -11.5801739480637 9.26503315635961
232.495553309648 -5.08747186682493 17.8231606713545
85.2034788590259 -9.2374455822476 20.3980110316566
-4.51658809721453 -8.29453962081751 12.5182840357098
-172.57613195061 -12.2454903948255 -27.2059047626625
215.774324694494 35.9821866372162 -1.05785069069314
103.071893669232 -4.00529655223188 22.819218178343
-227.712438258545 2.10536307981449 -21.0415373032384
-136.169886372506 0.197149252358083 12.3667319954574
-56.7078561823151 -4.36199241406639 2.04092291706602
-214.375239941599 -12.8946845798025 17.8820887159121
-185.662186502453 34.9293267608196 -2.53843264040868
255.437405514737 -21.4557311158342 -9.09882898856061
-54.7083375060806 16.0808006043452 -4.60649905629733
203.062949345682 -4.37351034797767 20.2858351298858
248.231811130425 21.7867156802366 -22.1305988931838
-194.810287766767 -12.7826774341112 14.1334496946468
185.654012461701 -24.4682889862828 9.73233083173644
-187.228072953469 -9.39987571953626 14.8705134761877
-227.630069509494 18.1946103450464 -11.0403764380322
27.230026038448 -10.0563532060201 13.4254343140384
-231.587441934408 -37.2343102363584 20.9521153139993
-186.827512658845 36.4257216411132 -1.51443103625455
-184.068603858199 2.28041248985106 -28.2172086892825
-222.008867473326 1.77606874258037 -20.3850700990555
219.43297703861 -24.7481313428964 18.4418343337865
-102.125277365059 -4.88539981255682 11.6848784005338
251.584670187871 -36.5075234948584 -7.63879623090106
114.326299271148 -16.175648462696 3.17844931218637
222.233225745745 -39.701140150686 -30.2553298940484
-41.0140294469998 20.5126017876084 20.5623694085537
-70.6115628902995 -4.97988297554966 14.1539143799248
243.435357067021 -27.6121730125967 -39.2794807338119
-226.57250399309 18.7413376383418 -4.19810038699166
195.801170077713 -23.112657589465 13.1463086535418
-132.98454587563 23.6232273328935 -11.4224743355826
-203.245012852192 27.4870389017433 -20.491842624879
247.2502977129 -8.82265389111435 -13.3686546206219
-225.399296102463 -23.702505047002 5.45308342540113
181.031354590661 24.3931235720267 3.28113621394557
156.542804014777 -8.37746777757081 20.9113451883933
-212.809560663242 -47.6882733728262 -16.7318885077348
-103.925678016994 3.10330461220957 -8.09696105856466
-125.516383364723 16.4261470287954 12.6614761662636
-153.594082109948 22.5479553031912 -20.4346965779478
-47.5222153745188 -3.78224879346102 1.35077557827467
-2.62029878957649 7.09606859509075 -5.75535647896401
-29.9330910573938 26.9827865267199 8.29999020443156
-9.1125039979342 -8.09260429676205 12.4076246896869
96.1980926594003 -14.5299357339175 15.803031035434
-134.156424081137 27.5937434892427 -7.98708810910869
-131.231636887745 -7.03768537839257 6.2173185994935
200.309942920585 -23.2490878175887 14.0915011985281
-142.393107068744 -8.11943918637473 4.50691700323515
247.975542439988 12.3304133389332 1.79050507741468
-125.83177083075 10.7548025901667 -14.6683196049262
-207.438959988185 -0.0659637132457339 18.7019904325842
-195.934965723732 36.9034394524028 -6.46116526410559
211.583173754891 -36.7653929437595 1.49955854714101
42.2622563484823 -11.01532898425 10.6722193868317
247.460752024241 -13.2514068729256 8.65909671287198
218.92614087128 14.0911666610026 27.8661295141432
128.620566066403 20.2969804689745 -2.75632739203357
-210.555585866651 -61.5465211036001 6.01922067190459
-147.69348848044 27.5015994457531 1.70479779608682
-168.923892820294 -15.6215132632095 -26.9533231609067
80.5265516784634 -2.1072674813798 23.3608638521311
-198.932211872314 -31.328201789744 17.4275062660531
-142.747022804151 16.4435253744945 -16.4167872647683
145.548199302821 8.90668872334697 23.6416972977286
-99.8344309410625 28.8804062612242 -0.528186724656215
151.022813879394 -17.578990170544 -1.32441871359284
-192.041002848445 -3.93371118883829 15.4931792589725
-93.3857589351797 -3.24535298849015 -2.03032801812271
220.286060085936 -0.458671461375764 22.0202493513525
-218.404800245926 -8.90733587775422 0.403803217782227
207.172290290431 -26.4517711550547 13.4620311243462
-225.790203677054 22.3459806257945 -4.77433755811207
-53.0438843776433 11.0370803301913 -7.12084432882809
167.996590210221 21.1909143378276 -7.39609760620444
184.61329823133 1.18209622296756 22.9080695166827
228.675010419325 12.7827641064657 -31.4747335497474
201.440069921076 21.2792968906837 -16.4123730139799
-104.588741782125 7.02855538526856 16.9633215485214
2.84821634136417 5.10384117576221 -4.78211011042133
25.5220590033301 -9.42309829136814 7.80566054692876
-196.485087922402 -5.03863548615012 15.1825626162255
232.949064229056 -41.9318812730613 -14.7097416971217
-81.6166571550258 -4.7044581566239 1.21634379346856
-36.5578460544456 25.55012564381 16.3558965757535
142.58590722316 3.71987485222297 24.0686533026068
-196.148891819047 4.64114389878076 -27.6079034552278
-215.643721419702 25.1999563306613 -20.4837811983289
142.121061297893 19.0880019483799 15.5931593954184
50.6551820009811 0.928693475280832 -5.59867445900405
-228.761160119017 -23.5318029602117 9.73093126171499
250.181766659507 28.8066023081257 -2.04730807700097
-210.809451965839 7.53170454167479 -11.4031673158459
-68.0193259360669 21.0607461439031 -3.73723655353186
-173.067645840365 26.9927164541436 3.94949840133516
-209.243872508292 -8.75601693710039 16.950002771837
167.182541218647 -19.4949911387015 14.1678307644788
-212.568881023539 28.9020157092104 -16.6047898629569
163.018832944943 -4.16872306284128 22.4255914797412
239.090486914802 7.23453168218531 -13.0029396420489
-225.742673311005 6.60489923599852 -25.4339949118081
-96.9563711813826 29.238162575759 0.727409230094627
151.845962879532 8.92226510015629 23.5471337810466
182.841867587361 19.7512532406155 16.8466991472611
-212.147279570158 23.848810847786 7.9293899934826
-178.543395664424 -18.7288736262608 -11.6117017160761
142.162500901538 0.429538910424781 -8.67365209331193
-224.04800098894 7.92462001047995 -5.5277953857026
-135.759354015457 13.9604663095692 -18.8755456327711
-175.463823958809 29.3363891648208 -11.8403271277998
205.680919767515 31.9544458624128 -4.92784716201534
221.215371696135 29.6117838570973 13.9839468719204
-137.770200843374 14.3421631797385 -18.7533567893989
-201.109265362191 2.83401868504191 -15.0038743748258
240.424765162325 -11.6061383657047 -18.0563867898034
128.343339571186 -4.32559146185125 -6.99551451205048
-190.096562593946 -0.406461775313033 -21.8369953239876
173.415928244616 23.64189614594 1.88981511986537
-49.659471504998 28.3420254997026 10.4219139295411
-145.314193708192 -7.56641221355709 -7.93884142693215
155.592066541266 2.48450146610274 23.7606145688868
160.66049575325 19.4274249839634 15.5183040482682
208.915964029735 10.4925437458117 -18.0402876527061
-219.749368659599 -37.2401510856647 28.8488197030884
93.9352817269903 -15.4486565692293 12.8390471769963
204.384110986877 29.7888558426799 -11.415553943097
140.258996006776 8.88283609481988 -8.74270417920593
-223.648182012643 10.5128966922175 3.83652320197051
-228.690856739649 -60.4609447585554 6.40719646749302
236.189397390544 -39.7802937617917 -25.1516904535865
29.197372642146 21.5767083698157 4.37804856085997
204.016073348158 -26.0343463559982 -19.6808210045667
85.9268907440685 18.1488537932636 17.6178267265426
-160.82983412847 -18.7229771906454 -12.795701589531
190.14039783336 -23.2277920583524 -13.3572719996701
-40.1106295510089 -6.80378794227824 8.05498740408386
-181.115244053697 31.2421876740729 -11.4841843730308
-36.5895197518984 -5.08312219371668 17.3994388854434
-228.328096595948 4.07974283435746 -18.3144832297939
-201.57767597929 32.0021614394021 -16.3621245219973
50.346574012726 15.5647490679133 -1.25544923555076
241.00637068269 33.7234140567691 -4.73961649574118
-190.867625524982 17.4724480383829 -30.1352413711313
-231.626324089776 -26.1782026363929 2.83667169292892
-185.594487215405 26.5162225477729 -22.2648024666437
-62.3379567520936 8.9067249231603 -6.97105956894403
-221.493621059057 24.7211062130625 -5.68618431994615
243.522596487061 6.72728853674472 -10.7679787176069
230.866156901362 -37.4342113171494 -37.5457140372329
244.516671404083 -2.42352624692864 4.02660643600497
238.432102358453 35.641791050022 -29.7241862277349
-186.375962099735 -1.23143449522603 14.1277426628892
-180.802533042187 -13.9018878499015 11.584237027161
-219.640984890244 12.91325015996 12.847324945818
-108.282275935756 -6.77694892211761 3.16398709657949
-31.6605315857082 25.5574275823378 5.22330082654199
-188.675706188146 -17.6448112605495 -11.5793121335666
-181.541184467617 23.5063399376043 -23.8180362021481
-62.3546523282355 27.2969624998762 2.75122351374389
-145.431550267882 15.4876441184692 10.0145498988743
-163.537213186725 5.95049289529937 9.45345949245794
-29.9260407271255 4.34486881702168 -4.56921583250883
-206.778774098207 -11.8232459304893 17.4105732788715
150.30832146215 -18.5151189172131 14.0990667973269
99.0381583541505 7.67794796604766 23.4748905571961
243.714476045872 30.521197776796 0.279998163150385
199.731543363188 0.896642013069056 21.9264746172493
-170.0350409532 13.8199033335646 -25.6930975414171
-10.4542123433794 -0.71112787370326 -1.98838323121633
-60.6905918886275 0.458431449650953 -2.94018187361931
-229.538302205819 16.5203322018626 1.54977142800308
-24.691146996089 12.7416755588702 -3.95380644003524
193.194452524175 -23.1624722419357 12.4358472351455
-127.576013729836 22.3507282562633 -11.4307165345861
67.5604853432506 1.73944822708909 24.2311928339355
-11.6648632304622 15.3280363816233 23.6131468166701
33.2116665923542 22.4993013510847 15.5617758026209
207.050007608232 11.0481951108184 25.5417222640519
-13.971254882385 -0.76772802794301 -3.01754663223721
-215.664415303144 -65.0303680524383 -0.630840525186888
252.123414431613 -12.9726047962345 -6.64031557994242
-192.995869293646 -39.1364959550333 2.85782351081526
-5.13460407223659 17.7216300397266 -0.10347584067317
-104.999978463137 -5.22669076540414 11.0983286121456
218.446910857033 37.9856939256182 -12.9410375196175
126.502782296899 -13.2336940434731 -1.78001528506544
-165.940424005466 -15.9650927284084 -27.2594140643315
74.0595632105452 20.8952285701908 13.927748314264
243.362794831877 -4.34998945131185 7.8179643901685
-186.037518193347 16.6749950765717 8.51088176252368
181.810751091356 2.80728563587281 -11.1960677278057
239.620517945781 -40.5091487715449 -8.99708011782348
227.975709153642 -11.6742577567043 -27.2447810378119
224.917673607084 -36.76554595001 -38.5182213560457
-184.600035103985 18.0557079227573 -28.6994569618754
245.941948364537 20.6522913671328 13.5702513980449
-226.860720280146 -23.432195635771 7.59515474189181
-58.3172306028933 -6.61647294000424 6.89900291686646
-15.3034514957094 -4.23522657683515 1.61523049489296
170.889454859637 1.46873499916223 -10.5200855224173
125.466837880031 6.29343838915438 -8.08113678000886
211.111151935314 10.9300003766259 -19.4379783379861
-181.885300304425 -19.1722644178581 9.0467830444665
-196.332418441695 35.4320158486264 2.33599850719043
-156.08725655031 9.8818355133815 -22.7598236903007
209.414047861789 12.3595412046335 -19.3346653502118
170.018524514772 20.4916820090828 14.0597452928828
114.459061688386 -13.9803405312187 0.800259310308696
-59.936275989227 1.9901873793453 -4.07302385092582
-226.323784675859 -26.0918017194062 7.51468404373677
-191.296659087775 -7.94035380706179 -15.2629162578573
246.358081649097 -21.1071379020332 13.2515414780048
204.532922288665 8.52164223779863 24.5723506192117
-206.502609799001 22.0169956907001 -24.7646413597732
242.200670749297 -10.7846901417141 -15.3886231212372
-149.138242305232 20.8622004210136 -17.2264944461894
-109.878122019235 7.79239660159059 -10.721754936063
214.650102589321 0.960117617159501 21.7656593374871
-218.103417492675 -50.0651514436575 27.8002967234479
207.428953386083 6.0824711234217 23.839872539121
121.295003773252 0.927311069761764 23.9576051355353
-158.514373768876 12.9165047433905 -23.2769874586665
183.992048988941 21.2955303318274 14.212274340546
-213.601027629957 6.40919429359834 -21.19837529636
192.39716096719 -27.5341030481257 -6.82115015369773
19.7715989576137 -9.66068474661837 12.3528455254572
241.066573460515 0.33481731275407 9.99830398723255
-186.720241892218 5.89681621048029 -30.0974588651826
-6.21500610449101 11.3492479304932 24.5093068678803
-166.422347315192 -6.84154079875721 -28.901179497985
-229.578706582674 -41.6082968298054 23.6225163285882
181.944966000496 9.73482315404665 24.0144277999634
60.0117239904775 -3.74924544410817 22.9038851007109
249.266808424178 22.4254844827571 5.32150711406396
-184.994023150366 31.8701117780414 5.70590568523095
-95.9645143342077 2.00221539223371 16.3970114057996
19.163164913379 -7.22997914788558 3.7521656208327
190.95729794571 -19.1557609077593 15.7423714289845
-158.847847301891 -10.1764152499566 5.15276288451421
-200.800542943044 25.2615375157215 9.30461994882797
-197.559114954489 -42.2720463958946 -6.97328930223476
243.828881846996 14.4644728470328 -24.6659995701132
216.674170608809 -27.6320549631183 -33.6052127233995
205.389421496362 -35.9525181428892 -15.3600401266416
-151.94558434703 22.5473292679419 -15.5188450107846
152.122726390933 12.4332224339219 -9.30363147958389
15.3315578238788 11.4780398721724 24.5359780966005
175.426056126176 -11.2205859429463 19.6837224605992
227.714536877447 34.9070286369268 3.12623928281758
-210.352090041636 -28.2583405286785 26.3109032535707
201.810165867651 28.9077086003779 3.51821485911218
-139.786119099616 19.8873495874457 -15.2383902107734
-213.420772937315 -26.7497157004386 -11.5852472855358
-227.151082725088 -50.6267324485256 23.3324403353679
68.2479157671442 -12.5941400094441 8.63050904404031
-202.761313051628 35.4292048511566 -8.09959884793492
239.643903127928 -7.21062107229806 -10.7757552386383
-204.263657059026 35.1623050520008 -6.35840809323186
-128.038937035446 3.72218151466374 13.3550733811281
-203.648608458437 -62.776320518455 7.05041243421384
-191.357086769569 24.4156455232265 11.211342414361
245.835171852676 -37.9330298291286 -8.92994543380287
-205.767128662616 -35.0295154261612 27.5966232325003
-231.291616301261 -55.3970954038624 14.4473810174379
-210.251467923691 -14.0085115283322 -9.8301169098773
-156.48415137018 0.024650452758594 10.8609226876997
-78.9198080598992 13.4568170486191 -9.94794023396222
229.538778675236 8.62728175063394 -21.4041861498712
239.166008783333 -39.0348749018788 -3.01372061689432
189.091328419502 -20.6384450028198 14.5642270725938
-211.508902574634 -36.8681259930876 -17.0811836955111
216.665179906846 -9.10760411696375 19.8921600680978
224.237177912996 -44.0088914595292 -16.0858377894968
-214.279968545211 -57.6437620279441 23.7440321708263
-200.438254332736 -17.9198476776179 16.0357912894321
-153.165020077297 14.0015309890865 9.32117392995487
10.9913485383887 9.23669558465558 24.8860051962642
218.795318000297 7.87499102392292 25.3458362566001
222.873666008621 30.0793973255374 12.5172978917408
155.199242348002 12.0037769697325 22.4210889387834
-99.7695843982117 28.2823988456518 9.51580240250417
115.26358161037 13.2024751711904 21.3089052008256
235.139839570605 -38.9211419110754 -31.3913230711387
-91.5021157930199 29.7133415780793 2.90388373217695
-161.924025445694 -13.4763758899289 -10.3587153443714
55.1204476017217 -10.8683687280702 6.21729652523776
157.576672694812 6.65303756061296 23.9827856952229
39.7820613559621 -10.8081409430292 14.4138055190768
203.364549856403 30.5957414468895 -2.14358902180138
117.04387509586 -14.5033455063676 16.8557344269656
23.0711165546979 20.4744595785195 2.90616946567487
-45.7629650891871 16.007308945237 22.493264104253
-112.600987692322 29.5403083210445 1.69165765084053
221.646555449645 30.2174432759415 11.5559768135013
155.321998007429 20.7855731846037 -4.42502301621688
-148.887139007516 1.76591077188315 -20.3919117403545
46.7300124069071 2.12837907501309 24.5112423597111
-48.7290886770605 5.39284672533324 -5.12310278936992
134.994543785828 13.2479972003167 21.5424531694963
148.867967043223 -21.0096954588572 4.52848267869997
224.265361062731 39.8541312750849 -10.9343938611489
208.98361728342 -12.4115725606314 -19.9832634989234
193.705765208634 -9.47580388538496 19.734447684007
240.992151284821 -38.3168690602819 -33.0039591618653
138.065255677475 -1.55369199270962 -8.2972469021354
-101.83449896755 21.4432256008 -8.89855403154089
-81.5501983442723 26.493249840191 13.3805993827284
110.579516811242 0.405918096751863 -6.94952399704415
-222.901513042213 10.8772544312925 -23.857900476046
-176.425817036339 9.58869323725924 -28.5431881424036
-200.046520066619 36.3721854436962 -1.58710940011944
134.273297202102 16.1577662560242 19.1856128476505
147.918523728535 22.3562574254593 7.4668646480234
45.3337314940997 -10.5428307275501 7.1296266645563
180.739910273402 -5.51841982629662 -11.0147402006916
-191.551503610066 -49.798214567327 6.0810077639164
219.439727546689 -1.50878268366521 -19.1803284893053
-209.894040592861 -6.45744176443764 -9.39177626833333
83.8812927500808 -14.2001979090211 8.28303198168278
209.684688689979 34.598732874217 -11.768980300943
-45.7434126662901 26.5880288212792 4.53042742094431
239.317470924338 34.2679832120792 -14.6752032072263
-234.589430374138 -44.5375594684077 -4.43937825526207
220.647547897496 2.15654317594951 -19.3819166755882
36.7312536293834 18.151767619332 20.2721099889589
142.726791474647 22.1848483521492 7.57080841402475
-55.3092345206075 -6.75522695936615 7.97377418601116
110.333959975984 17.0070106160038 18.2565765017344
-228.239749460357 13.2524431272514 -10.074459100866
210.594188988716 -32.0138284834841 -22.9969084131368
230.637820302199 15.4193735116445 -32.7943681267255
205.606572297837 -3.23697708390843 20.1657881991558
179.901982139815 -24.6602416486236 7.46733324790743
230.156122822354 -3.47581304056414 -14.8870185723482
249.475838920485 -35.9568497181147 -32.4002518725782
170.418307896297 18.2655060469276 -9.046255222532
-195.083802376101 0.786854258643516 -19.3930859026479
202.071949255626 -31.0126235246127 -16.9574119197815
-103.714309952208 13.5071791265274 -13.1802857898261
-227.00261993742 -24.4703043548365 3.01363113334162
34.4012777674668 -5.96607046932796 21.6753672966507
-200.081379395158 4.0132180249984 19.047093179767
129.810816959315 -13.8031094435996 -1.80502815746786
199.399611031223 28.9974710356218 -4.86493406240605
-228.92737886337 19.1684014535278 -8.7103806736072
-84.0198914699837 19.1759370085104 -7.0850736949566
-182.843257768527 30.1247587803946 -16.006981859214
-181.114151610411 -0.488528701425875 -24.9877942491162
-229.079658818499 2.86576347370282 -17.3142353722259
32.7584302565876 -3.01745058522265 -0.911813829949078
186.764781511388 16.5630567167311 -12.4343025726764
-218.826702445232 -6.50991254977309 5.62922746996032
-203.288479591191 -23.1317405201043 20.3675093986102
-218.538716665358 27.5072540134341 -3.37992810925477
167.856481294151 -16.9974016899601 16.6809069233428
-220.698895368536 -18.4323099162923 0.250048905051097
-224.344306660066 4.18138466316479 -14.8162245327046
-178.139560284895 -7.58952460372705 -23.0141246097338
-150.54108355941 -9.31527129697365 3.29336412248982
-42.7059291229165 22.6503661969965 0.994388695379229
168.253114403327 -10.78781489959 19.6885740564609
233.334380249137 6.31351076879443 19.9693292459185
-219.113031806975 8.19190473717117 12.6241036196942
-209.936361124152 29.0619206938841 -16.9609439236062
-227.661688253496 -25.7568714335686 6.01422451554643
-11.0056580198405 2.77434793915419 23.7741766939972
225.815840868128 -16.088589045954 -38.6076785263603
-162.641006912144 -18.8236501333175 -12.6275211523734
-220.911474425608 10.7501486640198 11.8962250356353
-191.975518521517 -47.6549791474286 2.92108020629563
-174.026138420559 8.89895288200486 -27.8525964207173
227.488698784121 28.9812946975091 14.8982356441455
-147.265169265937 9.73498694466674 -23.715851683127
-185.026175013119 29.4748592130625 -18.4755654201383
119.231619363082 -4.50353998986131 22.7114896608828
159.837366599427 -14.806821086904 -5.75515203668098
-227.133405558929 3.82339808802956 -25.7227193577826
242.428784279297 31.5097270082382 -0.757141117321097
-223.95507099487 6.23745319122417 -9.9288427451129
-221.98791401912 24.513283140384 -3.64083161094138
204.109758686622 20.3442279792736 -16.612452605827
208.124585423012 -28.078539611264 -22.4081639798029
-193.949845480414 33.2896248886504 3.9051146501988
211.216520687771 -12.0202934443727 -21.0326433533495
147.628253434825 7.54803235735289 23.858074625907
-201.732275637634 20.4365424088528 16.2317538476389
-117.741953222914 20.354399217212 -11.2768442912069
96.67413365115 -6.59277918101392 21.7981412143337
-168.184471738306 29.2145841379063 -3.00600095944868
-212.137065215812 30.8018375077003 -9.14448294765457
18.4224320027212 12.2659491970413 -2.74780367623572
233.018189733141 -30.9727791923033 11.4315799016702
-218.702239819997 26.870650275896 -5.45190452828367
-192.385502822048 -32.2924971627773 -4.05788847888853
-139.26908415378 10.3751244116597 -20.994085074934
-109.6330051013 -3.85245976938961 -3.65932305736606
-224.159244421331 -52.1022727508707 24.5632870748779
221.783829428159 -43.8996387743623 -14.8034134317558
-179.844733268836 -20.8706997049068 5.57055755952489
26.7763080908036 -2.90826091854561 -0.822978430316861
53.8901149155158 22.5403094895616 11.7727939643452
-132.700433677405 -7.86086923327522 1.67331431602088
-107.230364722373 -5.09800245816617 -1.10322767917212
166.813768977025 -19.6401101061598 -2.5013948136618
-76.7467363771424 24.0391328342926 15.9462176494428
245.627266027611 -38.8527809946567 -12.748691005152
-160.710740079027 6.97822486672223 9.37406400583307
-134.957794396897 -7.96491598798075 2.7363552159797
213.656406647822 10.2275268620158 -19.8434197072281
-109.324148623872 10.9421240093123 -11.9233416919275
-190.568519674042 35.4279093392082 -11.1454414506512
214.487962247833 0.118743334126876 -18.1987929897
-214.693493728691 6.8906064508265 16.8089134478087
209.224416870632 -29.2218019847949 10.9727734353768
-195.883243085123 -18.3054596752097 14.8481654793536
-22.6351822562717 -5.87644085107876 4.42131080443915
111.591312100305 -17.6952427833349 9.14237833284225
-214.636782206525 5.87317626623836 -23.7493563161293
90.3879706767871 10.2378004979936 -6.05634496110765
-223.629655529559 10.1476075279394 -23.6081083272383
-227.567792720707 -27.3552794924363 -5.064150588673
51.4641387777557 5.80808333875902 24.6837665388203
41.696226358798 -7.23338205155113 21.0913133003548
-172.067681101542 -8.14938076172048 11.8810587775866
164.82950405247 -15.8240444566347 17.2049682568297
235.330440036974 18.7890158712015 24.6297448833968
-213.562982698828 28.8019971758023 -3.24185618384883
233.470531862751 -42.7467867126608 -11.0939549814305
-209.820129622466 10.1009571890917 -13.8077542064419
233.300629637258 -40.5938589959621 -20.3315374767404
-62.7827581156428 23.2102472750844 17.6029653704407
-199.332906156129 -54.1925849559627 19.8634440054691
-190.250058657354 -10.9072426448468 -14.2558800071832
149.886911525673 -9.38330793256301 -7.27456806286753
-167.049263648831 -15.2053287745723 -4.52724356290807
232.346612279655 18.2201903797534 -34.0192212869114
-83.3136368686637 2.03916648366729 17.9477910326903
-168.924051270307 18.446856845029 7.61703253362744
-81.8886986623319 15.6327105977527 -7.99935706059546
186.985083453585 19.1733625297477 -11.6805128181754
240.212744564908 4.39580982284019 -8.68724695844061
-176.464941569301 6.96802667822889 9.07633197180052
131.536523188026 21.1509640117311 10.6863540556194
-25.8742372963618 -5.64563579055244 4.14033144176619
181.83497927622 10.8501170123719 -11.5119016011005
-220.351583913753 5.18420016314389 5.90218190932233
-152.637821584041 -11.8529313158576 -16.191300820039
109.097400010232 -4.82496128945462 22.534719748737
185.696950002523 13.8140786779225 -12.1013524906213
194.238375938406 -14.3948863481405 -15.4364433501006
152.143137853777 22.7455633396431 4.68613742425381
220.726196497827 8.5562541465916 -22.7681769006557
245.443884619346 -2.96543354773115 -0.50129556667833
-92.3336141317469 14.9666471644554 -10.2297209894842
143.826772917127 11.8648543996399 22.5011166480357
-101.510972959985 14.0271822840093 -11.3038659148036
179.212735352099 -8.83165432990802 -10.8337270539848
-210.244326089433 25.4840960987199 5.25398314541917
242.23790280009 6.64386559723119 12.1521951349182
229.056234824909 -40.1161459548601 -26.1391407696382
-117.032491901389 26.1186952786046 -8.00959486912802
-226.849196009508 -25.5761898429341 -0.900504417306355
-221.172054292224 -23.3528740887382 -3.97401640318163
55.8511263852157 9.13919445052315 24.0465502607001
-230.002498845974 -50.5332171371426 -8.05122764719281
-214.584245073857 -38.0302435497195 -17.2076166899157
-7.89453629506753 0.412263881743048 23.1102308819106
87.6938972689776 -3.6342529303057 -4.392445561368
-133.679590151432 16.2442147285285 -16.7398491444961
-205.233625602644 3.671990192671 -11.1095387549464
234.651028671514 -40.4904105314396 -4.78321958768066
244.913809587936 34.7911704095537 -10.0839938957092
-216.692007109455 26.9030554202215 -2.00470956175471
24.4812937053858 3.22891783339776 24.6650341452993
57.1445387511442 9.40988647160427 -5.67399363897228
-42.6580180742724 9.32537477676085 -6.94780475436366
250.038723922452 -22.4073899200345 9.42861562148971
-33.6476788963246 10.4598841023137 -6.29717354667176
-227.143691559806 18.1323435834084 -1.25047906615007
250.147094937111 30.5420127202119 -4.67411836477486
246.076759735318 -10.5334418815998 -18.0594834965565
108.656280587745 -16.8202002343019 5.85051977893369
-156.068393716702 22.8285301668408 -21.0110185091917
155.816346481719 -20.9301495705022 2.12575427148348
242.528855936679 -14.3293522281065 -35.8599941368293
-202.67223594005 -40.5659327170249 -13.6436933234206
-147.305768464109 14.4667248259675 -22.424544279239
-94.1984641384208 24.7611725568711 -5.27148800038495
236.889694606793 -4.99803602724461 14.6491488264954
-75.7582355604781 -0.55822852051062 -3.07746347449816
-205.248920835014 -63.2964622280309 8.89682569365592
-220.526940966694 8.56282811119745 -27.3822600439326
-225.813944149151 -60.2259386096943 -2.67014221796291
218.955736269602 -38.162042976265 4.47152260576609
195.719826739004 23.9410610548137 -12.1260997378178
216.476856279377 34.7467270568062 -16.0394401696502
-217.695000638228 7.34181453743273 -9.71827856247905
-70.7228729557559 28.2631127788958 11.8564801319394
-188.944577705356 -1.68870595787438 -20.5163644461049
97.1534299606131 0.156864883881404 -6.15805819139815
208.923560237683 14.4356997203558 26.7650537612281
4.2038623628943 -1.06224741504827 -2.28892685399743
210.246104221401 34.8112158678501 -8.75382074984301
-101.139788450007 4.2282583810824 16.5335017039307
-229.228311488753 -44.6042478344268 23.6458202248785
-79.9275193857496 9.0991476017633 20.7089370771166
89.984844623805 -11.7485507515779 18.7616423410483
-177.938660184148 -21.5279285799289 1.05752731747252
56.3132486781996 20.468259669463 16.7544170550047
-90.1993923607643 11.2003199999644 19.4519275575183
-221.446158474619 20.8442370475807 -22.3040980316494
206.140407272834 4.25742531831472 22.9330645680751
204.842492465757 -26.411975742275 12.3520063685881
194.863934004109 11.9665938432763 -14.2655563041047
194.704565707715 -28.5999487916626 -10.0171890088956
230.564207959634 -14.3661490580604 22.2571285033128
68.0733320186853 21.7540531157704 12.3775714115409
-192.810074399905 -48.7347142207194 -0.132755079722248
70.7490264250762 20.9399158947427 3.30981510071986
44.1364661249958 3.68573051595123 -5.74381434170156
-95.2470071669441 9.21773643025989 -8.96388679338108
16.6505463285669 -9.49099889663125 13.0193369422778
181.85065679495 -9.80277726456191 -11.1350721212536
-197.705649623002 -45.5910734744275 -9.49352082896619
128.154653112999 22.0500632373647 2.98624563192223
187.121026146541 -4.02918508452963 -11.6128295572844
208.034340832754 -20.0337141659975 17.4965792616571
-98.3964281212662 7.0939015007258 -8.52488022253167
196.884014669512 19.92042606988 -15.7155538114533
-186.448391881054 -22.7443221679872 -8.91176466675433
-188.101309979479 35.5883969675845 1.69794529716762
-77.3792763640141 -3.63580232479936 15.1570409613173
-221.112602015936 23.4762846930285 -20.1575370226323
-118.638272933894 15.1546367877538 -14.6745369439382
-236.623809746988 -43.518393017505 11.2804282896858
-194.753188602654 -0.813249585052619 16.5247352511345
-134.429980788028 10.9326020070378 -17.1870116522433
206.940633625962 27.6349753469689 11.6832280258153
-74.1297613788608 2.44221415106586 19.2441661365289
-203.514009518754 15.8297955090934 -28.9305103219804
181.986796766667 -12.5670425958912 -11.3959946045392
193.102054061458 25.9252755410739 -6.65158888034073
143.880445854578 -12.0576968390175 19.0234249973361
223.122747819925 35.8220072941396 -21.0748061365712
-224.78932440731 22.2182412411029 -9.99635512465632
19.5234896367518 23.717540749851 7.46006182928846
237.036510562092 35.5934847380285 -9.88417052638898
-105.880110845273 11.4252333507297 -13.9926355219577
-100.707492891854 24.0474152837828 -7.04067371266327
217.95909254544 -37.0206114963522 -29.4625408060732
110.323388641301 21.5126549242401 2.21940385105304
-140.793815297711 28.6493727800573 -1.66983409346801
-111.492016373852 -6.90511239629036 3.20417826839693
-195.377961915324 -31.4416906463781 13.283989317028
239.496257482514 27.8278186135596 9.01825536154809
-192.604477610112 24.5409727424385 10.4401691643509
-35.964373944691 -6.41394275802446 15.2527159696039
-104.255454381304 28.5598317744256 8.54108327656572
-195.560455590544 18.1809526221134 -29.9185910121072
239.694208923859 26.5400159407837 13.7630173577681
1.03990625634741 21.551822969873 19.422602880185
215.919874273946 30.1691249822164 11.8998325193689
225.726506476046 23.9833379523304 22.7281196444253
206.337857527027 17.1810181067905 -18.8337389405563
206.892246255108 24.8386216223257 -17.525516332774
165.287440920223 -19.5211256331548 14.0675187684624
244.902497640275 -23.4161426304372 13.0436057785327
-215.01826394008 -49.8046978464763 -16.1084476109136
-151.458034729534 -1.97805297340296 -20.9813014213043
198.076455899945 -25.9572733515323 10.6454323321718
-46.3908567060889 5.34406475243618 22.9927647583094
244.445302239106 11.2618823677162 11.90887984621
-223.064432317214 -22.3969582324306 0.0739610315152195
-197.288163565861 17.3536095531126 -30.1910037922453
234.189656388197 35.0362107733502 -3.26781070156451
-190.277827940674 -14.1376221151988 -12.860447243751
208.439583540327 12.2836167572828 26.1558417250108
26.2103379894549 21.3767211839073 3.9969487713216
216.447936422405 -43.2525875182122 -10.6225426098818
-216.646584311877 -36.2238171162864 29.2733436496802
49.4963709600196 -3.38719365350085 -1.50508353555546
-179.728316860892 -22.0954313081411 3.50763720484084
186.809331109783 -12.6129378966233 18.8226389208516
-193.189799583777 -35.8887688097917 8.71364651780683
-112.728471407667 -4.36918741312796 -3.38704730997418
35.561136598156 11.5443935629432 -3.25404228710764
-221.251322340739 -58.9582945884202 20.5775863652433
-6.18593974525694 -2.86635483610344 -0.109757121955686
-168.222147075147 -21.1078853706237 -17.4520767374868
217.585262957224 33.175645504582 -23.0736190933615
224.838727100611 35.4946961108515 2.49702708072712
-122.322054022062 22.8785792795606 -10.7808155463103
-123.15834604538 -5.66342311829031 -3.48998055291175
111.429377387998 -17.2120122222175 5.92858867903636
242.303568355691 -38.5740340545178 -24.1641831911131
8.87827919617821 -6.84661872750074 19.4770074754253
211.826755004585 -16.1094139642912 -22.5437890193189
140.827120262848 9.34685960379867 23.5095010966776
114.701084303907 19.6637059766295 14.0983523319384
-50.8918906291009 15.2918518094555 22.4604000176146
-30.5399178468275 13.8571267761645 23.6921403035833
188.351986010256 25.5044692015052 -4.39378868570849
24.3656517312558 9.7580722806418 -4.34248601145074
1.20931097569501 -3.09997980971244 -0.0582079372211752
-214.374952612671 13.5921588111541 -28.0470865149937
128.822364857855 -19.189128521417 5.47162457877061
-146.123776285649 26.9350825759852 3.12277274275599
-196.812374553911 -56.6380868072519 0.171331925516882
-21.0986265721176 3.12279389652774 -4.43053539466762
-186.606923889386 32.9772721865271 5.71100934851419
-213.22838208063 3.73781093487559 16.8790711463054
79.7814500180898 -0.430202283214452 -5.44538829818628
95.807095489718 -11.6200952048171 18.8736614593398
-210.380971939675 31.4037380702088 -10.47327583406
-223.016761598348 22.8356079671123 2.72943675231694
241.210275308421 -39.4464626671453 -6.94677553358571
-154.031847740178 -7.07890889975305 8.50579011595431
240.63693292243 25.686655721986 -31.5433858787285
33.8107596595514 14.290657736168 -1.80091293931185
191.514097600171 25.9820727146827 4.24805590012464
196.557387683141 -30.4216585057618 -13.5426822667354
17.0294953035409 -3.79607845108405 22.1973730984182
-123.358209339438 12.5227474234358 14.0128919193617
159.608654708409 10.135779003257 23.3711712993245
-170.335792598449 6.05755994299555 -26.9587067646157
212.545369822294 30.61672278684 -20.134871571969
198.343649237815 -30.2067635579278 -9.91637479216662
226.693244959413 -1.7115367337729 -16.9719869168971
-63.6849437898191 -4.27943891274099 1.63080900419284
-110.338634201722 27.5819813260985 -4.56982786818572
227.208366802319 0.616873061854612 20.6819521437154
-86.0444412897461 18.6952044025738 18.1465655047365
-219.407563352531 -24.4519429565758 23.0251076760807
218.558335857502 -34.1943120136742 -31.8457799567006
244.184221127323 33.3765029778186 -6.14505727364187
216.262340750284 33.1213069581324 -21.913291396083
-16.0114817419433 6.80378231372235 -5.15379203174856
-124.750969824626 14.0932858702522 -16.9841403992406
240.252907453136 -21.4940955678987 17.4673820590325
-63.0573659399608 21.9086804585031 -2.36166419144689
-146.646354264366 23.8440857798122 6.57698838588763
-19.2201743574078 25.9838106327998 15.0949767010919
211.755511761943 9.13566116817659 -18.4281918870743
216.150193508922 4.08194859909989 -18.8892562332366
247.252312832961 -28.6139702531257 8.82177125480207
44.9957885593718 9.90812031878581 24.2477292065685
-221.245115915072 6.312089833991 -25.9784591637216
247.439225722635 10.0196900794329 -3.52445862830985
-11.8263094268736 7.1027831437893 -5.4577358078602
-165.402693083843 28.9540309068362 -4.02913831789453
67.7659748541894 -1.1166907876642 -4.82606017992845
-186.71846208355 31.8777699670935 6.78124262171317
227.303003046152 8.04187278531679 23.6802540139659
-66.0476848288726 14.2430940235598 -6.99998764744666
-98.6320631948154 11.1565899462883 18.2694980993458
205.873316676248 -8.71553058025766 -16.6008512596876
-217.359443898028 -33.8197766986517 28.5200412633129
-29.1385864681372 18.6418598540542 -0.692171892411041
245.569869174461 -38.0827689044113 -30.9608045247862
-171.382700613406 -17.9003119311867 -15.7411563666774
185.555248790111 -6.49342104899738 -11.5999171182329
73.1246086886132 -3.41137664693284 -3.24134223719622
238.070567404184 11.5131536862654 -28.1736914684521
184.213959828905 15.216293196185 -11.8583203744772
216.448104951743 -28.3767915845691 -28.9846399819656
-190.030439793014 -32.5424958577359 4.50002033247791
174.71127231086 18.7928332876382 17.3882645823017
-235.074905496782 -51.0603729759846 10.35988225159
-61.2527227343685 18.2363247291318 -4.38532064857355
221.763216772557 22.3197741821999 24.7104985913577
216.384156313687 -17.5998014242034 -29.3770227032214
-158.913282142608 -15.6102095161867 -12.215720436037
-164.17460823499 8.57624130831516 8.85683217839475
234.122712249184 34.2867577310022 -18.91716833283
248.175034892135 -7.47881718134906 -7.11704829283632
-31.2424112147322 1.07654927349091 -4.29712279090104
191.069265659536 -28.0560429407034 -1.16079739276828
-215.276542246791 6.77518822350406 -14.0861863126165
-218.033583180523 -11.2379342640059 -1.51110957298684
159.661832241641 -21.5202909813778 9.49983590487311
249.608944755086 17.3731077031413 -6.59181293040821
162.492050625404 -1.70236103042492 23.0297041351897
-200.966193021632 19.6329955586677 15.4378974355391
-212.721706891001 -62.4851859809855 -5.91809860856754
214.45691483895 28.6052277913838 14.0884479859396
206.561089715539 12.5093680341713 25.8457363210402
125.757963190875 9.39724076714308 -8.32916716705053
-223.274993723749 17.89361275866 -17.7946531711041
178.273397215185 -18.0292806103315 16.3860410694864
190.600746020159 -4.52982214899736 21.2339692127217
-68.5728679132089 19.2748744356262 -4.85849713513007
172.290481118945 23.3160900080913 4.99963104035678
-109.371119218829 14.9747066443331 -12.3437259719196
146.091325380202 19.7180039919656 -5.04505824228946
-221.770885401221 -54.5146661070887 24.1527771934972
168.80275320284 -5.74191487891366 21.8891462064207
-223.443796307261 10.9470385010175 -28.8396776135535
-171.83615159488 -1.95506013540241 -27.6842087245393
155.352425699913 -11.1979288218418 19.457519983131
-235.253815312144 -32.3518630215621 8.54456492275124
114.773152474452 16.7371941834005 -4.62531734684625
126.427395369103 19.699482545468 14.1597139760877
211.38522127156 -4.27864046387805 -17.6729646715125
185.128519360522 -17.3346346470543 16.764946316029
-191.003516537652 20.1238874983575 10.631501710508
9.683733842468 12.4453217444392 -2.67923502440291
-213.1783353643 -64.8124921622007 12.5897592350316
-105.611863357973 25.754820339466 -6.35817060600919
123.239736852569 21.8178765062406 2.16107664238583
58.1580677278819 18.2194800159775 19.1578400106685
-106.90828563569 16.615513394502 -10.5501500759691
-177.36441384522 19.4930854176864 -25.705424657151
244.319958284001 4.82367356615128 4.44727668651558
77.2010038381473 -5.91903103827434 -1.31255995108152
-38.9224318228782 -4.61952362833915 17.7099072040079
227.545877850207 -36.0397901838756 7.15107235988366
-41.9447877792967 6.62235627740539 -5.34391246313968
-160.822432040722 -18.0964153840364 -24.0079764098272
184.646062442474 -22.4554681653481 -10.515889792746
-217.752495944159 7.7684345010825 -3.84392821181375
-62.4736492274532 -6.13655347944657 5.32523325100042
-236.345764737269 -40.9204048272261 -0.516188245462395
-205.137925771526 9.9312916919468 -28.0159413317104
134.421545302992 -10.0393006451682 -4.92039832371915
-143.51656618865 -5.2083294880727 -12.9641321752374
154.504203741592 19.1475116529542 15.7189432390189
-6.39711163024075 -6.2863353917724 18.990518848768
228.505040660985 9.22493775003045 -22.8385266513339
-124.950285480358 -6.79766307616796 -0.898671788039822
166.958675227843 -11.3745853218116 19.3625640170423
-113.192151086874 14.591931934946 -13.7318738997044
146.026979853655 13.104550914354 -8.70521199486814
246.757604462669 33.7032725729213 -7.0101544081225
241.918881433791 9.03658277920962 -21.5914358436725
-222.824490026363 22.6467418795735 -23.2137577258428
230.648227805104 -41.2284369526504 -5.07485620024319
222.242791800229 27.5371314205814 17.75533477301
103.624832572687 16.3595813964482 -3.88540158851667
165.175754067515 -17.912797712321 15.7979861863372
-100.050139824174 18.8542459872323 -9.30869111865388
-10.9022847545821 -5.10723043043457 19.8024405977436
-93.5292097805108 27.4408197192503 -2.18765213441023
-187.520990673671 12.4913680687105 -31.1769431732854
137.894972818156 16.7343022920587 -6.62343089339759
-157.900140620489 -3.81713333154484 -25.4942136564491
237.729388645354 30.4489283824796 6.09674672525904
-209.73204421457 -62.5768950192922 3.30951779989937
-53.3747436331389 5.2869858107021 22.4254765083535
200.444067284019 -13.1255274366533 18.647469562184
-83.0521025363946 8.98901693044932 20.3285539812395
-65.2953748849692 11.5695749270058 -8.17536429122787
189.444330834283 22.0299617861328 13.5577359990464
-155.888502432045 -10.1110463048203 3.17372965822678
107.957248213008 5.25147047677757 -7.48780686056816
-75.6003525530515 19.1971071408503 18.9967484603783
3.58587526402041 19.1732265889132 1.12709425724855
-202.774072256967 13.8326925973478 -29.5997700986219
-222.493574233814 14.629499346287 -19.7195946651194
234.402406132627 37.977944140927 -27.7543673788973
-227.9694729598 -35.6680726617347 -11.845312311173
237.579117669955 -12.2787743351403 -36.9613672659089
219.218547940971 1.52308755638813 22.4442830001806
-184.495049497938 -11.5756047076257 -15.2731601833481
-132.974206829377 3.22517603872129 -14.5338911241117
168.676708698608 -21.7184065330576 11.1810914043354
-94.3748317428008 16.77525805283 -9.47632750761516
-224.428152135142 16.2875363474421 -26.1740816085065
-84.8310125553351 -4.85199017340356 1.18147266969603
-166.330792250935 -6.46396022264552 10.8902809458918
-91.3413339553333 25.3075428821753 -4.284187453312
196.888537290213 15.7960026265105 -14.9020420318759
-147.541663329506 19.2931231599744 8.65345875409442
-64.3566444820987 1.8251656394164 -3.92097639571945
-203.526407170768 -34.7206930402165 -12.8610006981673
-175.849136487754 -0.624380285069712 10.9396445426878
-18.4220351751311 -7.51170054707392 9.41195515588367
-103.034874593227 25.140786069773 12.2896196229427
-38.8530295339905 -7.09106267046104 11.85269222445
139.209926116041 -6.21854814232678 22.0858865421791
241.710200085315 -4.18358281042663 -7.96866135804109
182.643235020638 -11.4430261148706 19.3549351114432
175.438483320407 2.57963815869072 23.7355904131793
225.585364448538 19.4265993860211 -34.1530547051974
-132.776401632079 23.8404532444671 8.58209319672607
40.411363633018 9.42949276397232 24.559529629333
34.7401273638272 -9.48021117228161 6.1052726526732
-165.282308264736 -19.2465727657018 -23.6149996883509
-90.1811309822413 13.2199054546924 -11.1547020171988
178.22278454191 -4.76807277544622 21.8543136593302
-215.392655774193 -62.4551629561686 4.86830460432127
216.991448914074 -33.8930158897231 -29.4915412829722
247.476141077739 -6.90075564203528 -9.93095658954506
178.833889614106 -10.6081988743206 19.8602670158134
243.311538432386 2.53537429935891 -5.29566356560617
-38.1286811270252 12.224150090861 -5.44258945422865
165.876623398428 -17.1252316778196 16.4252163854646
-195.72180802915 5.34065312594896 15.4564595642864
-207.647615056304 -47.894269554546 28.1529913900973
242.404075946298 -14.2460794372289 16.1574791233189
225.850804162733 -40.8205933991838 -0.714102998379612
-151.588482980433 -9.46154648781304 -8.37782511718748
113.339270437106 10.792287688143 -7.09073587303623
59.7572459835658 21.3302717759603 4.33235703994622
-209.001532451384 -23.4222411159278 22.3857490068569
51.7174894086831 8.77106709583221 24.2565583138157
204.928959031852 -31.3551728411844 6.57555934047922
171.385288762418 12.9032762303802 -10.1856126588252
-225.939026840445 13.6321300520269 7.55610134335183
94.891148235566 20.4964260620371 12.6268909320176
-188.564090091012 33.0786968548368 -14.722712500825
235.883317842211 33.7784567512041 -16.4569736020046
-136.463200221776 28.8382185199253 -2.24017737701407
-17.5303332496243 15.5008813781263 -2.08922225819722
-51.1474120032707 13.5453172927123 -5.63597122841289
74.5942305365482 4.19124620812075 24.2551468480634
226.105457776181 12.6060772817503 -30.6956487185798
226.309265090518 -19.0817756508891 -39.844540501987
-153.405180880686 -13.5754232265621 -11.9877266489379
197.504799039897 -4.68711717817091 20.9135841319671
-210.348953975989 28.9529089966089 -2.56517160027209
74.0534790500735 8.06543942961425 -6.66643062017804
-110.785004641617 9.28018988236595 16.4411166593875
-204.577212044644 12.3058925434581 13.6236815710776
-50.6139702504161 -5.92640176858301 14.3897824245136
244.875890982595 -16.3191490168222 14.8518793685915
199.995726395504 7.8447905438101 -14.1402280430364
113.12616732933 21.8423030957444 4.09018683702414
-202.626972449336 -38.2992463722461 26.0164543169387
-167.045732226235 2.49956343459798 -26.6016047606738
62.6941438159809 1.51880264711567 24.2527955583738
-208.544903347731 29.3278078293353 2.7344193611397
-178.054450829296 -16.7652383030762 -13.7344596883576
-199.839988672595 -46.7201104173884 -13.0104551706401
216.366088600565 -37.1686446233968 4.82592829926109
206.590699925569 31.8607884603339 -10.7493780951677
224.433274830513 17.0285218483716 28.4362386011062
132.867975173273 -2.45267082000203 23.3181043022698
112.267333349761 -12.242732453963 18.5251024503259
-209.797310382911 -28.7693083038368 -12.6954446494483
-215.261610068209 29.0866451453319 -8.17644682029275
-207.920153056858 -36.7958090132715 -16.4050680341958
-187.804456323543 20.1006089765029 -28.2118106036746
143.960125130034 17.5984520863632 -6.54208574331985
-213.723537331937 8.73446364734314 17.2972466734639
81.0162908681362 -13.760705156951 7.90000234185256
-103.948265328851 -6.70660058762743 3.83105974547955
-137.237861090769 -6.07951291215793 -6.98562277846725
226.645034529286 22.2538687287704 25.3853503321791
-196.848814819955 -31.3457833831742 -7.57926635849045
208.238931385405 32.4593149500862 -0.516778847217253
200.881929290277 16.6627219040322 23.5089946425815
205.550536218313 28.8047876479243 7.68011592197331
-154.359088545421 -10.2894751613556 -11.624880154497
-153.183869052922 16.716064718877 8.89708477261832
155.916955368916 17.8815361188756 17.5466006397503
209.664024027833 22.2189318332367 -21.2916215120565
238.542989220339 -41.6874468599305 -10.7668873766201
51.4197323745052 -9.72503755645314 19.10371744626
-13.3943087856049 9.18120207807524 24.5487410430672
243.813311524608 -39.4443243480671 -18.4313289173255
-227.121387608219 18.1510222524628 -5.43921691760477
244.566072071151 0.26403396562757 1.27677296132345
-236.395766509677 -35.8440982643814 3.29463807388655
-193.856116581781 5.78655162041982 -29.6567488742026
-211.604814785869 9.05853373635982 -15.3091432749135
-221.256721765774 19.8999473931476 -23.4224580976675
199.190696247177 24.7387585207037 -14.1353097711817
-206.863394014856 33.2987875459079 -8.74433380088221
-194.641411653207 11.5148001518096 11.5918598802148
-136.141775029271 8.88489698350698 -17.024892322886
150.324977016307 10.4675016218237 23.093600525801
249.482697219215 -12.9083182356395 3.34841989894168
-5.32997953026424 8.71667741896856 -5.39997935705213
24.7218846168968 23.1562388878196 6.83178036748529
-106.031289649494 27.3468226443593 9.89591330358737
-215.787925095842 -14.8832066953516 17.8005082622438
-232.229423460984 -30.5995945865919 16.1222632505687
-197.73880670981 36.3158907355581 -8.10429811317353
-224.461349500511 11.4674362930952 1.59220565353543
-226.486907005858 -59.5550052533197 15.2650046667538
-13.6791617122044 0.841136166815956 23.042310631882
20.4637423406962 10.107253181065 -3.98430701812312
-183.327656659611 34.19535781173 -13.2896829488599
209.921541877105 26.2037515350723 16.2237333853949
33.7223532669485 -8.50765729547459 4.35688310771816
-57.9880516530872 24.1818117841955 0.18834660872134
92.2902907794492 -15.4883657002302 9.9499669806626
223.11684600478 17.2233356852047 -32.8167562836712
-175.592292291338 4.42571351838744 9.47641282042166
255.454148755968 -30.1132436868872 -20.1880640045657
215.165598057271 -40.4162152542489 -22.9601630061771
68.1233869463247 -2.03365562678051 23.3929575380525
