135.785578733264 16.9370438170585 10.7495277663379
179.389079119696 36.8038239036643 -18.644637738309
-182.304104531467 -1.26391700401873 -24.102083937411
142.572773923595 -20.5156909891812 8.34400277592375
-185.006956608682 -33.4615230081705 -0.645140042308299
39.5104302466661 -7.78524699322496 20.9947125920761
-62.6370065975385 -12.2048120698668 -4.71781619452223
-160.089610970718 6.30181224259969 2.98631759008894
-59.8023907862404 -20.6997387803012 10.5682322876551
213.094736483549 20.1785447465617 -28.2651498913669
-233.792163630933 5.80696550473752 -5.22474218023773
201.308082865363 42.0954213393073 -20.834667935154
-166.62987460222 15.9733338535492 -6.7201193032257
165.63633104237 -4.32609457936335 20.6390786377654
-146.078009359264 7.3121780124057 -6.97674601177842
-122.417066528256 5.93345896000775 4.04640343596572
140.222737438756 5.05823990483677 18.5414548800471
186.034566045166 -23.9922911675415 26.6778560119813
-205.862870897421 -20.2595213119181 -26.662631590861
-195.772369736794 -31.1640930288977 5.20704383709982
24.7314791974789 5.29607023713834 18.6042233421065
79.1163474971851 -1.67888176042912 20.197032944979
9.94637629782562 1.28512398881126 -5.35337684646322
208.265475679282 -33.2824364218186 -29.8494268516048
-203.509510172542 -21.1638519645584 13.929765121091
124.386288990776 -17.3162209184156 -4.69394303751462
-196.428710547202 19.8302200157507 0.0503462843951925
-208.178483978447 20.2111281653109 17.2469896121619
-143.745706429066 0.720385772718868 9.79570965328302
208.867754106788 14.0224767403166 -19.7529047313652
170.125738947392 -27.6368206251162 -5.59629248800531
-197.875208601266 -24.6553602232247 -24.8337990326681
172.058910429814 8.9074765758248 -12.2383338540251
86.3692492577802 12.1145654400496 6.26304783206585
-222.41917080002 49.2911081598274 3.98348081956668
178.963506514089 -24.1779240317625 -28.2708945588924
210.886574385991 -21.3159120015459 13.14497706285
37.2595143739902 -16.4451151361253 4.77164952645052
-220.438074330468 -13.8626858443532 6.03131927670392
206.307250802994 -18.3939142741945 -31.8269090369819
194.308270621236 -7.17767977951124 -21.926189483926
165.996831264787 7.8328178636459 19.6679512919419
198.109345548806 -1.69688128303727 -11.1800680302489
188.911352048074 6.29337878589089 -15.7657558100513
32.8048510928902 -16.2108406322639 4.38950084666106
-205.963752053617 5.73016756276901 13.6469139557153
121.718022942548 -14.1021459410769 17.3400798360114
179.905781085103 11.2532804214341 22.7787820229407
66.707915275258 -6.82709759164462 -5.57196442404159
-175.756124028217 4.29908827619043 8.75323969636706
208.16134584152 -7.59153354738346 -18.4502806017397
204.27879974436 -35.556285718829 -14.5948421468011
-224.11933676698 1.76080149275119 -1.11356665080207
5.27592155325911 2.14231130640271 -3.53442163134298
-115.739563727037 -18.6949577611073 -7.33207135637024
104.031816992757 2.12805432116436 19.1377059076957
-112.678697861224 5.11494778520109 6.22280479894244
-227.327957048434 -8.35420956465982 -25.9812099751524
144.608845243361 -20.9229776404845 -2.32702469230531
-230.890954938043 43.9999817959244 16.4460808176776
195.244855243618 30.5413170602814 12.5863690600954
167.811867563908 29.4268427051055 -2.73805915905026
65.3278809223115 -17.1559592402786 5.60568676214997
40.7993089238251 -12.1635054609324 19.3421760371644
-137.718947597279 -19.8725039193609 5.18494402294148
184.435204955301 46.285466396593 -11.1270790522465
192.816225247669 21.1614726875218 -35.0884202615076
-168.934509266412 17.8696303609864 -7.41862129740114
207.469004023689 -24.9463144276652 17.7314945076836
-148.368637669377 -20.404783108658 -10.031213431038
171.458465263232 -7.62370238672429 -13.9491313366637
-230.698569827074 46.4725412979272 -5.58637883795532
-148.283540478945 6.45127393179753 -12.25888763422
200.181611856279 8.07769634870789 21.7649087794665
-205.77771461942 26.9345263555452 -0.509017887888296
9.32945010325322 -1.66067405033602 -6.05881135421432
140.40039683149 -2.83592922023942 20.0101778712054
-212.240197587698 46.0056234369192 0.546928408355034
199.550106988729 -7.26043159143557 -17.6162879008279
-193.366212003096 13.5546450512824 -8.48577281405604
-187.075059103613 -3.33676205155893 -25.6699541096454
146.513694360701 5.65327811363563 18.7012330050902
153.89639069296 22.5659333643842 4.22149324628226
53.5071128955269 -16.164397511398 2.99385126113803
-84.5231629041146 -10.0200238046531 19.1937857838558
208.115424349408 36.2570533710672 -0.258435530645723
-175.006824770391 19.007354655052 -13.1241874756337
-203.078633409698 -3.67825262017768 11.6757149460572
-236.296233519971 44.3488423277226 -1.93701949523913
-53.611632274481 5.03206205038801 11.0690119637338
32.0293216646546 6.40266492542387 17.4131590620489
-193.52966483732 -27.3892828444554 -23.3406681424228
-185.437615475576 -11.9255550748046 -27.1404970644805
203.780826175986 11.7209077955612 22.528564183775
176.598836277994 33.5101511978259 5.26447484749385
10.538853470142 -16.6382213501822 17.0295925933223
31.4436477645576 -2.03377108538899 21.5053867622928
-190.897838747778 14.9003866015132 -7.32850071232909
-133.598722047177 5.3697838003758 5.36460858277947
28.7317431846245 -0.791987829969583 -6.2571273985827
-48.5993877976594 3.309331584729 16.2247486581194
174.868896687662 -29.3528248681332 -1.24348762656432
-129.878256208101 6.53828882785111 2.46798616741372
181.108405912399 37.60864119126 4.26500604115159
-148.243745495782 7.66794599628163 -10.518130583789
-214.674137350273 19.2628730793567 22.8689982391599
-87.013226357935 -21.0890996961675 4.82933299195354
-138.302287620629 6.78159932561726 2.44067594022431
214.170959884956 28.5578637313601 10.3560209740867
-156.815971538655 -20.8056550143699 4.1874571157516
-174.440835831579 4.02377942543552 -22.1631769704641
-176.313164736136 -21.2318364480877 -19.9858983586938
-173.949086750721 9.4818806233642 2.7103616202021
-127.279936426801 1.0668033513757 -9.4777202014437
136.666389889838 1.16679188146537 19.3498846793552
-155.799489932759 -9.01112399921981 -19.1106835326614
173.440117419909 18.9824623387355 -14.0278072464924
-204.180290144202 -11.3224933480009 14.9087914411238
-165.253253935314 -19.1025809517138 -16.7291083774614
-225.045056812246 -20.0328333557846 -0.306829086021451
-187.550795653909 9.6400960675423 7.69978754181147
19.1507367268398 2.65303354310313 -4.85359880940992
209.149533183823 -11.8324393342999 -22.1417918142156
-196.073529127247 -27.2587202238668 -23.1471759196892
3.72056586460851 5.61039593434379 17.2047526221014
201.895765567716 36.0894330259223 3.240473086233
-110.197022579074 -17.9819601986319 -7.48834891171068
204.760610558006 41.9409770543806 -9.29071744306888
-223.065934453302 5.16615502885389 -5.46538932552957
108.224752165571 10.8687511397148 15.7120324611464
-129.953392916897 -19.4683307877336 -8.04927799805351
87.0873931052917 -16.2256725174854 -1.20972377462411
166.119534828915 17.7325272898991 15.750162466936
186.306277125539 -36.9338304707559 -9.56634325839528
177.372321209549 -10.6261691612403 -19.0478666263931
213.585980405633 16.7442474628551 -23.3939390128568
167.255113517907 13.023337074614 -12.2236105249708
150.26799882255 22.0259433897854 0.689622878970122
91.154208469466 -4.51664509361219 -6.84678980143342
-110.154911851473 5.4200503201921 -1.68276399130507
-209.48569477502 -27.6942013466036 -22.9882511163983
-143.089094199909 -0.500333130224112 -13.6377118445177
-199.5399311897 -36.5441639146755 1.63637485181771
213.541999669354 10.9129328037104 -8.75895847539365
210.389413132154 -24.1253493504385 -27.3973591180393
-87.0668238705519 5.43511769126131 1.27082810557544
183.659402486031 -33.56421256636 -1.28134125161005
-156.639059538386 7.82712599201315 0.261474178096049
-22.3819321659677 1.96580316757086 -2.07587976266748
-160.20505321836 3.81670356173356 -19.1607313085924
210.368200617395 -29.2694658480925 2.67432755593762
-135.124455630019 -11.3221568974864 -15.8519912426411
-193.711966318652 -18.9616226412797 10.5206025883624
-66.3052679854971 -11.5944868050402 -5.72503979280059
-142.862683269381 -17.0339774009748 -13.0126986648873
111.492219132896 15.1656828844761 6.31020514002015
200.128520107581 18.1422672833434 25.2129914990618
-87.4744775945959 1.46587302516716 -4.58792359602436
-155.508595938257 -20.4466251942343 -11.7819288672438
208.380584219753 -5.27575169258506 -7.13526407943351
202.009606899651 -34.4498375342363 -5.12506422525629
23.6822733256436 -17.3843201066546 7.77099707690737
-183.795899202935 8.43080153158148 -15.1795107751393
-73.2912881333818 -6.48140516248848 -8.70076816188076
143.458871251776 -18.0635550726302 15.5909975305665
-166.429148848668 -16.4299261466799 7.54785217358523
72.9964126328461 -15.1842416188552 -0.839177849668821
178.963596807449 38.7237596798877 -17.4806868108903
190.626790932508 -5.233441885875 -22.0837151621383
199.823433020849 29.5466822815207 -37.3969398460114
213.531880028223 12.095308328551 -12.2600324923737
202.210845570161 -34.5908820728531 -19.8158983772857
-150.73965488403 -12.7458060151108 9.30974549745005
192.208717188022 -23.9327699541534 29.4786123419491
29.4758039799745 -13.4446034677453 19.0233196822284
163.047506842771 -22.7109461968107 12.4304081348402
-182.606645822143 10.3417245619306 -14.1869265871308
22.3283140469896 -16.799093001448 15.6718997278075
-183.122686761868 -12.7654561035278 9.372141807779
198.353321687843 44.366650341372 -4.9196910957683
197.203736836148 -36.7481565753678 -6.3981416240148
175.760887983896 3.59908648950251 20.5077045849758
-219.698645410774 25.9633897129772 26.1766367263774
-187.860403429834 16.2780189731793 -2.97942225246376
-240.903566028911 39.2168720726129 11.2365297358018
-226.031697769704 -15.2475293431477 -10.8848332345946
96.7493067653003 -7.27050614067948 -7.33765468018696
-36.9283338472612 -18.2979581363276 4.716723404549
26.469577518613 1.92976279001321 -5.72113976231644
-234.083385939204 23.3136683246463 24.7732602426406
-6.72931467054187 -15.558343407797 3.40420568722829
150.484691431954 -7.28056710660521 20.9104705989599
-193.754726461283 -22.6308338702364 9.63380653930749
172.906607995876 -30.2714772890923 -10.6609276659007
169.556821397398 -27.2933743850563 -3.91987286070285
136.935970469874 7.16534259293165 18.0442381036714
176.356232040547 -24.6445758255672 19.664581976272
193.768825469288 -7.61959799099702 24.4519481502579
-153.660906250802 -22.0252950895609 2.09976416899216
-62.1621380057039 -19.1545359049961 14.4297282512707
213.298377370582 -19.6512332204653 2.64879900819323
30.6569653213638 1.20940148813123 21.0430558256457
97.1520170906648 7.97780279784483 -1.86632192966284
209.582432793074 16.3971901762211 -29.1969709901714
-144.131091721843 7.40245437524093 -2.54016421775043
178.658175497139 34.8418886557656 5.47570703794888
105.679783781101 9.41611179388459 16.6755217186459
-23.9277765751017 -15.6749731628402 2.52812940869495
-224.163026762382 45.6955550301084 16.0037207405597
-189.837496578867 12.8753838860169 -9.12140442842882
178.478346579217 -26.5526979307048 16.7075451640176
-195.931828160597 -37.42860131021 -9.55482514558148
164.413264862048 21.2906091030638 11.6750141824454
190.042284148249 41.0957102708647 -30.1096760808187
-24.6909512959531 4.02756366729607 2.04143577745224
-234.494093858688 43.8249545269655 -9.93892107088417
-1.20713640688762 5.97097790366839 5.52733840220524
-209.239092635854 12.8486965156703 15.9839589512912
-170.150051973257 19.4106601744819 -15.8743630887653
-233.786697477472 28.860739761342 24.6808644717565
143.034164917875 -9.62635676459078 20.4967014097244
182.057434616722 20.5733652039897 -26.3326287909427
156.985441754724 -17.6626604190558 18.7925886356566
-52.6813034451542 -20.1501947345591 6.35156730867873
-159.109473047648 16.39486332714 -10.1086069298712
-74.5813975845047 -8.21514927691025 -9.00479753864452
-223.142007345105 -6.43615172935798 -19.4076238361975
87.4036840403009 -17.5583604808958 9.35909858684835
23.9138844503748 -10.748762968348 -1.88534084901032
-50.639730906578 -20.4977354878909 8.10671017835297
-180.905131546784 10.97377293092 -15.4077506220653
-211.391173941913 26.3123602960512 -12.1948245727292
218.214314423129 14.6844176647072 -1.73512832787613
210.213504391041 30.2051768399131 -33.4944455023703
201.857133562743 -7.40999852567004 19.376998241975
-24.1945752937481 -14.4777341936741 20.3956890634309
-80.4168032469726 -19.3947947543649 -0.60140699173541
-172.205403005796 -1.10728061561444 9.9678060398633
-247.111681606393 29.2748093328294 -5.95917925272157
-168.030618829045 -25.1561251894972 -7.00476748992001
11.5947845175906 -13.3049663364391 0.473846504288762
-26.550978052333 -13.6887690009047 0.306816393523216
-211.424910248165 -33.6652673320603 -5.03044360157467
-106.945964167012 -8.97863114374229 -12.7749966749122
190.777465474693 42.109789288543 -23.2246194141717
-12.3420157281044 -16.0968632666629 3.72073953427445
-223.485833611734 16.1305219892849 -19.10194505733
81.5860090319782 -10.915205696832 18.698462533464
-204.122546762588 -3.54318611647446 -12.3617664938911
197.585911407904 -0.760214300927041 18.539004365343
-157.742216894756 -7.01989781611987 -19.0818373013791
197.337179189108 13.5055408588628 -14.8536613818051
207.338842117855 10.7556411550288 19.0911682648926
170.571222571457 -2.33391396198203 -11.9384253935724
-146.263963753904 -12.8135302248883 -18.2185582686028
-120.569564798268 -19.0622513562196 7.95042338641145
-214.98930099408 -25.212702995405 7.82592114276309
216.231475141684 31.469217426033 -25.9500709559767
5.58384091675362 -5.291330348269 -4.68612119345967
-167.164007720392 -8.95533648964115 8.7307475946876
-202.302856973636 -4.61557585753438 -19.4995339742031
66.9753804683048 10.1331604016071 12.9175312705299
-200.510502130774 20.7761910157798 6.16186661984318
-112.370023985176 4.87110412619117 -3.33219555214451
192.376184075678 -13.016895060009 27.6768998942411
-136.112064549971 5.99159148399597 -5.00219043920544
203.642928738111 -4.91933217148739 -6.58052549430439
-32.788359309377 4.12587331037671 16.5762213708019
160.037806974503 22.9824475183795 -7.3057576988897
-221.881245895418 -14.6042959719572 -5.76272858416285
-204.60530220325 -7.38587499528138 -16.5832621618506
109.893989769949 -16.2050357510798 14.3227795686955
202.976894115795 30.4869210352349 -36.796525478304
187.617189078682 -36.3064422278456 -20.3519517969995
23.7898546163886 0.0687961289401472 -6.14058130416979
-141.193437502299 1.79097827521309 9.44553746700926
-187.303249705124 -17.3115465531996 9.08663123888722
-172.625637385514 13.7399656686758 -20.9368895869116
197.415876490508 18.1392957975731 25.0234806960273
200.498911395299 6.25543097358341 20.1584458756652
-208.311157520745 35.7303412244299 -5.24561861876892
65.8206298923275 -8.41511986083182 20.182127832862
-177.68837495331 14.1293989850551 -16.3950912205528
-241.995990713355 19.4451975020051 -13.3513212043875
180.335653237147 41.9998556666361 -3.02546089771606
-191.578159224864 2.38837982669718 -15.780036055388
-125.917476324098 5.07828636904854 5.59745212389419
212.726085605371 37.069354320013 -4.90467478051163
180.988125881383 -30.7965700349981 4.07702037505648
212.369860335523 -26.309915028592 -23.7738285493258
-181.078134025228 -13.5307408963371 8.70120314318065
102.486812497104 -2.09102943905876 -6.89047851612805
-115.529808811431 6.44143396394213 2.97602934718024
3.43676976610289 1.50787949284305 -4.77628507288398
-88.3880086793683 -13.1422633596765 17.7497389959666
131.383155914211 -18.9417898601827 11.4144216574276
174.678094944073 28.7122257248342 -16.2061140571929
-205.278327294972 15.2037453923987 14.0373540977619
53.1773708318463 -6.03553928850878 -5.38581462494917
-175.274608307459 -8.07833338462529 8.93759682507098
208.916751917825 -3.45696359383999 0.521998224301972
84.4956349333342 -10.5229383031319 -5.43762326540954
-171.514254028377 11.3646372924061 -1.91110492534112
199.268698222643 -8.07945919427304 22.1142255344836
-49.8285530479796 4.96690465707624 7.76893974923055
-137.246884373054 -18.4595237129127 7.04631020740299
-145.91301783085 -20.3942498208038 4.25027049199149
-220.103321142711 -16.3456150915145 9.72894290158021
203.230478143957 -29.9174234604206 -34.7850146788032
-199.845796142161 -33.5058693782824 -17.0415647379081
-25.9463441549246 -10.6466013735315 -2.20385406509492
-236.521722372359 16.0153034473594 -16.4348575055352
193.301451181961 -16.991037134479 -35.941671719023
167.194132959594 -0.418463984409525 -10.931463113076
199.476561934913 -0.844836140290142 -6.89145303518819
121.734920251484 -2.72054046857864 -7.60981147792405
-6.7886350036964 6.14951074529648 6.96078933773615
210.271531356772 22.9679106668955 18.2868156713801
19.8167735584121 -9.46319198235136 21.4376082317675
-240.011569143998 12.1615929950415 16.4387376333799
-141.136426209147 -11.4679448097191 10.9348316507233
75.8385182378572 -16.3940229554523 0.795315571396743
47.4296123354705 5.0039318855166 -0.982257978957335
53.4907165444286 -14.6447718084083 0.109186597409341
145.918339361506 -21.201577762784 6.42642070287646
161.224619961046 12.3250444382758 -8.55664188749232
-247.565269746076 33.2078212619125 5.42720031397815
62.936368235101 3.13669474373207 -5.03126956158468
-169.029880815012 5.35345806032416 6.8868705746832
125.261718132318 -14.9825937824195 16.809893882652
135.607237001509 -19.6267502170938 10.0695746915084
-152.158540460945 -3.23156123614454 -16.714517892218
178.402123869659 12.5670306865557 22.4893103030432
164.39830291188 18.2079134928998 14.6319004999349
-231.038673734008 35.104798255763 23.6756656193105
6.56386247027603 3.50178120060999 -0.973976664915268
96.6109299519588 13.216503781112 5.84786769978048
-19.8613979927743 -14.9178842248954 1.90160969255194
85.7454929841848 9.64665246347775 1.53273154533092
192.330911540721 39.9838040597019 -34.4881969869744
35.8274826694213 -3.63113109497748 -6.48134885326848
199.29269824469 -0.226873832692178 -4.76761915578394
192.742411972718 11.5513061736218 -15.6604904551777
199.637857990593 26.4731069799422 17.0512470115252
67.4162859063706 -15.698720504518 14.3536758471426
-201.941914495386 -29.3417115575222 -20.9605669831227
198.852599019593 -25.6947158441531 -36.3204433520939
-139.02354671878 7.20116488116572 0.381244155776108
-214.767107328714 -7.58569052029 13.2789233194639
182.108600764541 -32.0306257128396 2.75779477739451
195.92383598097 -23.172058707249 28.7262057475762
152.054980701974 -14.3942313547912 20.3744251909847
-220.272408312855 -7.85096579564286 8.20744030101083
13.7399920233946 0.491888026552629 -5.86218163631761
-220.717593565977 23.4013610762881 -20.6427515461549
200.365991646074 13.819501096597 -28.0662511787676
79.5030628778702 4.72240928219731 -3.80936165549275
175.361482522488 -27.1566710257551 -18.820419120816
-242.232012976011 40.65500277817 2.64716183083788
-196.794312443215 -2.76893104555565 11.2124115532498
-105.236358911053 -13.2939979743714 15.4394691575578
167.090922728128 17.021613432467 -12.9380657305718
-220.956623585751 -7.8091791464478 -0.148966613576917
-236.500719755827 28.1432722316907 23.4242662734378
25.8210221663746 -15.4148926119814 3.03632919839682
172.186440630622 23.2951138466347 14.007205548543
35.7794533422662 -0.406623160693938 -5.98037713732179
-71.6726720136755 -19.4516782010842 1.34110837717081
-120.667322018122 -1.16506505583039 -9.91151136782714
202.426800421671 18.8330295364097 -35.1923494057427
-226.161358001858 9.26952054610519 -10.4580525822853
-53.4880925389613 -18.6656186981759 15.7025263777481
186.236290379096 -24.6180887582596 24.7159152779817
157.618464398188 5.70274873334106 -8.06419956902487
5.81835865791494 -17.8521502267059 8.06240154123769
-91.0116795839207 -18.5014637161215 13.1733374073206
-227.039264057741 8.11089466375813 19.4403164818983
-225.787209877648 13.6675974290494 -17.4093933184786
-239.468913073467 5.69143293005455 0.971778856406
43.6991896745552 4.43854773484335 19.4191974496949
194.959574353949 41.5735814045025 -0.28614815414046
100.874229578187 -1.09160010818996 -6.54220569312799
126.774616138347 -13.8435283352917 17.864717895204
209.960720402981 3.47625337798629 6.33027780338456
30.0527841871682 4.39243542086763 -2.17921623056938
-181.791853397463 3.66390832749555 -21.2872810153799
60.8270433041494 -0.0569693012615938 20.3293737418703
63.0881236081414 -17.1822970735376 6.69030012451422
-205.093879482354 24.9779461068959 9.1547834254665
172.91233558506 5.50840348038706 -11.9494190424634
-228.033444629538 -16.3043834753371 -24.874741435822
204.605458758779 37.7881626619527 -0.672839346439762
155.871963366081 9.88104078902873 17.8984669107198
166.430988119077 28.3969154854086 -0.813693190486152
183.727428581439 18.7372292163419 -27.3652194894174
133.612951372614 -9.27167333883566 -9.1188497345566
-207.372524398671 32.1814051614162 2.24396378453211
-163.757405724907 -21.4398980224651 4.09781427690729
178.988975802736 16.8684474503815 -17.225373700096
209.35211718027 -27.6106830272583 -29.5316923421023
29.4974238411085 -4.58906967360494 21.6406541515091
179.663223318954 9.82547593450232 -14.1664989823404
69.004841464157 9.72019008817984 14.6486167113449
-136.638397142035 6.14472658252286 4.5137355237191
-99.0448035291194 -21.0913192621815 5.19057460166849
-129.371023235781 -2.21488513207791 -12.0128719617277
144.495706516859 -18.2874258254226 -7.28771332567725
-230.55403443331 11.301723634326 -15.0637600669027
-193.182850513525 11.2627768433742 9.09856688464578
159.74253775296 -14.2926440509752 22.0251136188985
-220.255084563348 -31.2751297921101 -4.68113768424815
-155.824079932979 13.7078672805805 -11.6114915798189
-172.610056269963 19.4306552373663 -9.95805756030121
-178.55563765844 -20.362047247954 6.60912384698241
-211.929507955936 -22.5572536569273 11.2708050266009
212.612753222184 -25.1622177019643 1.11732448220817
-151.170396329847 -7.13922646070767 10.3990771122287
163.41287592901 26.2897834441961 1.89906058465091
52.0542011753728 -9.71405388639622 20.096750497958
-180.658537037695 -28.7802012440076 -10.459494958181
-215.110038846281 -14.9676098250979 14.8567386697087
171.702915296171 -30.0550771013544 -13.7158925497307
153.44367018624 -0.384910142345766 19.7486526244246
-122.055540030413 -4.65944665611475 -11.7640173323866
207.314863773221 -36.235166417159 -25.850627142223
178.782561543928 28.6813465531664 12.3941013203097
-206.925103923238 30.6511406327339 3.24316759089848
166.348359416758 24.5073258654525 -11.0247790752654
202.841287868377 12.711277631308 -29.9906251209125
-124.230135869975 -19.357533940729 -7.52423635598996
-170.500847446293 -25.868408736703 -6.99602857934356
219.359201584403 32.8223749839852 -17.6736070219842
159.288694067845 -14.9291090380842 -12.5320788068993
207.857583264335 -32.557370223275 -2.47498285082294
-210.268557683204 -11.8944675857989 -18.5718307543972
206.487544282647 -6.45340625706323 -13.6226398868362
-201.378965439201 -14.0162261777393 14.3373040390396
-169.375946597929 -12.8357276887499 8.05405099102732
-196.818448538028 18.4479150208061 -4.58752935000255
-176.019384982765 12.3737295279567 -0.757617395056686
-62.2685599729823 1.13175893699717 17.8844701634125
203.928378619001 14.3815151671265 -22.6926124562472
188.350005910694 -38.3878489781181 -14.6540616239868
-131.347469041101 -17.9974123898123 -10.0858913899479
86.9260384399385 -18.0030800768386 6.65027333059121
206.809647099255 18.2561279175278 -33.2052301237827
171.099384105357 12.0937632125285 20.4282142794327
-181.992818143558 0.783088744563929 -23.2355823782521
174.650421800589 -25.0803628238723 17.4830207280948
163.957700425775 17.9697573325826 -12.57969360672
-224.21160880453 -9.43219894704681 -15.5984486162555
-246.468858694239 13.9175819030826 3.57955273478114
-194.674249112171 1.28300024403251 -14.3058005853927
149.622110037173 19.8111865941636 8.93612534380829
-15.4388573108965 -9.70862855551438 -2.5673103545277
211.901158338233 -12.4912974311618 2.37473618419428
30.414974603693 -1.84454632212647 -6.40507855787579
-35.4247883583398 3.49273452380153 17.5038150514133
-213.50259152147 13.2473657178654 -12.700815792545
81.7495428357772 -17.7131519636161 3.7609538140766
-123.156213479482 2.82342524581385 9.39002781769203
178.049694529106 23.2725540012782 17.9747588428122
-216.842538313864 48.3024069357561 1.46893422369381
195.715246609959 4.770666504678 21.3919541273089
-20.127620635049 -4.34382353850484 22.9789458427098
31.7052682191681 -17.3668072448893 7.61845633717265
186.295487916612 8.38582802519515 22.7130355205274
11.7839384966681 -15.2164630869851 3.03797714560893
219.904373182592 29.7764701306019 -1.34383013288638
-230.889205819862 15.8492176391709 -18.5088967621828
-169.641787712086 -20.8553799653787 -16.4919647603843
-170.852617692429 8.57298485006783 3.41563895410181
-20.2793743156612 4.62093628266212 17.1862841235553
-183.670753287998 8.41178581540876 7.89892961019269
132.033164407185 7.5933056623556 17.7224977639415
139.288611451707 12.9315571186771 -4.32654251363529
-89.5598470428697 1.35260836141339 -4.90273826899816
-125.079322726669 -22.0399622736529 -2.42792681266617
-17.5185599377967 -2.6937054442192 22.7735218090292
-124.69254944204 -2.70622607692108 -11.4957582241523
51.9036973728363 -15.2701588807838 15.6562779876616
-207.253719669597 -15.8773955954532 -27.6440372233365
189.216359319823 15.929535296088 -22.678543202137
153.251625611644 -12.0983541758176 21.1625652125683
105.086686110178 -18.328195993614 0.290086942388547
-232.118677681216 7.01806550787826 -7.10623720700381
-28.2959220219693 -15.5679609155081 2.07117391663957
193.190721898618 34.4477640726661 9.46623588783073
-76.8281719269623 2.70388376523492 13.1154385864863
202.615178782861 -31.8092135976274 1.28086415278332
170.653423744126 19.4979335037138 16.5289706214045
-90.0431459513277 -21.1194785446171 5.12384779846733
153.820482499759 8.54459893698554 18.2521462067289
201.736646295847 -33.5513034961818 -2.68142329347306
-159.952911841006 -21.2912866000295 3.89291255010625
-93.6776998022083 -20.1263412124013 9.3767759919174
199.731684998227 1.07884454406327 -4.62404889993499
189.615257115931 15.4822386756939 -29.7068625235083
-137.54618067547 -3.55757488950901 -13.7945887110052
101.984085699246 13.0250486772018 12.577341722252
189.655246005276 -7.72040493737888 -26.688309852647
-175.721574957026 -26.5566944358721 -9.80936546498329
61.5550625913927 4.58517648568594 -3.83994455187043
-24.3092542875842 -2.95875146659473 -6.54923106649927
-189.789336386915 7.80675833017287 -12.6584062928647
72.1718234321782 -17.4377274637457 6.30808322160503
-179.547416167023 6.51366032154098 8.72746695568459
-214.953320122044 11.3998125572649 -12.4164700654264
193.028073548528 -38.3183566987393 -14.5348271660339
158.523193110964 3.7838081752358 19.3506324644723
193.236107088677 -37.5347765547869 -16.8726439937922
173.385787783972 -28.4694557887603 -16.6668127628496
-216.594445047775 34.3725992313205 23.6097312864896
191.009710073421 15.912916131532 -24.2156747646285
-163.252255304782 -9.47242368283265 -20.7554452948839
-28.656683869627 -5.5731279054196 22.9801848603519
-150.642072325881 -17.3315422697103 -14.2530273897902
-82.6367267294131 -18.4552329288802 13.9427172202501
103.90691041918 13.0210546388003 2.72318289966814
184.899814119922 9.66781763366991 22.8819594939107
-161.238100767801 9.2289762898655 -1.17373126846332
-202.133511232305 -11.921199667046 14.5297139530946
-140.025279713668 6.62667793107933 -4.49857988990639
44.7191890762559 -17.1420186313367 11.4847897241516
-227.937450712211 47.2243169832594 -0.772216888657535
195.5222128171 3.32568424464661 -11.3668341096929
183.254899424664 16.0126687857433 -23.2819461765349
19.561729548529 -12.4491997296165 -0.45970263488561
204.590771954755 14.7104411998963 -17.1466312143858
9.93784144193916 -3.76405732547828 -5.76478530210259
-246.727632320899 24.8150444391569 -7.82208171477821
183.272518074043 -35.9399370349809 -9.32680257876454
85.81806670448 -12.6437291201491 -4.48782094016746
211.594623650279 13.0819416303851 -18.7010970379371
-171.843213211634 15.1182262505155 -5.94430374685532
-247.37329445998 16.1640236337113 1.34729589088334
49.2403949180992 6.32195254201033 18.0434269387237
212.855546489232 -18.2440022306699 -8.04488773508526
-160.737905577304 -9.82451729676486 -20.3134837108088
-200.69896575047 -24.4126856836703 -24.740872707166
-189.93127802904 9.45291730639399 8.8705235090364
-220.488110905551 47.5129608187051 -6.35688642112401
182.639308827296 -7.31639195939835 -22.3516228458249
-65.8374853041277 -9.36233675270066 -7.51278265107721
-209.554025254192 -24.1974068333747 10.0801741622964
-95.7384786918114 5.72407650679027 0.796862038340231
85.2698346513431 -4.37689906053451 20.2566819324196
-232.489927253392 12.2817528257792 -15.7337174431125
205.087796501367 29.9433304073834 11.4224217896685
130.202955224137 -15.5914827259775 16.7662529656098
74.339486681295 -8.86776270820713 19.6586441011808
171.39288938747 -1.38148734500604 20.4260899837003
-162.712720055148 16.3121354763976 -18.6017977587712
-241.901629475693 37.1299627289174 12.9825463108426
-234.714367232092 3.7848532140333 -1.25231167188215
-237.940015625016 7.24872798925602 12.7231581847552
163.134937217287 -3.11941790739098 -10.5126184799931
-193.630206984672 -29.9163469738915 -21.0017235333788
199.3712186215 13.8242567906454 -28.8625542267492
113.300705951294 -15.2167633524105 -5.54305204067526
190.028643636481 31.1864574823883 12.8327339899028
-243.102149846127 24.2722284115016 -13.211484749388
201.678972585501 10.1804492978227 22.5703022627385
-36.7278463736209 -12.9599262891026 21.1684803520464
-230.719045908391 9.47312651360655 -12.086260009083
-46.9317581061181 -18.5806302441193 16.4215005407579
142.406732576027 8.97575047716209 -6.29329949576318
160.122354519204 18.4102362993608 13.1264175987281
-67.3044755369991 -5.94102398617001 -7.74210949286751
-5.61624828441901 -14.1148437349533 20.3570231566701
172.116697061617 2.52241235115803 19.8058704783555
-209.129418997401 -34.947765078789 -8.01151761997474
124.869592113148 -5.65500844688042 -8.21869876794671
-196.459842695207 -33.3357595531601 3.52939803511017
147.162741094232 18.6168407258106 -3.00607318035302
-96.926884312162 -3.18211806249055 16.9371134339608
185.010368615954 16.0681868247213 -23.9565690923979
181.938245049066 29.844366033377 -28.7680953410787
-176.17281798185 7.60049129921276 -21.4451267232588
-84.0945431558447 -12.346388266551 18.5726213705463
189.797606897681 -31.5269222550441 8.26729997914891
-213.295202322143 -13.7774945191157 -15.6965319183172
-164.139370414992 8.34366635362991 0.586516425271038
192.855989952915 -30.2113098000911 13.6247379249559
-226.204954485293 25.5057325166342 -21.1686716871836
-198.677567570967 -8.22845697255915 -28.0711163481851
-224.733147124867 42.4137336623361 -14.5868694939823
213.540048496469 19.2058013870777 -26.6602132274187
164.503410757708 -16.6520102961196 -14.6163581902384
67.4731758805791 -11.448127162611 -3.66148991590652
112.527435465826 -10.4770846982935 -8.01719920316142
-192.987688576879 13.4105784268821 7.48669422747874
-154.494471320714 -1.94514004619312 -17.1565975026205
31.047925337489 -14.0258252227476 0.723681426159709
171.984022798629 -19.0110007328479 24.7553093922637
200.772279641619 -35.1236870704771 -26.6806172900201
176.692420447563 -6.99184198449529 23.9013367281499
180.759343963961 13.7722972081252 23.0396161172198
-109.663392501647 6.36611713985907 3.24472164708031
-210.481976139852 44.6931385565247 0.917185535020194
202.554806861699 -7.03209524613578 -15.6403022202255
-234.272022849285 9.5853952419922 -12.2776363204553
-76.787147735294 -17.6209056178653 -2.66830369847228
-128.631511181113 -19.9886234330765 5.3311059523486
-161.84750521184 -3.99475140702986 -19.9289270814451
-112.474137240367 -0.264271930948741 13.0579738424579
-1.301482202143 -13.1449487736172 20.8410528404009
-52.2816488281811 -8.45633089392767 -5.04211791338837
173.634030585865 -13.3374314569811 26.4403052277937
-89.6529617453469 -17.0883004302245 14.8688211967693
-212.329391196604 -10.4221660935318 -8.72128209904803
-197.894467775076 -11.6882049176249 -28.9172154449407
87.9080752076928 11.2460470397011 3.66350415561199
-86.5841034583739 -6.4993580687936 -9.2789403740382
-221.928809091143 39.5027917059653 22.0373990721142
180.415037558169 39.9492190067594 -18.5437145828635
110.257477456819 2.44724271745987 -5.86571667753564
56.5007386452689 2.09557513875028 -5.60675302344021
-23.3083384172981 -5.2263465771927 22.967704865506
-132.344142739001 -4.9058495492238 -13.1597169605895
190.943877553351 -34.7898094549821 -0.687412705366673
155.590347591437 -22.5273125086449 -1.09214515156397
-210.133261358591 40.4273479106675 14.0867405306871
-86.4992009107464 -4.04969829155726 -8.16927651911064
160.612170710773 20.5382776173487 -9.44070295742586
-176.096672103334 -18.745438756845 6.96003535311682
39.0895205808071 -12.8076101840264 -0.949684485169054
205.082081660441 28.2046121296361 -36.3332103459983
172.326551247227 25.2964779748778 -14.5352852089881
-27.7361353132458 0.766698234540678 -3.86693785222102
181.240042897351 -12.5469325532997 -29.0877688875458
-177.595933621669 -4.35447539720854 -24.1655470692802
207.990424727912 -15.4845968119075 17.0033093514525
-161.175609901591 -17.4254235255389 -17.3531622373494
117.830461395034 11.3331790038259 -1.64221910701851
-154.415125347725 -7.1539073910229 -18.2560688210444
119.230516526799 1.50545323126005 -6.45887944071596
-10.2728419005838 2.0685366659031 -3.39325669164085
-179.186034326931 -3.13563723923338 10.3627161827723
1.87737385861251 2.12896731879278 21.1318797880515
-218.370139605638 -19.5900631991517 12.2543549697976
43.178288206569 -14.7034540642328 0.880926169654504
-18.5841045884876 3.38862836303397 19.5060505765261
-35.2394058540253 -19.7497602882755 7.53758018580888
-178.165186133778 -1.59297309390469 10.3326098410564
-39.175099624826 2.15321975868628 -1.59987122643029
187.799488692732 40.0759249959024 -30.2618246385145
-6.57134656289591 6.29038057504848 9.75478513471911
37.3051796931364 -13.9405086641365 18.1788575690772
7.4295978337164 2.01413975871164 -4.09254442009046
-58.4744284373803 5.38490584229469 10.1106642266938
155.012016636521 10.6271665800112 -7.54732507508912
-230.736088953583 3.45787908078868 2.25793136817243
203.446082147579 29.094533613577 13.0682507281915
-5.88471555121285 -18.9852707646348 12.8350273310447
-43.5402435930551 -7.55963981771517 -4.89925252981255
-152.190500110115 9.36221817180341 -8.73591573959855
-248.733074407798 29.2485558106146 3.64262095770103
105.081284205889 8.66954778470902 -2.23815652538164
-142.163399705113 -12.2231366859176 -18.0634626569829
-210.826001410877 -26.7065614981743 6.41783966112256
-63.6499783177847 4.84920892768093 4.15617307559094
-32.8059733479157 -8.85682345307636 22.6036856491172
141.843439657601 15.6209115981711 -3.2988904054922
188.705146043843 17.2595107485113 -30.7259163743598
-86.6239248064803 -17.4551436832194 14.8370347507439
177.627913301489 40.5590005173483 -13.6152520484603
-209.302564096157 43.3991049083195 5.36276667230735
181.189491798144 44.3268590851094 -6.52727909830315
-172.325233857005 7.00894739414186 6.84296715292745
-106.991772124782 -18.8767432274628 9.9986060326675
220.126721171777 28.6326966748225 -3.20928834295025
131.130716175266 -0.24382576876114 -7.40651325619646
181.435414353919 44.8722379815126 -10.1061253792004
-175.766276085064 5.5782453058845 -22.0108304026838
-46.7439417864556 -0.12755347073888 -4.95658083127294
-212.135741395696 45.7012443489341 6.41097778238356
-45.8165347484639 -18.6768873327208 4.24551283214787
-208.168865486086 34.9401583663004 -1.24118983845439
174.304789381543 -6.18538381069562 23.2337640122933
22.8471355391883 -17.8326185502172 12.2503704218626
184.912767823562 46.4114606851644 -13.5096695241475
-189.905285305325 -30.2715417613517 6.49667733410733
57.222033593628 -14.2838101975556 -0.618548884804243
-241.601093252752 8.74321028847523 -3.79741767236483
157.573692798975 8.47876759285058 -7.9915192378735
-32.0037069002115 1.97382957787039 -1.80588166171108
-188.678325696149 -14.0774028250939 10.6878194054292
205.895803669925 -6.96311753083645 -20.380750434762
122.215043364276 2.03639205501087 18.8588769330191
-227.475070372213 8.38655163043292 -7.89699677287542
-216.882147777533 11.8861423736985 -13.3659623967424
-196.60757345374 -17.9020889308112 -27.855472022838
-247.37862864436 32.3658451994213 7.88040633017208
198.051853786692 -15.1601234187892 26.4344679664217
-209.781518427737 7.57083081789779 15.7253198073467
-225.017067416747 39.0566258866278 22.5474811590731
-227.991448442836 49.169490706664 4.80746259500232
213.735254595103 8.45144099272115 -0.946723731081371
-214.741388868379 38.0875010116566 20.5813919067352
-68.8866151455957 -18.3373401427145 15.3575513895863
-69.9224309935726 2.21214493740251 14.7655189254487
-104.223905348739 -18.3182405767246 -6.40948092344497
-153.765131550303 1.94647628466289 8.69302984760147
-207.263332645019 -33.6996876913305 -3.34162742371799
-57.0993759428635 -18.9472134466937 2.86895809478936
151.004664261024 -21.9794513539304 2.7357752628513
-206.963184337772 38.3526059786623 2.05482790405284
-230.335928419589 8.87907089002451 -9.91007802080624
-151.959176170787 8.85665669323445 -6.90739726673794
170.831427395764 2.84453537389753 -11.2242800813664
159.3152988189 -22.8740622441495 7.81733157594404
219.198701603881 17.3655443438716 -2.36366822547419
-115.061935848952 1.45500068033055 -7.72998724911647
-7.66029602336055 -12.0068598463664 21.506455955592
-114.373949112768 -1.20684494889078 -9.01011798291303
168.18644979216 -24.7595172410276 10.5147341867029
60.5373982801812 9.64329067607701 7.45201063624181
187.589271046963 37.0429408936936 6.94174366499827
98.5088197201924 -12.0969011911932 -5.92507718860617
157.111605953555 -14.0631752425485 21.4864643503746
-233.325499223061 2.40224696359349 7.50356924564602
-212.481250691643 4.20458596681248 -10.6685342146271
171.580864043778 -26.500651809958 7.72204166840478
-228.340725965152 -10.038299897685 -17.3237860730717
-208.822093214535 11.3567952416834 15.3507296484176
-189.654614492669 -36.1545979838763 -5.22934127204047
-14.8774899268321 5.80914748809576 7.01531455871063
-209.916903134917 43.2482907699929 -3.11535689712516
-164.325023133176 1.78386022918975 8.52236754996398
-160.235829541555 -15.7951880673185 -18.5126311304542
-131.544897574892 -2.23774572450017 -12.0525989909987
211.111344595139 -29.8476462046961 0.578554126711217
-36.5170125948325 2.91249671970072 0.0698269708708107
-120.606903976765 -21.6325924415002 -3.16885029535033
130.14566147379 7.97459947746259 -5.10011786040365
201.790608613079 14.8630095684609 -21.1255903698957
-239.244357856354 42.2777956868914 6.93415809371639
136.861214034575 10.8088443101432 -4.88410687911912
-214.070643831337 1.98126456643748 -9.40561444428716
177.855533263636 35.3741930985096 3.96330973386555
166.687885764754 19.8883877974501 14.1245981469146
-11.8241204966002 -19.1722805379738 10.4203863651806
29.6898078981217 -11.0704982175817 20.4193393690469
-214.755772342417 -11.6406699240335 -9.4140255727479
-179.987003417204 -18.4660053533959 -23.7034726850044
175.149648264733 41.4746867439661 -9.68960628240195
201.436346134253 -29.3672110528894 14.1268492010541
169.975819714901 -9.87245651786956 -14.7701165059007
220.050880013557 26.1057983106001 -2.75649278595428
190.417302021423 39.4388804731312 3.61716923508658
-157.378200288922 14.8878990787351 -10.5576807120456
209.337144501391 -7.96728915342925 -12.9105581469164
204.482263790484 34.6403319523127 4.47950602668633
-52.2407505294447 -16.8743650989079 18.0327995896575
-54.7403608914783 3.56245726151343 0.480701689016744
181.536831264963 41.709122116123 -18.048509330253
-207.379938336248 -10.2285667675943 14.7851801491703
-75.4956745018392 5.6340062298084 8.17276183049434
-65.4044727726165 -16.1481119190858 -2.3415608942121
17.4205263911337 6.61737021403342 5.82760211302435
-159.240312865324 10.1670223333783 -18.8626791802844
151.752365257917 -21.4923357155543 8.86380174036312
202.524465750637 -31.4368349824105 2.85866124426067
-231.190246587023 -16.5138260691414 -19.4385393165012
155.531544690676 23.4958129225574 -0.801823931591576
-233.964834572994 39.6346382307023 -14.5055905309884
193.566520900504 42.4287032408027 -1.06025175379038
123.971791862596 3.94482364252102 -6.02416422107264
189.715426602186 -29.1698738689567 17.4569417644056
-230.879806840919 11.0013743523861 21.1921220403424
122.490974275175 15.5443857534326 10.9942144320653
191.82492057677 6.73642124568759 -14.148650106172
182.991531563877 9.80600917526966 22.4434990838042
-22.7573821455096 -10.5262268937917 -2.18117819935233
132.253483265299 -1.9734874806334 -7.86176906999664
207.357093488128 -1.14477210366171 -2.53872302194305
193.887922401568 43.9431800181059 -17.473207278022
-241.629462439609 33.9946835509348 17.2680485550529
-162.866213812938 3.40539563874189 -20.1841626352747
176.10332658573 -30.1959257751992 -18.556452529543
143.882367731237 18.5857517135959 -1.02703835366901
160.005090551216 -2.9533929602237 20.0701147165258
-133.831129788462 5.83278118249345 -4.83491470567415
99.0498389181851 -2.63262347838724 -6.93380038154019
208.420483147185 37.232867998645 -2.39539702027387
177.037630768383 -19.8385841951933 -24.0728390339921
-57.7869903362239 3.36068026272223 14.6041763227032
-8.38593396517519 -19.1017727402292 11.9856035140316
163.585360491778 -22.2676090797771 13.9914410865686
-207.499515656382 -12.5350899447129 -16.376598372187
18.2753689788708 -13.600873739434 0.677061286829472
-183.575048732151 -28.0178615083672 5.30083643263192
29.3427522895531 7.94122809772235 12.7081627588617
177.791719239581 15.2807055712298 -14.9797241372342
185.057711290247 -30.7343950704948 9.26119076615674
205.440733260807 -35.7896747484096 -17.0430186944086
-182.847102648885 9.09698728998361 6.6000630878071
-230.480845660803 40.3346285934713 20.7164177773599
179.014245847218 -29.7227742698361 6.84736380291678
-154.552566795665 11.8215981094277 -10.3167291391452
122.650934595221 16.5037508475451 5.04213257222418
90.3141837161931 -2.94067293582357 20.2079536958783
188.442763685104 -7.90203599715847 -28.7157461449264
-187.664962918735 8.42520116756754 -12.8553702179496
-211.318932990691 -25.091778932031 6.4258769540837
35.7617993697453 -17.4099220253589 11.5221167386983
-41.0483352808779 -20.2273343531401 12.6131338080451
-193.756940151165 2.79076089097721 -14.4280893780563
-170.834225259484 -5.80525304120435 9.48323348599909
-182.180763439983 -5.78408161726397 -25.8355149022307
-1.05227137101807 1.04385940771953 21.6765410062031
171.333956322701 13.4127815015165 -11.4453131196771
-3.7545050333953 1.7773134239871 21.2709699286138
-159.195589887552 -23.7201088298809 -1.72031939537002
-166.634761003521 -6.69256134296779 9.38181924242131
213.018266896824 -23.4206359457609 -0.87574357598597
-220.337849700422 -11.3889676694564 6.48099914804427
181.0778645294 -30.9336224013004 -23.2148575433615
199.290608536403 13.5473706555138 -30.0560507120921
171.924671259004 -10.8278716396828 -15.9362418734449
-214.033224502501 -12.5367747594238 -11.7192277588717
42.1886479289664 -12.9803178992803 -1.0025527618145
158.210362618222 20.5795204119478 10.449277409305
91.0585573670263 1.00553717626313 -5.65443249112892
134.482551141455 -11.5927664616619 -9.21665550288162
112.000635421199 6.59361330258149 17.9698588301731
-161.53874532364 18.5836001621797 -13.1930583918472
-13.8076365098163 -4.91030009342759 -6.09792508891974
-245.088388114119 19.5548363117151 14.4185679527444
-162.183916890756 -13.8616012388611 -20.4657661483149
-177.903529988377 16.9181100744816 -9.70427729063505
161.835311895551 -23.7660599669834 -5.21051866527674
-69.0412009208989 -2.58371117360087 -6.67571512143905
122.256263845766 -4.37479660163108 19.9345527013596
-195.37091420746 -21.4810888418692 10.6323101132759
36.594512745903 6.95369765336175 3.40447669340254
125.996120779551 -4.20082500599938 19.985165219085
-128.81560662555 6.60270069818651 -3.16227534903207
-83.3207257618148 -10.1613225716734 -8.9147494218546
-200.243459393599 -2.24027224879839 11.732332255992
187.103832082516 -20.4990154561609 30.759328306547
17.9826235788673 -0.311409576336143 21.7733830348196
-34.8579421518581 -14.4794303346187 0.389914514526739
-96.3773566631722 -19.1052952100108 11.1033903876254
198.674828940987 -33.8408138395831 -22.9426648047988
41.6678968537822 2.76803603290188 -5.54689483985336
-130.469473547976 -21.1542145357302 2.92539082854137
214.07684534677 -29.4615424216328 -11.0535924317781
202.386633995387 8.14605620110881 20.5768725514614
-53.5167086864659 -16.3292896942863 -0.0402065023423985
186.824248710017 28.9075798136732 14.5921899824559
-200.913530318305 22.3143460969342 -0.466729051706543
-122.283850885709 5.78146740063643 -3.88074170723725
-188.496508963399 -10.2854757539888 11.4321688273362
218.840276566008 35.3376337412703 -18.9945744459769
-231.072727325729 -15.9378335636059 -14.6924048856838
-183.845985901899 15.2538718645947 -2.82375318558003
-171.435702421962 -12.5099174583277 -22.570798094492
-212.975986700144 -8.43055596081643 -8.26139941714537
-225.118230313529 -27.183850200763 -0.627159375683975
149.500030440599 -21.8849000091426 1.56962424123865
199.334302864304 42.1067192155237 -24.8863367284341
197.693853271982 6.83554582299211 21.9209667627135
-212.49116900265 43.9409259602611 11.9620346402104
193.997964404006 -36.7131349693519 -5.73914818823527
218.462865820123 17.7708462441524 -12.8712475057907
-216.997441209981 -8.31145600443807 -26.0401185276138
196.316893275929 -35.0479831594071 -1.87849617039092
-193.124561492463 -14.4413319981917 12.3267945849463
213.231434864533 18.5688154124694 16.1028158454281
199.170645489084 -32.8190568315032 0.541072210066717
-50.3282924749764 -16.9171964909578 1.15557675842749
-155.448109770439 6.46684160751481 1.95400253324213
188.481040871322 -34.5027104872919 -1.02886308043501
47.7496205702381 -17.0688657127385 11.088853687821
-173.340205465227 10.675464551283 0.85861477772825
-217.370869768137 47.6184149681668 -3.27653145080757
-224.742690699936 -25.1716896227662 2.51449296217365
-235.043467038073 11.0722059868867 -13.7428933161376
-189.64992647505 14.6181552133891 3.95326164725921
-216.680632742269 25.2508835350021 24.8927672277633
196.839292770057 31.4952379036753 -37.3281291966829
213.242467950454 32.7652300664171 -30.3395657386259
184.35563010988 -37.7030688797489 -13.8560324203206
144.955933990348 6.76264169725877 18.3879151421621
-176.640017736031 17.9931509300349 -11.0771677510505
47.35925411552 -6.83613842657274 -4.76365660524774
-211.55817515997 -8.97060677578447 -20.070622708008
-191.750278032615 -2.00499158915133 -20.1104865240484
161.581161758313 21.2859169566704 10.556961347925
-72.8303675791912 -2.42761423699121 19.6478702424784
-220.435041918278 -6.43927634830608 -2.17469199730459
219.565778415318 20.1060189499155 -1.69509051340396
-215.32710531291 29.5542869556556 -18.613743694197
-192.501419459666 -27.6558002114721 7.49027547431394
136.210137270795 14.8951383273902 13.6574737804565
38.9814670026292 0.724287499756041 -5.97979257842138
-147.433068262419 -9.73820975476396 10.4711293683259
-183.895928505078 -3.56894334964132 -25.1143697988732
173.94559228307 15.912232237031 20.1492921743764
163.658207730651 -4.67527337351975 20.8184150573098
122.385359942713 9.63434394341177 -3.4828560856419
192.747639370201 -34.4220024754774 -0.0923319111844824
189.673026648144 42.4725342819155 -0.0474832103151768
-59.2309356654209 -16.362268037671 -0.945751291385759
54.5709396543967 -8.76066597186982 20.3499944448114
207.982163439307 -36.6818604957899 -22.9782383004718
176.068647890426 22.4082843913098 17.5368841728535
193.498725161919 24.2962958174498 20.1506037932757
-244.561314224382 25.9201558993171 -11.3697568603576
-214.90224543345 -32.9592084363519 -8.53178854860507
79.4670060650287 0.946812748727292 19.7288827671371
212.550595649759 -23.0619823577816 4.67870883359821
-144.189164658962 6.29285841981334 -9.56980787252153
184.246056309456 -1.43935235848852 -17.956163195802
-192.673934643526 -20.6093331206429 9.75573478348678
191.686241156826 12.7882600288622 -17.1093538771794
