-205.464317569059 -14.8040022575479 -4.20196404697496
-51.7192711650156 18.2590925419117 -1.09314530174166
2.37880570866702 -8.37114221494504 10.1825631246029
34.7959417145713 9.85099566528097 -1.87465539429578
-58.7622203331631 18.3990383859874 7.05995228043937
-50.689936765425 16.9136085405742 -2.93323210002009
38.7850108987813 -1.78714835801756 19.5874245795021
-124.268912450305 -6.10290678852586 -15.5468813149
-49.1787287490442 6.30763612855383 16.9813846420665
-178.015557938913 -37.8691599030767 -6.09926110367583
-84.0248437223421 0.744077093811417 12.2630617393006
148.921445526108 -10.254792858727 -9.03571274015884
-50.8226127745663 13.982429098642 13.392639298074
142.566398203248 11.8839673807462 21.1569400616922
-58.1166659270483 19.2430820038945 4.96514536551377
-127.028431426002 21.275057302321 -1.55555231906169
-140.629794697603 8.13500088910646 7.90009940973269
-168.041828337964 -12.5899430109468 -9.91404988852618
-169.568803381278 32.4442644931064 -8.15232594925322
-199.436421926025 -11.0080716388597 -0.0259753084147741
27.6437908000803 5.01800036543848 19.7510907049399
183.972680429579 6.00823909987689 -15.9329267568313
-75.5346747110344 12.7493189899966 -11.548376686971
-104.179237883021 -3.93655321379295 -9.72600368799731
187.520828354472 30.5902499542484 -27.3576770275253
-93.9016021276918 14.7103697060911 -12.2937402703973
195.828319946559 21.3894622423638 -5.49771480715465
195.987191808303 -33.6420887689425 -16.7519273745679
39.2327159436365 7.85887670204158 19.1799585652438
98.6004765315849 -14.4600790701326 10.8387601044813
59.0463533567005 14.0639777549304 1.78015314241816
199.917642286386 -22.3334565764364 3.10174728371804
137.843862476364 16.8514492916961 15.1754948920967
-156.252611804128 24.7098174417279 -17.5386179569865
-120.135223588602 14.0541437395958 -16.8290113486708
142.961854429125 -12.3771700764147 -7.09718061467076
8.5186939016946 15.9823508530422 5.33536170401465
-140.664905096574 -8.76273729865721 6.55576355272048
103.696923697444 -13.9288768070451 13.7051729463914
-176.93718320084 4.2349853064467 13.8809762384738
-186.505933523946 -22.6439177904937 -15.6680151759413
124.309407806909 -18.1572634195506 8.43122997335604
-128.346197222274 -7.67139365437138 -17.4532426814967
-182.778999190791 -18.9597308906262 -12.1324014334933
-120.050880130002 15.3546399980119 7.44353316693402
63.8758763892072 14.4903928262104 2.45020562350117
87.1575613776989 -4.88954633923844 -2.80421962846867
-123.970959938452 13.1518555925002 -18.1823545831953
141.710902540572 -13.6081565812784 16.8339096879873
-104.370344310938 14.458721051637 -14.2715808383907
-109.067382539398 13.7035525001677 -16.0242118410739
-75.7956112728323 -6.07186702461968 2.09132182061404
142.076958928304 13.4271571850276 20.255186604806
192.803077106699 9.5303730811781 -3.37673075062728
36.8808497160515 0.451654082884587 19.9804104657308
162.015176027195 27.222258391506 4.2235973144831
-52.3342482551162 -0.625241190701448 -8.03950694960236
-114.671377983079 -8.34130562780896 -1.5538014841197
-184.573735640726 -32.0484717024475 -14.7589111148791
-111.730353535504 8.06151258158816 10.169287819556
-177.516743132212 -1.93849977169002 -11.1350383068977
-169.259485997331 -18.1024755069095 -6.93095444282623
185.461473143832 -12.812091088222 -22.1745808271644
-156.856942983333 -17.0609034670861 -5.11860331831352
-186.424460206042 -7.40276642079348 -9.41294925174731
-113.229067775228 1.86494100410251 -14.5663326754968
-125.250042918327 -4.76782079740784 6.62979204605864
-196.626971528233 -45.4335326013558 8.72402038177229
199.606847684378 -29.1239004240073 -0.790144957980222
-202.882747859 -13.411773404063 -6.44783207960687
75.0322618703967 8.61885828814834 -3.77446211177451
-121.905449827447 11.2577048418652 -17.7522423626035
46.0514355984768 12.2415001094434 16.9220714987185
1.38040269020555 -8.11691177453304 12.0786779220456
170.963745179702 30.2663315507267 4.1155686898167
95.4095380165962 11.8421532422999 -3.75181249455794
-195.150064843578 -13.2928207754796 -9.65922537693242
-177.176926395268 -42.6869693798931 7.85679789345499
-30.6290531634911 16.8124876477451 0.829349200307303
178.325756580265 4.82339018601704 -17.079559787092
176.98975567551 34.4310961672047 -8.25253438125929
-207.322707127142 -32.1407037305421 -6.57353084475274
-187.503661064262 23.6099084538896 6.98327469310408
73.105258704372 -5.96782541135157 19.3168215071272
31.8733891270964 15.9936650261547 11.4269004019637
21.7682643779994 12.0149850114362 17.1067712446542
127.73349614459 15.9685419235352 15.0217273519329
-135.781404281685 20.7078318328686 3.69041406838792
-44.3292381185438 -4.36786224165594 -2.00162970002837
-197.567669466084 -41.5378280217317 -8.61429572119036
-181.162859064156 -44.2510136619039 -3.03278142499398
-26.4834522778627 -0.233057661752516 -7.28203337863979
-145.510094115338 15.8235921010958 7.21459759731356
182.219222025929 31.6639303989487 -0.593125683267869
-55.4797445063405 10.1073233233796 -8.60664200957839
-23.9897545774931 -7.00566596518296 8.38384773624589
104.400961156388 12.6022303891294 17.646139412417
-76.9367705547618 13.4450484080181 -11.2657866097531
-178.278187118416 12.8547366690126 -22.3694851577038
79.9692903628823 5.80147468148962 -5.37853624541381
-3.65888765615532 4.37722372873281 19.0271381226099
-94.5481247328367 20.1906827928784 -0.982628115983271
16.245963021057 12.257540555174 16.7966402576886
-79.0021038884782 18.9533124183018 -6.42239571975176
-178.21583541375 6.83904428904627 -9.59011998548678
-45.3715100195148 18.7660199594533 7.11674446757119
-73.9939811646389 18.0090173067615 6.16519640736833
-114.358147362161 0.188817016222673 8.9620328591467
162.000290660437 26.9799723962907 -14.4442921099107
-162.425899190598 -5.65010582343636 9.72466463154886
5.73296625168981 4.0649687582112 -7.47154290186084
-169.75590610943 -9.62240514692153 10.5259256697532
173.355276952642 -39.5244182943668 -9.48928652113643
165.348564047121 -35.1111240462502 -16.1108859914925
181.596550253277 -36.9973325629469 -1.87083926809844
-151.496320976928 -6.79399247969068 9.21677852450451
-61.0163606970148 -1.86490486863047 -7.42518176772493
173.126565780722 16.5508620831452 -29.663158107272
189.479537096644 2.5017291105861 -5.18514786169491
25.7974462640185 15.5619890014669 5.72287021925201
-161.982702819672 17.5600601307962 -21.7297045602371
2.48788380773549 -7.60138534553836 5.73223851768904
-150.357658909293 26.3038047203813 0.906040230783666
69.1520191653961 -11.6101199611379 9.53233061760892
-10.8974590050195 8.15126511075231 18.1040901981913
-43.0486982035525 12.2974741033095 -5.23532111755138
136.448018541184 14.2799379208833 -6.91090227752607
173.354215904702 9.2991576107697 -24.9801986903146
102.119744206855 -13.8543308857514 4.39048067438266
193.718592591624 -15.1605155381597 -25.6035039947449
-170.240917022302 15.1526598392908 12.1972645402077
155.686630350278 21.2293890839244 15.8892443393104
199.45429924431 -26.4958577498407 3.42125502669933
157.968223000824 16.5877407008139 -14.061592898211
-88.2514010413419 9.29886068302275 -13.5737886841014
-167.119636429559 21.9400008284 10.6200874749633
134.82557589821 18.8031081047528 -3.80420829227292
-176.953655081955 7.89818488537906 -6.23463434386634
58.1936368388189 15.4134984054701 9.58602658936131
-191.986761460081 -6.73609244465144 5.35110671077036
-88.9322596503402 -1.87522549083013 9.72455279650918
-64.6997789939259 10.1372963977609 14.8124857135141
167.613787363359 -32.8634866142826 3.64859063303958
103.834530039063 6.31956585261987 -5.51853912414361
60.1421043048202 -8.0400189827376 3.33468022931487
162.526269160226 -20.1173664614369 16.9324850798382
48.2601161972016 -10.2181162862743 10.1416482691973
-127.849597049346 19.1588104307527 -16.260234989355
118.053133882636 -4.64792381691722 -4.07720938991522
-6.76137128701689 -7.65765998008782 7.84551048657116
-131.654397590529 21.0432475792393 1.61696917665335
117.10863406579 -6.75856627596296 20.0681178152301
-172.24891637603 26.6955177859872 -15.7612437456352
197.85478957404 -33.2064988749066 -16.6452846124904
184.265286637794 10.0975681976632 -24.9661001554561
51.8226025380614 -8.12605965059122 16.6139469207647
-36.6588342377653 13.0812449476479 -3.7975625179505
145.839663630726 -18.0991568220089 -8.35835963019474
-191.647901120365 10.0253685071807 -10.4172114838358
-65.3632082153453 10.0828227008396 -11.1983872355789
189.992458843384 3.75626323584237 -6.82568327394663
106.512627454928 -14.7976605017955 12.4288449939825
191.808501972491 -33.8841247956588 -3.5930469760796
-184.528865151153 -0.473803906459106 -3.63674258788401
-204.594671295415 -31.7882551462742 -9.93004912925997
-92.3415610844467 12.796148640419 -13.4143269984279
-46.4527029307026 -6.58730038810774 4.6161613459095
-185.71460465518 9.5939027211848 6.29848430875454
141.785762501646 -2.32674383603159 20.7487011468715
189.13091477737 -28.1661003560033 8.72658396105143
-27.6040564712098 -5.79810787010891 2.01390440345237
32.7375507792699 13.0230014924618 16.1564785156111
-186.898039648664 0.43139506669358 1.10158331802117
22.4259793281543 15.381206773564 5.1762317576357
-25.1832618290823 -2.13171494869661 16.6407388399385
11.0867374557112 -7.9397687225928 6.46624358810028
197.572800664325 -13.8844445844452 5.63764529623371
106.022989897383 16.8000325366037 6.22853863452705
151.000143799099 16.6238181498258 -12.1631020810978
174.608746288356 -12.6843855290478 22.8514685993272
-178.807254328227 6.27144066929729 -6.52077739457203
166.290433417586 6.86244780464605 -16.2627665075742
-195.63323971368 -44.4008157513818 1.57869319292985
-53.9049050232783 -6.22269436755833 1.7819120983326
95.3708851415948 -0.255173587961753 -4.63635860039668
46.6167740353458 -8.21389300680637 5.23308090436512
27.8008621458718 -6.09100559604892 2.61758439602877
132.276691132362 -16.3391256167463 13.9674198451876
-27.2972263100405 2.06452511992555 -8.35557029012489
-60.7165454018797 -6.19644128152003 3.3900795281703
184.134829512814 -1.30819074028363 -7.72994085213561
177.629050277566 -26.7905379339645 14.2149362913162
11.3296888969642 11.6779458266447 17.2127091239811
185.445140296772 -6.09041470728026 17.3334962566662
188.161312592851 -33.8239798170215 0.784593880601185
182.100358076189 30.732293068886 -27.1551608568291
-110.636100624415 -6.25879724668957 -7.3614846357952
-195.077524123571 -12.7566609791816 19.1516919779093
145.112501927127 12.7755185458895 -9.07177630724294
196.444460321779 26.9647277903344 -8.92990077691607
-180.751516398317 -21.6426779245464 -11.3674576293808
-104.088084832151 18.2102037282622 4.16780385662223
-83.0461915298216 -3.48540001915605 -7.94994880058037
-146.149067812659 14.5236070338536 -20.1688607865811
-186.058095279812 -10.8869854706516 -10.8968509667114
-193.558013103852 -46.4571011340016 10.6065105919228
159.363028131804 -27.8505858630051 6.26966983277811
-173.002200350928 28.0268948150528 -13.5337988454824
-91.5002279298696 -6.40872133624547 -3.40688345029496
-29.739067307607 18.8285339846294 5.88176266952193
6.40782138337347 10.5779228580643 -1.94991108327117
177.249736971162 32.1329320865085 -15.5166235978287
167.359751287835 4.63928873987755 22.0415549704203
-184.108585738773 -25.5677566462714 23.879683138424
91.5574635777375 3.5141617251397 -5.06880744773334
156.923345507239 -8.66978196151072 19.3758856575202
-130.892067308706 11.9531282687792 -19.7316013680127
-199.260669290209 -39.3714855741442 -9.51823744926123
-49.8176601753849 18.7965816017131 6.91240035098806
-69.319925955512 8.00797740924035 14.9654007038707
132.946201376248 -18.1227584958618 11.2830934064175
-147.143646961945 -13.436593891858 -0.173301674377492
165.302086076938 -20.9808610438128 -15.8843414671694
-61.1157728821713 1.26967998953874 15.3941384939454
-16.0098188345407 -3.08268095495786 -2.92160805315857
-146.307510805616 23.6408621155416 -14.6604434227774
-86.7867195115328 19.534176472202 1.43631877642341
-44.9855919800839 -5.92747766275936 1.88758703720129
-200.566910819881 -23.4259793555559 -13.4867742031961
-161.833390234331 13.8790184203193 -23.0843149080975
-193.576993393217 -45.3573594076314 -5.30321866454331
-168.061391314645 20.1898536600445 10.8361551518615
-194.927245326455 11.2749623125313 -12.6037637432925
-33.0341325713393 3.30611211136614 -8.91386452746366
114.452629210836 16.2618145640127 11.9892422266303
147.342541777971 19.3208867946913 13.5540872233317
64.3920984159974 7.24927096284891 -3.97067633416059
143.279984312631 20.0919308670286 7.87644199505204
191.139877857242 3.09497989127238 0.787099619534334
93.7803211823901 -4.84630105690263 -3.13580058049123
-129.399965705214 -1.94231498434497 -17.4636643021743
-177.178606906473 7.67339477486147 -14.0987332918716
-178.364408633058 9.59577680837569 -10.7951331826058
-0.702995963950766 -5.71662807294974 1.74009566960238
-47.8221173079346 -3.78009781615185 13.1246712310155
174.108278102443 -31.4052785832407 7.99688143975546
-71.6705224048712 -2.25015446800282 11.3162058442477
137.349740991888 -17.7613239375281 -4.30083049637741
186.078959286079 -34.6217032542971 -27.2835245144714
16.7704784805837 -7.71447537922107 5.71983607934201
-26.3313551974536 -6.3098149907206 3.35193459510467
-116.163701874072 19.1609516495983 2.93457843577365
156.564892854305 8.05591531567027 21.7260852734177
-62.9980902640156 -5.98244331509672 1.35978818906487
-83.9682207696815 -6.2273972399317 -0.778168678980739
-175.5625287225 -1.10961576478325 -11.6017098062676
-26.7460068417337 -6.9523672187438 7.86261846718224
194.806280758353 30.9916077894295 -14.8777512847734
-18.5285709768849 -6.70738372169237 4.35965846302504
21.1750426064025 -1.73108764909728 19.0450865105963
-140.37842806794 13.7242991852852 -19.6800017537595
-12.8822180223205 11.6030523689963 16.7803392764939
-14.0155333499281 17.6539531330128 6.07008131387333
159.969539147308 27.0623906132695 -10.4431283757438
-164.298806140926 10.4063742378459 -24.1769001348001
-7.65041159232489 -1.45393293698378 -5.87396282872031
-197.769392752736 -28.8667464622501 -14.964781480586
87.1016923796769 -0.422752243520529 -4.48297887269207
-183.775384463406 9.79129982017031 -15.6083531699352
149.050071739862 -2.14870883448171 -7.02020164924741
195.541687755736 25.3420865657336 -3.6381702249745
-123.481857503075 3.5816179231837 -16.4073759442895
-130.848412415993 5.49430686332418 8.59050807972236
-110.110647674103 -7.21751116853732 1.46046071974105
183.756722209003 -2.65716798130457 16.4352786411621
-119.847710933556 4.34077115449399 -15.8020679029807
172.056356199311 -10.2134383076301 22.6638132587342
169.483916017057 -7.94913373149185 21.7668773124086
-59.4841651549367 7.0187279621449 -10.8490760493876
25.7635612969078 -8.81958142484432 12.9623263218815
-201.499679103216 -9.87996003953413 4.70148764583956
189.825680129126 -36.2000127309523 -14.2995980270992
-160.374756340918 -13.6283024206351 7.24185772488478
-117.480235896657 5.0818937452923 9.7195595707748
183.264383294117 -13.7561227621664 22.1732398410915
-174.433148302408 -39.7503401564962 7.01230783630678
-150.590249754511 26.6421721784505 -8.78795070678784
169.9438731937 6.33392437615278 -19.5316271129672
-24.5125856759487 9.96727973979016 -4.57531726140248
151.26208030663 22.7345116495013 3.39934328092096
-59.9338570233408 16.785324541033 9.43429155407087
163.775980792605 26.4042583830031 -18.9413288149124
181.902747998723 26.7998406106018 9.2204590381391
-139.053743151536 7.48409432563018 -19.4344572107522
-23.0981499430723 -5.55347852488011 13.8688689691006
23.4910357455442 -8.85772087931091 9.12194488939524
161.205874616029 -27.5226650542647 -13.506595392294
-33.1171926618128 -6.09822833416845 11.4821378788445
144.046058947957 -19.8691827657222 -6.16375353510801
-91.2544037437292 7.02709658904893 -12.7413582388975
-26.4730893552637 13.3843307211264 15.1062932203664
147.512927307129 17.6780794162558 -9.00252507455754
-195.812914754582 17.1536116161154 -7.05340039319125
-180.372217702613 -22.9216249879451 21.8033907110123
-178.431246823465 9.2723438630075 -7.16393816785046
-188.776060770369 12.6551830535436 0.591787265311322
-180.596561304142 29.1878844816762 -12.0235464091914
179.68382056079 -21.7801092102009 17.9345352147488
-197.96584690853 -44.0428661998345 10.0527342140541
25.2869845608089 -5.44679269033698 1.62368261677002
202.451136406423 -25.3726282536491 -7.74407347129323
-206.940545850091 -20.9350699485983 -7.18132668881246
-188.803324949051 -6.55215797567808 -4.22982997221675
113.337862431082 -6.1520940106835 -3.60460438266692
-3.34948069232315 13.3897133809902 -0.062050050823299
63.3758486825877 -4.28525563112532 19.6352487180298
164.971306158281 -34.7881525437073 -4.09230851419359
147.494328864756 -12.1952770302521 17.776218181446
-52.3651691514403 -2.33551564306669 13.9434103654698
-173.725705567015 32.9331500528719 3.98150650332613
196.20805315465 -14.1561863241559 -17.919163495597
198.026665171005 -31.8356894435009 -7.29326572342472
-102.423813015048 14.6302800466124 -13.7062579332048
193.098982684086 -4.22871517711181 0.511777110526143
-118.284871654496 -6.23861977970234 -11.4602469621234
154.508720869794 -15.6203651927716 -13.0582642594716
195.215107198127 -30.7518486603543 -0.134633824810575
-50.2036666766263 -3.35568755068555 13.2685071539613
118.590012464456 1.21989932164161 -4.81577751454335
-41.5450903739468 9.3157488775873 -6.74775804559435
25.1068365943002 -8.3530380907692 14.9796956444324
149.835136833521 6.10866878219974 21.6467344450724
-47.2119916487293 1.69049120729068 16.7005630346029
-201.303081523695 -10.2638529892023 11.6876061786258
79.4895893581478 3.3542932805042 -5.10843548665046
-192.205448288218 -17.4476696088704 -14.3900753564493
172.851135018617 32.600320584509 -14.7991338860942
171.370183854447 -33.7571892210051 3.91679150919631
-204.611317894478 -40.138849448319 -3.32713961068141
-99.2002173797593 1.37995618712718 10.8141878400164
-180.781468776655 -35.4189783385525 -11.6152912908068
-183.630749806795 -16.4888661414357 20.4732578853991
-176.942863527757 -37.4028838467791 15.5773854043631
160.286065192914 0.733179384142436 19.7174286770875
187.993022429237 3.05163540161133 11.6447466004783
86.7770067826613 12.212319347145 -2.53790083136158
126.34402201646 -18.2368455433097 1.806606395016
190.47911259692 19.3416145017702 15.3340410050347
158.881504462289 -27.1396555703811 -11.6691922602849
23.4606843823436 12.0074185457002 17.094118270368
-52.030688685167 -3.86300293149274 12.4540261911492
-42.8574658343856 19.2014687510658 4.27735960514259
-187.781634097217 9.32744496212753 -20.7166891491304
166.910432904826 16.5343106651035 27.2451804008706
155.975015915556 18.3774921821874 -13.4902353212601
-143.174290268851 22.325703376494 -17.6628023601853
94.5006377021871 16.2540856160928 4.90668090403675
-36.5573957128497 -1.71344647904554 16.0420041288582
-172.757643938019 -29.4521677128069 11.9429081349659
-80.0507092352878 0.873372678290387 -10.7904659888454
-3.65161221945658 17.0990111199264 11.0632033468073
163.794063447928 -23.3575140778114 -14.9041160772669
-173.253853666733 -30.686249246791 1.14648339375963
-199.867980472958 -20.680435607411 -13.2539274817612
-190.548790882609 21.3689230444673 5.49119911177031
-68.9462765730455 -4.3415410266933 9.04651130459774
-57.3253647164152 -3.39614516769915 -5.04403467691156
124.917174705471 10.6923843416434 -6.28666408940982
-178.164651592102 22.723106564956 -18.7616264416136
163.691561894629 26.4728921796229 10.2560811299798
-208.268706170187 -19.8711795740311 -4.44818961240305
-140.718136972192 -5.26386557002199 7.9743588606733
155.259728947074 23.0355704572134 -8.35246551037311
-210.411780323633 -20.0280766925488 4.22076415920886
-154.959907452995 29.640212743926 -1.71591037989322
-182.792050217732 30.1067953858068 -2.78571871426995
-191.611748277285 -48.2316253730184 5.69200837963922
198.082813475504 -11.179490608509 -3.77633182487684
-115.563364968126 12.8130722782357 -17.183544992373
-84.9301502227165 17.672218213118 -9.769693901645
-156.639411218419 15.7328286735272 -21.2252777240855
-192.010211711473 -10.764703914204 17.3260135589813
146.778265920898 -6.5320229263117 19.7803328371126
147.385637812344 11.9986230064722 -9.71670036192403
176.643069261585 -35.0140270763537 3.60441978845173
-131.676925384502 -5.18047438162404 -18.6241934252451
-188.469585194604 -12.6789875408119 19.0343679833957
158.592032976954 -23.8693665538201 11.8298442693711
-143.196912200514 -13.3848936482346 -3.11923185467772
100.575844966527 -14.5400824176598 6.42285661740164
-70.4626785870316 1.22403041518288 14.2976814011496
182.743918738262 21.2760174801385 -30.8855182218134
199.073129447627 -22.6651386758978 5.55579222155496
-151.097615049981 6.60182780533845 8.26305566885727
194.912356987855 -12.9755341967849 -16.1265431228033
-163.634651502884 30.5140849022374 -12.7673327475054
-141.148589387281 10.5442704545733 7.79488988592824
192.573443854995 -11.299906336208 -12.685471751484
-195.683253426039 -28.1408854264924 -15.6715595825275
95.2926270266068 -9.38478610384127 -0.0157420008534007
-27.5837636949585 -2.8864666339053 -3.54752056749479
-63.724768541969 12.2087590604099 13.8633599463796
-165.511911439294 -21.7390673787281 1.77628268260362
-44.3528698840471 2.25081871286317 17.0594287271432
-2.43656946488091 15.5674496990723 3.20518523940881
-145.983073776005 20.3487296673192 5.85961430540518
28.2103403166852 -4.40832163838076 -0.0968701991148323
102.893881070999 -7.24538885274978 -2.76222260483224
-157.610318056766 19.6572253854477 7.78195941048688
175.350742895057 -16.6042003585807 21.280189546459
163.302550570392 25.0196302187029 -18.9653666905077
-110.856600921515 -8.13854939190158 -3.00025901870319
-155.989207678839 -5.22197348478682 9.6962618660292
-187.421613318157 -5.08241923661931 -3.53572906291245
140.731010322435 -19.3005740673527 11.0571532262883
-157.385444981665 -16.7420145822398 1.4018406051308
-168.656905117947 5.80595155095173 14.6938133534151
-179.05778148704 31.1711717345847 -5.97724713720505
-166.682872205405 22.7359806204042 -20.0674165062441
191.515214848382 -27.5294283443416 8.07142289233306
107.152824216992 -7.99003405544994 -2.80746304199685
199.638710070031 -24.4155550533887 4.58503261153015
92.7865039638466 5.3209629236857 -5.36401113460967
112.801329055884 -3.50912612422614 -4.17083758888914
76.7189081022797 14.6401249146411 1.66391669089493
122.212759239254 -15.792803301128 0.281808745825822
181.821615581346 -13.5216766948302 -28.1158084013558
-116.456412531948 9.21502806078028 -16.4525916529207
162.512995450005 -11.4299667246695 20.01711939675
-61.2855536567337 19.7168820657998 0.780003761775408
155.94558976814 14.5950296193263 23.5729535152434
-41.422275948862 6.87487943562596 17.3545992396236
9.7810271782117 -5.08966317135597 16.9529252935747
28.8093100628554 -1.74106114131297 -5.55222015250259
-188.226684473031 27.6386924475567 -4.58108469070007
-41.013969986684 13.4088637477893 -4.20959825806068
155.101375232998 2.22704075399241 -8.53638636280232
122.361760225861 -7.48068497919868 -3.71465613818343
99.6223036808107 2.01239814089319 21.6940753378515
-34.4310464669603 -6.5056079190015 4.47053632191219
196.90503795195 -24.3286457233543 8.68129717661111
201.267491618102 -25.6481450879549 0.150784141108882
98.0158126410813 -14.5931136408722 8.33087920921854
-150.567266126661 -16.3221551264751 -5.62533461120726
-194.191312467261 -46.1846974748719 4.76075430716329
162.012197996989 19.9047692576604 -16.5470919329183
-28.4659952125022 12.4042737073398 15.7084765460184
125.369171275965 7.55823640795422 21.6072808037995
-147.033687041767 25.4737707975985 -7.23910282997362
62.3753958746534 -10.8044441588269 8.95214584973641
-201.913295471734 -11.8528980531461 13.7655481865693
119.3577460904 -15.9460748932509 12.9043670012038
-165.52197599667 1.88954786103291 -20.2167077919781
75.9713676981064 15.5868669898836 7.81205488192826
108.650397155984 16.9520198931389 4.80503041143414
-127.103804349736 16.331974990964 -17.7555721623913
172.876487126205 1.95942058534652 21.7760592144229
-109.135255317679 1.50821436665093 -13.673832805486
20.889007871332 5.42133992811819 -6.28649181478739
-189.823829954825 -5.15618695910413 1.40470964515518
-47.4223011862187 -6.51193556894241 7.02570786511276
164.388040813035 21.8820077714093 -21.2359378733199
-77.3685233848558 17.9730559224539 -7.92491647071304
-182.084213934442 -45.729522826131 -0.597921876182234
-125.838482604981 15.3910463328044 -18.0328942167398
154.097132892582 -4.56508971016682 -8.91784443106893
165.789224009953 2.97737606598493 21.1271838515417
163.670863931031 -25.5718167622501 12.3104900963426
-184.098579806256 -2.75315873502458 -7.66906575434406
-55.2043102866474 -5.64383867777293 -0.0947297743894947
173.58833410916 8.36662607656316 24.7628284096239
22.5845640949081 15.855317779612 12.7980191854439
200.328097528475 -20.3810553362542 1.94671353834524
-31.1012970120329 12.826566115573 15.2666181765612
-39.9828238344879 0.29712329282741 16.7242857425076
182.001164610232 -15.1174779570788 -29.9124623885294
-207.052625849025 -14.215731506097 1.04874580153818
-167.249663300146 -1.45911920941113 -15.3033241109998
-192.315667551045 -25.2232139027503 -16.2548125668773
144.309213615825 -16.4689568585464 -7.67388851661854
-96.9683040983016 16.6259728773155 -11.6018800803376
-176.968002289285 10.1756035914769 16.7120112860773
-202.142865460717 -40.9665390618628 13.3514246783707
175.478767091659 0.589498923302222 21.0576486713813
-157.701207783975 7.02485162912915 -22.89135306305
-132.244105777811 20.3310669298355 3.39641481455992
24.4618468910673 1.72222763846336 -6.47494385884345
-166.053941215883 14.3490275818454 10.7283890533268
-186.932759597309 27.917351261598 1.17872683179278
-85.649789517766 10.5582873220644 -13.828621751375
66.6625054619355 -7.93746120189811 17.5783880424516
4.07455522800777 3.19934082242182 19.3302369332929
149.621462624953 21.8552662657496 6.16840437568929
-181.015081173744 22.0100321852847 10.5946204586261
130.756017486323 1.49451400256721 21.7177068743421
100.342050756686 -2.23301293332771 21.3096279465658
62.6363479000901 -8.72939708985772 4.20553461388838
-156.1621073546 9.25146498891608 8.97316893552207
-92.1102412318406 -6.42839502135849 1.40077988391745
177.601764157707 -4.81231906287106 21.0280405027198
149.481562731121 7.42101063614629 -8.6314641897211
-19.729075642772 -2.84480682217266 16.5729714859558
-171.023621545957 -11.2189884351793 10.890513192329
-69.5976372525409 14.892340093276 -9.11993308890701
189.137079760485 -13.4826855731162 18.9341475569011
134.327414726841 8.4261659063426 -6.82092621718564
-65.8303701951283 18.679839867214 5.5594556647541
-164.373149329261 20.3346649534194 9.53415849760417
-142.772062796088 1.78251406155271 8.26759753550964
-128.086555087486 -11.173844113821 -10.5431278127089
-188.50560012019 14.9685613801274 6.62333898205374
32.5920692357899 4.38732552537819 -5.89079463482897
-133.452958022385 -10.9369763427726 -5.92985130478451
85.1949099212054 12.8209436481597 -1.92432154243801
-190.548920794452 23.945292635189 3.40221704487508
-183.824471354557 7.62197561293516 8.83318210828033
180.149293708625 32.5379220388309 -11.3325425903697
-88.1750687399456 18.0135002401194 -9.66156731697152
-82.8314557487783 5.48499531399913 13.5871294920559
183.772855391941 32.4190178899602 -4.83012927525142
76.1813372426555 11.8480839429662 17.2924494237296
188.891806915735 12.8332971109722 -23.0368251417597
-192.381414297507 -14.6199888727315 20.9650369178251
-159.754109807146 -16.1276154383901 5.21742553741576
-17.9581236656189 7.35226511579305 -6.00301573272451
-180.788128561123 30.6363460623825 1.44154683878342
173.949197089957 11.1303334312397 -26.8389915133363
19.5491092577746 6.43279910966858 -4.94137392950651
-50.0115536077522 2.63934576302931 16.7335493142004
11.380060792542 -6.33316794022634 3.08493765612082
178.184883159351 27.7714648439055 9.80634768472169
-69.9156403008671 2.92718245183005 -10.4696931730503
13.8580645033743 7.79518246123129 18.8112206953542
184.308055284264 30.6872129302807 -19.7511125661059
158.919483696627 -21.036307378766 -13.2704534642218
176.287626623079 -39.2329823255215 -3.52311469976199
-26.2890131103659 13.4998504865294 -2.06988716105067
158.500362586951 2.86785196879305 19.934421144605
160.203046725477 20.3047888193352 -15.0507967589939
-208.875492244154 -17.2258353477703 7.99558540468767
173.938252566089 -33.2737965987568 5.56316583542784
74.9622663968938 15.5208242958144 6.07564311979988
-27.7253691436615 7.37845022829625 -6.82714085534536
162.920606669566 0.0851530739065035 -11.1819629823637
-11.6119814687054 16.6338022654432 11.9766840502907
182.824469066814 -37.445671191222 -3.37185915068888
186.276441001735 -33.0405333545996 -31.1421261344334
-35.0374752645761 -0.429748759773059 16.7540043912106
87.2558724772306 15.6247258144131 2.73213251696173
-162.111194247126 3.63503401237224 -22.644600465065
180.046775631844 -33.1569379333644 -31.5677412289696
89.2954231196045 -2.14703936632937 -4.03259876696517
67.7401149703662 -10.1466277874394 6.09498023348664
-208.598627546585 -26.3378182699625 14.5476525941406
-189.051659149761 11.7345497456879 -6.87750538433797
-43.2812837046419 4.40645859076543 -9.26366156394882
189.027737777736 -36.55639929176 -8.86564176963455
-87.5308078775271 19.5322307807489 -6.90074199285723
184.332212053578 -29.1482516477365 -32.6234339985649
-121.858523911954 18.3152651112632 4.82186377989673
176.401274718658 -19.8550473565456 19.7785065817484
-162.337971413993 7.01775107110521 10.7993203354384
108.363655794635 16.8942988415717 6.93512476713518
1.47232195683018 8.96957347858909 -3.34106972364826
-135.065110779253 -12.097222631573 -6.87713551462717
193.171058615551 16.7770059194549 9.41138501293207
-106.229416316493 18.0249449672417 -12.4577355059086
-120.427867466277 12.6113167394874 -17.6844877106651
52.2346617949736 15.0111894908832 12.5234567993937
69.0334146205466 7.71392533633319 -3.95338949809281
170.226060103952 -9.82370605623071 22.1081542029173
81.4112632547481 -12.570953849812 9.02548600190473
193.902738092843 -23.8417219043888 11.281346099522
61.133783458192 5.4785844829222 -5.15396064078486
165.19515064143 5.61635337932993 -14.4055642944452
48.731448459696 5.34224525043619 -5.44904708395029
-159.652911346461 -2.75255389380317 -18.0286609630549
119.635265208397 17.6178440175159 3.49680263559432
-87.0671223362332 20.0566375978355 -4.84078790177671
-202.239484878128 -33.2712333787177 20.0726303973314
199.384157267004 -29.2466785507067 -21.8669512154056
113.06608736299 -10.0480607867117 18.412547028119
186.120714582605 -0.415958357089836 13.5996758755158
-178.780516873716 -16.4826451087131 16.9822833291893
179.658765320396 -12.82437502619 -26.934334338813
157.085575119059 23.551742788287 -11.0809494555933
-130.519170732361 -14.3136177492876 -17.6909978752695
-185.731718271763 6.98926399311582 3.70639378644234
-135.475318110062 5.02750943352568 -18.8161891078642
162.851023696965 27.7632446458147 -16.1807081086028
-104.513841851219 2.96641464684775 -13.2791297211375
80.2968876720584 -9.5305463100502 17.0465078516893
-177.678166958607 7.92821142348104 -8.3828900967989
177.838586055352 24.0376796882804 -30.8588934018442
163.535340056361 -10.1942354995855 20.4545593795978
-113.956901125438 -1.74885664114231 8.02512270210029
-186.857845410407 -1.06109294590899 9.68843841346771
156.580299575846 -26.3927149666844 6.71860660220686
163.599512321661 28.9533257009348 -15.2551661025553
80.8748859807617 8.86249279308648 19.6613415303549
160.953387031185 -31.8563970681688 -6.17322031927994
-108.360547595619 -3.77523753442836 6.82173774749158
-142.728622914249 -10.9278458829954 -21.3549113106174
24.3170713702897 16.2569586682689 7.27194798502068
18.2732072610441 -2.0932516688973 -5.1127761082275
-186.238223922499 -5.36058075031052 13.4631932414065
175.285739547418 8.75858536542578 -24.8918282657471
12.9082647754945 5.28186189426465 -6.60105313252042
-62.8772196537626 8.06131427567501 15.5753573592407
185.803348739968 -11.6060178152666 20.4888757061847
98.9899672806888 -0.525068941779237 -4.64887053411235
-107.865989184301 7.99616463160444 -15.3117249891671
168.759008192491 -13.0207885893252 -14.5486044398941
164.997453188484 2.97604119874618 -12.9796640058479
162.512279017575 7.96356685142598 -13.9832575745875
191.454212020934 -16.9744212747282 -28.9991846933354
129.060150631749 -14.5084665806904 -3.31261306819433
-142.243160257208 -19.1949924816129 -9.82393976328552
-171.748088188499 8.5952466863602 16.0880618637602
-189.233365707343 -3.27509475967065 7.37079783526229
-179.832759886245 24.9506816476851 9.33712460273511
-171.402481542355 19.5554156671113 -21.4601718908905
-28.1484837808025 10.333423117565 16.8373734898483
-199.031950741058 -10.4210164818695 3.44163395462398
129.176502489604 -10.6203797656263 18.4892262696164
187.785008816818 24.6583733587788 11.5683292131436
-203.934526207682 -25.7653808811462 -11.483791706999
38.817214811677 -6.88820932856139 16.9630477762238
-48.511323527377 -5.97798884570274 1.60941553311288
31.5841312678594 -3.15895230357757 -3.81094103639975
-162.548181959086 21.826065185944 9.00524967256727
147.841615651229 9.62879988271486 -9.15873903850921
-182.418140858905 -20.9233166052617 22.1141748960394
-141.321756727089 -11.8254581900449 -21.4949662712964
-31.6810031041415 -0.00781598130635392 -7.89659557737816
-195.53272250486 -8.5621700871318 7.64699613352144
-86.122825492164 -6.35108172361446 -0.838405476450573
171.779594220513 -13.6088109469763 -22.9490698612897
179.280507586837 -37.8539077101779 -11.2219612587492
125.075960715975 -11.4063306890337 -3.30121178769812
173.292760199274 -31.8907688964037 -25.8822598868054
-189.775638410904 -47.4588501189559 -0.999080276298113
-174.274897552736 -38.7729840578746 9.66077836383679
140.260786372143 -4.96193382724306 -6.09571030666346
-80.0721438944795 3.27438481018388 -11.1477396323327
56.2501763070782 14.4165088785052 14.0552532498887
-111.30385123177 -5.22002830750134 -9.24696382618437
124.722190839632 4.82631789657068 -5.45256439783164
-37.7913882852775 -4.43538569899452 13.4489126771883
104.621815364164 -6.28741381693946 -3.32731307003067
-193.724890467925 -7.66729473463503 11.9025480081066
-89.7782656561218 2.35140633525281 -11.4801627022469
-79.3340508226025 13.314104306485 -11.5867990536594
39.5567736157501 13.8902207979388 2.35948227633389
150.381934798473 -6.50245327955668 19.7155001510309
163.369344591799 -4.92983500122662 -10.8077725552245
11.4282204269139 2.0622964988845 -6.86368779146543
25.1645723265513 0.160251003157482 -6.26346669588496
130.031944944736 18.5687255947586 2.47578334000087
169.418590135608 -33.7365628640434 3.31398409040888
15.8626966715299 -1.79638168687691 -5.30248245065781
144.942501533284 -23.6480530098314 -3.32732343321034
159.919146476634 -10.9836224079807 -12.0785035959083
-171.935729203943 1.76620611814934 13.2883641871027
179.457714235488 -18.6746816803153 20.0630854911795
-189.231036399421 -3.64658860175017 3.05650934257258
179.556136241815 -38.9261402108948 -6.35094021504015
-106.372704899845 17.4643590777181 5.58806130651275
-91.0270944269866 -5.64682691111953 -5.61036413784704
133.142710823506 18.267536002028 9.0074846183722
-192.909279151415 16.2435375672548 -14.9280683043049
131.198277913112 18.6052818047924 -0.389354329303905
-157.997036808885 0.277466158869497 10.0025449547302
168.574070628569 -18.5433046806239 20.233923042871
-175.923535938646 31.3395239687101 -8.58457987569256
-145.781829715625 0.119848572559244 8.18576452329548
-43.4029952806196 17.1485994630189 10.2370670244956
42.3924052326772 7.42460178393156 19.3760578829606
-180.262144985777 11.557966791708 -21.9342696695665
14.5974626026765 -2.09963511221351 18.7388435666476
-111.45350904763 -1.23682207909759 8.34829546483106
-153.413695411741 28.4613432629222 -5.91318887738768
40.8231821783658 -7.78243436254047 16.3351819068766
78.0660925471785 13.2001572485401 -0.740065079718905
-205.67507351499 -40.4384152150829 0.148011980733232
171.166731605956 20.1432690106135 -29.3549338025779
-55.0172238506948 12.2902117803537 14.4614106689722
-82.8806435971033 10.6680006237497 -13.3689863383782
-116.489487551398 -0.428889265889939 -14.6858332447712
-142.160497587123 22.633821732315 -15.4984211585464
-121.718644256364 4.80456318332124 -16.3344221714572
199.218974094528 -30.6572815575541 -4.027129762266
36.652515649633 5.25293967684541 19.8856059524214
-103.684857943206 20.420572520944 -2.42150765095705
12.3801934743091 -8.23885516899792 13.1373826925488
141.433525729076 -22.6955109083296 0.273606684932207
96.5691714037559 16.3461192854772 7.07593800669514
190.069543316927 22.0040861929365 14.0739273889406
-180.47388423325 -26.1196002488282 22.0367064634633
-1.8178050752109 12.102984912804 -1.21754332972542
-59.8154873316986 16.3012557591627 -5.60520686170841
186.02508606001 -36.4055524732289 -19.1759569280255
-28.1421280621759 -0.00547829541309128 17.4528227400464
-186.935868867217 -45.6364613185548 13.1826374814348
191.438211171151 0.380563583735646 2.9680833079988
-173.587564860174 -35.735349923405 2.62834690602737
139.376630752745 19.1491332527249 -4.6675176189265
-190.454899200282 -20.0615020248947 23.835384023836
51.2538794639856 -4.15411121508658 -1.85728925462335
-31.4411961849664 -1.1779546793442 -6.38069645759349
-147.052325243756 1.38731141764909 -21.1323173587234
-76.8481410131303 17.6422174705913 6.41329625733504
-138.844973825165 -15.1092199482334 -7.99300284495803
97.0123315438551 13.7928447768746 15.3865167222699
-66.5477235366734 -4.45000152686783 9.24569489994252
-195.959108472811 -10.4160158019296 -1.59011271211264
-197.716823900629 -13.2770628051575 -8.45506852375749
181.996784708821 14.9755260160311 -29.6706885250814
181.624471728364 -36.3319596999707 -0.0266069848452434
165.940117992923 -5.95769026293616 -12.2165268035408
-82.7029211389658 -5.04777343165615 -5.42389468748021
123.855472246956 -9.48244143796972 -3.47109532106435
-123.940673046965 -9.04699873994571 -3.71979214645607
-131.084820753068 22.1047101389894 -5.92433209031546
158.29733308841 0.0270133140301492 -9.33536171985572
-176.577762742749 -28.0078760600425 -4.13594452040928
-123.700760918951 -0.68786987048586 -16.2183268113214
191.241144142736 -35.4465399133355 -8.2400925333645
170.773017753275 -24.8404712314647 -24.0850648931298
186.57554245226 2.0967889041352 13.0542330403269
-172.360969251297 -18.2770224526486 11.7573075618785
99.1587672633067 4.48364693042084 21.568395867692
-132.334370374518 -13.0282119728058 -8.85650771816569
177.144280531243 -33.9156715112472 5.20036577813627
-189.745227338159 -6.72203224736546 -2.3037881998896
-191.030707762017 -13.8829395516049 -10.8815179402724
-207.287601892144 -18.7731186221454 -5.3286443426893
71.8826069267104 -11.0414710951621 14.1593171511779
-94.887778573877 3.61796526214583 -12.3812672610998
97.4840300459497 -9.9563420276423 0.188088564734609
153.53593411147 5.29054651565672 -8.77375727459222
192.529360278066 -15.8319614765376 -27.4368113927863
131.744936365351 6.89628377170857 -6.30812744760374
97.6369106825955 10.0526621970983 -5.09467633033064
-201.34371775673 -31.4217606605205 -12.6254987134607
146.182902154794 -21.7783344368505 -6.53752305483381
-16.5497561895035 2.82885877792886 18.7063197335624
163.469779010002 -13.1409122964969 -12.1165127975875
-166.035598722637 -9.28908477806061 9.58668035857754
184.612844044 -37.322018633625 -4.31196878673546
-179.368043774847 21.0440455267834 10.5740635827506
129.95768401846 -2.53203076684203 21.1817638029466
-107.35644732371 16.763792195683 6.59125942818125
-139.694661766335 19.3220150705597 5.65130015355078
191.486199586692 19.2516685226443 13.4984106286941
91.4098998227278 -3.8009638396648 -3.46121594213624
-183.104892478122 2.76976134196513 11.1830438582851
164.50252539772 -16.838321849462 19.483496411125
175.259410735605 -25.5079954995761 -30.9830591420875
198.825036977805 -32.3267645929969 -19.5355110631057
166.36003260714 29.3598641708972 3.71054149317989
156.088540546002 19.5683465516679 19.1124411809494
150.715480186216 -13.1853498462683 -11.3644081877052
173.179234309845 24.0733991169071 18.9308140496857
1.50725143732497 -6.38521655767058 15.4069145026908
-182.327655005935 28.7130118530433 -11.7244043302014
122.582418785574 8.92014241717029 21.0357362673864
160.09775872765 -21.999553104486 14.2794372683516
62.6695995096642 14.9507792123591 12.2259054723846
193.98022362491 13.7320009937612 -5.01874411435135
62.5733028964872 15.4235758626985 7.61674229259266
-123.187447812969 5.64945387704051 -16.7759432216332
189.325993091577 17.2648253938787 17.02397332887
92.8019220324141 2.33708736857027 21.5986873299314
145.971784039826 1.96893361212913 -6.73724823208594
-131.301225079637 -15.9629471494332 -10.952729307777
-72.0057217631035 19.8278256358723 0.826740770628477
169.523002844357 25.9016256146333 14.8637281222136
114.206676551807 11.7736919907223 -5.81665639084288
119.140716233524 -12.0408757860245 17.3251063954017
-207.60092716717 -37.9539154604636 8.33889328979646
-149.507609455485 22.577390222253 -18.0145470714287
113.844610330234 9.65567145271191 -5.964554390895
-177.832961111781 -25.0421822235061 -7.81238156359089
167.590215576043 2.55992720175531 -14.1289603625988
127.46324015935 5.7828646506064 21.9466348965787
186.76779169745 30.5229871400442 -17.2210455873392
79.4101634237162 -7.54702822047801 18.6664652171717
-76.4319597702415 19.7864352867487 0.927926430619894
-139.646684506174 -13.7435446011399 -6.98301416739354
-119.394297825011 9.39747014524652 9.23580190272122
-162.765078492465 26.2390620531146 -17.8243277256922
-198.90227873842 -32.2228288477801 -13.7700283706094
128.470102479294 8.33009573127897 21.5390206464524
193.340810300318 10.4188868305069 -0.865598518306869
170.669181192538 -39.60283473309 -12.7569550443984
-30.4590367922406 -3.90825156996914 -1.92240915653089
-202.183574151997 -42.3451375632442 0.58272480416225
-46.9345968051298 15.223479516934 12.4262613428415
-192.418635275889 22.8680860516166 1.76573686879934
-198.850141580677 -9.28037402069812 12.302106245699
-135.514617143059 22.3639564311556 -1.11897155540888
-149.634909137302 -10.2437217660195 -18.882370137112
-20.4059040532392 -4.01262098590616 -1.40620024873281
191.913396189496 -7.95135121410939 -8.14861220336103
-128.561539639112 -5.07662399037071 -17.4689979372857
155.422413922024 -4.8942083462414 -8.94274441587911
33.9105050576528 15.8823085081401 11.5213482470042
186.48681310868 25.3975273498665 9.74576127982707
42.3933532829183 11.5053816455185 17.591944885426
-135.764980964812 -13.6762630865699 -7.97519892904188
-19.2154657377436 17.3875627600126 3.94389307212897
-133.817919832199 22.4323247328191 -8.243728272909
-43.6499786379334 13.4591939273021 14.3518777883125
-141.117367509701 -18.3171049696739 -18.1271274769448
-70.6749251586676 16.7516174105046 -7.72644952374267
-48.456795671274 -2.59565676870473 -5.35653899093148
-123.754904517764 17.146578224978 -16.6028749372745
-205.839710248886 -22.3996413310434 -9.10321962015918
-162.208498563056 31.8110240556073 -10.5509944298013
-127.137844506163 -7.92488179442723 3.53076387226064
165.949541956031 24.0931746274336 17.3132765514425
-55.7385102891998 9.49715181090203 15.8257159459192
-143.215198888038 6.51226094180202 -20.2069574005362
-10.741597770222 -7.67275269702963 11.0835670513635
-199.037872133211 -11.543872189111 16.0921768761734
-147.317390652025 9.9929270607049 7.8277506226478
185.281344560874 30.4165463963849 -1.07031833640968
65.1781810276224 4.69968910540427 -5.32987328499135
-185.753527666441 21.2157130998632 8.79783960266936
-139.440699158287 -9.97063064079119 -21.4083947849938
-95.5121999030047 17.7919296089885 5.13476935177042
-77.4279848020482 -5.94696965967111 2.59577165386617
3.63991836027445 -3.01354926038596 -2.44925028424543
-181.00548600331 30.3418351097687 -8.27998128286043
-195.66882433807 -45.4360479002222 -2.95186728864136
-162.101791592064 -3.88534997142735 10.9170362664523
-19.1634287542712 2.42871896286392 18.569608493577
39.101061696778 -4.12072741724437 18.6992493014391
158.248706753914 20.7420634157588 -13.9263641716325
65.0794023690179 0.795447894969171 20.8371656122886
-105.454055882965 19.6100028061137 0.80634972605384
-183.073621095608 14.6725407992742 -22.023457445175
168.677563863916 28.3890445639551 8.12805844550996
163.882741931253 -11.3517092670194 -11.6446329776864
77.4478011667762 -3.46433575430494 -3.23239160483247
24.3264489093259 -1.3918113278067 -5.81966896763452
14.8407006008446 15.8505043146776 13.3358004440269
2.93418283597154 -3.41540751878188 17.7119068864024
-173.590489537665 -30.0495732769837 -0.0286454253351154
152.461413726353 19.0903685025032 17.0778763869622
96.7911215128937 4.84345270486099 21.5145064877122
184.345930660087 -12.2639894482912 -26.1254365407666
29.1212729935527 -9.01094404308447 12.549706432837
189.044400953338 -18.3973063258752 18.0947306407847
142.828505065579 -3.8705624564843 -6.32151879771433
-169.994983285392 15.5241019696101 -23.4330064356547
182.186163634961 11.4594331616365 -27.3374646182961
-189.239163360012 -46.0595116967234 -4.63511362374315
190.197453921366 26.460281397911 -26.8485121708893
125.575403852902 17.5352488441827 9.43129429613356
-23.9839103745731 9.7645717241468 17.17015204303
73.8005044333838 4.44103134786324 20.8953689365204
190.169949866486 15.1767155150079 15.347641299707
-148.042123351812 -8.67119180203165 7.78728476482404
173.924032023078 -8.16536141007045 -15.5459578908245
88.136162116934 10.5858714024001 -3.68831871032877
-115.254284946801 19.3199270612102 -11.6912593846163
115.758531714709 -12.4819977470655 -1.06972063523556
-91.9282450809556 10.326810430243 -14.5039716795368
-38.0135233989797 19.0329893938579 5.49475080933982
147.868121733881 -20.0728863233112 11.6706421778521
15.9120466482978 -5.89350290281568 2.3815340637992
183.449485564192 30.5404016170936 0.409971689159187
30.9647708955069 -8.2710629917608 6.36406998770609
26.9414070160413 7.31428598671374 19.2450024258116
-188.48945780107 13.8391227600439 -21.5684659895222
-191.936622064575 -36.235345854806 22.7982395093612
-157.753162656852 7.9138104125694 9.21405476868872
-202.936777129168 -10.4860970072192 -0.220742699129822
178.723874258807 -3.28688563283768 -12.028362150169
-117.252650684028 1.573173291106 -15.1197692968684
-142.565465737063 0.169989020350512 -20.3803555829417
152.861635782712 -6.11527438845913 -8.93779413908875
-183.766373664786 -46.4436906971469 -0.530547729434898
191.080759216914 13.3046361672763 12.9754273909419
-7.55479035872863 12.8928012580721 -0.806477353588711
-63.7888135124788 14.1747334418492 12.206856073639
-181.039782957194 6.66853495621442 -5.4100291961194
106.705538797675 11.5106242864628 18.6852846250556
149.573221354662 -22.8754813416814 8.4313575032576
18.6025760949424 2.30952014806373 19.7271995922274
186.918806028409 10.1019317911074 17.2503471871389
-75.1332228714302 4.76279673242453 14.487696706304
-143.263651920336 -18.1559826947534 -17.1781563623479
159.275054819747 -4.90904476211481 -9.62582864496104
-208.620831611469 -31.1591476191826 13.3604078125718
20.2622848595505 4.89420538383236 19.6523621044747
166.888373423955 22.292933334821 21.5866642072768
-41.0570512445653 -6.00397886746448 2.56619219963617
45.8308382997862 14.0646750459214 2.57005139300409
9.97414029092161 16.9421724929783 8.79852341566841
191.82982159427 -34.4420146818585 -23.8949181622089
-157.341188623448 30.7736589150012 -2.95346203642986
-180.326030655016 -44.5727119948366 -0.888233109579975
21.8576993193014 3.72775095857099 -6.44653793837804
181.183420694905 25.8093541487268 12.6350636036676
177.304154040716 17.6423271212361 27.0407312183118
170.186416406491 -22.9199095396984 -20.218435684759
172.860489671901 -5.01041025683676 21.6290783414537
174.663410377809 -6.37067911056038 -14.8234897609544
-197.340728885519 -43.6013597807274 -5.90390058280936
163.186932034754 -15.1638974307099 19.3749389400988
186.992324730457 -8.06481594638747 -11.3680847909407
-180.183558886949 26.8851819458101 -14.8945723183654
23.3179257420238 -8.92357252068109 10.8389114006091
74.1174016231242 2.14595754595726 21.1008592418403
181.856086925225 32.1520896864019 -10.580956502774
