203.558835433877 35.4799216051153 -27.9809354108929
199.341745024876 -23.8903107688373 17.2073095329681
203.629640224278 -3.28767288552494 -15.3392456950205
182.926395985822 -24.0003350141879 -9.56369985850734
-62.9628135239256 -23.781363475608 1.60411324030245
188.553445456491 -32.3641494074703 -3.75358672936021
-126.37396809058 -3.33567950091349 -18.1510577033602
-147.729404051065 7.10686883088588 7.7525079071694
184.64423633403 -2.49444063245631 23.5953692225302
-186.559056423337 36.8794903842234 -13.1934762386289
221.808403868598 -21.1410453792089 -2.26767338161406
-179.466050360445 14.9604975337918 14.4467453200585
6.10554305502532 1.01456642640806 2.52470328402494
-189.223860651052 38.2264859854039 21.2312711497555
-180.884881332505 -12.6548190536228 -19.0284661994973
185.105795444092 -14.1429826553974 -14.3232007914836
199.442537034713 -8.48467290441963 -23.8044579282019
60.7133839285901 -13.8852292146978 20.3283196774608
-160.936803968462 -27.5662973048274 -24.2404063954343
217.921201351144 32.4375084271028 3.11263524053368
-190.912908009406 -23.3523626301257 -23.4320958461691
-129.357254736834 -13.7112676816867 -19.5402305813358
-157.998983081431 -2.49204473293781 -26.8385565421998
191.727394356109 11.5449152816017 -19.47468774903
30.3685357994531 -13.3127534356403 21.0660600273421
196.370998003322 -36.0812139905243 -6.71696395122086
211.0109948134 32.5777251448408 -37.1807815256254
-209.310005064118 39.8017329510259 4.01592668961219
-161.882791697148 -28.0696856979929 3.6799034390625
-180.049611022651 30.2477188196558 -3.62221705606558
-194.069888569108 -20.5496816396889 5.07564183195859
223.313343505754 13.0285280962926 -8.01522570313771
-112.200523973352 -25.0854114576511 -3.27029559927984
-196.761505004207 2.5075408219897 3.02727486478303
-74.4845242073027 -4.46139227195869 14.2026611481572
-185.850320102311 40.8225937865816 -6.61824580712775
216.092304885223 2.32654871696641 1.86692429240284
-145.175186958693 8.76111918465824 1.16320617344191
8.0272389732286 -3.11017024335038 21.5115383360998
-38.4815563750434 -17.3876194413266 17.1703392265592
15.8913215468455 -19.1138538849806 15.5504615766445
77.4858063878075 -7.87054434933285 -1.96745893694119
174.993783214623 9.85244112942217 -9.96079099636015
213.077264013589 -22.6915347943782 13.1654367180689
190.761092366139 -33.2654497627845 -2.99848573679513
220.377768758975 20.9843573830835 -31.5481762257377
204.916074654558 28.4615378646524 11.9828588544866
-193.909915352048 -14.8313083629195 0.417380072952502
-182.305573079773 -13.2353179286252 -18.6040207716114
189.979198085332 28.0917658323469 -24.8299339251695
204.946181412357 -31.6513450447102 -27.2206600030815
56.6013505867758 -6.16968712458921 -2.37380197243457
-38.7608804976181 -9.3900601020484 -7.82012133795484
-161.318382017625 2.66412313372201 9.94176798455331
203.815591543385 35.1192735102563 2.70860435060344
162.401524497201 -18.3849515997523 3.98077736092715
-211.908342228216 15.1872115364428 -4.23556386201348
223.617504409306 32.7507272284811 -25.4021205648559
-192.398426918038 4.64593113479783 10.9680567223336
190.200542481971 -28.3178639860532 5.96020987333759
190.155343789786 12.1030203739064 19.6480658108067
-177.36050732612 36.879614320935 7.40016045197645
-79.5548848868983 -23.9420140744917 1.35965308403267
90.2998589575268 3.21546550485175 21.4230088403916
213.448807103207 -29.150841641835 -24.6231849960034
214.289916815278 -15.5960814522643 -23.6258877896329
204.687075423856 11.2500966875586 -19.3519682273803
207.053540550793 -8.61858969106249 -23.9876190007109
-158.066807086054 8.5164390417227 8.28384238563618
199.130509093548 -33.8058350289575 -0.650525978137895
212.252790921803 -21.0778063078745 21.3012607291486
115.299096317812 -0.990278719884381 -3.20782604245591
-213.123447173203 33.9829170514706 -0.145744682757323
98.1227129304528 -6.18349122405907 22.4325649066883
215.673361038293 6.01907678967397 8.31321112426395
-203.924112276982 16.3616956502649 15.2438193295006
-20.0250692369311 -11.3664024840432 20.3990884580244
217.786678098091 35.9205243158543 -9.81383841868861
23.1388590357335 0.0246658471405339 20.9362925269693
142.601141611099 -15.0610503895983 -0.942026365096799
162.918441211021 -5.3813008081974 -7.44650973820496
-82.2315329695059 -7.16633546434177 14.3068355096004
202.730945972911 31.276287717814 -39.0754220329902
210.272511102115 -5.71119504154876 20.4729612565328
164.129077841173 -0.0649560638683271 -7.30745079521518
2.48523271005197 -14.2015962066004 1.94047642274934
-145.160919058819 9.88493105740417 -6.81149899353817
45.1068089410207 -1.04971509439538 21.8258575956293
163.876505635562 -7.3055831610335 -7.68212633670133
-177.623627696633 -14.9009917061678 9.95736681429381
201.062478102213 30.8682625092437 -39.4402810928396
164.004196741633 -18.2417912082875 5.97969972225871
-100.270900849307 1.01267270413973 -3.71644467638161
122.281466140512 13.7536356359918 10.6980114978468
209.395705888853 29.8617858391267 8.92268351927681
149.155068838529 16.7922008408847 2.52113957357719
188.686762503623 -30.1257298724527 -10.2705296017456
201.146347339483 -29.1077109556488 9.03324687638165
-214.377054101091 29.3994354994898 -0.0540828053571648
90.0760041841605 -4.5260186266448 22.6665052138848
-43.5450044442402 -8.65615464929787 -7.8254226576135
-182.196921271865 45.9009128049101 7.97285088899265
-183.861937128996 39.9342824070533 -5.94004376999422
-176.831148481656 19.8938706108724 -7.66161657855052
-184.908960584914 31.3562192832681 -12.7325580500814
-166.339424649532 -33.6609242325641 0.963670630802775
195.015063348312 -29.8801901959793 -24.0651116376694
-172.443938554636 -30.447437913031 4.67757939911376
-182.297829902351 -16.5384524303484 9.66471278579764
80.7797453360684 -13.0150068640444 19.9300841155836
-176.132909433061 25.9762863184451 10.6839831349869
46.697805678887 -17.3033173139246 16.231700579168
188.808870612639 27.3412979431408 -22.4795321071134
95.8638649013905 9.63251500764949 6.99405706451949
-171.429476063799 6.0215923402231 -13.5925420423728
215.201649639383 -26.6266543444199 5.7019155782348
-104.688214367759 -1.26222751268417 -9.62390072986695
-195.734615178856 19.8179030896583 -18.5361161357158
58.5556169505078 -4.3161568969283 22.6121668454715
-84.0696707469269 -4.85040874073645 12.9636876837964
-135.979159430844 4.0093520349871 7.09862856550287
214.159712887974 -24.5443238469909 9.675621615203
-191.454175637416 7.21015438026588 10.6862548484095
-92.2530526632506 -24.5461591851389 -8.4176808141206
-185.941376585493 -9.10635900872733 -28.1585545232273
-208.718803415683 24.5484291587101 18.1812222425448
-205.43057915108 6.22828611928912 -0.580348833799322
-176.558617703598 28.754600858457 1.96470004365092
215.559747092121 3.96264828066153 7.0445052815052
206.003657958528 -32.8749112028483 -4.62065553247063
-109.091811488526 -21.2457475303012 4.43864422083284
-139.473485000141 -26.9727844115401 -8.44221794108018
216.66642349889 36.7027872585291 -11.5152013003617
226.291462519682 29.5072855169841 -18.6846688790241
166.609646209976 -13.8526608006983 19.1576324685234
-12.0328380829395 -21.5309477146898 9.46922220681544
102.287470160013 -3.26062951746419 -3.13053850199368
11.0433786209035 -14.8275940403285 3.24945154247247
206.850913802839 -25.1022339046026 16.5234653786743
214.95342518409 -28.3905967686496 1.44979783805128
182.332379995989 -19.8274321229721 16.3887274333291
-183.874904285077 -10.6709049257301 -23.6699729390732
-90.2944650408129 -13.6063960795582 13.217326657001
140.780548723724 13.3892897062077 16.4971936739328
-132.611239039825 2.19490902781947 -22.0550823543121
-185.886649714401 26.3124881791112 18.6973509823239
208.634639403553 -11.5947860357924 -26.0984176754904
-208.409240858219 9.5027656181686 9.43471660563112
-149.645705445009 0.4361734744276 9.6426306698163
120.236501088473 0.0939272522453602 22.8541358868563
-191.504752920015 -7.37361627646043 6.926977827455
206.690785704704 -21.1611622405471 24.8409051676396
-167.328590697227 2.899614092705 -16.3977540453492
-191.381096602305 -28.3366155170469 -1.72924390824139
-22.3085428970866 0.612155957873399 3.65076481672774
-73.589945578928 1.74784729923484 8.22426357888539
-90.5845045293235 1.33181265787563 7.55140750081579
-191.677030730816 9.11043832313413 10.9033363500199
11.2047284386189 -0.783065306514853 20.865216278095
202.8523267508 -10.9667645996806 -26.9596906332806
-185.38057017795 -22.2390838966939 7.25608514971454
174.194734470072 2.59333733801408 19.8951937287427
194.590325994808 41.0852582789968 -9.08611349581845
190.281819782429 19.3074983984137 18.8887320357642
-186.226685783265 38.1911714370422 -11.0771718890766
-213.910601631049 19.1332654987262 -0.870059343966269
215.597731851733 3.27956393420711 -3.01119124944598
47.1485880713781 -7.69267525065822 -1.61495781082859
187.044588710842 9.61372667214571 -14.0726100162139
123.437337923846 12.5355624656064 5.50626124085916
-212.257119195894 13.7454858181996 5.59367582439905
95.8036420566688 -2.17850605783579 -2.49094797411803
-146.55348396951 2.58177972670139 -25.3667877587605
169.084908811792 -7.28981425749868 24.3660201560987
-187.826872583336 26.3664601224742 20.7540113730112
96.4618843340035 -13.7442880040245 2.01796140559111
162.782209947435 -1.29345403513711 23.1055640689239
-194.983632229882 24.2905972751328 24.71240594092
212.58515505183 4.95628955386595 -6.99757559195541
220.806396871515 -15.9854426224596 -1.54964103944263
-166.532673840465 -37.6881657417164 -9.6927674261053
-180.88269068176 23.2605570813916 15.9227304571441
-132.695389292866 5.11828385862149 -22.9862775907777
-124.874361868091 2.80895615743491 5.16691277401508
-125.801323101833 -4.27522497992418 8.91606448426104
194.422117642582 21.7987184107693 19.1903164328744
206.329817138221 -33.6220422664354 -2.89881227028194
-135.897177254148 11.480454662876 -12.4549494285198
-105.903209273427 -13.2443546303308 11.1636461740495
-156.28978512881 12.9722891148406 0.712436782891363
194.242901164236 -0.224609278554413 22.8517051624024
-143.820598692203 8.49109322846682 1.06653420926645
-84.0467939489764 -2.79862349770537 11.6033903443964
172.769527902545 -1.66272164749878 -8.57193282551939
166.516978054959 9.59170396140943 19.6104081024957
-156.784967634408 -23.2856567855421 -24.3252432369752
-11.459536577918 -0.413683464446636 0.275496560714253
191.54912365538 21.6936582639827 18.1860320285101
168.847480481103 21.1359330023716 -7.83375049302359
188.564849788226 22.2624309207032 -25.2098907510308
-37.9266634590138 -14.3465017927457 -3.80443294659007
158.355909492038 5.47016076825464 21.5159741485789
-171.157536495224 -35.2151890588577 -3.20010376001446
-168.161967403614 -24.4625412228268 -27.4582358232019
-193.426356276892 10.8849128667505 -11.9341044529648
-184.750460450971 26.5995119013082 -15.0874525569413
184.505601077375 -29.7497053545234 -5.56701835203869
-193.297207545587 25.5115913575961 25.1872162632153
62.7429027018005 8.38807043497844 13.3711046504758
138.822965277492 -9.13883561228599 21.6869926526786
189.153420062346 7.54932331219137 17.6437405132609
-109.622457671956 -25.2125527471215 -8.82252850643127
-88.0832128359037 -8.80073227815078 -11.807924864801
-200.552087073947 45.978792343178 9.88114923775761
-156.298201130615 -9.00129907231416 7.30067320060747
-208.41097974406 26.859311005815 18.2698614570841
156.033100736645 3.41444449504324 -6.36596656540709
-187.024021344222 20.8483434781761 14.8441360673585
217.116262413923 11.1221458039422 -15.8365127574514
63.7719451483139 -17.1911871325338 11.6788518370735
60.2850888295805 -7.86772461450761 -1.56665217741674
215.180133932562 -3.92465879637795 -5.58039499448217
-162.117664292649 -35.2584212575959 -1.39351013528694
194.178696764752 32.8278240864519 -29.159446316528
-154.47759114518 -22.2765475137375 3.2607708854927
-28.9099750213147 -18.9392547396663 16.5153602157203
-28.4702005467847 -17.4584049691286 0.451442242282266
149.812534405089 -17.1066361656743 3.17987927402352
162.820972579778 -14.4390149557344 -6.67072470454555
-208.247286406507 24.7452059338711 -13.4070748013966
36.3641643319232 2.02711001663449 3.06769599552556
-197.721727483951 4.61451542448457 5.86967527734079
-190.381082977024 19.9317532143702 15.0939913144103
-158.848153074707 1.04249245667931 9.90725897402963
114.634439829878 -8.39017986236613 21.6430455071887
-138.640811973267 2.56847352413548 -23.9349305243894
208.491914697089 10.1799032466938 -14.8214600084636
60.8217133066081 7.34457487311793 16.8845513113084
-156.209563422941 -25.3371980152221 3.36636593929396
-64.8672893583035 -10.1809664282235 -10.397507583111
-84.7179823525676 -1.68421944369378 -4.84671474558192
-193.848457395457 12.6519777203896 11.5012285780667
-181.070080299835 -9.2791708261164 -27.3825652928885
-171.692110807358 -30.589547259346 -22.7224696379954
215.42525449051 -18.0912405999535 -23.2322874830867
3.30833987921513 1.39504994131074 3.47673970053678
-127.24531381624 9.44103907006492 -17.5894443542195
-188.838904000824 -24.2550084501158 -24.3610133652354
-177.937780645797 -9.82466992391591 -29.2048708008746
22.9871841395818 -13.5962763352444 2.71467480015999
213.707768384502 0.935594550932004 9.1251082164121
188.108344694319 38.4681640665124 -13.4770126076401
-134.635060755375 16.9127741167417 -17.0130244256518
188.067879356889 1.34585651402232 -12.7518016947125
211.6829122377 -24.2548636245944 15.705247806343
-182.968752036928 39.1727256965629 -6.54720934964841
183.467259127319 31.5057488933328 -3.05441602556193
62.6325596410874 -16.8657135740264 9.23494789128527
44.9390431288257 7.12085991266469 14.6445602466493
-74.6692076538885 -24.0087944842685 -2.37483661306962
220.857316323233 -26.0719851965934 -12.8522837752427
66.6323937495011 1.40526886712575 21.5174605949133
81.553793830628 5.83186705865808 2.82596565950071
168.331836210399 14.5315394031033 16.5075761598971
-183.107939132313 39.8102637123793 17.844602956614
-202.767706385688 45.577979084561 0.614247171916512
-179.208616096356 -35.4048144048633 -5.05701375045983
186.001296821441 -27.4120651323828 -9.67838182548183
-35.224109886735 -22.5613885658063 9.49746776887635
177.988530937532 10.0224814430272 -11.7616981575751
-160.525483295788 6.05142827743043 -14.72941558245
188.222642433457 -9.95582662261698 -16.047015491852
150.420519879366 0.776061106015103 23.1161351770062
-29.1198497324891 -5.0264582653635 -5.07767752941309
-98.0518355678959 -1.77768178106329 -8.79954763718645
183.074413214082 12.0159425725582 19.4494405801287
83.9449897394597 0.920734390863891 -0.92139390615238
215.429443432729 13.9829134276284 -33.5448825396568
-113.289068292233 -8.07999058236541 10.6068084377643
121.283274515784 -16.5942093729651 8.99673975326652
118.275077991556 -16.5544842578061 7.88155996895663
-200.595521785786 46.0424838492738 5.50203629078896
191.995798106426 39.1285053277956 -4.08974167579034
69.531505328831 -8.62617886069397 -1.30757923736096
101.918610741811 -4.14520783776732 22.6304670088625
-157.416425779096 -26.4610405039417 3.54107160213047
218.868528535638 22.8169568045798 13.9496831696416
-35.7259150540153 -19.2893889983494 15.8433241463967
107.911197165023 -13.4720220541467 0.939628724334778
199.268767763339 -31.871735103322 -21.3881934139403
37.2646617457906 -1.79840715806829 -3.20635086518672
-105.52072947565 -22.8263674589531 -11.8093551078638
-202.578300794958 5.98836377839887 0.397144593182979
-203.501870401891 27.8955048215592 -16.693510923096
-195.443474908252 23.197455354788 18.3675537888932
206.927077541635 -22.9797002284282 20.848731123154
-205.891430752117 8.15148518729008 8.94714406807768
182.561145314058 23.5715732745358 -14.5420299793566
-30.652849781048 2.7517773091552 11.4118700691243
211.077945311131 3.81737231988747 12.567620350945
-77.8990487776585 -13.738613847875 -12.5514076349409
82.6070479108614 -5.8256215020943 22.5487195013498
198.605049809928 24.0009767443017 17.7540373451852
209.048711882353 20.366919572099 19.5704670145775
-67.7404331021778 -23.8451677553615 0.444362276754869
-171.11894859856 -34.2167831225449 -1.51701003787869
216.106602054936 33.0211572161059 2.60543370011484
142.407060715413 -8.18791133580528 22.2962192887976
-187.429865944807 46.2771474356983 10.9361257853013
192.259776665191 -7.88007439399813 28.1461637503997
186.465869006968 23.5100120497457 13.5883448986026
16.3605872754553 0.825745727719921 1.8960439300049
-155.267068214378 7.27177867501083 -15.1782502386011
-199.231251573645 34.8886619261516 -16.2994313635636
194.303214320901 37.1893636480173 -26.6053802360909
213.25105698466 -18.720359826673 22.5771099539404
218.03780154261 -15.7772108740357 -18.2238544028241
148.043101788072 14.4746514727016 15.7363913636606
181.862689342043 -17.8755169705756 19.8814660583717
95.3416546849747 -4.8080806977275 22.6654125944974
106.542090625525 10.1076579986457 5.36403270117683
-79.8743607327944 -12.9609347023879 -12.8106525914245
-94.1682608656994 -17.599340233022 10.5368689601626
-104.129942900661 0.333732192828358 -7.62389104756885
204.039500441894 -32.0657394605395 -11.2812751510591
219.087197120058 -30.4295800178751 -15.2135424662912
-187.018169188474 -12.4684721601815 -17.2455533763588
-192.026519633334 19.7822320906053 15.7286144866399
145.332593012015 -4.41987685174201 23.3923603016445
119.191556852829 -9.10847009775325 -4.06507802547814
94.9062842029724 -16.0097614124921 14.9798903818162
-212.478318577056 31.7952582387285 -4.87757374081657
214.498357943041 -8.03195843118577 -16.5261069748482
-158.144673223504 -31.4277750526205 -18.5393945792124
-148.855762642706 -28.4741083153709 -11.2046953909921
-149.467219417515 11.3178113205145 -11.8823467181382
-10.0570116624905 -9.98642213671444 21.0247778716398
-160.351157108909 14.8823975238064 -2.86790022142972
152.434306343746 -14.8026187983176 -4.38277057625222
-193.395777062725 48.2768845761693 -1.52716081862652
178.890063280661 8.0284070054089 -11.497271207992
-197.296394977783 -18.3432431829835 -1.32430623602863
112.298803552259 12.6378642781917 11.4120000948399
173.465703163086 4.6349710196737 -8.87861052346147
152.318921452952 17.8341305304698 8.83879155351284
-196.615701865685 43.9133862551273 14.5348050177124
178.497454987689 27.4291712369495 -1.25739566161407
207.188382863947 5.03872787028739 -8.93123005115481
163.290905996388 -14.9452254437748 16.5626984328474
-35.4860280156212 -5.31348563623012 19.363986208589
-182.271506196874 -12.8714397492857 -31.4875606604922
-64.3214299962358 -3.50119495505812 15.2024189104246
-132.276495477674 4.7780653403734 5.08973025722091
88.7510389049299 -13.1670086145606 1.65522277278992
-27.4084369261046 -16.0463758581513 18.5347270411917
93.1068484600483 -16.5244665069915 8.428381910777
220.563441417499 23.2654686670753 -31.671504316074
210.582231172739 -9.01784514244901 -23.1827217028329
-121.480368477799 3.8486254093408 -9.61649455810658
-201.518550201686 32.1967674213362 -16.5754448034567
-151.905502740674 -20.6258346027291 -23.8854585714786
-188.896078888616 22.7452939576405 -17.4075114614245
74.6878899643641 -11.8348985599626 21.11374284785
52.2316031598443 -17.4990508385188 11.6065006106568
-50.2623193040538 2.26360518891845 9.90788271899105
15.7191997285066 0.768205950338442 20.2723324517849
43.5009866189722 -11.2220749627176 0.950355414152027
-55.8486323090983 -3.5661097569315 -3.84239453112763
75.6050983116199 -8.39609192181847 22.2435331437986
-73.370787103687 0.159650396484454 10.2402719987989
-143.749458042697 7.31432711660382 6.17271697246908
-75.381202822248 -23.5540257983114 3.9297966238917
-187.895799909725 -14.2382726688687 -30.3766078905835
-196.236574868701 -9.44564311964636 -24.7317456655077
133.925895438191 14.6132642985552 13.3369600704597
78.5430140865316 -3.67531886202864 -2.41000906356875
-27.0617571769817 2.70751695290688 13.6264309290722
19.2260931165045 1.45015396225081 2.79692091289444
-21.7088367108574 -7.6864718057761 20.7088708072566
-135.687990430094 -13.2041205303242 7.36731249634244
211.564822561618 32.0561950366604 5.84855359255893
-183.527616500308 17.2545857433833 15.0559549530994
-133.696117094802 -25.6882018403289 -10.9417516750137
93.7129884652733 0.558397501479422 -1.55547151766026
171.627527160474 16.5926948510516 -9.81676040501995
107.615348793863 7.09228054036857 20.1179851336649
-31.3738522382602 -0.58790908817768 1.32033972097115
19.0144147443586 -17.9818284856543 7.5614705527479
-190.702355624916 -17.5117758837619 6.29542702718582
164.907289665293 21.0665775711062 5.24886805215565
27.4888809159691 -3.90021403844218 -3.58885644497933
113.739818533373 3.92979993811566 -1.96320291790665
-153.481981102807 12.0765712564007 -2.92715410800612
225.054497172699 30.7648597825386 -1.43378623699542
27.518346572752 3.76746446707967 6.09042693541111
126.645917914944 12.0634873741742 3.41344890020009
189.429350146445 8.2075140693936 -14.7927358325002
-144.902617595761 -10.3586653959402 6.91499199702958
-65.9362095636097 -0.0358215941869206 0.147565912081098
167.741615901926 -14.9617622420371 17.4024494391647
-23.8027203359693 -22.080502911641 8.18178842869434
-38.1095457899103 -0.0413606606758056 2.30464254385238
101.832362729067 -13.9557028399453 18.0180881035812
-147.561553711183 3.64909096918277 9.33764130591601
-140.221864973118 9.44968415209699 -9.20575863264727
226.961603696963 26.1813215981407 -7.10552693795707
-146.565565243569 7.59653684426513 6.4748405029556
-39.2642119504234 -19.5820299958032 15.3392309924433
191.080523434117 -5.05226078589146 -16.7937714369922
-114.537637527926 -22.5708752311291 1.92960620853849
-3.39800059949675 -2.36047904459837 20.8761351682248
-190.837177940554 27.0286206528917 -17.3801023876599
-193.225557085357 -5.26732568690992 -0.772229203939183
28.9053776654139 -17.4754185902707 7.67570174130144
-176.619444930626 -34.9378244509123 -17.5133240399281
-196.425942651093 47.96053093625 -1.40464282141504
224.348239880973 23.7125439847633 -25.1131716488463
60.6007477198294 -15.77162693395 18.2473869949025
5.40213715242665 3.80066830766405 16.6506624795767
209.765039625807 32.1689472173454 -36.8909957338895
-77.8828409011184 -1.55921348251924 -3.45955103312969
-128.629265654939 8.30058263663826 -11.5101676870274
186.206965263634 1.64369615893757 -11.8523403232568
144.983339898461 -15.6253453128657 13.6754141915519
-154.032524574674 -29.2523976807131 -1.26572184734365
-213.565033942298 33.4531922677974 1.70280196150662
191.835435148591 -5.62818326495799 26.6207332086495
225.840100465358 30.6007698563877 -4.02309583435654
87.9169403895263 1.61943885777706 21.8861441103217
-195.812510820096 -7.97995867839762 -22.3721332035302
185.67746942934 27.1538726424828 -18.0972115153038
-115.984311590149 -20.0302746972487 5.25324762791295
136.010537053973 3.65720377581609 22.5011070792628
-182.576787500229 32.1798097277897 16.7634749253342
203.604073525981 -2.09569326280151 22.4307895541288
-188.337519279862 24.1029013700368 17.2158412612105
220.033927731781 -30.9012371560393 -10.3150705008603
-154.592785469165 -3.63802976054006 8.95757179525456
175.29335511307 -5.92935548338514 24.9207429962929
-24.6813487806849 -4.5288504567325 -4.55622044368127
-97.7712268642899 -8.21926915050421 12.6203476717883
197.797238207618 -18.394725992903 -28.8478486063841
-213.968449357875 31.0970189128907 6.83872208462606
140.338166324431 -16.729121940176 5.3235450331428
157.362921525939 -8.85883760049478 -6.94543228371272
-160.929588236323 -34.2740060274329 -16.5370210857454
-199.381935203057 4.68717649482942 1.01295419954929
-155.561283914604 -7.35486758102312 7.63067527832291
201.293627126634 -2.23479368885601 -14.9959414113853
118.516289508682 -13.00242414429 -0.385309338922836
20.2217946688984 -9.03379384505449 -1.48998607708544
-150.942222275076 -25.1845809071739 -20.6449097295354
-140.161178497049 16.2910513012281 -19.2386011220045
-164.491123348698 -36.689947846448 -2.99881105211548
171.319008772271 -4.17924241337386 -8.2565467773629
169.960932097811 -16.8673278111342 -8.54626130064267
197.38047585098 -31.1950134248369 -15.2168171323375
-190.28467333139 6.44972111568645 10.4801732043115
-177.095035572846 -6.68040818605576 -19.0310590227484
-199.627638233482 -22.5386252082757 -3.13442217549339
-196.246503053423 47.1119818647809 -5.00381850495512
209.666573339225 10.4857764693864 -24.5540855301163
189.547243578447 -4.29210821205625 25.6365269808239
158.174718701884 -11.0630154613378 -6.76454819043772
5.22519239780358 -19.841867751965 8.53052271065664
-107.515208042972 -25.391498898179 -4.44400717171376
156.036082349019 -4.59779129825679 -6.69797727837664
-175.253272136231 -33.5947242646153 -18.6929478078621
-169.317562323282 -18.1310962317483 -31.0042593774471
204.627159802672 18.033571538573 21.9379833482109
-79.5600818005503 -2.53001546610116 11.9596196099832
-198.783488458364 7.02812455792496 7.3087690866228
214.913116950282 27.4636057088429 12.5554084373772
132.808537133515 13.0774951821126 16.208234445034
193.501175200128 28.8753322616338 -35.2596993557053
-187.210593950409 47.530015517759 7.09698817981594
187.034254845904 1.71914672289645 20.1527589020822
-184.990352353647 39.793211663456 -6.58267842988437
202.259006785801 -33.2529117990346 -11.3959151884165
-119.864190270633 -23.5015850226811 0.321055885961795
172.125870542531 -4.21027736516647 24.0109440507118
154.901171026616 18.8276085370969 3.25257772940101
-205.443222058482 15.1553362358851 -13.1224341869575
-178.377024848562 -29.0472642422506 3.78228657436849
150.379333628892 -4.79271359805597 23.4637501593768
186.822867136177 -19.5077164131028 -16.1156255842838
-167.362250374813 2.67064809078518 10.3593481028641
-194.601382541396 18.9661951551517 14.5607291252361
211.70680724698 37.959270180096 -8.0241778766905
-186.905352464455 -8.82728997647837 10.3084182252693
191.108300309092 35.3306128766647 1.25917381509538
-165.720480221671 -26.8023590043266 4.42946510679708
-183.792249372627 36.3231599619376 -8.71736487407854
-169.738918699694 -27.9722286485423 -25.4461004905989
216.52626021535 9.55462211185313 -10.2030599659035
-90.9959195470273 -10.8230174990982 13.6742370243267
-193.464419250457 19.385702560107 15.7118771353642
189.349203911192 33.3657479374485 -21.2376824003599
191.97010462177 -25.4200310191435 13.4826967215562
19.9478099508745 -19.4028345225218 12.9670921491642
202.59560384262 -26.73468144506 13.25284628924
-186.116730337354 23.598605370479 -17.1444576806782
-147.974601619751 9.68101528445174 -1.84498364907224
67.3208815034452 -8.16395445428408 22.4346651879472
207.256651882684 -35.4005754845224 -16.5264706482787
198.908933245579 31.861772663642 8.15312151606314
167.441338707203 -19.5061297216342 0.610459305234697
146.887003861531 12.2635652745192 -2.64469630462947
-183.453163415118 18.5203321460047 14.7205303349581
-175.863258166486 -19.2245538662779 -30.8779367937514
171.469700809734 -17.0973271405659 13.9376765896168
-182.527658187086 36.0199728919119 20.1678066896155
216.171479495247 36.7079758913468 -9.47704230884768
184.321844482197 31.7503381725257 -16.8994416876117
127.449346766248 -5.0637160158328 22.8016437226176
194.919947229824 18.3245243540718 20.421772562653
-174.859184958976 -12.5563057217612 10.0927946805991
208.519731640308 -8.7257647609098 -23.1561656462072
182.390190021358 31.4895222562243 -6.80845148326089
196.509304820118 38.7064929811972 -4.38476923272834
-180.949753253207 -21.1904348364718 5.7342716856776
-149.922380665709 -27.4162190551955 -1.11330615939543
136.942845527213 -0.215876911415117 23.5081495520324
188.476222931908 -17.4342736841092 -21.7713495620627
186.622319357781 -20.9320329900199 18.031625960469
-196.794231181361 3.10587498713719 8.2675694145692
-95.4797801703452 2.1918286796121 1.91556082671228
-183.557078824599 41.662399745669 -2.76354871960846
-146.073820515851 11.2886693672826 -10.6522092720925
102.241776948667 11.7219532773747 12.8059757879586
196.792528292511 26.7146050896936 14.825384052962
214.321755969629 37.0022443434942 -7.29554834252866
26.133816096256 -12.2809232078163 21.4095295353655
-160.232382430505 -22.2104621974499 -26.3508736745455
68.4997463252142 -17.1093746741148 12.7280900469671
-99.3062468604884 -12.0753445027991 -14.6101362075926
140.799057588683 11.6260661095137 -1.01499287808733
-165.543577900221 -6.72445238310047 -30.0682085567217
208.935800822035 25.9809086436775 13.9300808216098
-178.646103427451 -29.5048291978907 -23.9057881268887
-161.920064661879 12.2976198878178 7.49020651234324
18.1975177531155 -9.46133132821294 21.827820307933
191.729830209337 13.0731241375112 -28.1709706739667
186.011360134686 5.87169932603463 17.9484860866973
-192.975210961264 46.921981351586 9.63611530254838
-51.3178410587928 -23.3218232210364 7.00054074642402
179.907094528988 10.8806836503572 -12.5142604010354
182.596743669137 -6.70240903846484 26.1211862234157
212.957139128315 11.4531119276781 -15.7693371307953
-45.4855628184324 -7.98614635313796 19.0321846367127
162.158777643667 -17.1051953284004 10.5633603062487
-214.584894167297 22.1322448605379 4.70163908842197
-137.501875290746 7.30203906801315 1.60373068922107
223.350275988066 33.8432881656723 -23.90286588519
-153.683446491697 10.7972279982284 -11.1374450054504
184.927085445844 -23.1999286960073 10.4738617907047
150.869287908041 -16.3489789372981 11.4747392917539
-173.781896813965 -31.5456920580653 3.35491670446091
64.81354044463 8.17729970515848 10.8224528540874
-177.68181651702 -8.87138330844507 12.0721322109158
64.1566927879462 0.592261641578598 21.731457389039
-168.889812180167 -37.6500330948877 -9.7194895324565
-165.839477466513 18.7971480042963 0.63869511455102
211.116953665479 37.6820897694935 -4.67388788275809
9.11969782730801 -4.81896377036331 -4.99201430282929
161.669366774725 -3.85255918061841 -7.22429190727195
25.9385290058082 -0.635849873867734 -2.0777530684463
133.97777523107 -5.85262713728652 22.7928777898483
-182.977685439266 20.566320210818 14.8326342827949
32.7858720606511 4.10214027308187 18.6311625783627
2.65777272578104 -12.3758522577114 21.0748591627522
199.605082571409 28.3529305281349 12.8158719738207
-163.42847259159 -22.0652518212055 5.37745464397374
-99.8711227265732 -22.5369129101048 3.15429893679589
153.952551755899 4.34857522637732 -6.01185379206987
-205.334259338561 20.0039813295516 18.4591494629644
-151.748027183232 11.0799289050221 -0.239470226928655
185.190425890305 4.66202845214476 18.2382533264405
133.589885691963 -16.0414822376172 12.2876194747765
-10.0977351234909 3.27806027672188 10.8818758453075
91.580180051342 -16.6949013669704 10.2893487786168
-147.996504617845 -16.4523264357341 5.12643859041021
-184.553748205482 -23.0330167308269 6.98935332293844
206.498573318797 -31.8188980332408 -6.58434479682828
216.769452319687 -15.9671574475783 18.5409891665453
182.178517833635 -3.34719256694424 -10.2360196096065
212.895004712063 -2.70243693130656 -4.9194524980905
-181.214469745001 40.2010915837609 -1.16354740625254
72.3959432207899 -7.03653389282806 22.5096055716215
126.336849131963 -16.453271737867 6.29344340439268
175.6171473595 11.4963946047979 18.9415622117032
206.451530368697 -24.4902640004073 -29.4166123084259
-176.251312823565 24.9489062770294 -3.77528265791953
-128.743788616702 12.4413195473559 -12.0314702577769
-192.459662529592 -4.3538841518673 -2.96303063974825
158.16098500899 -2.00094312901966 -6.84363280851528
-182.793424716655 -24.8774723718176 6.64108156273908
-179.427521863397 -12.242815135772 -30.8387473596323
159.175522256448 -14.4930860463278 -5.7934553351616
-164.91203775516 18.0911015430556 2.20827263022993
66.9742565821005 -15.9237020337125 17.5475132504597
194.450836216623 -27.7094226586047 -26.2232225507288
-144.933904602662 4.98135541900177 -25.2594437560272
124.118158018296 0.188081669508696 -3.59886859899535
214.503628684057 12.7182677341928 15.841362357818
-41.0987177394505 2.29734194340668 8.72827876420925
213.555636641906 -13.5539127113473 22.7268172717319
-193.949211062501 2.88968170923079 -3.55078398982124
-203.172629708899 42.6687397043065 10.8225250295558
158.993105734724 -3.77878472440689 -6.97754176849503
205.623524585949 36.9448938103494 -1.16716087113648
219.930985001764 -11.7416205406565 3.33382477232289
194.847251876417 -31.1905322658218 -17.7082172081433
-44.1846303997511 2.35616287965867 10.0285682010651
184.347265024591 32.512615357987 -3.22122665188421
204.227957473296 -34.9026729466418 -23.6539579575927
-115.608476619034 -21.3514999720678 3.60043529865611
-71.8608011829482 -23.046370699692 6.36486622801878
-70.1643124160535 -11.1029401410636 -10.9509784973988
-4.33143852283465 3.46958838033505 10.8128214594298
207.271492391017 33.5315151474863 -33.9902447657988
193.887717389831 33.9257172730769 4.06513087258842
15.2276757037059 -18.5513343527536 8.04453667633442
141.950660178796 -15.6690307784624 13.484038727487
-166.675288718841 18.8819470426572 -1.63036264027312
-83.2909447605776 -17.2837873751132 12.3669830033122
12.2789441673594 -8.4922891083129 21.841477242477
148.903413624194 -0.474284805412522 23.3382312932542
-26.3404378857582 -0.498028732328654 1.36671023319211
-114.75437996293 -25.2395178000114 -9.10194114185643
204.560093395811 36.4514832136284 -24.1018757098691
-183.520550033626 7.61130366742832 15.05568882365
-57.1790139137085 -2.09375322580325 -2.02076936556411
159.551069870823 -8.49319035340832 -7.19419804197422
-143.047752670769 -16.561356822963 5.55370129956477
-6.12418160769346 2.52133721532329 17.3597551531299
-175.292736209248 -31.3201381744345 0.753518921064081
-78.9303456651164 -17.6085632669975 12.7859584672998
217.314526553921 -25.7111006467286 -21.2201463883207
190.240382800487 -30.9028229282395 -10.6413888791136
178.587095671788 -24.2784079603661 -4.04959859170115
-110.75098032599 2.36096807886973 3.73113909593503
22.0693492002071 -0.594307230202339 -1.68961433047483
28.6207452138503 -1.81188334253989 21.7481491637832
190.325762278113 2.10840723832229 -15.2598734439657
157.537442426776 19.5999321962018 2.32456984679508
204.031576874151 5.51945590150543 -11.3559071142807
182.094963427452 -26.2569188853872 -3.01971953608672
150.482377016597 10.9326559041992 -4.23412187034729
219.025232315949 -21.699625360363 10.8393638914566
-154.356981026731 9.06507913799915 -13.5753954948556
-165.298746696429 -25.419178034988 -26.6313462012712
179.933357732409 -6.65098572141554 25.7230497333855
-25.3972277699349 0.587876984192263 3.78089786234932
132.914533911268 4.58794232005523 -3.46652041885009
30.8821590907919 3.44670993039117 5.19796000530329
141.018380044552 -0.967459924416662 -5.00328228268187
-128.707477975786 -12.269735708291 8.71215214038235
213.150966094262 3.72890748470106 -5.55967586255561
-191.600264929181 48.5848997272112 2.74532852427155
-20.8211233841898 -21.5196132010086 6.92098985709086
51.0958487875993 -5.46359744457532 -2.78494501733351
-153.215652711065 -8.51259362734661 6.97512559035914
224.316913556631 27.3289422456964 4.37748825355539
-25.8106674977466 -18.4512594252468 1.75563306831076
183.0848428162 -13.7051707459548 -12.802040279421
52.266885595901 1.93231077344582 20.9014263930493
165.057923351313 16.6672506879353 -7.42316309591945
191.472413979963 -29.9791357306362 -18.8379633369021
-107.949441429118 2.02767563979456 -5.24203148338263
-164.138359525247 -7.39205352135626 -28.7941861876076
-176.795536937697 -9.89889650697793 11.8331256772402
-141.660437319001 -27.2952368210552 -6.10889621707957
184.723062627452 2.78776433395313 19.0624374103682
15.2831732765703 -8.83059609438219 -2.01259142019603
218.162922022164 -7.77551481075145 6.29973267532935
7.85303006392999 0.164916954355212 20.3101396523687
-126.875353325117 -6.55219760876589 9.14557324885333
-13.4979679242602 -21.130530404284 7.77087047439878
-135.103556641753 -18.7886789852913 -20.6776281395589
-184.37800375369 -28.8381750255444 -22.0976807124629
-12.075153181779 -8.41452580025178 -4.65297304709917
203.044572098526 11.5389974165462 -35.0671377984644
102.485401953425 -15.9534412276749 5.59833973170581
-121.236561758834 -16.7382550583679 -17.9926899204853
148.124107698942 7.88158700579637 -4.8012340862499
197.843208614104 -24.6233187455986 15.4745392438862
-159.959526465545 1.98820135181949 9.73145646659411
-189.384525066314 2.18237684575585 13.7997940934952
-194.778474867712 -15.6265001896096 1.76037875902773
206.552232439269 -36.1765128010552 -22.6588708017622
-121.544217068719 -21.6855275694358 -14.4805398291156
-200.060923657366 13.6636342869503 -13.8840907464691
-131.276639579499 -26.3085463226802 -7.97671486791672
216.195931006017 35.4356993166897 -19.6705062971212
-155.860175522143 2.08619654225609 9.69605622069256
-188.294342535398 -10.2885989946314 -21.5507699877958
-193.581858871577 1.4045484557649 -2.42169241658637
-135.682942230397 10.727971085153 -24.8979279502317
-171.333023685988 -20.9512584070803 5.82703914797569
-130.618640053888 3.27264284821895 -21.3403233577968
-152.78349747299 -28.7422454467217 -14.7073976226805
165.453191516576 -14.7150098236051 17.3979809543634
-187.426198934893 -12.7703254044752 -19.9587155250237
135.667869606912 -16.4410784116913 4.70592215780562
218.583266543251 -24.615664048372 9.02308379263562
201.04951767532 20.9931908700209 19.2850812750487
-13.8575405666843 -13.8002305286287 -0.199817604634446
181.580260100411 -4.74302439348793 25.0461122075747
-145.4282191352 -19.6558897204398 3.89098003926193
50.0485876438466 -10.8489664862775 22.1813398934863
-194.808739774588 48.3569696189026 6.25571980262869
188.727131050666 -20.1567289312201 21.2082314899507
214.119990123724 8.23365536280559 -9.26203206865321
-172.758885760594 19.0249515160706 10.495732306734
-167.045229329379 -24.7196032599199 5.45049913930037
217.815329917701 -6.50589053214858 1.8833816336645
-176.568560294339 -32.192063829874 -0.358009192093474
-174.463621200774 -15.5934417740916 8.00071423997515
152.047784523959 9.54355467717659 -5.26309355000394
-178.610123004212 -8.35813291111155 12.3100258301632
-14.8785539492802 1.73563812001437 6.1911571962052
218.545789502331 -8.10292258925777 4.0611091535164
-8.80102501697283 -20.1870090911844 15.4593196592483
165.388304634706 -17.8214996306283 8.84772847901019
63.0533604399749 -15.3057714099015 18.8037722921927
-87.9462875539608 -13.242918173835 -13.5218248156438
-180.736747608738 -3.12427757638795 12.0608056959666
-64.9551190550538 -12.8214858206549 16.866663564514
130.604156263088 -16.1209290707489 4.32309656839774
-171.009877254718 22.0225000484994 -1.07583680098729
-193.64153907038 4.26594015181364 8.87798043238487
37.3471705531783 -10.9901838781418 0.715575215158797
-163.112560283082 -13.5725013553222 6.66137422535679
-178.631574057505 -0.490568671338894 11.8614636011388
-184.05370200932 34.6471620247548 21.4606687265169
199.69523259812 1.87049625079558 20.8392018234639
-213.195928697035 31.4415558551856 -3.18854281163959
183.799223680205 36.2431054406579 -13.5026867402862
219.66645105007 32.1710096489694 2.8133173665454
-60.4962721279927 -21.6715961204055 -2.79052328574384
-54.8741711009711 -14.1085415692625 17.4964457812731
-197.942186016636 -23.8478796738099 -8.12633425957971
205.497114124022 -34.0500052226065 -25.4425151922773
180.335576589592 20.9532366558274 -12.6684604697538
226.510413145074 21.2113802627047 -11.069340406751
-62.4722005364965 -19.0229561907211 13.7018833643627
-177.737002439911 -36.5942883655307 -8.41214830786777
-196.477969846204 7.73573656074968 8.33001892955306
9.82358517117172 -6.23189760416661 21.8940320068157
196.893976750991 28.1630093900743 12.8750880671926
-192.730554129471 23.2728739130074 -18.0661425553654
220.168101009634 33.5482469385638 -0.95047423882895
196.184815844082 30.2260799286046 9.63692181542814
184.232740675012 34.6658868677556 -10.4558012594673
156.483965299902 -14.464982653476 -5.29483125919083
-210.503888817801 10.1576487434646 3.20543275299363
-185.8006223247 41.997374667026 -5.51222522070325
-198.57760618657 15.5014790160641 -15.905021310427
106.46342030636 -15.2004611812068 15.7282137637162
-123.831820118867 4.65387025135007 -9.02919855402116
25.9162626242211 -7.10944033193919 -3.50759649024274
57.7062432461667 2.75750023943565 20.6590672972492
216.342951389933 23.3066825768054 15.2606187875648
-56.609165874644 -16.5255212884222 -6.84250722301332
197.734547995437 40.6148727294118 -10.7820908724796
-84.194400432564 -0.40303691926212 9.61440440605389
226.002868959045 21.0967823335815 -4.13335622545666
-84.2786260730065 1.01015659891333 -0.217630872812154
-145.028702359079 4.93388571911557 8.51783408541301
-169.366362428356 -31.513016002528 2.84138851904145
196.564210869386 -29.6392387444768 7.54839071267817
196.264344396203 -20.2479230046046 -28.4582837614777
-165.737246855978 -37.3032572641509 -6.24080067188495
-153.571563521583 -19.3422528139624 -24.9733691338546
175.971989647619 -16.8831561527883 17.1836991036997
209.099653851152 13.813536307485 -36.6993796249357
208.593174134207 -21.8951092590865 -28.5821835102151
-125.691834516677 6.8290434946585 -15.3771490876417
-197.530539199229 -19.9416430476317 -18.9739239486949
-204.562761416405 13.8933253966642 -12.4730027186189
-213.867917502751 31.1246785819009 -0.917337977137604
8.14589241387634 3.3915375703551 8.50678888507603
178.637338923586 -5.77114915023025 -9.85216001740792
199.614815826613 -36.0072887916702 -5.87032806030609
-164.35122331555 -35.3439221877741 -0.996043168321383
221.191666696506 -28.6925937850432 -3.60260785592701
183.782938133648 -3.10705497580056 -10.5553746907893
-163.9078984018 -16.5576704126329 5.20145002868809
223.933749141575 24.3698699323319 3.82233596945886
212.224286389447 -30.5429743687825 -0.700207968801425
158.988390837474 7.06681128743825 -6.65901933395721
-164.692458968359 -24.4272444963248 4.19671610826059
-166.936676562963 -35.05303703937 -0.768644789920482
167.652502769011 -17.9208797279907 9.79137138863749
58.6885961409944 -1.13927734039821 -1.24659668575529
200.744297176826 11.2529653323098 19.8319409620651
-141.203722336262 3.40145095769915 8.24249903090557
-204.558684221683 24.8580201798731 21.7574186183797
150.075960381581 17.0701066870088 10.8532643057298
-198.197876501973 -13.6843040204914 -16.074673025541
193.326919257725 -21.7225207167396 -26.8297611876284
190.453272250138 11.5678249297675 -17.8359403489541
-124.148700336043 5.13590369366883 1.40770073476631
-195.275463882101 -27.6843009563889 -13.9182653975705
5.25173613687001 -8.1060916359975 -4.19867897832025
-116.788359470501 -0.900093546032053 -14.9581300558034
179.125511880684 12.1597841841101 19.26347802871
-12.2948136697503 3.20181759371272 14.9446748964426
-148.129661580163 -2.72284081412164 8.49743520800756
182.068621241887 -13.2499687073806 26.6474483169448
180.91419582978 -24.4301649866411 -7.90144999052071
182.055476027204 21.2935182402711 -13.6587499932827
-138.682538950971 -25.7295977647833 -12.4604724710823
74.0231764813334 -4.55758548750679 -2.6697185261793
110.946486427734 2.31774985404714 22.1350182486463
-151.38288867011 -21.4535712424368 3.2732313738035
-186.61572771881 41.9561955083874 -6.94333685678038
72.746096348003 6.89777418754101 5.96441162452996
-34.3708964006936 -9.14547763673118 -7.07855414800554
-166.788012811549 -37.5507121215448 -5.92204576471112
178.546181530242 -16.0155030458622 -10.8498020631252
-106.334789981734 -0.182383625358744 7.7065535507406
31.2154832326477 -16.1434132582013 19.2107338655833
201.051525436413 27.4026991141372 -39.8807866431098
208.527356403848 11.0453569940602 -17.7099869664952
-196.114480249104 -27.2212378366653 -8.08129596693501
-133.933755519713 -16.3550515653082 6.36713662385303
-61.1070899410697 -11.4627118515141 -10.513808656335
-23.5781933653069 -3.26363346572274 -3.14988255065545
82.201732798836 -8.62386266273171 -1.72094334514008
191.029667799009 -22.4983098017562 -24.6481994407647
214.841206067577 9.72490201087396 -25.7831204812264
206.081448867341 26.694819027185 13.6063464548278
178.873989920244 17.3058895213911 -12.912102333591
-113.237517510973 -24.4106011654733 -1.59378377170869
-8.66614747044179 -9.84073800084001 -2.78561838908489
179.565076596597 -23.3820807349523 1.0181549933296
-109.265695538142 -8.6302998698043 -14.845096212121
-88.8775020104053 -7.04093471134393 13.4046741823693
26.4980470686734 -5.04140940489703 22.2135884420748
-184.749852287198 30.8013803572412 -10.3737965214567
201.394999353591 -35.1302750216381 -9.9787459667966
-149.720426246807 -3.43486222181517 8.17311269848011
-173.694016552402 -37.1162478082055 -14.8744771855624
205.394751505115 -20.0772069276659 26.9188029955329
135.351650361575 -16.3867284144268 10.5300048843204
-30.1496774933803 -16.9826654671088 17.8904191417606
148.233574433072 -13.898902944816 17.5135333259226
-17.5740271508128 -16.2126486193103 0.965899970745078
57.7086514042129 -5.95480955059334 22.6475391490466
-195.11490952278 -11.022542159845 -17.0013045154623
-166.970795613966 -17.3456937155654 -30.8218241562934
-152.145816683636 -12.1863228470138 6.27749634960038
180.580670895039 8.55435257005416 -11.8512857241825
125.065148169951 14.0354250820951 9.51397251182705
-61.4314876035721 -9.72052057602183 -9.54645345231939
147.352736853165 3.45548447369915 -5.31062332636612
160.39111632682 -12.7881027696583 -6.68113349849437
174.549283786309 21.1500880753311 -11.2782028164664
163.435676920502 -17.5740394817049 9.01596642462252
-194.080209341236 16.1661995791197 13.2733670049017
-150.099230903943 2.96622117574757 -25.0200303599272
83.6544226383152 9.7516849411418 15.1138599717231
-169.125659700835 12.760450659528 10.3185789865576
153.271961852715 17.7861191541171 1.02373265960171
46.5557221089486 -4.55056670870378 22.431126872774
83.3811357333828 -16.1992763091908 15.3136795519708
195.809959605193 -23.6753405401917 16.3071664663256
118.118749961927 -1.42298778020912 -3.46037821256287
221.045457738305 11.9322786937961 3.67198790234822
-178.510964775858 -32.3281908294638 -20.3732179095398
-119.686951029644 2.32129465376188 4.88179435185213
53.357913060777 7.78648971734011 13.9947438705068
177.879364286861 29.0687842076192 -11.9515456842517
-185.360184865906 -24.0537643950561 -28.0907767812157
-182.186290432818 29.6780608353888 -9.07115691603628
-182.435100602756 -2.92549118001593 -14.4551640098961
5.88105165123458 -9.99434888307042 -1.36661399059329
208.592282889103 6.06149027484542 -9.42064218648282
35.6148978958482 -6.25141191104237 22.3411816803495
-150.37288828002 -29.1918966900305 -7.81959774665103
9.42348046753731 -19.5125570695746 8.71287512690986
-50.1735902243567 -19.2461789518598 -2.67299245932322
36.1362059131341 -8.77696949637009 -0.844730934060345
223.398847703675 31.1449888457089 1.74759061385022
183.358537427729 10.6356478419187 -12.8476579907229
193.086373539212 -24.4150928747373 14.6134702285843
107.181004020742 11.9808383443961 13.964336107328
167.398931144016 8.99563622106757 -8.3126064851297
178.704425457186 26.784547419718 -12.0643885356692
-167.879334935666 -21.4892065548729 6.23276906560322
179.884782962086 -10.4244481219113 -10.9722218162893
-179.844882289878 -11.1420621089169 -19.1992762362191
-179.371630087563 37.7033690870817 1.34187070898185
56.757704578074 -13.8529201417989 3.3359024875963
201.184473764717 28.939933383935 12.0758533163795
-81.545961690192 -23.3612065868998 -7.62875281974653
210.496420651464 -7.74821908447105 -18.0936446214419
-119.233784609906 -7.70668761289004 9.99103975901831
-172.730182615421 -27.9506513900689 -25.3724484871982
213.97771582115 2.26486840458394 -4.10252002715323
217.752696762296 -17.1705317563116 16.4443341642145
-124.760621964215 -6.50529783563084 9.47126676615855
25.9963019078682 -17.2478587913169 7.02625796514923
212.507056138315 20.7437459101316 18.0946234148186
-180.679440284046 22.8380791992721 16.8171499941848
223.601525499066 24.3775154397193 -27.1044925868623
66.851033119717 8.54947875509738 11.846335805565
140.795231556412 -13.5817880712131 18.0745344625972
114.884547952574 8.40631629038215 19.5352904533191
-187.738839706097 8.29468564690686 12.0088261017495
-70.9841116497273 -13.0169653376728 -11.4474316470614
-182.963401764722 -13.662328109034 -22.0885884627674
207.906784300951 -33.6017286263778 -25.4890167483402
143.878347316203 15.4264317660643 2.87996064283662
222.800853964082 12.4333892911482 -1.60181126284313
117.6730442775 11.0722444405763 17.3007872644551
