-81.7435480749232 0.120046662813148 -6.80770135828631
57.259150840343 13.5962456602169 11.2912931177626
-136.272658399724 -17.2527425795857 -13.3762430949992
-160.653120977861 -2.9366723130951 -22.6119120676504
-82.7060625136909 -8.44753180791367 -8.34034010056485
155.003536498592 3.65222829567551 -9.68528593155812
153.266167927667 -22.2387301746052 6.15512353271498
14.3660698410283 9.36627816113231 7.56379495921972
187.125560674678 -4.3779010535325 -1.44409475213076
-152.974376005708 2.34728144703065 -20.5115787268669
-142.719020018818 -16.7199560107183 8.35773739622728
191.662404008092 25.5522707473041 -30.5672200656746
7.08895040685953 -2.95084972952992 -3.3360589043644
179.631950546144 27.5890847886086 5.33059668050774
-163.917299834138 5.53086914450295 -14.4730697502218
-179.54958208834 21.724184333403 -2.69782935703469
-182.622332552823 -32.4368020258559 -4.45831962229789
190.615727006687 11.3056050715876 -22.6523181246472
-152.798191608616 12.518742540243 -18.9835654306779
-88.7115076105377 3.13056653338777 -4.6373379683247
112.395014646151 17.5285424728149 3.76970558316839
-13.1626657410463 -11.7200647985645 7.14164506216353
123.659961043256 14.7690910606804 12.8157848830493
164.392326425584 28.4362322557913 3.71162319005722
72.9938133881145 14.4410885803339 11.3485064398847
-115.246767995048 -3.18967715300308 12.2914994589397
20.1821327507799 -9.88738954393355 4.61366976659319
164.533387816178 1.79465292714593 -14.5236440365269
-185.204370705336 -6.31963123825675 11.1620589072275
153.098952873718 6.47719177957436 -9.1952099105222
109.318732427721 1.63311832925182 19.0126036770818
10.58294687008 -11.6233177806538 10.5637741339515
-151.245702446222 7.94868881291044 6.13719881172259
154.974377328328 3.42221491870245 17.0936046947944
-5.36621110545235 -1.84342748247861 20.7308239529877
159.077167164213 -10.4823767338621 24.3067994770534
161.58041125431 18.6272057863884 -23.4092960847592
81.9709065703345 -11.383417943989 12.1058196593219
98.4992528468265 -10.8587190453187 -1.44544560023212
-204.581910178162 20.155141876145 -17.7112146691694
-181.829240953186 -32.7572921505595 -9.13410726742098
-186.203134104775 24.3752010021158 -8.38534123889397
-171.649192103154 2.46651066542938 9.42850434098848
175.507862536451 9.36234831379094 -30.0733575269936
-156.543529305978 -20.0490368240777 7.90143579058014
-122.628027236679 -19.2722397560247 -3.00076848351096
189.26409368303 15.9444194748688 12.4641207059128
144.139238848104 20.7554572571598 -5.93842510454312
-27.9701622304194 -1.12026888023052 20.236527212905
-26.6386652156485 -12.0189236570658 6.11172913641907
-218.654933465457 20.6700378516336 -7.10240924749244
-159.409619422631 12.2338984878647 0.861663244787787
-183.734157063936 -14.0735446082056 -18.3630607133776
23.6019998967185 10.5067007535967 8.50967871555348
-212.297107165811 10.821697073457 12.2699225952499
-76.3341923811189 6.38409934102983 6.1340492804553
-133.193596300266 3.93695793781146 8.13833240279471
141.347431081274 6.22605586228491 -7.00965055662886
173.947182361015 30.3824740291224 3.14974810559184
156.39032104363 -26.4640545499074 3.36759066632799
44.9309138761931 -5.04177547221863 -1.13907253696946
156.257987753043 24.764726911274 3.16343513224787
-140.650389330924 14.0156683441164 -9.49906542182985
135.155512396139 -13.0017865004745 -4.48223838489001
-18.83967964751 8.34198584672603 16.6702805672111
147.013752735468 21.9712634139827 2.99917285095318
-129.241271710448 5.29310585059217 6.89756883652077
185.457990903305 -31.2142892234763 -0.733946487087764
44.2645405165984 -0.227692346225546 -2.91745518259809
-40.6466002891557 -6.70323410649374 -3.11346264106305
-158.367761754654 -20.2396533377294 -19.595221463286
-162.43027761663 -3.52887712786663 -23.0509698847492
82.0117365637295 -5.88958753353875 -2.97092359659489
185.499212522644 -5.53736392215392 -6.21776058054249
-198.536578360871 38.9671532483155 16.8317588409148
-216.522553921829 30.7006247488271 -9.43006558505344
59.1942845864141 -0.489768785172484 -2.60673919292149
-78.1879930364145 -15.5750732398405 4.988169221132
-204.800175195322 40.5359500377305 1.00459951951008
179.733578634429 0.786148239909726 -8.1779273588761
185.349344456865 -19.1443519064977 -19.2287169748509
172.679473278873 4.57238671716319 -14.1922603585805
188.831658150836 10.3953444599542 -17.1948016079563
-140.75352104107 -5.22108043129193 9.12034259445491
170.971314078837 -28.5746111224535 -27.7341186880011
186.35015402586 -7.81156301104141 15.3544816977677
-213.594283581069 39.8193209142687 3.73877426690359
-201.036807642657 5.1660554561281 8.28914848632287
163.625824703836 -10.8092083714514 -17.4540061956849
-72.8349912650631 -13.1720337302185 14.3937172341746
116.106139737417 -0.904302394289106 19.3862293840035
-159.612953890058 -27.5962404249957 3.54991836435421
190.676633538356 5.77881353203096 1.79068682214551
39.9683161015103 -3.38466180206058 -2.74850256381996
153.555243639531 25.0721545647175 -10.54561580951
-198.181699605506 5.03186662886056 10.9363913078176
26.9337458869544 6.831104497976 4.16318153554384
164.667518506598 -9.77870191611381 -17.0137061285491
-187.214287717868 -14.7653479527072 -8.46968024045238
-180.473259891608 0.693417290256989 -12.2998251097446
162.389893634197 22.2661922202633 12.163121313964
33.1845442311338 5.06910650355337 19.7052422496748
-181.872766037322 -24.2525634882669 6.91564646010784
194.848730080535 11.1280985960038 -9.04455712015515
-188.41679436472 -17.4094671471168 9.00809710953515
137.744909859351 -15.0387216803486 10.5677464155891
-170.279701363492 -7.25436219210065 11.8209604616394
173.307632055033 -29.7075699397851 7.1696811551583
197.950526245949 21.3272783378821 -2.66428717196655
73.0865336542938 12.4305079035539 4.61717665992155
86.497102521614 -6.60881759752368 -3.05950222818479
196.97801956364 22.3474096288101 0.721357434138563
182.50821190518 -26.7178966427831 7.35478898071978
-67.0493932623514 -1.20424877098708 18.0361023218353
-194.245158697413 33.3742847954806 19.7558838801543
174.00373525169 -22.602180507704 -27.6368695004693
50.0732986550589 -3.14836642604042 20.4372372873381
-184.45576779439 36.399449473056 8.06962211239066
-209.87543052849 37.28253364762 15.0358718870047
101.631689547603 12.6940529182536 0.88632953310842
183.21023899678 -34.6010287570707 -10.5304940236061
42.1004123974693 -6.55980820658203 19.2386421385565
-144.224962645736 12.515505544139 -7.76660710255238
20.393276776645 8.60372846432878 17.8180140269331
-145.120607943946 7.7107687287763 -19.9500308390559
155.919806224565 25.8070809460358 0.161518811107252
147.928763497881 22.0766762494756 -7.51127184189043
-72.0186516823622 0.843173595303488 -5.82697668667365
-168.017084481158 -27.2091815065535 -19.5643514449062
198.336248880133 25.319706372888 -12.2373544584468
-121.311994391448 -19.0953823080038 -0.799105238481463
-42.9742892171364 -8.83102473769565 -1.34366702914283
-109.778883207759 -7.21460912337014 12.9950177421873
107.083793487808 9.96356998020973 16.0480878228339
-10.0713960284088 -4.55772146862883 -2.40957308712865
148.719677891546 -7.9075130453399 20.8059368176858
61.4697156886379 2.74252545496937 20.2438012214431
-185.415134302236 0.9435687416947 -11.2845167252489
-219.638634562416 31.7692572351803 5.29328866255114
154.701300025882 8.74367448128823 -10.4740169799103
174.272002789428 14.0215283899902 20.9854747872172
35.4752149468617 -0.535715514678879 20.7246535783268
170.269207577032 -35.3316349650654 -20.7477069419237
143.20548960413 -16.2404846766131 -5.91476371293098
170.935553311846 -7.98603666976579 -14.4515430388913
184.195110533852 32.7626016588029 -8.47693103406762
-158.281884583959 13.3923785089417 -4.2977876700931
-183.705698002755 -18.2279250124137 11.6916433637879
-20.8927143154979 -12.9427033872513 12.5738296744101
-172.364021861517 17.7653550118497 -1.60752647933173
-115.84982780507 -18.3713148561827 1.31871255101636
-216.908064194195 29.6305384307945 13.2722473489141
-132.513301046392 0.100502909082709 -14.256251866798
-111.002379125389 6.76787726733732 -3.39749817778083
-138.741813222186 13.2172985033518 -16.3025161094944
179.957471660886 4.82015252253886 -10.4511862696577
84.4064160517397 -2.42480619320665 20.2418115563048
-173.34431505414 10.2181486427215 9.16354936227573
-182.658339860575 -14.8965748126095 -11.797847897723
-145.341312424845 -11.3033401750431 8.48803170938332
-95.5097737602711 -4.67062280074527 -9.17123539929256
131.158207005323 -15.9958424431103 6.11635321675644
-183.05960426458 -7.57770148745661 12.4736387039027
-98.3776947790371 -11.8233221994929 -8.99760275493275
158.525260987591 1.6105414418522 -11.3066916279317
96.2148472931141 16.3756266798945 5.96496621277628
150.082287264424 -16.9960593296864 12.8745769181001
121.359149787245 -10.4004058282985 -3.38462176982686
174.618714028717 -1.18416724308622 -9.49462925400241
-195.193434077578 -16.5532017231651 -26.3325288639022
110.842941919056 12.3608399431208 -0.797573050117083
-4.9237896255272 -10.4274115125286 5.01867446867544
-137.972323721505 5.21463518465304 6.99535752115362
163.40872024434 23.6855781953773 -25.3270193844762
50.3505733233849 11.0297221705991 6.39269675463574
-170.571470156021 13.0528543401395 -7.7506618357273
177.274478958729 32.4487479997679 -23.1230935835963
-134.410762513431 5.74374500387102 6.23813521873876
139.791943441537 -0.274739084478124 -5.41789390240797
-122.569417709772 -15.7947837787714 9.04925613975592
119.584946107436 -14.0524629479997 9.17074886119734
137.677113430127 11.1262824531194 14.8155855053047
117.989761306014 6.1428876058317 17.2750399454909
135.998488192151 3.59131227457715 17.3091051409593
129.033864187962 -15.0733547286055 8.17106519578875
-151.45668569564 -16.5963248436148 -18.1842793036987
-68.8807252352669 -14.7742389683776 12.0277863043167
-153.236708414301 -22.1575950292423 -15.9385751579146
119.922099875346 -12.7872124541229 -3.11436426593422
160.389753930446 27.2105606251039 2.45864520526635
-174.888627278259 -29.7617659699405 -17.1754700550996
-127.803664906597 -19.9214582039972 -3.6579702312617
144.075421966061 2.9288011314152 16.9952661325863
-209.04841951388 33.2460404731042 18.5368026654582
181.267659638517 -25.2222760717908 10.7499426258036
141.149669397176 -2.85642522179076 -5.56878756294436
171.282913028707 -30.4564661081109 6.82253912932714
173.6244508204 -2.12009385976718 -10.876346948425
-199.421569453335 -17.6675358732496 -20.7576687936296
-181.35194099856 -8.23136310703655 -8.68305919632348
-162.79640528515 -33.3447640875901 -6.4208600893613
-194.68726461951 33.4679631663905 -15.7337730016944
97.9506120667575 15.2934709493709 3.61198570883936
-96.6423779346638 3.7641747432506 -5.23120698180285
-145.820107941055 1.21604615822899 -19.0439864003522
111.221535888142 15.5132178553872 1.37906494024321
-191.330075752298 -3.96000225651349 3.54420107057968
159.692804983073 -28.4165412925362 4.47024218014131
83.4346605616887 6.33600352949186 18.5175467219399
175.75853275478 19.2486123563062 15.6089467194922
-1.95121330050934 6.67605955065839 18.8870420486009
142.587545794111 10.8067438236062 14.8620941318858
-11.0986653185651 7.04560689674227 5.56536677096949
144.631962340691 -10.6162855848561 -6.47880354046259
-160.104065563778 -8.29176820273012 8.74327312559236
-192.221526827663 -25.95853297858 -20.1719989195689
165.359967531126 31.5985655989029 -23.9317001222898
13.6766563411328 4.76390926494296 1.93570471857278
142.175808997943 17.664007254104 -7.45756652376961
-214.495547045401 38.4131104720367 8.00295609707872
-51.4541594701569 -10.9082942730436 -0.18892698040688
161.315700320451 16.4664965156073 -22.5737176407125
-161.901921663621 -0.252711613041252 -21.0334784331452
125.133192355195 18.5306089756632 7.44216080827197
182.802056407991 32.4576389533621 -20.4725533001714
125.878715980482 -14.684287006135 8.58194774632184
-53.179341508594 2.38945257347835 18.4201986307971
161.462501975354 13.1168037514947 -22.1849381506936
162.133009929208 32.2121679879887 -20.262744982357
184.322522864214 -12.4318391605717 -15.1666166533851
-4.98099142807659 3.67915966494267 20.0028582765951
-166.058852862928 -22.1525356750963 8.48417000372354
-206.917541919889 6.00220005044643 0.95246366357226
171.486806032942 -36.7538035415947 -4.20458744714334
171.630534809664 36.4881800047542 -11.5492067582338
175.671702008191 4.31727877183093 19.0563420607426
-188.970824697389 -3.8304875036893 -3.12114058223359
-183.048526760694 23.0754245263264 -5.11083925949005
-185.647593609372 -22.6710012788598 7.09972602511085
95.5770086503687 14.9654653960283 3.63638782416658
-3.17121107969028 -11.9259128209269 14.3644866413898
149.29008886686 17.0416542199116 -11.8372629540561
-197.50031316062 43.4704983383937 -3.24917913122961
-123.381664499056 2.24617773382538 9.9884498819241
183.052829883869 33.5551795585502 -9.49038071128523
188.968938002202 -34.1119224991054 -6.02250884430457
172.509869816148 33.1510376229453 -23.3505304739984
-1.40245690753084 3.96765870038368 1.33831863886429
-101.636751418651 -16.5020492874739 7.32454107813815
5.75748726817735 -10.4967626638496 5.69630837553358
159.951000999002 -14.8826107743914 -20.758610294275
-207.986780820849 37.7462373653783 -12.1677586875692
149.62220468911 19.4707201983212 8.95179611265093
143.864438183194 21.7512467979161 -4.50910117076002
121.880842072683 -6.53473161183463 18.9275545690801
119.574047553857 4.3903273593578 -3.80625349687369
-97.6345196352737 -11.7003903643999 13.4719050675239
-197.323223850011 32.487561948312 20.9122239819097
-121.809820515619 7.24697239072696 -2.96463718410803
2.54364866131852 3.17555329487464 -0.122528949373442
60.7466374552458 9.65260672616674 17.4313031291812
35.3247799246738 -10.7254535734672 6.4895569132213
125.311128329214 -9.29328624824347 17.303929552006
189.109385977301 11.4660649851962 -26.5394538531121
-189.457303137612 -7.27116613575476 -1.54471124812707
25.181029513412 11.7543282777271 12.5062135724069
168.610375132655 -24.6293009521322 14.4800357650962
-163.138112837296 -27.6761316266972 -18.2237214978093
101.341892218718 1.852293636602 -2.95158799269906
-164.55070728015 11.5347309670136 -9.38009690013231
-208.341818629613 40.8598200848324 1.32983353753482
182.314374779851 -10.0084124680442 -12.8761473683984
188.451208058525 -34.7994185946682 -7.22419447232997
136.605372675457 4.96792075007006 -5.51759166651753
147.783753117197 22.6193080462112 1.31535056137381
-43.1128829649612 0.250010582190325 19.5073790710135
24.6983033632854 -1.53877274935411 20.6766751577204
-113.187782212505 7.05274214465323 -2.90011743654516
-217.364944994672 20.8681196371238 -9.24313216136391
-149.550340172937 4.41267398632329 8.67028554232977
7.2594021031882 -4.23614212786177 -1.56035029952811
-112.196336491664 3.44158787598754 -8.23097779765776
175.178540166046 -4.01851699456565 -9.6781599378609
-183.595623719475 6.929734202414 -11.7363178083389
139.786494808447 -8.74046138408717 18.7908275642951
181.734415707563 -35.0443572797959 -10.7899873555394
94.0496555161038 -7.4617955797232 18.0440143955545
-30.2048155231531 -9.49278466363897 18.2646553995651
-63.0290928534392 -14.6660264407848 6.14764686145347
163.306098050228 -18.3060383408603 22.2074334891448
-53.5976781227766 -6.45647012499463 -4.92919001632733
147.727286315976 -7.283224249345 -6.94291243730158
182.197165129645 -19.066171082046 -22.6389871522573
5.60452940478809 -1.67043741496201 20.762599063707
-205.281960220674 13.2855679614831 18.1719955153317
-69.9932156982889 -13.4996485398284 14.2128547099358
151.34014093816 17.5935043712862 -12.5187509808713
73.0835215981311 -2.37285425209164 20.4401567081475
-148.490405338281 17.8329288049645 -17.6267434499668
119.129321801033 17.8136895646583 8.41393538450783
-4.12607198110211 -2.79452653789112 -4.15221460793372
-109.574216952162 -0.322872075695504 12.7026971562012
-215.146591346295 18.1215611308421 -10.9667815152047
191.395755435484 10.996073357754 7.66341732948116
-191.313788798392 -28.2009904867026 2.33384204166575
188.768547650012 14.4139852157319 13.7324151042055
138.84871317933 16.7834675109816 11.0052324849538
39.890090821909 10.2011068644324 6.58709967414908
-197.620490977883 6.13559551162063 -6.07434904614422
-127.778231433258 7.50744799311526 -5.24254546274906
152.816050846015 -20.52515538569 8.69459941128252
133.913619076425 19.6420055352865 5.46864534403982
191.437859194788 -14.252984206174 0.734751910799333
-191.13012134794 -2.09110529302972 7.13873598055277
-135.059290253949 2.39333764325003 8.90190419883585
137.684627711857 20.0931041553146 -2.87535005966722
136.836455950445 -18.1534594875779 0.529793991535609
-113.155095888991 -17.5705660794389 -5.74600965761808
98.2905247528423 6.12064402349479 -2.21262596374103
33.8976942450583 3.35256224641813 20.2295173269235
195.193363834437 22.8922940815604 -26.1501836717241
179.917928718997 19.4320889366485 14.8064657185169
-143.258400393528 5.12153982231504 7.78035650841828
-180.484967054802 -30.0802045592922 2.96721569113929
163.284191039688 -14.3199697455898 25.1444788325318
125.461335665965 12.0586774337786 14.647095327299
168.920022355617 -24.0649557773847 -27.8473811471059
-17.1996462921989 -10.1951708272215 17.7890873765724
190.809548823757 21.8242534187768 -32.130486211834
-170.865018799813 11.392073477195 -8.93798659105686
-61.9768312557886 -13.4873299114371 2.38672983557087
94.8556492578016 -8.75133455495198 16.9051200754536
-54.631061742238 6.55454881718471 14.7599737778244
-172.658120968494 -16.8791199152901 9.5027668068771
-131.028790172708 -16.7748391637293 -12.1300492013011
146.293979633934 11.0124168826827 14.8476109256359
-91.1871198377936 -11.4195145971931 14.199761571991
-193.446684592467 -0.344382057005086 3.5462021580981
-194.295340017721 -11.8712275159115 -21.8120753952214
65.8981808794794 4.13860818792169 19.7643372747757
-85.2238304246152 -9.38391967185091 15.5964515067137
-124.886218727173 0.854848106088146 10.4112380808741
-158.23822800105 10.8639166593351 3.66961323858944
0.303482078680229 -11.6078058210723 14.8065717991379
24.7584139282903 8.32108214012847 18.1247974553388
133.458322466751 -10.6713070596619 -4.4273121238312
-193.389121125674 4.95598800014217 -7.90552094520471
198.952672260891 21.8675637163088 -8.46822323993029
-165.363949156442 -2.0694626638139 -20.644109586055
159.573461201141 -18.480087336228 -22.7445614124966
-6.32707465666543 2.34464111172074 20.3082685853333
168.125050913124 35.9903404407673 -13.3576892512031
-116.665145608926 -15.5044405502491 9.63386785856392
-53.39917834488 -11.963267712887 16.1872599710652
168.578085192672 -34.8169337805544 -22.9664883536698
-47.4135700743324 -0.723678465874412 -6.06883962880549
168.793851567623 -34.8051616274538 -15.7548070680317
196.631731801637 21.1544770981231 1.84866618189355
189.240079931665 25.268142066853 1.95414596890798
-4.19819914432478 9.02737945817385 8.19804759194869
-112.785405654583 -4.47499095038167 12.671456069599
-114.45651063525 3.03057113486936 10.4771988513243
159.99271816241 -27.3387212308609 6.14561413518807
190.605891486154 24.0409123525425 -32.5517334466581
88.3816150754716 15.3870431388017 11.0304960914054
95.2356165955924 -3.40690709023896 -2.76663230621633
166.636746677976 2.18911393169298 20.7545827323327
-187.955530990954 11.0030326721244 -11.9550362889843
-168.731472534156 -8.71450637263099 -24.5740051033751
80.5395291730188 -5.05188404147263 19.5583283012781
-89.1654685212353 2.77133104640531 13.9995216064592
-180.758794027878 -15.7493390604973 -25.2811941344117
-141.112765697141 -15.222803092297 -16.6913504841466
-78.5244104229831 -11.9431438636156 15.0295895212683
-101.764784595667 3.57143448426038 -6.4641549446939
-173.584840008496 7.91775967672019 -10.789140467231
-195.856732596733 5.37523531719799 -6.27544613140304
151.477976683717 -11.858649367923 20.17363217561
-47.6600615535774 -7.98075475924443 -2.74339620636587
189.917921754187 -32.7385727496631 -11.2940918809912
-177.621485137028 -34.5016837007167 -7.03076859736517
-167.3702141093 -6.33485862095784 10.9098465080127
92.0192877104322 10.166848934925 0.46275571153581
180.729946217386 4.08580542711284 -9.20026198313829
-183.969197626873 -3.88705997675198 -10.58694160784
-12.3143801238763 -7.64662778288809 0.451245069554446
139.724913008372 11.4843620377404 -8.44541864516787
185.156775958115 23.5855512371848 7.58319811481144
161.938020970295 19.2007123609476 14.8650661311678
-189.568445889625 -10.6330097370744 5.40829828718152
-86.1863001141333 5.71335543254374 1.74858827466719
164.732444305614 -16.0111088619425 24.5585142324362
-167.131108785426 -30.9471853235274 -15.4598101896624
164.852844148412 9.75415302818033 -25.5283210627255
-189.484496515785 26.9283591657389 19.4728411555952
-188.625843663349 -14.7092071198182 -4.20678375838063
48.7943084671503 13.0451157198963 10.7230368207923
70.4918474727654 -8.62158516957013 -0.0453927757690767
180.277868230948 32.3433679287575 -22.8608627044894
-45.342534230549 -5.96349187094632 -4.72893023390331
-190.653301439363 -13.1932895970684 -15.1682848996026
177.47786206537 -21.7280246043984 -26.4244146917818
-90.7244384735605 -3.98210886319189 -8.5729516994938
183.693189420942 -18.5628222261837 -20.8452895391899
106.266851836625 -12.0218071168767 12.4933488638982
-69.3309664067401 -15.3500355960497 9.19080506472905
122.308910082735 3.83552696131219 17.801387950823
-193.409221604096 27.1618382728576 -17.3537755289824
144.904996939283 7.30787521182158 -8.09052142567095
-186.286916434865 -31.4781054703228 -0.134523566633945
-184.276049788187 -12.7438938657123 -7.3016364520372
-187.021103208796 -14.8675449028449 -25.6356616433851
195.938798959198 26.0882081245295 -22.4077249819898
-44.2432442825087 -12.7223000625986 4.42955341526422
124.704637442052 19.1088239498459 5.02897317015876
-209.910173634881 19.3406461818893 -15.4457784906153
-166.433398167128 -35.0119171091185 -8.86991742372322
99.8632502459057 -0.480206736239077 -2.82018379155416
179.691055803849 -18.7880142067795 -23.9239601647395
169.247196078416 9.62326866136682 -19.5062095895526
-182.149880124358 -32.3457590309159 -11.3661527026781
86.2549200582021 2.46624390098126 19.7397151662137
188.985594076745 -33.352431259258 -13.858412572472
-112.468895390816 5.14101958093299 7.71954713128836
68.3185153944745 13.2229387781534 13.7464999147369
106.196211816795 16.785101253955 3.98657273288042
-87.6066468855986 -1.42827896522758 15.7152144741859
-183.099253339278 34.6035300839325 6.36231801179644
-169.056933445753 3.70025295264302 -13.7453948623912
153.140482333834 -26.545027496662 -4.18253228970105
-161.076059968546 -22.0259499256233 8.22526472526072
16.6093954650214 -0.355077395058711 20.7044378175355
-107.976244976299 -0.0184940124298586 -10.0248104585879
163.664157928782 -34.4690782244399 -16.3934714787496
167.562446051032 -27.1324035535129 10.8671401661276
151.46492034944 -6.90204681444509 -7.89882787276723
169.710589873459 -19.2009844482549 22.772599460827
168.069916044964 35.7020050913073 -19.381780817975
146.122471469717 -18.9208019962577 -6.44250361144268
107.12389332094 -13.3303877358686 9.18084442193008
187.350289273128 -14.3482346524836 -12.1832167805289
-154.047303624409 -25.0044924236396 -11.5045310876456
102.303772872059 17.1173783873145 6.69929804110542
144.105511733896 -6.8372457511819 -6.13287435818677
-79.1554321642017 5.60872577665029 11.8021257249576
-157.88133128156 -4.12956668955966 8.73048117909811
-170.16507074201 -5.05731812330276 11.8446979332683
-211.836041596132 41.1590920608662 -0.054356548034673
-123.510549031506 -18.9806446726208 -5.33718056901858
163.613193831961 34.402799477715 -8.5064958850235
139.620001437969 -15.4279376350115 -4.89864088000161
184.409570276351 26.9266519324593 -34.9858768159394
82.7630013150175 -7.28480909963087 -2.30954287191029
-78.7690612848831 -14.5965490484838 12.3906020514134
105.867831360694 15.0396065589455 12.3157092966997
-167.121699547339 -12.7007289823126 -24.9311745828459
170.488840950063 35.8552268181572 -8.99902828945579
152.624059936445 5.23993193349988 -8.71854621300019
-185.568626698932 -14.4961919764703 -9.11162678125163
-59.1301321289084 -8.18644975722588 -4.27940251622137
-197.224651519012 18.5911798735574 -17.7593427859726
-189.988231207939 -24.363597860418 -23.3763138474223
182.879796397635 23.9141552390377 8.69155157682446
-26.9813626546887 -13.278719093432 12.0540646448145
-54.8695494493807 -2.58307313707863 -6.62663720219382
178.866785874694 -0.61888602668774 -7.40898837752735
-181.392435645083 21.5729764607802 -4.73518419698649
193.540695903592 18.0325153759803 7.08622114363947
50.0657690988761 7.17700236323738 2.7548363542576
-184.503051312163 16.3869303081199 -10.1064949637513
75.0531954333601 3.34422592144387 19.7940998175625
183.125523331373 -32.3946149425557 -2.79763267358173
148.977212047304 15.6690718472467 12.9414904050065
-206.506719866716 42.935127810716 7.19567588303157
-90.1427175872332 -6.82228075065973 -9.2240952914248
174.714824576893 -10.2335708979358 26.8438374064508
183.554822857883 24.7495240114021 6.81970798984719
144.982224966726 -5.22598652568429 20.3406138050374
191.987111924206 7.74315134969561 1.22308806317963
161.653727324212 -33.1808483266808 -16.6585942182886
161.097693537066 30.1625880790925 -2.59564170898071
-84.2352311632834 -5.56237599839707 16.4493085017749
91.9777285403275 -4.0882787998299 19.7702428441672
146.662512927383 -5.89344598137995 20.589879874213
190.403438280956 -14.4417137563286 -3.53996225895802
18.3559108142219 2.25281282760508 -2.32621277573438
128.35028340051 -15.1047603335752 -2.3256735022827
152.175542115225 -13.5973886015032 -8.81562391286218
-124.893642504844 -8.12456423942553 11.0266398111912
-144.598376575272 0.215813116471824 8.61778285446272
187.379914113307 31.1911502020854 -18.5029384683855
98.8762738663777 4.14035582652505 18.7297889019721
-186.074860747038 35.0010177087662 -7.40939924166778
-218.75079349171 17.2957635556886 9.08607659863581
190.555082569636 -16.3987299226221 -4.31994120721757
-117.220418001122 7.32925237874059 -1.26025035939907
-33.7015816565696 6.58831688112941 17.3778140013448
118.823480636072 8.57739416180456 16.3611288693661
169.203175837751 32.305833235312 -0.10491507205023
24.6884193823595 -11.1021466536372 9.38977872616028
153.032490313086 7.0249407240136 15.5331623893014
8.31317927661252 4.82554670686877 2.27318512014707
-130.749653201941 -18.6460194173283 -8.65759221659257
162.974128261902 -8.78649908488407 25.0405914246486
166.562014558072 0.794826767810081 -14.4353683161607
-182.031833441858 -2.40098519350969 -12.2000727061989
153.546773991101 21.6649702126964 7.38747598790567
-3.44336961845547 1.99616326631892 -2.49817475981583
159.317805200041 21.064225897413 -16.6946855230544
93.4501789598645 -12.2052373842104 10.6732480064348
-218.078478344422 30.3166668453714 -7.28863890328755
-215.106861089644 29.2469182300704 -11.6496355605814
103.05591542477 1.24194778806094 19.3360634800818
-65.8550090956717 -2.58682924283137 -6.78954207270014
-156.62399342661 2.94872699458771 -20.5529385162634
82.1593929021241 -10.6331825593348 13.959884166665
143.11422002714 7.193901837476 -7.60473194192698
185.243444458149 4.00868083398853 -7.19499356777021
170.407510984672 28.7244229622875 5.56715001959714
157.23188591925 -20.7892441625 -20.2421943239812
194.052103085577 14.7304365822876 -23.0978268793399
-191.878983586851 29.7274292615493 -16.1781423772561
-167.886195910737 -20.8941320504233 8.65327049700653
-198.98787594859 33.7683200558014 -16.5003885747787
5.41839603718183 -10.9718041648493 15.8978675426762
85.356678028663 -9.90161554340472 15.3020095631526
164.282730857595 10.6290563262661 17.1844773780059
-158.451022874326 2.82181539494918 -20.1604901271824
-55.1663341095554 -13.3846112435148 14.4432289096555
108.03527758209 2.44901695180714 -3.20133082378636
185.26283549193 -27.7409512091406 -22.0055926876205
3.78468274542482 2.08421272783043 -2.54092176954753
-181.399240996828 19.1452064798908 -6.89979084362457
-83.0840997020395 -8.93500273988339 15.951895318785
155.903027744264 -8.92758690267696 -9.82811984944001
-174.873647645917 8.12328350918347 9.69083843367008
194.560058417925 12.1794043697719 0.26400277144041
-100.465430231975 -10.2785075755349 -10.8726600721444
131.859135861417 -9.83087621831133 -4.28838178595133
139.94920380459 -18.0878120938416 3.78990396323147
143.361744376741 -9.1522520869975 -6.10052187648708
-176.068697970899 -25.7393948594137 6.92533950699299
157.044558982889 -20.6196899848865 -15.0025476568246
-186.408839765531 -11.7434555063781 9.8649740201693
-147.513823752976 1.52124435744696 -19.6185636420211
112.545910570529 0.0495665869969763 -3.27625414278352
164.670887110512 26.2728090411093 -32.3442003499678
180.655159943759 -22.5364175964354 17.0756850030014
-192.779507079959 34.192112045979 -14.6482499845325
-172.049966159317 -33.9633841244103 -10.2680105674693
142.111401327328 -18.4694088017578 4.26376904377224
127.328662197859 -6.66785687835125 -3.85858989994127
-169.857040324071 -30.988441212215 4.80307731631481
-211.085250511034 11.9613518503268 14.5258148206626
159.768143044533 -13.9150179323425 -18.8056071019511
-134.58089731865 -2.31324351979971 -14.8563061651791
175.574694859569 10.6674381810974 -20.9080111094264
-140.105818858061 11.0031673618885 -17.7613826271599
-113.390148820151 0.795312880715437 11.8469552887533
-133.525697337636 2.03327171108301 -14.6551154251358
162.336838872839 -28.3275988691145 6.73991102298526
136.958471173864 20.7703413721485 1.12629669347663
34.5276774101712 -10.1550466795388 4.60687238499276
114.002925048737 -7.7100316066136 18.1863100349061
-185.026589274435 -24.8310157429092 5.77313262858907
156.808249734697 -15.3060961285768 20.6754337324347
151.62255464671 -0.545034641777612 19.0194421902553
188.803483380722 -20.763596684124 -14.4651514057227
-60.5158128988777 -7.26742657175994 -5.12219815957448
-214.231115153586 38.8356561297786 -2.04723493892044
-46.1611836088054 -4.47811123078677 -6.09511207986189
154.3499929011 -19.0341276196982 -11.1640830880339
195.222832030645 11.3793946120026 -6.63427618017879
105.921882710887 -9.06192503927181 -3.31458301729092
-60.5877555906153 2.96848769948709 -2.13258045913106
162.983577587177 26.8183308265959 -21.5186320876525
-167.802532775834 -30.1494555064301 6.06800261556998
-218.202670562783 15.158279717503 -3.31424440272876
121.045670551206 13.8176758450021 13.5466778470629
-137.501929569315 -15.2204622822316 -15.5925079048583
188.253578181291 -33.2231177156913 -9.53832167591171
189.60455538315 -15.0078854181072 -6.80385164473097
194.578882226228 18.6283113861335 -25.8090306060836
103.926205934888 10.2057067420295 15.9846087960354
159.162438148227 9.48399953460332 -12.6391525644875
-183.501885126036 10.5237423200595 12.7657741758448
-190.669702499791 -0.886754494613149 9.06064214556645
-125.232403444134 5.19056714330849 -10.7083905987998
43.6050294258222 9.87273751707767 17.1885161056593
146.865605145183 -13.2760512553482 -7.08001094328118
-17.6539932836343 -7.61494609233369 0.0758597706795929
166.885572298942 -34.7918754542386 -16.2161618117427
-188.834717858969 -12.2531722290043 6.17252158379822
-36.8722244236637 -8.45567654559035 18.7016318928917
12.9668906804467 -9.6224369652966 4.03070856761888
-169.941065835156 -4.96911813879233 -19.9367231102583
75.0586379403401 -11.9737655527239 4.87452727534214
-47.1603932766123 7.31214964900144 7.44842125783492
-184.920375276542 32.0022131718483 -5.6798272028561
-60.1338560826517 0.535443632959199 -5.76379690548812
-170.480594876029 -29.4626548081321 6.12064646603254
-150.674117595176 -7.20669193830371 8.21024019714119
157.826327657327 27.9364646771815 -2.50566660615379
32.8594616428836 -5.10574594892555 -0.505780685522082
169.965536725678 -19.5068862584027 -26.8051073683481
-164.083042905647 -31.885581390815 -13.5994244721544
135.025728141701 20.4972170740606 0.619458753749998
142.975352504433 -12.3952809456095 -6.21250880629384
183.528722030363 1.61775089613975 -6.52081434806853
-166.111544398105 -0.0417855346742308 -17.1938573688105
-33.2361553476551 -10.2016729157722 1.80210432568349
-198.535272566109 42.8660369169068 -1.59200237273063
15.4682329031076 4.00666541826703 20.0041513668304
-93.4175935214892 -15.3186127687096 10.4868078090143
71.0727592125239 -11.057916486032 12.5848375103832
-112.574378942095 -7.11308121084835 12.6414710075099
-103.029017653564 1.66092997009594 -8.36046298389088
94.4125557736865 -12.0992712756786 0.845968937048889
-167.172461997243 -34.3813185140133 0.82675539612308
-37.5326040739035 -5.85301728713557 19.5781232291604
-111.723087392695 6.52846390855797 2.5003109485128
106.692829930367 -4.97452917019216 19.365238427706
34.4860906548819 -2.40055862419717 -3.3835607696378
-190.860290363477 36.7397161162382 -11.5575656143515
187.421460375625 29.8740912881957 -21.616247213547
137.906977566775 -18.6343862865614 -1.38584012516546
-51.9305197777705 6.88710755591913 6.4449549067339
-207.858633489196 39.9738682346963 -8.29674206712429
-54.1402738201685 0.183732329344973 -5.79607844000268
172.616139500599 29.7154816092024 -31.5616906434141
-93.9712918321909 6.28071648775119 5.3385113284089
57.5875014767658 -5.39987083535395 19.8095623393518
-184.459288462075 -32.1250429471734 0.218629494634191
-129.070178702065 -16.7486494181128 -11.5718409357439
-56.2989735281242 3.25169502348759 -1.30812191857299
-80.987869659566 5.76760380819103 10.9887733513921
144.492063688971 -20.7964825898366 -2.17488239538894
-190.16243894293 11.4897438759331 -12.4489545085519
187.254168475242 1.92335688534636 -3.6671119471611
166.416642876452 -33.4031193577478 2.42592794701201
-198.268887854952 10.0022680291461 -12.7280465718737
-66.5616137322803 -4.77985908902954 -7.05476298379981
-149.806996513748 19.1312727186483 -12.4556445905027
133.272546491308 -14.7411766122943 10.0637678297343
179.61710623171 -30.5914948774695 -25.5283601858537
151.818620599583 14.9407094319632 -11.9391495552856
-158.706759616506 12.6430186673762 -1.48810606573323
140.132358477887 19.4201605988647 -4.75254259470626
-212.991380160205 7.99400272095184 5.32753126968008
32.3634083143195 2.8152207155144 20.3136106527493
111.992007550447 -8.85481603961352 17.2690657653122
-200.284834325024 22.327534073205 22.8634148223145
-159.692840374402 3.07425396758757 -19.0906397789637
177.849878756187 -33.3206452047475 0.510633938126136
175.507858711456 -35.4359864752942 -12.3280695329933
164.38730674385 3.30353482593503 19.1273429573465
109.339842756814 -8.0481622499019 17.8051015382005
140.975828289184 10.281756506743 -7.97770310454998
-12.0361287510213 0.383803720463211 20.5320370246803
-4.36239379347275 3.74835711933183 1.11968781329461
-182.83125704958 8.5860150929596 12.2572297611941
-49.4867406648338 -14.3284587017915 8.97105254291863
-18.0152152731472 9.58268357485861 11.8358145226621
183.164772549879 26.6153204549594 4.52184104724103
76.7900670678336 -7.06839874700489 18.4965037917481
-190.277832159161 3.32547785177684 -9.01015304959621
97.3390243383845 1.29794179301417 -2.7853863728748
-193.93860196803 43.5649576022137 -3.88305420564517
170.321060480829 4.13576664983284 20.6104103645323
-167.471459004368 -16.8286829843928 -24.5749477702037
45.0258353922953 11.1320528779629 15.8956876334516
-65.855936546597 -14.8663190958401 11.6094796718345
-143.692269445261 18.4697751522094 -12.7070151976364
124.072351267818 -0.518539376790413 19.0223509776539
117.160103500481 -1.41513463696816 -3.41566015297028
119.767445854532 18.4456053946057 3.3965103337603
-158.686969641382 -28.6002736200764 -0.108464588624988
-195.86523288631 30.3420349193705 -17.4277111387167
-9.33684485159026 -2.09638136378724 -4.5138103916711
170.923370754551 9.68979422921714 20.633115865236
-206.073314426645 8.17140449865962 -6.06254797061063
-211.670372823633 9.33618044007557 -6.59474679757414
152.926204449108 -16.7604738509933 -9.77028902956688
57.2377140722269 1.43870505737784 20.5821085064518
-159.35897539831 -15.8531673286201 -20.9897964876628
47.1327362780326 -10.6459064681479 13.3820371220958
-129.976883669923 -19.309432196671 4.27708257328515
-92.7969715641275 1.30587995869181 14.2527821698501
56.8562885439734 -0.628254277481669 20.7234476572584
-187.263911235432 -15.0936309731883 -13.9778100996908
170.940717142173 -1.678745131498 -12.9761503344183
186.275504500849 9.95040684325824 14.2943992789012
-210.529149120642 31.8517478573975 -14.2977824653437
182.946424822687 31.1175161048667 -2.61698235568222
-66.1305937564803 -11.101178014601 -2.86428784214153
-78.24406368647 1.58210731800376 16.0756301788762
-186.141936854176 -20.8302351254026 7.2983824928174
183.205586087123 8.32969962235874 -12.5582734394964
-130.655431699467 6.59365771345489 4.19950601070736
157.387710980058 -20.8302901202752 -16.8252438247829
38.0321047778304 4.76395770901404 0.998553441891168
-126.587402140957 3.53977022150481 8.92360853878161
186.240523559274 -1.13443130803487 8.04427311091332
-93.3495070353891 -11.1142305159238 -8.25385576186375
-23.8777126994589 -13.1276055650903 11.5714877042984
21.6227482286414 -10.5773913959387 6.60711795126779
-123.20087995076 5.89305396733624 -8.07341676675276
90.5699068638564 -12.4401644283735 9.41399155752025
178.012967004433 -26.8147216232691 9.8621696256332
-93.1341090195746 -5.21589929823976 -9.07945249404074
-200.414588397439 14.6383876960827 -16.3135639439781
189.520974066708 -9.63563464329686 -2.26996662991863
-27.3410921272567 9.00980853379366 13.5776563797847
91.6906832029673 11.9230322825095 1.70619051006903
28.1915545100901 0.703914913542955 -3.07511001727099
178.552748831129 31.5613310813626 -24.4074499737147
-155.708880590839 5.92391811881072 -19.7350575066311
-207.660304801316 35.9451179689924 -13.8278119435532
190.283501816796 -25.651664020815 -13.838685343084
113.175049534491 -13.2683125679472 -1.37270959655929
62.670501514796 3.21130330371311 -1.62374481834249
-38.967532848289 -10.2817923941191 0.988591893006222
-182.403770732489 25.1620936263763 -3.05348349101222
-29.191698176342 -11.4527968116181 4.52055201173621
119.785759782756 2.29077991548569 18.379191305456
189.939841304601 -28.6774990231354 -14.9881996074093
134.827719196989 14.7244700295994 -5.55624322784701
187.784998661804 -5.32473869187596 7.65714236945528
166.358021452636 27.4959904554032 -33.7265899473551
-57.7575894687333 -10.8616254189058 -1.47032869483791
144.185345717611 -12.0066097102016 16.9462047921501
-197.621568803566 -15.3150092212004 -24.5617565149702
193.957364727071 25.8833134537309 -2.15629077569993
-190.953216578882 -7.07900731832533 2.12055874042085
177.568265873314 11.0837621007385 -25.5081758534267
133.049300984282 5.65209974518562 16.7390279611824
-136.651921966037 -20.1252203250093 -7.89341310340783
-163.903385533104 -17.3611980861847 7.94449296395746
132.372474198247 19.9209633830738 3.78849877366644
31.6808182562866 5.25279440177867 2.06562589130411
37.2792984723064 -8.63416331464338 2.10274380979686
184.996682457083 -23.5438019205353 13.0449545104584
193.017887617095 11.0292316494492 2.34243690095288
167.900895477905 -28.1071139974038 9.55876274881548
192.302712254321 -24.657033902535 -4.00500092438815
-186.078256027984 -26.0042862632944 -22.008388721972
156.652017573511 -25.0109563914102 -13.3821652526365
150.649386049851 -13.1925803491045 -8.11372547037961
-181.366372887157 26.1284823082078 2.76939730996737
184.692898293149 -2.33115172432419 -5.02176696137359
20.8107890566078 1.7921779656234 20.4998387144403
192.096315946722 28.8224714707965 -22.8360440637072
169.921149659152 35.4132155149008 -19.5887152724979
87.6237898812178 6.52602638779608 18.3087590389271
-17.3730698339629 6.72083430083077 5.22935839506957
-93.9996383688535 -8.48088709385464 14.9677318297977
-104.165738345814 0.0968697539795175 -9.27598304761528
-15.6594513040638 4.64372745562289 2.46278875681521
185.185008374702 -24.2161025132159 10.4826605304968
-199.796639999165 37.4803487072029 -14.3341109897918
-132.504110230158 3.98624141968802 -14.0485091838488
-158.238896133749 6.76249759506163 -17.1552395062464
167.524562094441 -4.15361224803419 -14.0279422211656
-141.923966234486 -20.2510516662983 -10.8026120617094
126.976919575489 -12.3586615933296 -3.56194762227646
-134.343148776673 7.9596263953237 -1.76133445559876
194.900634403212 27.8655849737493 -15.1669400187956
-24.2320341720985 -2.9247287207903 20.3953877606077
-149.15668180868 -21.8826571314867 -12.8527967724025
118.556319412602 -5.24646821787999 -3.35029145043726
-182.718862873445 -15.4243590852942 -14.5684985395667
166.181184769574 -31.074380324779 -26.3268328891218
-170.407690733662 -28.3809781630028 -18.5289015724123
-212.55898881436 8.71477666626355 -4.0554099985357
-48.5564354794102 0.728050908734323 -5.30732551310686
177.145095646855 -25.676482770914 -26.8895908982205
164.269942514953 34.2316403512058 -6.80372949124069
173.675614437553 10.2016303253966 -27.513704809075
-165.418004554771 -9.55257739883984 9.8074235830314
150.705657874545 14.4629211027007 13.6208918353968
-206.243489811022 9.04993563815531 -8.83490611413915
-193.352233351596 1.33004031422738 8.71075436509717
-109.273329303096 -0.855312092419616 -10.4054453333203
-208.679469648211 5.43963350312116 4.19329371198902
-182.49321113084 -20.0106746441168 -24.9511632400581
155.70226013039 6.92540084614283 -10.1262810020062
-168.598913166626 -17.0967973410408 8.56229187746851
-145.654573526835 8.75418803865677 2.99278674988201
-4.53293168885036 -11.417021302165 7.53862117238884
-182.729424095615 27.1043426438963 10.537779938416
143.993795879388 -6.94805359803255 20.0837277111062
-55.1307517172403 -2.04004448772361 19.1013089506158
-94.2554403544672 -15.4322848621467 -3.98380129009826
-207.552863809472 8.07917558464549 11.7482319396652
178.536494640952 -20.9525492340846 20.7302821645828
25.7474055503673 -8.7682593668562 17.7951548757985
130.138007463771 -8.89532267849338 -4.06442360107555
30.3576399500702 -4.02504167528985 -1.57666595357403
178.529067033636 30.2888694140621 -29.0339805256475
-216.06808348967 37.4261845606138 -3.21723969984536
-164.531796982893 -12.7534031974639 8.90705296581873
-188.395955384394 -2.53803516014416 -4.92189884231986
163.902266580517 -34.2730241517402 -0.00203732927399054
-185.373687049098 29.8386166655565 13.9898396269624
157.324323287534 15.4519278750082 14.4612442717036
-204.576799004992 5.68075979797125 8.65694471294053
176.134412128064 25.6580860390495 9.30369430129796
-182.883784625702 32.8989013431402 -0.946177466510859
135.025075087821 16.0641512434434 11.6247394532074
-150.03374624284 -14.6260781034454 -18.2044464070113
183.8799564756 -20.782087871711 20.3419870669575
35.6747604255734 5.45540334855243 2.0905472826634
-183.310034595382 -13.1216261758952 -24.7900297180018
-171.428451887356 -5.78361847920108 -20.5365621719782
-199.598208429792 5.7717756567981 11.1097124472572
16.1126806926652 -7.61402646985411 1.39634432337272
153.582609005273 -4.21706176696914 21.1544359704549
158.135077871251 -25.5958320446419 -22.5036194209153
160.051940427928 18.1267073269055 -16.8311806069522
189.480307687004 3.90146339455019 -0.253664201257053
33.0733120147198 -8.68533337226366 17.6694736103076
-198.701249847836 22.4090679351883 -18.4789567992658
-178.095740345569 -6.1728507093178 -13.3713596689817
-165.339472640701 -26.3750235478976 -19.9634394041463
178.056628054644 27.8038254055112 5.73291785670183
-144.363116972759 9.29618582887916 -2.54731712538588
-185.501823678044 38.1630951353955 6.79290575523222
-138.132290580771 -21.4436808604765 0.972110954281926
174.959001827854 0.200869945585584 20.3163111436409
174.889883016891 -31.9746679717452 3.78200499510549
160.007509885319 32.0514245994155 -13.0043845743656
161.720832079392 -23.5154385894521 -25.3016980823695
172.983925724886 -35.7923208650825 -0.762834233854742
-20.6764719646046 -11.2332688400376 5.0909715509997
-59.7524997969865 -2.26589650585929 -6.68548570620644
139.246555348006 10.2568249759443 -7.72651632651443
182.160037929862 21.9248705280843 11.7922101810954
173.77451130515 -36.285904270291 -5.68153327653786
106.413528373996 3.52875058445431 18.6104179657978
-219.056939407761 15.1454948772893 2.3081126711788
6.23183155576562 6.79373257710934 18.9266318618842
-11.6127683083162 -5.82983771251396 -1.20621393986437
-88.4316334322164 -7.02184511556079 -9.11924823502514
176.714315976591 24.4128704181467 10.8259136238176
-170.229170037415 -2.19789187387163 -17.0737191462638
-195.720915021793 -20.7097351829841 3.06465196551009
183.835667303114 -31.030808691443 0.0811878573453821
-29.7716590491705 1.16234307200563 19.9307163455823
-10.8913029397172 -12.0252645353876 8.62616215573596
168.49113648722 0.60316853367774 -14.1626208756731
142.76398685725 8.69494778310599 -7.92361113539893
29.1483456820102 10.7682824585542 15.7814315110968
107.394790448864 -12.6048632921189 -0.850698691440125
-161.192266935218 -30.8256297336656 -11.9637908286386
44.3291045150317 -11.1066129158275 8.9817544632523
-175.007946289461 -32.4209403559767 1.92168240589239
64.7293993105086 -1.1563248722343 20.6577486699738
-142.971251645052 1.48603405395451 8.69003945213668
-210.374473009933 34.4140851775343 17.0036905616486
158.002896799865 -0.494871513582846 19.8881780839959
189.971017587231 27.6016765986709 -4.22326640315571
104.758290869843 8.15371717571047 -2.04349014893725
-178.970903691047 9.33677425521262 -10.8097433792199
134.340046567246 -8.85925755850038 18.2898494381147
74.1197467941123 13.9141895297087 6.15360795398152
91.7705450388331 -8.80308286871553 -2.34021421227247
-190.882010092457 -14.0735453983351 -25.4887033279995
-166.224660268806 -2.29869846618475 -17.4093794603831
173.987429756688 27.3686473226551 -36.9320184879127
170.218046535039 36.1090988305256 -10.8084534128208
-41.0597656869992 -12.1310756319888 3.80011876399851
69.9101820420009 -9.49195992708012 15.93953462945
-129.432769402893 7.72423850972655 -8.04213553007955
176.930230512791 1.72522236657472 18.2709688392997
197.225255088851 26.4483944091098 -13.6374026483203
35.2704194767435 -5.52375543083209 19.7913013696604
186.848139087672 10.4013155812957 -24.257528401951
52.1551870743308 13.2887310741183 10.8196913026653
179.115557258358 -33.428058825886 -8.40244627760064
154.773350564428 -8.0038028455427 -9.11634044086006
-209.145635363014 5.92104350976606 1.48110392204621
183.508303689091 -34.3551861005855 -21.8466501034769
-90.8911901913198 3.35950457926086 13.2821545908533
-174.00577866655 -27.7205576836057 6.15227177084336
149.916858267881 6.70568098786724 -8.75368631340121
164.945377867641 24.434576934962 10.2616712317214
-217.40748891538 36.4388377358733 0.634765648853454
117.075452067603 11.739936800751 14.9123153392392
163.422019832636 -0.924549489725285 21.5235647742758
-199.636726911476 25.0329414940483 -18.6391557649511
177.392344188108 -16.8287728641986 26.412478163272
104.604605854646 -0.101264811488979 19.5786942610546
-203.781753820871 5.57079566529807 6.99448284457395
198.080096942443 19.1996753240407 -4.62586587068194
190.742058364426 -19.458702527277 12.7698290812329
161.870180134997 33.6335651495204 -18.8142114921373
-199.597348419529 38.0640690418233 17.7414575963925
-159.71351181166 -30.045595867537 -5.85536518955429
-183.274598250199 16.4308653377102 12.8819551746315
-96.5443416898345 6.26056707873115 3.14140336445459
168.891871498782 -5.98452421507084 24.9400920313237
187.485951245004 -7.67129401089781 12.7556617858801
185.633352213715 -4.2170480972286 -4.90771536371628
114.503324166908 -14.3218234722602 0.501609622970591
-141.127086484452 -19.2480725246623 -12.3532131124697
1.56090893596316 5.09632033181409 19.6073668473651
160.530167787448 32.2449385968182 -11.308869536854
183.154946295396 34.1391251966374 -11.05576894762
-161.292899437558 -9.03910700135364 -22.806422927911
167.392384183661 9.92321833212594 -20.1903347288811
162.896206463321 28.7578153242038 1.99191268004426
-179.832592118234 -33.2278443836021 -9.2709569923121
-167.101309191895 -6.48529235441414 -23.956726218166
163.542144302562 -14.7828555400489 -22.8250292326185
196.856851950603 24.1348666665095 -22.2381119920478
76.7728569745473 10.6656724809044 2.6897894693981
-188.397269349129 -15.3382420752455 -10.0442454098744
159.307159413757 7.41539077001995 16.3658605248226
115.763789437165 -3.79036113117906 -3.238133661894
