191.645731189666 30.9459157914279 -0.567176284449195
-121.690421683555 -21.9877731321242 -14.970000067758
122.903637726764 8.19647421722859 20.8218517813727
186.831148574771 -10.8421434228735 16.5828711435718
160.476548481294 -5.15164177474287 23.5437711199795
185.03893376899 -8.29712193437351 16.6397331915307
159.372271988701 26.8795799161196 -17.9939794578692
-130.088436925467 0.0678748470598005 -8.97236798962148
18.2023549686756 9.1468664704396 15.5903329305751
81.4466603499444 -2.80463971724057 0.550248742296981
-162.167515106959 -8.6962038736078 9.42602961061989
-205.363610641075 43.2484071300739 2.83183172571743
-137.077045135999 -20.3855996668857 -18.4948634332345
162.001357587158 14.2334347523351 19.5709486349341
-16.0997317098203 -1.68281851180775 3.01931402355845
-212.826346404862 20.8839312847751 -2.17250794796469
191.154429869569 5.55032606954721 -0.521849804793587
-183.103194964136 18.5828768240553 -14.0996941876476
-131.919443567316 2.77938162518551 -1.46202042305411
160.518454269848 12.6763097460253 19.6470680810018
-81.762035205839 3.24486792064669 3.34754205600804
70.0059257452248 5.7342109810434 4.80356399949536
176.211510137849 12.4737794420107 20.6453727342622
60.1882692789913 5.47120492145599 5.38236427853897
14.6396912652209 -11.8903823674937 8.2235841090601
-161.011258203271 14.6676860889428 1.13081396163908
-174.310621769323 -17.2914663968218 -26.9404317104524
-199.802228486073 7.38851463665687 13.8943457363085
111.496952676519 -13.9001574677325 4.20773437122365
-115.319957249842 -22.1362003828447 -12.4320371449662
82.4150235984527 -8.41989453217778 2.18716013960195
188.693534080664 4.61957404170943 8.70274456270057
-182.12504410087 2.69424995212503 13.0876026257191
-135.396371432678 -9.48287219565093 -23.3205105773871
-189.39674810027 2.64060559935187 -4.08843621554358
177.155798709187 -34.7196849634509 -16.3535164997141
183.8948168308 15.4279268224576 20.7963578044093
154.649779460632 25.7884489213638 -9.99483174783702
172.411720117823 23.3319633639695 16.4693912948745
161.613136586493 40.1130287980028 -9.32089462899282
156.298398026562 -20.6073140287654 -26.0642425504358
-4.13734961278805 -14.557365545174 23.2833755464558
-213.150014042689 28.8458328382928 -2.1938326678158
-121.206602979849 3.37967512193888 5.49373091691384
-189.690030203262 37.4212216958293 -18.4841851970367
-150.185805709679 7.55051581883222 -7.00610688750435
159.605786817884 34.250377730786 -15.199485260133
-181.57155481561 41.7668675425492 -13.7571477670181
-210.683740262448 25.7703684831004 14.0243509880809
-164.174918566882 16.3294063972965 3.28469723177327
134.617416045329 -16.5035603082452 16.2121362449801
-11.090391337703 -3.44860085903117 0.978387606643855
-189.565867554608 0.358922570450555 7.78405736714868
-84.1085971828998 -18.3722904193105 -5.88353373871033
-143.725340244274 8.18978575703727 -20.8284464134406
25.2695356660865 0.812269366315605 26.2309884222108
44.7229653566074 6.01756603610457 7.53263080918297
169.886532926367 24.1507451116928 15.283047091143
-134.495077859045 3.85283994910061 -27.4061842192742
-31.7040586680988 -7.1548645214845 24.4391395222772
174.088013591458 -17.8599253684505 -33.3293309191735
-152.413563458811 2.69136127722347 -16.7948637320329
-150.205501700375 -30.3955339036974 1.23164472197165
123.87448612693 14.4272421665411 15.8693942248254
192.356814694253 -24.3019102673048 -10.3065516193085
-178.033224300488 37.8100559991245 -12.942635248041
-52.5907645322694 -15.9053115662952 2.03380010001836
85.1277398107333 -14.7096652925872 17.0886861276034
31.1175442938811 -7.1291384199453 4.86696109192413
175.250607218328 41.0601629620576 -24.5342279219235
176.200664977962 41.6143627249314 -4.86194074191163
-174.961305331158 -29.3977284584216 8.22001135256846
191.144548818242 7.50573056391628 3.92937285521049
70.2119642467123 9.90071297847518 10.9920979154012
171.220845017244 -29.972066992907 10.5333589470122
186.040960221771 -20.1542645782037 20.7044162460978
181.167179011442 40.2619150339797 -4.8489433064726
180.958904264553 -28.7036117033073 10.3509505323763
-6.65488812293093 -7.36597588691328 26.4910170215398
-57.172143716889 -10.9092977565022 -2.80942820822905
-152.019505857674 -35.2400033721599 -7.24239687465669
167.193158872301 -15.0773731603691 27.5185776955654
167.837697399453 -36.3069975630582 -16.7594335787475
-178.535386157973 -34.0248872686996 3.24218109215985
182.843041513295 38.9220856055531 -30.691382690736
-87.5408992960177 2.26659544937412 2.11219789693862
-85.5756349357476 4.432190951327 6.67227295671667
20.9746766781649 8.9952558679255 14.3611364150198
187.368633184982 -20.7619311066337 19.0280178652307
-115.814643193992 -13.462645441757 -12.8393016300341
197.123729773918 32.8243612865104 -20.1298436485023
-157.886791739654 -31.3858089683832 -20.2970247948149
-173.064107680514 -15.3729761379103 -18.4966344406559
-128.877696856485 -19.2703576764833 -16.4187894236543
-91.1803695723639 -21.8985101471402 -5.05889315130074
128.200794822327 14.9883733137187 15.3706660734174
159.426721114819 -33.2481696942556 -14.7526735616681
-178.020312040606 44.7220409927099 12.1710927807089
147.804676757466 18.3876528205634 13.1185081213905
-35.4209269292848 -9.59049708499352 0.294864021985193
-189.255879718757 -18.4511138385896 2.83061018294014
159.739683863166 31.7291642136772 -16.0140909579287
134.219384697323 14.9725121736857 15.8408588917987
-179.623840060492 -5.04431735563165 12.7616257908399
-181.187717567137 -34.6753581062514 -12.8621790907717
182.881245403351 -10.2719094842272 20.040007472963
-148.262975686412 5.84792000659945 -20.5561496930842
76.4051143612804 -11.339802169322 24.2609436296944
163.133215222399 26.0684226956147 -29.4051201544075
74.889013298375 4.51776623569141 3.58060799936807
181.49409418471 41.050711295755 -12.6730808201003
-159.562673799959 -29.6409290882396 8.53633561469368
-2.0652109055948 -15.177891757663 22.6856019891692
-146.230302527653 5.24547127525651 -10.1188423946455
160.805137966299 7.84451168477657 -13.4109349248036
-82.1478591325604 2.77733607222389 11.8999699361817
-148.503633964504 5.63218169605688 -15.106206649061
165.746993858936 -28.154449466059 12.8875457696981
177.142627727164 -37.7788698554289 -11.8325700546006
162.077208411324 -34.6866038416561 -13.8189999033113
66.2385163876826 -9.0614931304259 4.6932174453269
-203.593162046515 20.4143835559343 -16.1972081260422
163.301300822018 18.0906040445386 18.2088035064132
150.827020509043 14.189910977482 -8.37380630577016
140.111818763337 12.0107458328516 18.5032317208658
-112.872282743082 -8.03463902309776 11.504400644518
88.747292126329 -14.1628797087928 9.57631946938952
-208.538861615745 16.9405046484457 14.3444998547082
-91.6630940914831 -14.4711113925571 -9.47854897546082
142.719650192883 -13.0547648921876 21.6896782162206
183.01973490593 10.1721438775661 -15.3688459299901
155.45825229153 15.9705231663433 -10.2658862857244
167.146948531114 15.972918824636 -30.4456761786074
-180.747306569362 -21.0931103132296 -26.2310605949989
98.9859430674341 13.2298875818909 11.7608188051269
150.97677941189 3.066423589451 20.9253904151435
-210.19569152819 38.0426189469267 -0.255952559100203
95.0869987210281 -1.83511654358187 26.0071701055578
180.234254156081 -24.5890972222489 21.6805443757838
-157.860592798367 -29.2575633939344 7.68459296208384
-124.808810850574 1.42526081139245 8.74486036427735
125.39707077188 -15.9362222486817 3.88571702105287
-163.568405664166 14.8941948527997 -5.70608969803887
-183.617979649359 49.3764517416436 0.792876697793048
-163.715894880148 -0.876611540119125 9.64377658526986
-100.415527369496 -26.2112089303341 2.58388914064098
153.657280399828 10.6392646767416 -9.53463714288599
-213.219343052022 25.0901050585511 8.01464839246881
197.021333436325 22.5800888710675 3.17238251689947
121.57917715484 -14.7003886904855 1.63876810881493
-179.782753843409 15.1928620210535 21.1750113113356
189.160031026759 -16.5439926281494 -17.7312881900057
140.884717918676 3.98410532135375 -3.8412977815029
-46.7184964236975 -16.4464563753511 4.20118743817431
-209.44671653124 34.1992247885606 13.4888641005792
188.995012756751 15.8707139328688 17.6144997000168
-213.231504306637 24.0085803666296 -2.55810614640069
161.958305634852 39.5518108139865 -17.3579427284721
-209.623549470501 39.1512486549363 2.09476108450786
173.933586875157 -4.04253458533528 22.1523284852052
34.3374085367223 -12.8434141808403 24.6139657201324
-139.38101476887 4.74262885620285 -15.7729902627621
-150.624759739888 8.06278708191064 4.00609024031866
124.355228381093 0.262037784479804 -1.9889531638921
117.620907635176 -11.8883265816905 22.1866939856245
-93.2633309344117 -21.6151145917725 9.20764822321052
-63.1517847048127 -16.2348057068874 18.136852414056
147.751897688647 -13.9543597621841 21.7110303435418
-173.547187731059 -15.6201385231302 -14.8890711965922
-49.4536271752503 -15.407813574097 2.52093799156706
134.35857223219 18.1674468667759 8.79920345744033
104.425553151163 14.0199887298073 13.4445461089102
-67.6383904283395 -1.91537186188053 18.6189818339953
-144.418019296253 -1.03845349849688 -28.3088524468438
154.196567488672 -18.0122374176383 -13.9012015785825
-22.6946664290616 -13.984632908542 23.1325070081308
41.6198989158979 9.85168829206201 18.4634304001365
-170.438835933758 -11.9919364648512 -17.2967776178979
-95.8663756975917 -20.3627014344871 10.0767365102407
-141.334141398745 -21.7329060661646 -19.5512430059649
194.038510603555 18.0902588962879 10.8602705460951
138.583972288309 3.93679006954008 21.4769396133726
-192.682951896577 49.1962142127402 -3.54752459941588
-59.358725587037 5.5294610804626 12.134227752634
-197.511219984396 18.8785739084336 -18.4418563466125
-105.420552260845 2.07068032044569 9.85799806890136
170.431716927837 -5.02961571815498 23.3908718762443
-153.149770634208 0.249454913922431 -18.5797715679829
14.8614994259661 8.25353081318015 19.5758686431379
193.063249799172 -15.1266615260224 1.22715211144793
-32.40106794273 5.98284294709053 8.15788273576258
182.842602691765 40.7139344005948 -16.4238200332915
-180.680410040392 47.0086053170808 -5.40322681898982
-177.611484925235 -35.356701268295 -17.0332935252296
-185.280155197042 31.4116546956241 -19.8284888501522
165.260718924186 -13.5035962855425 -29.600233714886
-124.86109827107 -26.1913245963166 -12.2826142978332
-107.785418034776 -18.1729647621494 -12.2424212485232
98.1007698548556 -0.49787933221234 25.5372039787222
-201.173617316569 37.97794647642 19.7842715344806
-152.210397813241 -31.0351441468793 -17.0493682669562
-158.697875021412 11.2227069883792 4.02460612290167
-185.459655058616 27.5281018154254 -18.6347932556946
121.110665665969 -1.75348414476515 -1.92903430723381
190.377213250941 -23.0716022758538 12.722198041445
70.0339719247927 4.35592817277379 3.29226089395847
-182.280531464642 27.9806205080633 -15.6655905357962
-211.662290199699 29.2595021810676 11.4736597541625
-54.4526891969238 -18.8960563055492 15.9264195322017
-148.404954111468 -32.1705671639574 -5.40350241723325
173.278926105143 -4.22593683350859 -16.5486154680647
127.676918073579 16.6424263760861 7.00996226858315
-130.306791670699 -21.5248980918333 -17.0634449771931
-202.605694504471 38.1599741701766 -13.3436482502361
-194.93456627856 47.6071279614698 -6.52556652866345
132.093820901425 -15.9490934484817 16.8011828277954
51.641712362147 -12.8022257305896 8.96306845886459
-17.3919630367995 1.65564011234086 24.0040091537228
167.018103605634 14.2190906100224 -20.9879526206611
125.021849604026 -0.465735036813137 23.845685794414
64.4777122566173 -8.08182276646308 26.45154119214
178.619055510851 32.0967288088437 6.69057066853054
0.140620029790224 -5.81772964814122 26.8441533105053
23.8307406424944 8.66166086707823 12.8510376514015
-137.086007287506 -4.54121792680466 -26.8940137825039
51.7734026663777 -13.9745184852672 22.2089456786247
154.744746039502 -25.3327764208739 2.87121135078782
148.484778004176 21.906211163573 6.72417318441954
157.679666007414 -27.3004748978231 2.64766425495361
17.9511157675138 2.47873410599919 25.4082048015402
-189.363450308821 -30.0390896656886 -6.90294749529503
-162.957134995985 -35.979536438246 6.04468050064078
-201.099328211167 45.8110924495573 1.04259031975854
189.502649149344 -27.6641770443172 7.85678958222274
-188.794930560839 9.88114072026596 -13.8207446121531
-43.7822987412093 -15.9813614012246 4.52368121547663
159.642784441443 20.3425866446244 -17.6125779343239
-196.617428863387 6.13364302341302 12.7857252113999
-138.097705979983 -27.7298915471821 -11.3673905009165
159.024697896059 -30.4818030309223 -19.7335739806492
-88.6857946064273 -10.4547589593167 -6.57723175108048
173.222404329488 3.6654035456803 -13.70893706868
-91.5238349748773 2.77516975955915 10.5779185786845
193.684977986456 12.151182469596 -8.0455861078203
-170.534240942107 -38.6030176889524 -8.05712635108739
-147.302617994064 -22.7341399333019 -21.3171075311607
193.712406572275 26.6207219674095 5.74637547672953
132.269876752263 -3.81999498490513 23.9257345768144
-173.47846968356 34.903072342519 -4.47160912976162
130.23124734967 -16.2378208918772 -0.284517377981374
108.834678023791 0.424723578012281 -0.441305220759869
190.422715320111 20.9144425433971 -29.2702037231429
185.702675811037 36.2589988184784 -3.66178651091546
55.0969376598021 8.97837259681887 21.0345915262186
-88.4015291118172 -22.6795820393416 8.23553179720396
-184.20427871673 -33.3277182846439 2.32521713171697
152.717261164429 25.4267446124592 -0.202859915548149
169.536947221312 7.03495710776884 20.5690515303198
-101.861791266847 -14.5422520169067 12.1849576911352
57.4924503640473 -4.69919830512179 1.48750324172304
-180.742607950759 -29.842314373943 7.15897303379644
180.696677631529 20.6974462921529 -35.4133280670072
-199.717092033535 45.6055292654016 -6.32981644714594
-146.210022556008 -30.8752251677296 -10.6113218166122
191.356046285277 -28.6686148392442 -9.97649000334447
125.344399362299 6.92378701361221 21.2344967572831
136.832206248418 -10.4742750645213 -4.91904666445284
-166.14811465788 -38.5562935171884 -10.1213591551286
177.787130307747 -4.93258593105883 -12.8878214750502
33.7592137911654 -6.93179450122132 4.6715409244227
-170.289432292481 -25.8650661947501 11.2343798980862
-198.734912300339 8.54990589174684 -7.11588923322791
-162.328940144648 14.7766995413864 2.90499591064953
-12.8470162475607 -3.87196846179422 26.0075104585248
-196.36476494072 39.5570049908555 -15.8465722096576
-82.0149947574689 -24.4481325619216 4.2383453461011
174.203580183749 7.78010876322467 -14.4756919942202
-175.440286799439 38.8353855415263 -7.60032101809936
150.568617203024 -3.96784043655082 22.7300192204774
-195.854678196371 7.57321194119669 16.5488339254007
112.725333280288 14.0184958603649 8.79610738368897
-206.865959238915 41.548732935677 8.11960462626441
-15.855854809308 7.45370521448319 10.8835813054874
-191.106866945465 2.86513393633559 -1.42524654647271
-156.563452071193 -36.202015317845 1.40163988785117
170.134823214779 1.43177262281163 21.2879044140402
1.17909654631172 -0.137250146318153 25.9245734633757
100.936252353022 10.152422210745 6.72401887197096
198.884343966011 29.5452512416918 -8.59980364580101
155.421095420584 24.8198969039168 6.71951916184659
136.131660279636 13.8099403572695 -1.49454252843563
137.306667906618 -18.2827714762933 -0.478323522005917
-187.536131069145 -27.7158167538068 -15.8434706660731
170.406136323926 6.38707009441261 -15.3272978097525
140.241044189743 -18.4816148008312 12.8202304041018
-198.265714795276 45.5505303593241 -8.04333224504153
184.943389937331 13.7249566053276 -22.8502463304666
143.031847371053 -17.496037288918 -5.26090607861511
-86.7798367442338 -6.57287332693817 16.6019846147008
-29.5717030206038 -5.93581142161311 -1.02072410716026
-90.7604853501274 -15.9648502427464 13.889541449166
177.827688358718 36.3166069358897 -35.3056680469535
-167.323092174608 -33.3450782179457 6.53426887786965
143.880262101613 -19.5176306401747 -2.42589646557298
-189.717976749991 -22.5438828637036 -15.72554484485
166.414540896465 -30.3640974367898 8.13237428962536
119.304164781566 -7.02152273376252 -1.92904385983421
-107.148482489903 -23.1036685117578 -8.07100703438843
-128.572497796214 3.4855668188465 1.81571127123312
-87.0804339169842 -25.3519056178307 1.82539074384097
-210.192695594209 38.2225099705818 4.28825328292976
12.8491953658126 -16.6222830528007 19.1931869690778
-133.223854925308 -21.7134032781973 5.95858514706398
-80.7761754791536 -4.74485290619014 17.4085941204259
18.3933687634815 -15.2760277183971 22.450297757271
-150.301987965074 6.3855078031675 -11.3640951676371
-208.707227834948 39.611152160227 7.77518019643101
-172.761981262595 3.83988782220701 -12.0154748771262
161.698286664598 -30.4655216902588 2.80535022112539
157.061847010138 8.98342421100566 -10.5787324741991
-81.7618432631228 -18.4355984073258 13.7225033308361
-133.738200145964 -20.1017271202904 -17.2023468167162
-178.029559241227 -37.0224295610177 -3.45702039522731
143.411192709062 -20.4435195602957 3.11895660639363
157.938607610247 31.3268158995971 -3.85212698667868
-183.490909084755 -13.1068995566111 -16.0061563326968
48.1565336524738 -3.75104968600045 1.20688316509938
-194.40436941734 32.3150341451344 -20.0455577606079
-150.283477884739 -17.5230275112802 -24.9830164799757
140.685139005276 -1.08449870876105 22.6577029147843
175.672114144724 35.2220525648437 3.74417764804024
-183.099537643593 -16.0113674050848 12.955405716653
172.819668913448 14.3749031890185 20.1299501178033
-188.631628345955 2.25464521283578 -5.86353923963829
-207.746557363082 25.8512540600524 -13.4032857191983
-175.876727472892 -10.1879794142121 -10.6138855816924
159.037474749851 -26.9410268411684 -27.8235817965454
180.3352375059 40.9776342983538 -14.3980488072253
87.7858315535408 0.967263242460679 25.6399114881628
-81.5030670516723 -21.2313414500737 -2.71801346477435
185.865699550555 3.0129493622848 12.2704032810263
-177.991649181319 -37.0816912499367 -1.07875644259088
-189.508533807576 0.0548356912736841 2.05389129823641
-118.39956726946 -22.8985073383423 -13.3588394678051
-175.847903346876 45.9496915844762 1.17567425712299
-6.6011079673457 1.51885537092632 24.8393624852635
-43.1007818370976 -9.55851736410482 23.1858611573367
-107.387228513993 -12.5408809491324 11.8452962108462
162.208512504286 -27.6051286913446 -30.0300366240227
187.460082427683 -22.5925152915021 -24.4336228982202
-17.7706338066193 -16.6016157866916 20.8968250524272
-179.347680717572 -10.7231550083323 -9.34479787183788
-163.915363108263 -29.3526642357374 -22.8930609931159
-196.467508354867 46.6921746627372 5.31270822401995
-83.881451501311 -13.7179268439718 16.1154497203871
52.8667354240972 8.62860625353928 11.0752498333766
146.178982026593 12.4941073297039 -6.26467822520033
189.945722374545 5.26493226082405 6.04411266964694
-171.172789760926 12.7227929091626 10.5553558406008
116.482272087237 14.5846573956472 8.49813908315602
-53.8003478650231 6.22170652933311 9.54507357617839
152.524366059786 24.010628858698 -8.23074578650982
-173.549714913924 -19.39526604281 13.0208653233795
-206.060353488713 9.04834165344767 -1.37324560448715
-177.016947075266 42.7291244158848 -9.31455671760618
-78.1642254749874 4.94454786835473 7.21889253841474
-172.433178715279 -13.6447437153935 -22.8215134684969
-198.716813315038 37.2545561496416 -16.5029566477684
45.7439758130674 -8.34285861735569 5.45277379682651
92.4502479027724 -2.10774518131473 0.104010646573975
-99.8256993843714 -23.0414957543419 7.44769739823003
191.493412691509 24.8508828322042 -29.3858770542106
-192.832768245182 2.89014121225059 3.13158470093268
-38.4287018615925 -6.11117991851655 -0.875757257204825
-161.697639025051 -17.246334148056 8.51368610554009
-41.1035936586328 -15.7183525452796 4.91292021527666
-182.926976947501 38.7777075583188 -16.6388477807401
-69.9623900719392 -4.25133232505086 -0.950600903979671
169.816051988965 12.7463755591229 -19.0690558233049
-209.530644182934 38.2047131586309 -2.92089780942864
-205.745214303504 11.1873655330109 -6.66682458335192
-130.883061939994 -9.6313779865741 -20.5178639819848
112.033048179213 -10.3311020639228 -1.4842582641959
-185.716835646328 -14.429705215084 -11.0961864409367
151.490965460447 25.5909556530594 -5.31161107320953
5.47615938538042 -4.01960152927304 26.9062921951659
142.007705576384 -5.99281693687815 23.4982163131486
-132.087127126081 -11.3363126354845 8.07734222554238
-30.8239757771093 -18.1817962035963 10.9372347175125
-192.947148849346 45.3388331164642 -11.0684839804494
-14.0607197889514 8.16235750760251 15.5391739700426
191.701399186166 18.5252141500781 -26.0958268375598
183.278603019961 -12.8752622631128 -25.3859849150407
-65.2110438087214 -13.5417850517436 -2.74746462741706
158.128978522768 30.2538250032077 -15.1820207138699
-67.4605745050763 -14.280323585447 -2.90703408183979
159.920770252737 -2.53486828634722 22.5277820348974
110.354043108697 -7.08051105015354 -1.09372871016474
170.786715132313 30.4408865655485 -35.3509272673813
192.517343808342 -24.4490828094701 5.69853569723551
76.9482934094041 -12.9125933970451 7.86945176678996
174.297221136735 25.2810768628136 14.4185339014527
-201.855247725017 30.9365277428289 -17.4198540989371
54.5050944970644 -3.31700667496473 1.30740729065477
-177.814098876072 27.7696702616626 -10.3509674202738
163.359826150475 29.4695183785496 7.15929150271187
-202.721563619837 40.8516707220325 -10.7364756905567
-204.894017314125 23.4071078023704 -15.7635529783406
-91.1070014468842 -24.7446702110771 5.23736943828986
-174.143166849064 35.8876235692202 -3.32483325794598
-92.0696500499452 -12.5221800631544 14.8364761283963
-210.795523239433 23.7598917380005 13.7197656013085
189.003098058954 1.47616800847958 -2.66460271881035
182.743117986548 8.89574782960918 -13.7895450425085
-22.7202123204992 0.7691058614991 23.9627981106426
120.645608674919 -15.5313266455742 7.01410870699603
-188.228323093194 42.805335083678 19.6913039007995
-149.384086664612 8.05368490252485 -0.367552432976629
-113.88777461394 -19.5484624515322 -14.1721504313116
-204.420153900999 40.7089142014987 -9.06509381603302
23.4836116864023 -8.22520011921786 27.0503705020942
-144.444367628976 5.48485304151686 -3.59411661495989
-122.149919317852 -1.76807091371806 -8.14552642799952
193.710640421124 -18.4606336236402 0.890779747099048
-190.447104000872 35.6211751585249 -19.407125562377
-32.1275271544717 -12.3181477307498 3.74131750280597
156.093458112626 -17.6380452124019 -22.8591211348397
-170.908830457055 -19.0313124891295 11.7754364314149
-170.446592618979 -38.7946485731043 -1.13751616520391
-175.796982513614 -30.7073563326637 6.14987890663944
-18.027488358546 -15.3417987766413 9.09133764034214
68.8554441539755 9.32793321481309 21.0326987207435
182.5355575223 -31.8528710350751 -0.56098336960265
165.470937588854 43.6877099935396 -15.1608042175058
-143.823446856694 -26.9654687394576 2.96236628046973
128.09288067428 -16.7898749429995 8.4803729033247
191.058062223216 29.1152880624859 3.65396168197864
111.487439465051 -2.57030334745491 25.244190719866
-189.18696369096 -24.4621669385389 -14.8858361377512
62.5475754574383 9.27158153866735 11.0997154531021
171.716642142733 32.3678018635438 6.68935373134271
2.72911749017915 6.76636180111108 9.33663274377368
-113.969598157877 -15.1120445881588 -12.3595734625874
187.627517985414 10.131333762297 -14.0154623746206
-119.67204886182 -15.9642610027148 9.05907041505311
-183.418821335388 -11.4285069801833 -10.0773325520274
-194.975159303795 48.3225749050569 8.74148768400944
-97.7622101393656 -4.21483152415028 14.0082492252512
138.184100796969 -15.6895221294199 18.475799946975
28.4973252573764 1.5237262091514 26.0870062256582
-193.417831106706 46.3738532199078 14.5763208127782
171.776134271329 42.346354502759 -16.0654478006536
79.093986091715 -7.56699154302359 26.3469882276649
-155.779497464206 6.68171755083224 6.66058943252246
185.356102143484 24.3137895984566 11.9995260400774
-170.671687179065 2.37746653318421 9.49875852366492
-97.6089646183711 0.271588253227136 -0.98128668575962
152.672108894741 -24.3810208269446 1.71855414390702
84.9695764205263 -9.26884975106508 2.5496687353359
122.818990497117 -2.32488549086119 -2.17301837838492
185.139404062156 15.4548481774016 -30.0605322479582
-183.023325939194 -8.33143365268866 -6.62699645140128
-68.1943827761524 1.14876803538381 2.1071621329857
-109.502684310217 -0.668009879218052 10.848155033971
157.010949729643 0.526877555949262 -10.6620691141765
166.582591347223 -37.6203310782183 -13.180915797579
173.524197344531 -15.728718962763 -32.4915471317309
160.624333060952 27.3563168990483 7.84110566063441
171.154864003794 -35.3837032206354 -2.15671898803653
152.617295945816 -25.0771635075903 -5.50730082137111
-155.574924901402 -20.8376431939058 7.60659983983425
-182.117057825933 -13.875890891804 -15.0625253994267
-47.2596019256178 6.33355087596578 9.23133380890665
-166.295458860301 -4.11531256952195 10.4067962519951
-109.648289081902 -27.0517981828866 0.872474282002054
176.84892293454 -8.37206902383802 22.4318509217188
192.937785910115 34.7249668961648 -12.1805966094021
196.764100519427 23.8134759048333 -19.4954940494551
-147.096499680216 5.93595484898033 -16.5643406922911
-185.640440397855 -13.3125991675349 -4.13930786465601
-19.2842751814045 6.55870013198378 19.15726072987
-114.160441446128 -17.6946290002321 -13.4432902037629
168.54021861452 31.3097258302285 -34.0955622365847
162.362576134936 15.3637172626499 -18.9120131610151
179.632784728486 -34.5180922325128 -14.7196405229491
173.456770390117 -29.6555093981476 11.0258137499949
-195.537457298279 39.1504557954205 21.8550252834582
-94.6113645827051 -6.80461864079084 -6.69841706085303
170.674353820002 -6.78259065453865 -21.705124102786
189.02225546809 38.4276241893828 -22.6657395473574
87.4546527843065 -14.3253333146737 18.9915243660802
-185.926828257608 38.7794064538844 22.4551304635109
-182.671695474677 -27.6279554343869 -23.8680084608899
160.531864744369 -6.54692527369252 -16.850306607668
157.330944232102 29.054248185983 -0.124632304690599
-171.135588598715 38.3202365370837 7.56670902860104
-178.574486621601 -23.1292263240616 -26.0248546079928
165.277730302825 37.927033693154 -24.5530227737744
137.015365106861 -9.40346999056303 23.2624957102347
-192.232056291473 2.97618305886501 0.90863377259054
-10.9054925177379 -17.7024549539278 15.430820829462
100.161386675586 -11.5360623027202 23.2306121280474
-5.67954636610535 -2.98321988947615 1.26235225785129
174.472233315478 38.0742929439637 -0.222808529716517
145.209238010471 -19.4341085536417 -4.37917770465339
-188.337819897019 -16.7558931367423 -2.74868925249523
-6.21539596435968 -13.9215022440246 23.8038404511949
168.5034399509 -37.3482556985648 -6.47791204124502
-188.855233830316 -17.4750247726932 0.147319099894508
-129.064796628963 -27.8793878102154 -5.5377365776377
141.739559269331 5.25694268752506 20.9074379199343
187.060207822873 22.6109622740779 -33.0282876425389
73.9676081438287 -2.48581242565665 0.919866290071886
-180.558093493896 -13.879538637152 -15.2020623782201
140.786272621331 6.75951665949829 20.5963757100316
157.980444100066 30.0970338811023 -1.23839490534864
175.128170187291 40.8238648905792 -21.2384887315206
181.137622065029 -19.9445417337366 -31.372350328106
182.649694876142 -32.2546824238679 -2.23114157561821
162.686906405891 23.7537474936209 -28.7481786011371
25.0516646792228 -14.0129605241036 23.7592193006043
-174.57524750668 32.2619541745706 -6.27038059655922
-12.9869153394736 -6.40222302998009 26.2228634209157
-211.049053294649 28.8143559708966 13.0547998376993
160.236863045567 17.8704255018941 -18.0158379979922
-172.306610651851 -25.573282211149 11.6021461935501
184.490129494259 -28.5128377398202 8.59196308477713
181.061372560455 -34.6467218529887 -6.65676891150069
144.206237424439 20.5669538765407 0.778798849938484
-142.034631923756 -6.37765099300821 -26.9372354499266
-131.09875033775 -14.7431830150262 -18.2264533634553
-37.94658990371 0.962744492737219 3.86387945387221
-213.64396833206 28.3860758227057 4.53669635383581
-189.941639954032 -21.0331389112735 -17.1535037530686
-128.265851457859 -10.5131163504128 -18.535076025775
-185.212677623855 49.7521496993411 5.10580076468714
174.126073283452 -33.4758703781557 -23.3593279963871
-141.174228808749 -23.5197771522832 -17.9392499441957
-31.8159687673563 3.00188377875173 21.5108321433942
146.237098803577 -1.60385705824917 -6.1163113689529
-158.408624091053 -7.20452185174246 -21.1751290051983
-205.743813452089 13.7935047408174 -10.1016265737715
-190.69376566811 -20.727003003889 -14.1911594475931
-129.471243826867 -2.13451744142823 9.28458155412232
191.430336118992 -26.2427377210687 7.36767209754178
168.36399296938 -33.1338482251091 2.38880953914924
158.779851535191 19.9170950632068 15.040247529103
-152.432932961865 8.77045438669699 -3.51645749956547
-169.793430220325 -14.2703603172778 12.3529838730662
193.387955848805 19.5370691230052 11.2263789924931
-202.554097708593 6.39725532393688 8.09578565631755
34.0528460901904 -4.88023512849552 1.75767104408087
-94.462570352425 -13.1725116015949 -8.10253763206211
196.664218360261 35.0073538151042 -17.482166307353
-176.741956848175 -15.1916117548208 -13.4548908600257
-177.867382851204 35.9393204917283 20.7263045418482
-205.949351561621 42.8583868316034 4.31723589392722
-129.462010354492 -0.188895616015162 -14.3341883465387
152.222855816375 -14.0723388721421 22.7299388428188
114.637945883632 7.35267986595462 1.91473473729859
-91.5545806672333 -3.32036184788332 -3.45938171259209
167.374217880197 33.6032719798116 -33.1001814600153
-118.639339306616 -1.5450884929106 -6.603520080872
163.380978233222 -25.3532349291437 17.195759024532
173.849036231546 42.0109176429626 -17.0528182586576
136.104110484925 -3.17918031935523 -4.17553640384218
179.182112617699 40.6458296395666 -20.5692973780885
-114.948320062408 -9.22867079530683 11.0600628424981
-98.870574138421 0.0661798690946693 11.997118264126
174.188499661281 28.5632291544615 -36.3946074994815
186.312788532841 3.09818163131806 -7.58322016336263
164.209461957653 -17.4629470220116 26.6458556063596
192.894210488098 -23.6283897271065 -5.4536961123883
63.249944000839 -12.8375539800524 8.51429944995455
169.582407919476 -30.1725074618763 9.39876198470285
-183.437511994532 32.8507605754884 -18.6277554148418
104.717165029733 -14.855841737631 12.4257455175174
-164.322753548446 -20.5654607221678 8.73072110343624
-179.397456861838 29.2743590325371 -13.1320064698447
-48.8666746108848 -2.16626803958328 1.71273314119484
85.5846163344468 -6.96480129927011 26.29130150353
163.782863320535 -32.2830956533307 0.0932299004752785
-211.506131348097 29.7039958946554 -6.71693290056116
189.05271924078 -31.8797772042033 -18.7371809147966
3.79859501499105 -15.7260127687603 22.0290608623414
-170.252393935368 34.4325258006488 6.55721443448811
-192.471983659905 27.9167066329502 -21.0531750933565
-138.182340642324 -11.2586975802104 7.22103584483405
-185.61341532793 -31.0780470378872 -15.4058298669641
192.087950662185 -12.2907030230882 4.85562060160731
162.829328641915 28.0091486031604 8.50914763453553
-145.277060364145 -5.86510197248746 -26.89019683967
162.451286229803 32.3188852021586 -21.9770412834599
162.839327809406 -34.8012629274798 -5.61967167812312
82.8428858340524 -10.2599955206488 3.87459532049791
170.195395450212 42.336243391253 -12.1320138279725
-178.435944582639 -2.67861320098377 -11.0724145237546
166.347805379398 1.27752845945616 21.9601391366445
189.538127944397 22.3022136148297 -30.8284487948811
186.643473420183 29.6665951625254 -34.0159055351613
111.170909292042 11.3140040971732 19.2389789379833
78.5821045068048 -3.48745462905916 26.8134557869159
-192.084212970662 -23.3448201641744 -9.39847221524296
158.011420557821 6.39252301260542 20.4037020536099
-161.50084366783 0.329311610986404 -14.378896214997
-42.4695574286855 -9.80417311820481 -1.00584739194389
180.612579948609 -21.3638241232888 24.8319247732897
173.239189361268 -35.4421758051765 -2.63636679582323
-106.257277910649 -8.59455378991987 -8.81930660453236
189.100979597428 -0.600559493644094 -0.950937709759263
195.468976428505 14.3746304891517 -5.83737553108956
180.19780819907 -13.4789283055299 -28.7483209965839
71.9869408887591 7.19501505437235 22.9929981765432
159.918986162662 -20.7664358634178 -29.4348895811444
155.007354460001 -1.12790138963245 22.010714831765
-150.486397467418 -1.41991401398485 -24.6213551589546
-180.581427602558 -26.0346236760331 9.70941410215384
-55.5221556296434 5.36218688909645 6.82967913536547
145.27455515676 -5.61750020323562 -6.69392241114008
22.5343209271196 7.90757119834473 21.1485856981942
8.14888295993938 8.60382435176289 18.0412205267225
-161.125363236568 -10.3662007570247 9.06671078701121
159.245973525043 38.9326603539044 -8.96903722018021
-213.226960085306 20.3956815084658 1.28067141991713
-189.606027792346 17.9319554585138 -16.6565820660563
-10.6723251632313 -17.0554920989676 19.8780280964513
-170.37844860475 27.9805162902739 3.89362214322248
165.445408229644 15.5146384873654 -29.3420281797222
-154.107852810449 -33.2761109141968 -16.1788489350307
-172.603969493053 -15.9514382361165 -26.6426495753851
-173.853195964107 -38.1274168286214 -3.78091905286185
75.083876163544 -0.572800706853285 26.3813827745513
123.865246614635 -14.8122307342015 18.0986221764153
-160.03550963909 14.1043978936393 -1.46344202723071
178.231263608767 16.1716733048689 -33.4719884973078
-125.541200113499 -19.3935078996353 -17.996604056248
-188.008678806791 48.2001626673808 -6.28647970538102
108.421964556556 5.19302667974786 1.48890491712721
-80.0901499507253 -22.0096222387683 9.40376775094875
-88.3740104788736 -3.58457437320187 -3.1690181839656
-135.719313006568 -18.4411146129831 -18.7823195669761
-207.238190117513 22.4702433908503 18.4785332545668
-113.812424048129 -23.731803894663 -10.3380088111317
195.915332030323 33.8571541749075 -23.1150549289495
-169.794145298579 5.34460776990599 -11.7018325962948
187.680921448963 20.0766663321837 16.175999788299
183.230209356001 12.4071639217918 20.9888454169974
-159.284305348444 12.9186675122252 2.09214323092456
139.832514345232 -15.6736621895637 18.7547379551105
-157.13008158285 2.64442007148736 8.11731591143609
-204.484488773044 29.309944980536 -15.9529362954508
15.218330029208 -5.88271088005982 1.14731101694521
-130.155665241632 -18.4094372016053 -16.6300733439927
-172.851942499063 -14.4573323212932 -25.1155407583576
194.858185753406 29.8431480956575 -25.2488488533939
110.151732368264 -15.0092343008396 14.3734806276142
169.824740976377 10.8611358870022 -17.0991647489366
-57.6873246353466 -2.08774490531234 1.15428082490889
140.756305331303 -19.5422315798456 6.79749754959945
-175.422213251153 -20.8575850939805 12.9614365524199
-166.575139753355 11.8231283647854 8.00242445050227
-1.56273432752735 8.59837745685405 16.7209809132012
-169.536104740054 -3.10306576683619 -13.3844736190939
73.8288768351801 2.5212759679098 2.34789770366643
153.252714331576 24.602154376584 4.28805223217981
181.780473435431 -11.6787172696342 21.6831102215249
49.620573293487 7.06502596738307 8.69919154196223
-164.060899559096 -7.87811689618665 9.95214797360285
-183.304633957206 16.4915884104231 -13.6653560121786
-195.467939724878 47.6251964090755 6.76706076925529
140.502884594168 11.6850335040808 -3.64380193628124
166.097287179486 22.8368723917765 15.549956446556
162.237052566734 -18.4605833923734 25.5411361619646
27.9911322752013 -13.0980723736352 24.5201168099908
189.26792437282 -25.127252603086 -21.1138917837905
129.106016079906 12.057752455905 0.804937993271872
-212.090166710613 31.9347497108304 -3.69921207244456
189.048367969347 11.3910442224384 -15.1966153063564
193.421036874912 33.8397232813843 -27.4690059335963
109.205922296354 3.09308867480409 0.268978581627525
96.9615287906566 -4.49030130210459 26.2402435807446
165.765777584124 10.4600369382006 -17.5988473757041
-186.81075584774 46.5330032613479 14.923064428008
133.019844650206 -17.5508896109745 9.82213373801267
-127.825221571044 1.32350411279806 -4.69348571579051
-173.831265668802 -9.06692606867493 14.0425431818363
-132.249747563253 -26.7838350893645 -12.0758434904496
-184.167062354081 -10.5046461040037 -5.40560411958825
-106.662758441428 -26.5488532803061 2.0447675801043
-54.6786618141944 -18.194625882475 3.34637721603262
-157.162793108171 -8.0301273978082 -24.5324600104608
-17.8664120009745 -12.9152673640011 23.9759936613556
-182.787576599333 -22.340969653247 11.4363196735666
143.157898252061 -7.86864868327829 23.4451595010802
-188.263502519252 -0.822809522986969 4.2804506699614
181.965299132126 -36.3958952938593 -21.1508085517439
-80.2345680946511 -17.4966661853543 -4.53236790364605
-134.433685328308 -8.31061663086154 7.96734882288252
179.983210444349 12.5661488606313 -28.4603906434603
184.958295115161 4.89198046077562 -9.29772270564272
-153.933088784286 -27.1508380736672 -21.2092608395924
-38.9296441603159 -9.21650480608962 23.5818480680668
152.612898680825 26.1601493303185 -6.30258652153587
-190.435398062782 6.37163426391593 -8.89595646877294
-195.253076986533 22.1623636894352 25.4931451900312
-175.787081097476 -36.4225837675308 1.85132112243262
191.906342823525 -19.8895815112903 -11.2899984825692
143.249140681739 -20.2534282265165 6.91510785461454
157.855734220863 32.8371533262845 -6.18108176080587
-168.490130304415 -9.37582325376104 -16.6709199095715
39.3029770011237 1.80355238794873 3.25587966987571
174.712104700666 -11.1556384276871 -26.6614010558118
-143.583686042357 -19.9915297338912 6.87264486882576
156.118083447429 -1.50000498141377 -10.6019718476196
164.855047859053 -33.2683019819859 -1.00123187859281
104.932421322844 -2.1762364879165 -0.551433326067076
172.652746408875 14.6933707150367 -22.4823203923434
130.404489641972 17.4033301172896 8.13747042180906
-185.316358140972 -11.5798166067942 8.86465996704225
187.441425171775 -15.3357436698458 -20.4701379101407
-153.598605160103 -34.6979331150368 -14.15058642204
168.35891307447 -5.34112797196711 23.7710028917518
62.7842974399823 10.8056769201439 17.4984170565842
172.841320390284 -10.8697124933611 -26.7507033197483
162.1143926179 16.0099253990351 -21.1100896558498
-188.07581334648 -22.7546132285908 7.65675433538745
-177.139237785166 18.3428625638703 -10.4328171016345
-126.647997902787 -1.55953499738766 -11.3231879646232
144.65630764687 -17.4725730183449 17.2962443601013
-153.543045604845 -24.8222608693295 -22.5758203678565
-34.5410137958967 6.2764462545938 17.2429479401855
186.131341501276 36.8046233970601 -5.8352730261283
-213.165346174346 27.0306771386581 -2.96440819335571
-118.326355159474 -13.3748064066262 9.83128838193301
-186.107835948903 19.8372816434737 -15.7049144485163
115.889661699596 10.3382904160754 3.83047973090821
183.77577172912 -36.603312283018 -22.9551483996937
186.491920239366 11.833398766193 -16.5165507701478
187.219066630435 10.1087725898142 16.7988997577729
-155.234753551063 3.39221369501797 7.67635129441543
138.897733181531 -16.2936902138269 -4.20877033610743
113.362952512213 5.31877545268946 0.819475747313674
149.216059027875 15.0137386169556 -7.66651332666794
187.283921873021 -13.9996136193048 -19.3197677068818
-160.186976175034 -8.77013679920669 -23.4423714419565
-185.098110435359 -4.26055512404536 10.7685424765443
37.7700243210377 -15.0771487584282 21.2278604330403
-211.700293676644 35.634576266714 2.43919349567131
164.132647613924 20.7768786979441 -30.0284518335208
187.582915075077 -29.7221432277629 -1.48176744060512
-175.753744331486 -8.44102997001398 -11.5817820799819
-209.449674097677 27.6993805111823 -11.0482509252884
-142.538958814946 5.17213826918442 -14.7854676969191
161.080201424448 0.0782331702541882 -14.3288919416059
149.754937247991 21.916806504448 7.72779935112806
193.109626546122 14.54353837874 -18.0427311349747
-162.435335895162 -19.6585431881988 8.45459525350823
-154.231372593411 -0.363929175024089 8.22178522629675
-177.48853304658 -9.32657239422409 -8.90258546393186
-177.281486647316 -19.4459113235789 -26.7344324668751
178.02892026097 40.5213285288135 -4.56217481705423
-200.449945602457 38.2101708373912 -14.8236098578942
-183.712596155286 25.2555528446708 -15.9873261219543
-186.32858494334 -13.1551715558669 -1.16128361788628
149.83752646422 6.86300229503288 -6.56336961623315
-177.031947298136 32.3852321424878 -10.2406700487836
-157.122383030938 -13.0204841289181 7.72058577564728
-185.70119586338 -30.0053111686864 -18.0808932003155
-84.6803332438582 -24.8577465879143 3.34864431191799
159.295013770476 -25.779356619283 12.7711446877864
43.8821834469694 -1.11253659807376 26.6842144239309
158.078744302175 -24.5982267565422 13.8442820124152
153.930355348833 -15.8973681758966 -13.808288729906
-186.342608909654 -14.0425629858413 -2.19608429901356
-17.8082368844071 5.0514769746596 7.26014228400866
-175.199856499883 -30.7302845398702 -21.5271809528799
181.696828008194 25.0778405839028 12.8929520564791
190.207030584164 -15.5722282671622 14.1256586837913
-162.249617408224 1.87300481319848 8.84743821401328
114.526161464433 4.90791293372869 22.6743720979273
188.279149263203 20.0076980647587 -31.1951324056879
187.425482623676 16.7116350419669 18.4902422231213
-211.180156375314 15.4455830447211 0.0744085641571773
-86.7299966502314 -24.7001801104843 4.68986123123302
-181.380684487757 34.0558840520737 23.6437216710618
186.252270682013 27.5338899851695 7.66508754502497
151.532029588865 24.2013463855843 -7.53684540964268
112.398237893412 -1.06678111326203 -0.992180105326248
-21.3994748311006 1.59149482997913 4.72854859021832
-126.264705023968 -26.3070407928384 -9.45699263932019
136.671600660721 18.2414767477147 10.1292834508919
169.656183456952 34.4178106813602 -34.6320338610247
-172.285381015784 32.0471087566407 -2.41486255722983
131.764060109019 12.8995045725466 17.9213151559976
169.225332710238 -33.6718545908924 -20.4231996949515
-155.848520942308 -5.05739089493362 -21.2070150311157
-86.2585374135052 -15.5932614481503 14.9754338312325
-171.264719436955 38.6789305738242 1.5216470231858
-74.0602348308952 -23.1809959864069 2.40315088708339
174.466296879605 -31.1742359746345 7.50190588831135
-188.510050137476 -16.5328146171626 -9.32788632688462
155.750527633781 -13.7201553581737 -15.1799157457332
194.322533543832 15.5965502990609 -17.5311761201556
170.426972234278 -33.9951836008714 0.636939129883701
132.219135744596 -16.3057737388941 -1.90806284503339
-210.809051837354 14.3395769819937 3.12627086169982
-150.226912361111 -29.1091965309269 3.04514282492291
180.833530847516 37.4637387736757 -2.06527583330987
163.031709252163 32.8641232608409 3.42957706717907
-73.327994134745 -16.8257549055145 16.3476894482239
-184.924930029781 -12.5627124487049 -7.19242169363274
156.119631214696 -30.4837053089997 -9.09893263944404
-72.4542089138614 -8.80909271499396 19.2040354124604
168.986560368093 16.7509617419246 -31.9347050133696
-185.299194461907 -32.4923790816112 -13.4291260226684
-70.659319792234 -22.1933100480249 8.84554723030933
-179.16593677288 38.8903807075125 -14.2954454513674
166.141114057885 35.6854556483074 -31.9568751119555
-184.388116558602 -13.593458395411 9.99187939894717
-177.460444871844 -21.416687960443 13.4087274069047
156.389943225565 -16.3744683278775 -20.5881767483069
170.248796586822 11.5866644368618 20.774285995552
-198.041895692529 40.9461897566154 -13.9900256763278
-153.075621953684 -37.059935406314 -6.88342671975006
172.654724354853 -25.9065542438937 17.9906580435609
-2.86658464908998 -16.7338585525504 13.826267502083
-198.02999294843 46.5704169953232 10.915948199873
-72.9570167003259 -13.9848918613261 -4.80977204101707
-160.868458915081 -3.71866317818858 9.2188973354707
-171.8413457115 -37.1232217207814 2.40517009081469
63.4238846699762 -13.0972412351933 22.968493398293
183.572674804819 35.4610215774586 -0.728240206714587
175.182729027539 19.8143455199515 18.7074410724338
-37.7240080232868 -5.63667353294279 23.8496148929963
-167.560380429242 -15.3272814354919 -27.0702690238828
-131.970185050518 5.37423307046725 -22.3205788494275
-203.463389174463 16.7166731666901 19.891977957788
-147.537860238687 -14.8539496582374 -24.6217704803108
182.581547491725 13.6487048850743 -24.3377252304933
60.6910892671478 10.252174012458 13.5680703618404
-12.0189590612448 -9.3966179093033 25.8342277452119
-18.017441594179 -3.0226375864199 25.5365125994748
-160.064316778658 -31.4380157278124 -20.9352792179494
-22.1004463524889 5.41720346020768 7.69795116058454
-177.282544089738 37.5058061681764 -11.2632856482545
184.021953115398 40.5849549439349 -12.7916546917434
148.952936086721 -22.4992778818617 0.566106104381191
176.589225837813 -23.4229250981643 24.3248997061509
-86.2069038692706 -12.2202138578259 -7.04600416722937
-207.174499059071 10.5911268392165 9.1857265021598
188.811436445586 -3.95180370816266 5.60410247956869
136.24168377989 -14.2836942479575 20.0957455747579
171.567333025952 38.7045867131355 -0.732084616921935
187.521475228461 8.40823428403558 -11.8244368388186
-206.493668716474 25.4925517896595 -14.6128306958233
178.737425883677 -34.0345597184351 -20.4095667324884
-159.842421061884 -24.7291346318762 -25.7007835215884
-159.297326775709 -36.3669762703959 5.228546624976
-190.514183471798 30.9124194594215 26.1328019551763
156.965636114618 8.15086179605586 20.0460638634852
-211.508440679299 33.7374631923781 -3.71224059373892
20.5127408566115 -6.39624082691702 3.17483044297714
196.484522721146 17.7095511269916 -12.5097048987069
196.26714254429 18.1566659034396 -15.1631720775392
-147.983761100551 -21.4076217001758 6.78992736091216
-88.581471911562 -9.35524042797915 16.2163233177825
137.783259223219 17.0434736718538 1.20685771479015
-178.679578014303 26.4288677024731 -11.0362738596278
152.030049599626 -23.0830531274198 8.98265480652466
-11.3696309158725 6.58640304116201 20.324799079043
166.854618029757 -35.9169324206905 -4.2154621132689
170.306528323276 41.4605975069175 -20.8446015666858
-115.296765895643 -13.7644866285897 10.2201554478532
-172.752266828715 27.7784110543384 -2.10868267854252
167.969115665973 17.7445085952447 19.7654236467578
-119.618991801492 -24.862552349128 -9.92207803696451
80.9155447301843 -13.3564095577783 21.6233073060206
-191.124661911346 -20.9838710027531 -5.10548447459296
-192.032529145688 25.572618802524 -21.0297100474688
-50.8725135260674 -1.03798251347211 21.1002354096159
139.197280297675 -6.30220523266744 -5.18003593028748
190.481999430686 34.2596079791694 -30.7297019120248
67.0182392307143 -11.2373310215171 6.45553104988318
-166.288382236275 -8.03011950492347 -16.7396947702798
146.611748932305 19.864075809533 -5.59422123153063
-187.517301546785 21.2163820863567 -16.8954666020521
152.199680520975 8.84205837416389 19.6320126796651
173.043064931805 23.1495252358838 -35.6487222403133
130.901019892874 -10.363339285874 22.9404348170346
-194.145732417943 8.50596111489878 -7.50787845409171
33.6073536184478 -0.341826944615768 1.76311919490866
-178.040307429245 24.426182835856 -10.2418743354501
-173.988687470032 -27.7962233288276 -23.8663556911383
159.614239864891 8.38592587834345 -12.1727497392624
181.826360970356 13.3320689675887 -21.0965055452195
109.681990194865 -4.64290354779401 25.5257009856324
-153.799810134189 -33.9345904478259 -0.962769854474651
-180.842023253067 2.96787356850466 -11.9456359998777
155.524635177292 -28.1530960083108 -4.55092556661737
96.156561556085 -14.0829510954777 8.54066887393783
182.606705426102 40.7254939522888 -6.43155005664529
178.743814821881 14.6500593608368 -25.4523184975989
-107.1457476381 -10.8503057708399 -10.0175634446485
-96.6954931055838 -21.1044443889703 -7.44864399077692
-194.248799038863 8.42028657215886 -9.56409506468363
-100.543662349848 -24.4512898057244 -4.50846055683756
189.723043567985 -28.5746687512737 -19.4628925315439
-187.523588633042 -27.2375589218856 5.57887803708524
152.438768701614 4.89552379021627 20.4836936308341
159.679889342312 -35.6728101030538 -11.0341243822258
192.087520192146 37.5636625155895 -25.0245082879688
-197.9843647097 10.7278072472092 -11.7722284205891
119.17726815127 -2.95853593925684 -1.80734322486441
167.033872335456 40.1828175685427 -23.2325126524719
-187.639472006383 -15.7500394669751 -1.98007487994224
-88.7726218279752 3.92165346159621 5.22707875933575
149.377472432387 -22.5998391824439 5.20715510327979
-170.860822192217 27.4825614956331 6.31080092143059
