-138.083994381934 -14.3733402448057 -15.3179357637438
60.3337448748919 6.369684594149 2.78165658761205
191.271625028288 40.791385772643 -7.94281913415121
105.943680826599 -14.2617017498787 12.3629989282795
-110.636455488491 2.37308385877689 11.9110763402437
-76.0071021371041 3.40252767125728 18.3941914511392
169.073541235825 -32.0371840059054 -7.21906909086896
-34.4040017302562 3.43816193180425 25.8668242691304
-218.348694277309 -26.6975714456638 -1.54465719321726
176.487035184648 39.3949253811792 -18.3487632505964
-191.011659050622 -9.93469652304454 -22.1698910098059
-186.861439603016 -16.7580081051464 10.9247075074877
91.8395258911981 0.751073335067128 -2.39729888219722
171.265555010229 -20.0040156563476 -21.2226781871574
-209.886985887665 -6.3963091689815 -5.49386826929173
-201.257753691282 29.1616989513947 -15.6144944628227
-163.256577933729 -26.3063275298175 -19.7269707409493
-204.292040773073 25.8611876405481 -19.1890108471915
-19.1987947134801 -16.3081534624879 21.4359100874617
-215.218410745514 -26.0070709417515 4.86989629321129
-207.451783782296 29.8366304997998 -20.3389339640639
75.1661783858646 2.85631647173023 27.0542495465545
-202.177261455834 0.820542241728979 -14.9935172531843
-170.986798060331 -0.598172336850913 9.99085022924613
-201.66187874214 23.9109835085243 20.1873523627864
-193.617685235194 -11.3860163481003 -22.4152459910066
-214.909820611128 -28.625957487777 -26.3983238912472
-231.993389058955 12.4683411731798 -11.5648669226071
66.6171581961552 -3.27751170624122 -1.48079456388461
186.274033313867 -36.018455175259 4.0206965862927
207.326260199062 11.7178811443015 5.76412976745442
161.634520747411 15.9767951192976 19.1815689939073
209.351445854866 -22.0733926226258 -14.2033834755205
209.163700581184 16.2096912129382 -37.7427029721499
149.504851986073 13.0750825787401 19.9938660767498
28.3140878226948 12.5188085114922 15.6137565047574
48.9872346846503 7.16799373828488 25.387564494781
202.905067346114 19.7556081278822 17.6357751785709
-196.366622500241 37.3277479156072 -0.115173212655803
-203.776162047148 23.4481343110481 21.6334540733116
-239.496047148958 35.7551968153634 3.93909395890569
-128.630130793067 -17.8900186772871 -12.9030186819563
179.244703352588 -15.5461118524398 32.3014208322673
157.406092965726 -20.9488225580508 -3.8975093890194
-184.808730093216 -7.54747057291371 13.0055159666406
-163.44888986934 7.73782934270638 2.10604750257477
-183.522602420362 -9.78993959523567 -26.0030985132503
171.476504921407 -30.2568022333102 -12.6617145809586
198.315968816072 -20.1711153644623 -27.3442488424594
179.802461002986 -38.2029581216897 -10.1597552106137
-142.984953103993 -8.10241775755144 -16.6183387712076
58.3197633554781 -8.57362149897973 25.9696649213915
194.671040894184 -7.07646606727307 -10.7131540908899
209.343414629138 -34.1169163251154 -13.24371823001
-99.2967591290137 -15.9498952881582 19.1761264662389
-115.331113830903 0.199098784943565 -8.3046581276744
217.146258034317 15.0610590523002 -11.9438072964393
-150.314045110219 -20.0633459497314 9.33806817630087
-103.921328376904 -18.2146245356742 16.5987364016047
-93.2945785838815 -19.7845917621066 14.8422279467911
212.114747585784 34.0216774191572 -14.2259869896806
-77.6781300911139 -9.36758491135221 24.7645736988087
162.061107039157 2.29225993668062 25.6303849509021
-230.302973987512 17.5610954407015 -16.8398319439863
219.238099866442 24.7649249000437 -15.5300801565591
-102.743014366064 -10.3857192989629 -8.6300598023459
202.52718895523 -38.6148036016021 -12.4303802930338
87.9114091646427 -13.4126053790202 16.355451759709
-204.659435877955 -8.69639974304763 -9.07568948527774
183.310487532846 -24.5200993354129 19.5463555475977
189.460010000371 -37.4254171949686 1.31521931182962
6.4200203062429 -15.3944276725293 16.6586710999142
-118.364139538711 4.20243299412673 3.59119470804339
-2.76170037997005 0.547803488952869 28.4431452191199
127.640446105609 9.14088860302172 22.4767200220691
-238.631263353387 35.8618018244572 8.01620483835006
-168.02651515206 -2.42385223927706 -25.3265542028779
62.3191129044859 13.5030520653825 8.77732574164536
-17.6857761474032 -3.92461404765435 28.9362197791484
-214.149681249039 -30.978941877945 2.4215387060024
-231.941515945558 7.52842459047122 7.21600712652119
-21.1247588003257 -0.547202484907519 -2.26460205249308
176.265566017423 -8.30634643132507 -14.4666061283787
164.243404663057 15.2136910235406 -16.4120218295664
-55.341323907413 -11.9727755193522 0.309296238621395
124.851400978885 -13.7153828153797 14.8390903868918
170.472348249952 -22.959306607332 14.6057750969065
208.356129868482 -19.4907480723374 -14.3969513891743
-91.7097590355031 4.89849607952278 10.9367492711638
135.097324174155 -15.0105706890751 11.7630861379963
-52.5317049271386 -8.46546210631565 -2.9838404192494
-204.238778431062 -16.2694164812444 -24.418713404592
-22.0564480858519 -12.8962120527151 6.39991356450366
-220.320889902781 6.46756426844903 -10.403367489281
191.862625719536 7.88574142916721 -38.8232113055256
182.240241583807 4.65838209131417 -16.8937455309906
121.71260615189 3.76106511823897 -3.39104164547996
187.722220704428 19.4653540332433 -43.0876935103068
179.981456397525 17.5425404015153 -37.595634799048
-219.170776138885 -16.5210957153174 -17.5000082837466
44.1157855465085 -0.227209539119895 -1.68245971580434
204.451080813589 -3.88691733098159 -2.33632202952367
92.1791413626285 3.65422223695737 -1.01803489135028
-211.832774247437 24.9131932182957 25.2051314011762
-133.831424476958 -20.4847322997996 -13.3025133741859
-177.547001569933 -37.9370737652048 -1.70996811819548
-194.104643777805 21.4355732984871 5.86866008216198
217.915827790873 31.1497962668072 -9.39155165354132
52.6415896920257 2.74735409686946 0.999591562320512
186.061465190517 32.3170292529753 10.3083370482764
-237.274471966313 14.3033785135828 8.06887971233645
6.63625404387336 -8.36079514496294 2.28652719953257
217.461564821409 22.135055081943 -25.618553806593
145.080384669623 -0.167744093340416 25.6061239910401
156.26570797908 10.382098783181 20.8494630137176
-200.630577297805 17.1436521473194 -13.9386258485896
-98.1048876375155 -9.94608689360975 21.6086497946481
-148.997454618898 -24.7712543082181 -13.0071244786805
-182.196658742795 -10.5694390017678 11.1217598253815
200.206721075447 -1.16087616010693 24.5572621370855
144.461929321103 -5.77528209584923 25.0720866386486
-11.6840451866094 -15.1634263727097 13.0428697385624
-188.584810420772 -1.23080419298644 11.7792984667638
-212.166224167103 -31.9214596486373 2.27291719506981
-163.469838479266 -7.92073226817755 -25.8948190970045
-241.124820307178 24.7602343222336 -2.64651573271618
-85.5933585610356 -6.49586291259314 -5.67482806894145
-216.129137705991 -24.2504237011065 5.27494726677033
-211.960212193398 31.713059565249 -21.3076901794795
21.2216296013491 -3.04675661032436 28.9226499286633
84.7775542557229 -10.186543108924 22.7599940525413
174.840443568298 -30.0820536227073 -16.7428229581345
-188.428144584433 -26.4507378315678 -30.2780990301304
135.537076679366 -16.4114718563368 0.335779649365363
156.848558621446 -11.701279634901 23.2518780063284
205.803705580705 -29.2610452638078 5.68461705439124
-235.005822180602 37.0388621857178 -10.1987511661545
-208.894093942751 -34.2937479987061 -2.8451176408729
-217.327685092588 34.6562654326967 24.1224330059775
140.670903299323 5.80049964450389 23.4582288974823
165.112483113268 -25.3934494745749 3.45236158034593
-217.549351242041 -31.147445472732 -11.0555809878441
205.547013655411 -22.3519785360305 -21.8918342880995
155.227154679708 19.2665876645286 16.036756353915
170.999932816076 -6.66855063691548 -10.9973159268739
61.0878899511916 15.3005399612674 16.8913018246688
198.215171033046 -33.4543723939329 2.05127050285588
-197.725673705917 0.697348514342296 -15.3589367461317
-193.785308069457 -8.42408718331003 -17.9874373375788
204.397499650558 -9.6654120118523 -12.1772902154533
173.796116745324 35.1169423377357 -2.13686650570801
72.6888409999139 -5.9812116777649 -1.18406362135046
-125.037195034305 -11.7551922750663 -12.0425516850667
189.50504511395 33.9038854457074 -34.0491243110364
157.794223319319 9.81005106083873 -10.5628248392692
58.5316567970666 10.5432201056836 6.26910863696327
-195.934007517092 37.3065852330289 3.04335347408699
163.452395880277 29.1592488246422 0.698354606841052
-48.3127789815104 -7.88826773367581 27.701283787552
192.420773730574 -20.0456879829098 26.3314647793883
-219.640353100954 39.7062188166 -17.838094790778
199.860546076922 22.6014463663586 20.7415467788062
-180.383180633914 -35.1178121932452 6.54964817567602
37.650396509644 2.26079456199554 1.33224066102564
-206.020596540193 20.2075202217625 -18.9357512414199
-128.215635384988 3.71368799347631 -0.659445112666363
173.877323006659 -30.1173087340261 -23.5002465432975
120.28381100712 -0.392609042440321 26.176392532883
187.303322696948 -17.5169690849412 -28.4610285370725
-241.25811656676 27.1217155484031 -1.56151182918454
141.068754558973 22.0747978812299 2.71036023237352
-234.766766881253 9.44375844445629 -0.662902407276197
-130.592945295772 -21.3320466760786 -9.7375208996425
-218.505158719219 46.2900650129547 -7.73659483311684
-129.526117944633 -17.9598850663297 12.9776900837513
-33.6826119725576 8.22779441878289 12.4349531165602
106.354906913673 8.51615833070961 -0.369319593034229
178.410071270027 -33.6508900924428 5.28577896870909
17.6687886869895 5.71864579843238 26.4379364180655
174.644940143455 -28.5224116770588 -18.4870624669069
141.35293821706 -6.55781654735767 24.2992840895109
56.7862248328564 -1.79995818804743 28.1624496543373
-69.0254271459022 -12.816690931051 24.4151188101385
-191.903867941263 18.3763645826127 5.93485333139595
-234.246051148131 8.75771658076847 0.829109669604689
-195.576916730988 31.7754706575483 5.85328685995117
160.224219874141 20.4499740561363 -13.0645727445734
-186.071840439297 6.48276054304957 9.24960654596881
-43.4110330018144 -0.0462292404911167 27.2714006009691
181.330269596805 -15.8996778722378 32.5068590118028
121.419394474543 7.18920159327913 23.8880076241011
-205.422138122964 14.5711676588652 -16.0445330098322
-168.910123922225 10.1771196046235 -10.1722946053541
-31.0514178005751 -17.1335040072441 17.567616908725
-142.074270204114 -5.08151410907259 -16.6211443474705
181.729597462483 -28.0948379608547 -28.7608710200864
165.143130548911 -13.1287084637479 -9.876328538127
-126.698876909387 -7.06138266246198 -11.8142550265274
198.285803104799 -39.6778818726146 -17.5005847589121
203.379677918463 1.78687779817828 11.1787686573485
-77.2890130768505 0.268335436027541 22.4967191696058
3.09440057866198 -15.5939615355045 17.1334017106252
-139.88534036987 -23.0099032814419 -12.1385036791676
-106.424788567092 -2.90575298577343 18.7855911450855
-109.298617986396 -7.4329712645933 -9.31674678272106
101.148826935017 -1.04408429290659 -2.75340677032791
217.264883011279 27.0457019246764 -5.53328812026534
-210.996822721636 -2.5926298017153 12.0934012231719
-58.1325232376704 -8.0804502987705 -3.28052201545524
-133.557402552463 0.422196428163671 -10.4686449754566
177.611706681691 13.735582482784 -31.4100812982422
-205.045555188169 -29.3921159941083 -27.4919072136513
-213.259746106762 22.1897460393822 -21.6333853161542
-171.760660034353 7.64228589241569 4.78994727889345
115.21415155021 15.473133101085 18.2197418730475
44.8086249675224 -4.57302041403278 -1.38395176735038
28.29307750872 -14.5434166302336 20.315697442345
-238.315580586074 35.8763831548432 -4.93510592512109
189.272009858557 -37.1845227025561 -18.7917600794886
32.6538566414537 7.50662549493298 25.3850825758611
116.693833861639 -9.12351738510036 22.3390888605577
-228.728403252755 10.2529161628678 -11.9451354405865
109.369188830008 -14.1886873362575 3.04376878535961
-160.357541978135 6.08431873107757 1.72676435119029
-228.184586297762 46.0501824415465 -8.32295498360941
-172.950809183048 -25.7182541830625 -27.5279184435862
118.7186437509 13.5292109414764 19.7367998847142
-221.291468392416 -24.7706258606391 -9.91263743908945
164.03090900689 -5.54648278679098 29.2939994485567
-208.267103711634 -33.0217363274739 2.8375375707947
174.743258317055 3.66584549471609 27.1889182430995
155.781892961225 -6.76798955242345 -6.07555109924217
-187.838080508759 -35.6988052100411 -20.6751930572347
-205.511651900983 -18.3601770977335 -30.3923882991739
-240.078411864465 22.0709252835146 8.29548198926609
138.352607556506 6.11331171972508 23.4659897186302
0.412592056571237 4.50524631891113 26.8878881473295
-184.541737010453 -16.7297330067798 -32.8033636048332
177.522406175243 39.7594414977822 -7.02417915969855
175.136960320908 -6.082981833529 35.8359726010522
-175.636926418777 -24.5735786150897 -29.5687803815673
12.4160493012947 -3.85790804092336 28.9424543512391
177.185192553479 -33.2884131416775 -14.8851619692951
149.124640763724 -10.1996794673441 -5.4854700449443
-184.326022948701 15.2693359244614 -3.39182328381721
-147.606402755017 6.10879254956125 -0.51005768349015
-71.4327297458025 -4.80127670034273 25.7268819985718
-179.311762297099 11.9144506385712 -9.94555819010953
211.155116211688 15.2618119143763 3.60023094182847
131.813439539138 9.43456603026963 22.1469136159901
-75.372952778218 0.458900410321937 -0.0141916874984354
125.177859671295 13.0115550578099 -0.914356586987224
-2.36568353287324 -2.19370264218517 -1.15999016321953
184.426036125944 31.3314827073295 11.1806861841153
-165.859480043756 -23.6957929619963 -23.855628148195
-230.899762426419 26.2285105889774 21.4131024277215
-136.765926641201 1.29317667368738 8.08167683971763
-13.0482122513408 4.59613448705728 4.2119898196418
83.7805989757383 12.9458026221508 20.9724298366983
-156.754497815436 14.0480255607279 -17.6195972694559
-58.8311349324335 -18.4587111554027 15.1523375667403
-222.40292324667 43.955165452565 -2.77413969914583
131.99194983263 8.86370655444563 -3.85958981561071
-208.101391005032 41.8497366821152 -13.1922551665979
172.170871030929 17.4101557144528 -23.1377654425841
182.645635804617 37.9039586121374 -1.91549695820471
200.354646524817 -36.9433374369024 -9.19156716105584
-90.4889096779686 -6.78170151123827 -6.07717291932404
-191.438059797005 19.3667750798035 -7.20179781736707
182.479403079235 -36.5273776142917 2.96334968324902
83.7583421195482 -6.41596182674389 25.8913181403236
-135.185470256369 4.20947773416262 -6.7236469886842
-170.93109320701 6.77079432226254 -19.2299249197281
29.9147708063735 5.48170445826847 4.06666228216182
-96.6786764566657 -21.6257415969864 5.47177075285261
-221.146722482599 4.85482365751863 14.0671824025409
64.0688348618655 -13.1824336424733 6.35599792541184
-77.1628336623524 -12.2367755644924 -4.71814136601277
-158.676648339485 2.23383073405552 -26.0813693763685
173.178044153938 28.5912162809794 -24.629403381276
143.032991664354 10.1732524703077 -5.57404475496385
-198.387830174864 -8.72519817968567 -14.2892548013467
205.964032263587 18.3593783206589 13.0454535904067
214.847454216819 33.3293784481974 -21.892792695291
-138.371707936825 -21.6238828813011 -14.461658464068
148.037577757124 1.54586289026923 25.0884817680431
-146.236923960291 6.50010652476072 -3.42174648803128
40.3732293601826 2.45402410227486 1.33281821948091
-215.394484478992 49.3416513312137 5.35588207783283
-161.053645545763 -21.6129126823301 -21.9951513488647
-176.535673449607 -2.00984356707933 -21.8793047306822
178.855046620859 -34.0980835260296 -15.8581733281394
-141.514510161757 -22.995221946519 -12.6275966057431
50.5685865963523 10.5824587321001 23.1382246236281
186.399368949532 -5.58377795312357 38.4763837598658
-182.524030457445 -9.96690550904033 -24.7409190859747
-169.603832439735 -21.1726950839725 -27.7416076552024
-120.952404066668 -18.4742663766585 -9.36972252410821
-104.091144652356 3.8541642335337 10.5148558657645
-125.688066623286 -4.13008205602226 -11.1021548571525
103.700523653087 -14.627356023143 9.61994774251971
-116.712491362339 -1.55382815037923 -9.97035077900854
-201.276035177267 -16.1076980342071 -26.9016777909097
109.979739263727 8.09854980686496 -0.813280076707381
-187.475930122765 -20.2560810055547 10.1306709859457
184.058211221463 -36.4726905059095 -21.5014543071409
-209.609362072791 -22.1659547752871 11.0616036105449
211.227836062125 9.38793368345137 -11.0666585939527
-220.499126448366 -23.1709212716376 -20.8676749240131
64.0137410003126 15.692271375253 16.3842454711874
-147.341399897935 1.60511067932042 6.9253824611175
-230.6464211782 46.7042568516484 3.49120807251747
162.628863153822 20.3596075464882 16.6036010009607
182.001613937051 12.5958807072711 -26.2526963308748
180.613146125386 8.31495295925227 -20.0809939147266
137.851297566795 14.5532698716032 -4.06063484021638
-230.177656291934 14.628672349489 17.9045954314997
-62.3805177086504 -7.25510925591193 26.741944870889
-102.33402919216 -1.44332676819163 -5.08663894263949
156.946149243673 8.63295197787187 19.8683306726174
-66.0950368694087 -2.76505281185782 26.0296810017209
209.27475144441 -12.2718061938969 4.91289258126869
-216.824006405253 -31.2048552624053 -15.2408283320683
194.24238813519 -6.99809770912977 36.2434044985497
-211.146281347272 19.836821577223 -20.6006460614251
206.281809415777 34.158980903192 0.0302801787732637
158.0000966397 21.832086313416 13.2048123951367
-106.041898018171 -18.3275645580738 -6.42937722973662
-56.4348147293569 -17.6800830649203 9.66107061739405
206.655766181871 -38.0091175555991 -13.95270986302
-227.514488003855 45.6979734874187 -5.56809317929617
172.346735188787 -25.3935087292412 12.704618293994
178.93509419687 11.1396526811286 23.9148035907321
75.2206581019738 15.522425197127 8.9111764558165
-179.602919075772 12.3950638331408 -0.910159187938232
-35.6555954848251 2.34831905215632 2.66147498214981
-129.591069043273 -15.6900885899383 -14.0860188992234
192.273404261411 -28.7251394299588 12.5742558965184
-131.617294798087 1.72474287917249 8.23430010181318
-213.648509522842 -32.5607913833508 -2.18198617503603
-215.807906910312 -19.3818773162612 -28.7687199302319
142.085669619393 -1.35154711519089 25.71722493411
-218.405055753898 46.5447642020762 -9.83668416743011
-14.7085719319313 -7.91389078070339 28.5065577278863
-180.880447627105 -34.1696137845406 -22.0069374320398
188.5793952238 25.9919480257293 22.3101726339836
198.07785366935 36.2821186542606 0.245963055406709
184.110788668888 -36.5914036037158 -19.1351610491785
12.6517058167023 -13.4035516674087 9.92389498379509
-179.956986512184 -36.4152250108343 4.92321166343244
76.9298269926586 -4.97461049607877 26.8990833538115
-207.863366977672 -6.46926079392799 -7.05879561855163
-213.954245758891 -15.2928903788657 -17.5513016274204
-203.699614828412 40.5331644101768 -11.4588672938877
198.580653939494 5.76485155875873 -7.52991196759293
176.285734055746 -32.7281473216994 -18.3950681632731
156.643176693177 7.59678574282374 -8.58290871830751
-212.488081736159 48.4243341535323 -4.34159134361529
-201.166657354808 -24.773182364933 -30.2082345816303
24.019981845346 -4.74818020305928 28.7851531507904
207.561588891012 -30.4353963892133 -19.1449442997242
170.837657799552 25.108390942376 14.1044156692041
173.825401556413 36.8022126341029 -20.2748572693032
-212.884820457118 -16.8399881342984 -8.36862370010159
-222.859040427829 21.6585596734898 -21.3252584573875
-211.236267086881 -17.0550818573698 -10.7478815192305
-233.595666340636 13.4088867228125 12.3828019618377
59.463884624123 11.6249154309823 22.3795837744189
-223.784691714857 39.4063220591522 -17.2285047910228
196.2334263153 5.83166011437755 -31.8338807858233
8.11817576897771 8.93163057653703 9.49687570908759
24.2972863346662 -2.01035632212955 28.9022783918334
149.211423077995 -9.44870314623743 23.2038833537566
199.27134461574 -30.1356572452826 7.0406723982993
17.6308106281863 -0.587789231465931 -0.477489080090664
-210.308386018611 8.18419108412907 -15.5981629905973
-203.510964980186 45.6664367357594 0.994155220397854
-206.582761921852 -34.1884195866634 -4.18279149382125
8.73214190151716 9.98387208338749 11.8084327881409
105.798035072695 10.9542582086118 0.921039986686216
198.957323356664 39.9692928961534 -12.6392663904673
190.175609858117 -36.1816256508382 3.14331809859104
-195.290568949703 -29.1895872534518 7.26533144152167
172.176817467869 -23.0990538652227 16.2477948377637
-115.968731447886 -20.9590849878193 11.4300468696199
-68.105575957116 2.04182553537507 22.3349668068419
9.92473295515318 -6.20714801645998 28.6310568422329
-152.10932794579 -22.1814350349844 -17.1418506944181
84.0291293539884 12.1554292289355 4.55430808724468
170.867462830465 -18.7223906338976 -19.1533300729234
-217.676960953704 47.231825998207 -8.1881484237741
202.305691911305 -29.4468383061019 6.76817885061541
216.167740798678 33.9645753513664 -15.6572176203385
186.326611704739 9.41124773228467 -25.3315052348055
-239.149147135778 25.0697655684267 -8.44790964592386
-200.137146546171 25.4111415384981 18.9640667797073
205.051500321283 14.1525855799135 11.0494349448447
-206.348600608237 -34.5864843814172 0.188526565066121
62.1127506610077 5.19954128364038 1.94273510781111
63.3260687025968 7.51823148740034 3.29648411785138
-235.092213884784 14.8356491899285 13.3184528403367
-207.783970763987 5.49559671483213 17.5597843782499
195.153167533093 31.9056934152021 -39.767718128524
-132.656837675225 -21.1151906656364 -11.5031871132819
-165.167405482572 -26.911267024639 4.45692300149397
-240.233891991106 32.2860033205296 -2.30498566856701
-222.179114294188 7.38381492227578 1.28853442708281
-68.9330450112673 -7.65151524258557 26.0397986900624
125.077301183744 20.2518677666679 5.01907857758013
-187.174143059646 11.5267962686784 -12.4166939041216
78.8855068464909 2.92491067288682 -0.820661957436654
168.242817091247 -14.364955884892 26.3077317191136
-177.454414739274 -38.9544533749677 -6.49382550334645
-203.902631339693 -10.5811267912508 -8.578806184099
137.28029511253 20.9222213266902 11.0024877066292
186.464289277026 29.7278523522708 15.8128992023504
-209.589477291095 48.3945579444803 -0.64300779376978
-19.4570016226392 3.40167663568131 26.936054011576
174.471139103767 -31.6958438980273 -22.9665790398626
-193.238564147798 -37.178128388106 2.1531978533594
-176.085240608108 -4.8768248275184 -23.9724190558415
-43.6361587868396 5.17815390364561 5.6908000306043
102.682570962693 11.7787108756173 1.76472836509544
-132.715511426499 4.0080678128668 -5.5242084122993
170.324635265628 16.66346368681 19.8530483686444
-176.486287742516 -8.6268648379046 -25.5369529991531
198.456967845616 34.9358087409749 3.7631613566151
203.987583250684 -12.4450314921404 -17.0454998999012
123.549647150305 15.8226396811086 17.6450441169918
-67.2109249702731 -5.02052278021527 -4.13745615815401
-194.780590373752 -4.03348400953844 13.6970874804282
174.382068321964 -29.7554412142866 -19.8646101060059
156.453124633537 -12.6975119457674 -7.61946349355115
108.471719539226 0.098459356213348 -2.90431638835538
80.3742539726547 10.9547626058914 4.30057841519566
-136.572757430207 -7.58784258942142 14.0725159219617
197.795300163716 -28.0303893178335 10.9017019297037
-187.198059018148 -41.7142937688216 -1.53067331779546
192.856260141376 19.1238509511838 -44.3972867821203
206.616579524348 -18.7931189852306 20.7933159555242
24.7484633345926 8.23229210854708 24.7920896492492
-106.199560025864 -14.7664950116225 -9.26277446271142
203.637520579463 32.6284984099905 9.34480108518093
-224.826123470082 18.070569787335 23.1678742771739
-216.771070626297 -24.1855371199682 -29.1438105984934
195.613098418728 7.3854673200505 -38.3791500319109
28.1391894303141 8.56919875820856 24.6028706391376
206.511463843338 -6.04438114027129 14.9756104800983
185.738023151122 42.6119861545088 -16.4415423829899
129.805141025411 2.53805269477011 -4.30286912628085
206.204635658969 7.16755728983145 1.84197340288188
-185.236182212529 -8.39402614148014 -22.7425603643029
161.908769201636 1.55852937879688 -8.21757760538694
-219.419717362472 25.5922260895122 -22.4889687804838
-181.689941108902 -41.2261829282651 -2.62091385696088
-81.1515001030823 -18.8833340296601 2.14098350001358
186.666681393522 -36.8523636144297 -19.8368857636871
136.77734195376 14.3835331716326 19.0450913025398
-233.657719386501 8.93675774915771 6.30973921304937
-187.375396801162 -6.52927038543605 13.8702837736812
166.8753892111 3.79278806926992 -10.6715468499976
129.108888274721 19.401726799995 2.23471573618071
-235.047717315731 22.793904034276 -14.3624293561653
177.260867809496 -36.2303843213077 -11.3284801199775
200.078642063881 26.4219046605128 -44.5456194988804
139.755345188072 -3.55880550296612 -4.66925461713947
186.290349164108 -26.5245911598199 16.8656669226627
2.90550568395488 10.416504897155 17.4279847830621
170.85377219907 -16.5069695041777 25.4141254782751
200.651600501444 38.6816630860649 -6.15962126205637
-80.1636646899487 -8.04350448545994 -4.92898945951144
-190.507225033563 -32.5986674189977 5.74757201411744
175.053703979295 -30.8504048371469 -17.9991831299468
-155.941843983636 -10.7263107706982 10.9546059995753
-211.60322906231 4.89407707848656 18.1678967874793
-177.01335862387 11.1313429579545 -0.158077846532319
57.5180676530767 13.4231337158598 20.2942463120192
199.220015595451 9.29513493237764 -18.9025483626168
46.3785848078559 13.6179127816906 18.5988656404385
-226.350292863029 45.3223519714858 -4.22054939373541
-219.599057771692 48.0216774699173 10.3517781576678
-214.238068616722 -28.8630706438824 -23.4098189899816
130.452684390826 -4.59947279845187 25.0154680791376
32.5526985010347 1.71314101204206 1.25825335877107
-202.248255949117 26.5512784864586 -15.2240557078207
-184.597090801871 -33.6277874257068 -23.555305911059
-198.332351616455 17.0852078714266 16.2536945501993
166.045316274549 15.4839180209355 19.7010181822077
-118.527431493147 -21.3612491235971 -6.26419376525778
-136.120920559857 -22.4440764804508 7.87679476153074
2.86032968883329 4.06552036668649 3.37895937356155
-21.6952808552123 1.30856469278277 27.8931470717236
-153.610925222809 -8.96626821388068 11.3747636773454
174.921790091446 -37.6072098451382 -5.77259492314976
-215.680957943434 -30.0339107141111 2.03836766927923
-157.862584182131 0.0557406420663232 7.91262663660768
171.591150138461 12.723871262044 20.8974757589317
-125.322359338365 -24.0273703388852 -3.6521775467309
-42.6802890012295 -3.83208323194182 28.1121205377866
199.500279392577 9.64552397229072 -39.898775383851
-221.996453572632 44.238956282179 -6.89445738212269
43.1666458301643 3.59569474237492 2.05924689493603
198.440185966156 6.71513625188644 -28.8999223799749
62.4496422186905 -6.73536917861971 -0.340841963138722
118.15285404718 -5.18107676601338 -3.54292518590015
-221.22965924608 16.0711107892266 -19.7702346940285
195.563494962969 5.56025978723695 -36.073309391882
160.326954917991 -5.71835936325529 -7.07181922510342
-160.249456826652 -1.4958890923829 -25.6954645687236
-210.679178943719 -13.444847931875 -23.471348108432
-168.154957060896 -0.0604999470816183 9.10481352400248
-169.463707553254 1.32281622925532 8.89944375020365
70.4326161648391 -14.1904488439684 11.5749863165673
-90.1289925631897 5.30297998378187 9.27895478431124
-119.860475003 1.11264586628814 -5.59847453138749
191.222787880312 -6.82679516776848 -13.5738356166941
-104.157109556308 1.31170404436852 15.2029465576463
176.831778234737 14.283882330512 -29.958691488137
194.294909309953 8.64186344208257 -15.2178704640048
206.235730524915 -34.241978205647 -20.1563209197558
-206.033457798077 12.5098038778992 20.7650644914639
-124.513490472496 1.3341931981006 10.4890003497366
-185.46363820765 -36.3027475745461 -19.7138700559433
-217.637181218158 23.0065304399194 25.5122400214602
204.007001610109 6.75277289519406 -33.447960287928
-133.269053155221 -5.81793381610711 14.4063732715658
56.3572153235256 11.8312100543079 22.1504344149088
-50.0824362578784 -9.10176370855938 -1.96576749939632
187.510602847946 8.70518671371421 -20.0891079336693
-127.903307656122 -16.4634720380265 14.1064059948082
98.8734342286746 7.74416907988836 24.2534105695646
-156.095113763278 -8.79075901753578 -22.8440531008511
-148.177783748025 -22.7865341012635 -15.009663320109
-211.502991121224 44.6087482957113 15.5815547639875
169.296978959038 -13.2703818201248 -11.8130177144127
-240.415025307631 31.8873328573634 5.80727410252402
-107.312007295633 -6.35529164495993 -8.61304264779945
19.2262474130342 6.94991277808125 5.92909864933478
-241.023911924345 30.2630711564364 -0.24209151007492
-72.8659234930967 -0.833530437481869 24.2023070874741
174.410984965694 13.6525559470475 21.119480287648
-212.324206954999 -9.42537413908745 -0.196258940069579
194.933684204758 9.13312105331114 -18.9421496818011
37.7952393909237 -4.2504959133735 -1.34947283612996
-46.5811358280555 -13.337196272352 25.4093416287619
-202.288466749899 -7.07738944644437 -12.0176306997872
171.602461299497 15.4479788078214 -21.122603783729
-190.713918822578 -0.50553001384987 12.0821869353246
194.855321586289 37.5080652828354 -1.64403646503583
-117.908467098762 0.694342175742543 12.6996515404732
-179.615735338185 -17.4903845624946 -32.4633038183168
193.580405786056 2.52140708206241 -5.51518869491942
-83.5391532527766 2.84158534230408 1.76031819706534
-112.825102633657 -14.3009599547802 17.61601638056
57.3055974548456 7.49424493612545 25.1757825901978
123.685382310759 -15.0175695651732 8.46442235891922
178.280056535965 -36.5060697010029 -18.5961988147542
-32.596197527977 -11.1426098455895 27.1705312357498
-44.5832149482385 -12.0657874722944 2.33165125870662
-56.5997205825692 -4.01306575156048 27.1703097020384
-49.309243283291 0.9798462192368 26.2189832471508
190.999982823389 41.6288506052902 -11.5127243231507
174.468934977031 -11.9579529989732 -19.0951738810359
-24.5151257875978 6.76873059305767 22.2022013513767
182.367493599603 12.306571228841 -37.4003075800207
180.232134939547 13.1412012426961 -35.8882288320977
210.801806194035 -31.6052397646278 -5.21667861627441
-203.251146052261 -35.7417584056507 -21.1500779868334
209.087014419073 -23.4908572815329 -15.9769454975093
-229.518196539855 48.2030844226311 1.97115923928604
177.864220780293 2.70498717456673 30.6890801552695
-186.641910520986 0.519025258197878 10.3739794475527
169.284864959703 -15.6504045723138 25.343062128047
66.5106405908952 -12.3840241229807 4.55596921604147
194.703483588954 -16.1750099720638 -27.4622310062562
158.091569372059 5.0762263870999 22.3810908407758
-64.2044082864068 5.92381850644796 15.6807761295157
-163.313195568819 8.01965172129677 -8.086491948655
-19.4113493611172 -14.87115391324 24.0775019114751
176.783036499722 -7.33080136310554 36.5695982945314
202.796815094487 31.2757495863584 -40.1064802149578
-158.277495508987 8.03100493962992 -26.3100070063567
152.518927673675 -19.43191016797 -1.68854610250677
-231.858558423155 12.2245590786471 14.907032052425
180.401092901009 -5.97605424695151 38.8420978905567
-209.185575896775 -25.7344887645874 -29.8226824084323
95.1878696084616 -7.73907723445455 24.579348982953
58.2623197393608 0.688928541659318 27.8761592151629
188.001226874158 -22.2874412405025 -30.0329105875585
-185.899298701003 -13.3011430991624 -31.1620234816098
157.505296523871 1.78113925286157 25.1590106544641
205.217948291556 27.2251614122407 -42.5228101410634
-3.12867882499718 3.00826272787933 27.6480823445454
-166.66725121393 -31.3698216010844 -1.37026715997489
-113.417133043431 -17.1171924919009 -8.87261022124264
201.167197597766 -4.46028385930884 -4.26422241402119
-83.4424758840863 -1.73613140022142 -2.64761089312747
-23.5836659264818 -11.3420096389773 27.1572450454073
167.918579832461 24.5972351532334 -14.9724540490619
-65.017746151694 -6.04169548520179 -3.85693232032815
200.503577909007 -19.2078861733538 -25.6277139463579
182.843928850828 -32.9126524600328 8.03116571810462
-216.481496006616 -30.6448267881828 -4.4067206720763
151.722747096773 7.43201366664649 21.9869144104164
94.399127701152 8.89465866659633 23.6631981239338
57.5379776496469 4.78683329564333 1.98670329001091
-217.594368001096 -21.2908084802475 -3.82850325635954
65.1856949508772 1.45663990961221 -1.80307032797644
206.658267778414 -35.6468241476695 -8.45963800155032
-195.897532249108 -37.0301912586 1.71097151437805
-49.0187782731335 -15.0825409880132 5.8988802703747
197.965463817976 18.4873671478346 19.7130285458031
177.047927601224 7.79831218211249 -18.4754191394634
-211.251887939076 -27.8715526463946 -28.8013363553592
207.227909820396 33.6834408954985 6.10221878840219
-209.589327963137 -17.9672612726627 13.2094325087505
206.554885074648 6.82662651280591 -24.4064788402006
187.074805520648 1.13148388901754 -13.5861844406815
208.089063558014 -35.824523789518 -16.4896982644086
-99.0722690827539 -5.61282653444888 -6.83644503269588
-182.654332713259 -32.4325182749603 -24.8901682519956
207.63713846249 8.36082103059591 -17.6995447533568
-108.644080748658 -1.07808054298753 16.952651338553
186.265528337663 22.9219448872186 22.3824915278089
45.1175712329982 -6.06848087304004 0.117084174643696
-126.242045031055 -12.4660248696361 15.6337559534997
-137.891064790256 -25.2798739690178 -5.18907540739807
-219.945076942519 6.52308687085313 -8.90206888681808
-211.998761522211 17.3338621027579 -19.876552550567
-215.400371479561 21.7408700367853 -21.8550892479744
-177.451327621341 -37.5115084863564 -11.9086701889463
-30.7415760718498 -7.00160870319438 28.5410047706906
-121.670250183944 -14.5927393302041 -12.2003999737396
104.374109463705 -13.6214912334717 14.890550452062
118.195012271289 0.167245841995303 26.2001589432886
-172.663223619209 10.7700003686569 -11.7083487234413
147.308883649288 -18.1456542001317 4.23737387749789
218.726222970403 28.7649560513048 -20.6491903765221
185.686934346505 40.4589461439598 -5.85337520129355
-210.822976380229 -7.8450089407229 10.4232548078365
93.5186832979592 -11.9552113806197 19.5852793547702
210.250682052293 -29.3790233751648 -12.8063350819712
179.537855477039 25.6791659745069 -38.7827059005839
21.8152460016298 -14.4139107733005 21.6760857434808
-160.337278541776 3.95682527210131 4.26386609331324
162.52372373816 -24.555745522985 -3.22070054099107
-213.297991998865 -29.3849290699206 -25.5671802170199
-71.3541677851859 -3.00733837281628 -2.83127218379129
-226.582075717751 32.7693500456989 -19.3473700093262
-212.043445297346 -18.9185654784301 11.687940417038
-219.360302253486 -18.1524016535131 -14.7177420777592
-196.812144697661 -8.21123655274998 14.9157581306715
151.427872836844 -7.32547170878764 -5.38058726038233
-194.531722127731 -12.3320330888216 -21.0589249752056
187.560533523977 9.5472559750106 23.2952204151479
208.187246866356 -22.7000940334257 -17.5017465378855
-123.274692366969 -14.7646725077472 -13.3138205346015
-205.123358409883 -35.5470555308938 0.424545006269834
41.6940899664418 -9.81741155135975 26.045481857524
-220.966055206581 45.7477913103436 -10.6970472175318
209.644905821009 -19.5920811345906 8.60519815469975
199.103157608764 29.3259102738091 -42.7379972468448
191.714588558011 -19.1160806225836 27.6624317974692
-235.827737727593 11.4940391407296 5.84140710198036
164.470677401501 -24.33357413462 -7.94487525924223
218.496423933257 23.0080016435178 -22.1345874783848
198.316767302338 4.64370054391092 -32.2500763349943
164.876530247657 22.2079829668605 15.2531745294043
79.042790459311 13.7125999514245 20.2497030673561
-111.224153709693 -0.267654183745256 15.4994686270836
-197.479080835106 26.6279655370453 15.8583061496054
65.4796852846216 5.21424619971978 1.64857567375588
204.278431554826 18.0292872482303 14.485999021961
-121.554286632157 -11.021770687366 -10.9416263853848
192.394611911361 9.22609363640102 -19.1485528155762
-78.7156436281836 -6.06268996359129 -4.8496685467059
208.679744522406 -36.0177616311647 -14.6070800174614
-179.988971110132 -9.47936084383325 10.3693129782789
-201.451558697751 7.97069068829983 -15.3422480596536
209.768981569691 32.6580688927767 3.48252634990198
199.706129265189 35.6430161193388 -27.8100716191702
204.459928155912 -16.4696463586828 -19.646514110989
-98.5566791253307 -16.8850577113267 -6.83342131875256
124.663462071155 -12.7221047553666 -2.47603551308799
173.791559625115 -7.27146555799421 34.6763368537373
-239.075567651221 20.2767140251062 9.94891451822862
188.81950453757 9.67447536766346 -23.3543658640403
-195.079689441821 35.1630458860193 -0.192851694320418
-138.696618227829 -1.88002947649869 -14.8657018845054
106.267308404668 15.7739561510787 17.817357413728
-135.572666719068 -21.2639830661921 -13.1217976860151
149.188750822524 24.270144193945 3.91984819302583
-163.597638448997 -21.7916969333527 8.40061329338415
180.59679701512 -36.4999142054584 -23.5338693910269
174.012695081604 7.80843669172952 23.1458629419074
-184.557944981084 15.1828561281168 -0.452008315072319
176.666826176568 18.1356380074155 -33.3217894353391
139.715135559004 7.49909601867497 22.6781165989706
140.176206896177 9.10915470276232 22.0812485930714
-64.9262493320732 1.51267868987987 23.5942570675118
-20.1799904110219 -6.51778612533665 28.7564441794568
-219.362795020209 26.9007675007801 25.6461305855711
179.08080268057 12.9356227665478 -31.1710957769039
-94.0901446344003 0.223436544062921 -2.25794384485193
87.6763617167783 -4.7565105200938 26.4817687433607
-226.162059005545 10.5892228479388 -14.6845092939952
133.527598611456 -3.45268397581427 -4.33646106299497
172.172349125135 2.73292660865846 -11.9743080788986
-26.4036387154324 -14.6366789112774 9.53998847759628
-214.033087829374 3.67585035923238 14.9851683878717
120.754462727063 15.6075356177438 17.8885406947061
-200.944428575355 41.0223450756684 -6.98433699916162
-17.6656424508613 -11.711768920532 4.93460521327648
165.924238262043 -23.0363877432064 9.35892195497481
183.286837236125 -34.3798637992197 6.2410277019815
-101.876317361986 -19.191312809432 -4.08511690113738
89.8922655898345 9.42947162422352 1.93838027023589
205.628521015076 -16.6076488985618 24.1726232707177
201.136418732111 7.25677505401284 -24.7943441317587
110.020715179903 -12.3360121484357 18.0589235196654
-194.454290375476 -7.61688516492456 14.7907594147324
-76.5426194849729 -19.5066849964166 13.36287375867
78.327007389255 -3.51901583836773 -2.06387924340296
200.542535251943 5.69950748837296 -31.646881333105
-205.142044543866 9.81379101684664 20.2485047050823
191.206581338191 23.6808733103243 -44.7910964139017
183.163967107611 -22.1034518046198 23.7909820320624
-205.669693459979 38.6981868816673 18.2480912238592
-238.42379925145 17.7182073844756 9.17874961183209
178.788346830243 13.0644733592253 -26.4225783979361
-8.53652854866783 4.09266260403996 3.60631823020275
164.875464702922 9.68979399204601 20.87055753572
180.190732405797 -24.4211650111923 19.3602443196609
127.028786837423 -11.5339180818141 19.2969297230754
-203.807519314548 31.0012675155635 -18.2327735751317
210.612276980092 -30.9708043559925 -1.79158564704548
173.237611352234 36.9597628588197 -18.0185084906105
205.842900963782 34.1420390049869 4.34228168120351
208.807111445296 -26.4835480443787 7.6450502932766
-236.644456402778 11.9238160012088 -2.27741005840229
-9.13929980175634 -16.249337755331 20.1071211683267
-52.0000225151338 2.58603758501448 2.89515131582709
-103.679562107919 -0.00102770710730975 -3.81511889417147
-221.408135623435 -19.0003055371207 -18.4275340794091
209.361406314062 -34.6935606597822 -8.21167055372451
174.920155599391 -12.3356423224411 -21.0207409692888
-55.6741333776531 -15.5763472066068 23.0600384788946
-198.529981623272 -13.1388695975413 -12.409624324225
28.1365424655611 11.7144160271605 12.8787878428472
-3.0908934618781 -12.3283529456259 6.92760787801211
-228.441002861563 10.3297965868642 16.3092817695217
-201.165855464752 41.9214176471378 9.37058140530717
-117.235371046303 -11.6069683299801 -10.6116632526777
-128.509754175751 -20.8915924780106 -9.65101452059654
10.3387519866532 0.762694059712598 0.377337207202704
-15.7544383201113 6.10481063814681 6.1746424033737
36.5707239147765 11.5910413798572 21.5348160363948
203.162215073071 38.4036097633101 -20.3586562154489
-185.812021821747 -24.8491721119471 -31.719791546914
202.739376756907 29.4684012224956 15.6107838265467
-210.003274477243 -34.8071611008031 -10.03008308615
44.2489137795079 6.89927722905017 4.3069977047002
165.727995503245 18.268204565598 -16.8787473667357
-161.165491273458 15.0565232213503 -16.5648275313151
170.246175302426 -17.1614126131999 -14.0965749641736
-3.22121574257893 7.04476141955084 24.7380375943439
-130.794265955417 -11.2886579117048 14.9483780759206
101.695590192877 -4.08401316337029 25.9729753700231
-191.336958962446 -40.2975786889559 -8.84381580608831
-207.807992801066 -23.1197453941428 -30.5038828040652
201.747866321197 8.647682843572 -21.2153135466729
-217.706990129796 -15.0720639130299 -26.440558956556
-145.248831502914 -26.3868002308487 -6.3161223412328
6.60871856553387 -12.0847427052078 6.81300998258743
33.0784627363728 -14.5280744463051 19.614163961565
-108.335329123208 -15.161656662927 18.0324323642649
136.857817717268 -15.6200364748085 9.93117101094191
171.164904057168 34.7062529000272 -5.32935361449806
-196.300702280294 -9.29203457108285 -15.753183760987
150.737962750102 0.258084294226686 -5.70210141286266
189.368961001928 6.06922625668893 25.7335639768329
-38.6641612115154 4.99916829621189 23.2512988043768
-233.176473766357 43.9206561950813 5.63733479643633
51.0464566099874 -1.03182000571151 28.2677909201428
-234.155548332091 32.1398438926594 -14.0666327529965
182.872910745599 -36.8445485299669 -25.2172154531522
-233.295524184616 8.17171835348775 4.36753781488519
-106.773425717918 3.66601617958562 0.853509003636598
194.51194773529 36.1838174499428 2.2397054003722
188.981131666646 2.55348271963915 31.056193465561
-172.904684636256 -17.7285387677238 9.27461717376181
131.708068139596 13.2862998784362 19.7925608701695
-145.369309897736 -25.0817734929647 3.34606421798679
-89.2584489937343 -19.5023686209798 0.214599120249834
171.284868858909 -15.9503363294754 -15.639159780853
-232.732007596609 7.57025439075752 0.40346712654106
171.959584709155 30.3447414775245 -20.4623195889039
-197.643643527446 38.2298486933796 -5.30921320713338
-49.3884794132652 -11.4256746833739 26.4952531318167
-165.936557033634 -14.8323434368378 -27.2004521335539
-119.391156725851 2.66778262608641 -3.3272944517995
-92.0784617452075 -21.2329696637527 6.29690673469364
-124.56350610061 -3.92522592378118 15.4737868973558
-70.0672098950982 -4.995321737334 -4.00289063394585
211.679660612498 23.5180378597363 3.64212804520252
-175.733571254515 -3.55556511876396 10.959805020905
171.351311072068 35.6526319811623 -18.5535558269111
180.784644545629 10.873796134239 -24.8019438256885
-1.07818986383561 10.0330818164069 14.1907625524482
171.047692315672 -0.572859350883223 -10.7817442994831
209.061924953004 33.9756952041708 -1.47729965591389
-143.292339112607 2.53239810253463 6.05380835992432
-205.415563591391 45.8515975687436 8.14805030916852
132.122920255239 18.904169945618 14.1857597432409
201.764693207034 14.5727817605365 -41.9955248731076
165.448507848667 1.09053542955436 27.2145705126272
-29.4473441724284 -2.4686002613357 28.5828386324616
-92.5264901263872 -6.40100856895361 -6.24126544465651
200.724428933411 39.4185461339271 -19.3512663374688
176.592315994914 -0.0709164941735124 32.9568752061859
-206.334838815248 6.14624904921532 -15.0098697708965
207.305194983399 -22.7241422175259 -19.2587531486672
-225.940529214326 48.4576323584582 7.40923845974559
-212.454070896867 40.9920178371483 19.5892175103956
-169.270417766244 -26.8620209314616 -23.5133451412514
-130.900003155332 -24.744723084389 -0.0506571062071576
-193.552816078575 -10.302848057207 -19.5711202231402
169.996175653135 -29.9348782669427 2.87187283540793
-129.091465897598 -13.7625627306286 14.8172092101231
-107.432654377275 -19.1240821920667 15.1629471368278
-78.1979362497442 -5.55169691604023 24.8664888932137
216.774758330361 18.3103795040995 -25.5295744559953
-214.440688082976 48.4132168699902 -6.81134510271931
35.4233229050161 -13.7865748514753 10.8464874542324
-142.237008912394 -19.0434403278681 -15.9479129550645
166.053477963104 -22.3326974430659 11.3179619245859
214.096431981408 33.2687170988784 -21.212728262171
-61.6542446469497 -15.5315663377348 3.26502170758122
-160.192807345273 -15.8968139115635 9.79938070238829
-223.5381244305 43.6288806580731 16.8429732425715
171.986244624624 -32.9699289949607 1.59915796636815
-196.12576755328 -36.379540275929 -19.4050634957199
-87.9618273116996 -20.0435122518908 13.5532105380988
142.340585875904 21.2432424202541 0.199918833115714
-213.670385009727 -1.71949825376353 8.96238479708042
-89.1397098969861 -4.27661724645459 22.9330673823682
184.077060411638 -35.78701422078 4.38895155736321
1.60175890799525 9.705229215751 12.1553891427993
50.8578184019118 -8.64746628326328 1.55419127618986
161.64476082657 -23.3407062030388 -5.40710328555124
-37.2812834741525 -0.0266232440156754 1.0106526080488
134.717075587442 9.00711395082748 -4.09209436492607
143.625904788768 -9.21633655601243 -4.76470503690715
-85.1663068254782 4.24819595124141 3.78397596160743
171.449096620779 -24.5829225853261 -14.8357999249541
182.423796295315 30.6041144657965 11.4777456970067
206.720765529155 -5.27935450044424 1.74694104091001
-3.45037116318892 -0.590031953080387 0.14667669833712
-173.897151022286 1.56339947778401 9.61432409792129
-234.009661112967 9.09958665059585 -3.77511214960477
161.297753123938 -1.19781066269333 27.2452408248243
-202.768206478177 -9.20426434692219 -10.2215168912848
-80.115772998341 4.9431919704034 14.3276111106863
134.807971896391 -6.8976438365036 -4.30406116080988
-233.010882427903 14.0289585056495 -12.1303397390789
-158.019201149153 2.63236372624578 5.84703766673702
-184.97155813543 -39.0194253427828 3.5563991553363
-124.202058522284 -13.5174998361217 -12.5075498660368
144.385647561314 13.1186207677343 -6.10924642473851
173.806143341493 -32.1726573036432 -12.4122979933232
-200.460780633822 10.5072794029151 18.3705052966124
204.794495042743 36.8506238434256 -7.69951781960632
-183.844093031778 -27.7427500454955 8.80696835692079
204.465479072686 -7.33661516183961 -7.09643890866953
-150.724429466093 -23.7842472451594 -15.3783573228729
-96.1517444575271 4.09817944817465 12.2858420914666
9.90873668766166 0.906263130405598 28.3994023680871
-202.468936399062 -37.9330967282608 -14.2484534272563
-189.950231397369 -37.2458423921276 -17.7132246791609
175.787765531941 38.9435982763384 -14.8595642970117
-170.586919195059 2.89348682141195 -22.2482698960899
-218.602313850558 -24.5628414933785 0.384939169092897
163.371703131882 18.2436999084374 -16.0591735178195
-78.3034493705074 -18.9280737801602 17.0894522402424
-233.037728819165 43.1176002702319 8.415482153459
-218.522134482754 8.72801418211288 -15.5377222982609
201.867382348439 -5.75604379395814 -5.61507610247819
202.42482483261 -20.0944492498438 23.779636497812
191.479776254591 -3.71480094901024 35.8103945834973
-197.700425671466 31.6646042670667 -4.81985455304997
177.809430267137 8.76307528038412 -19.36581413513
-22.2956641548009 8.63034686598781 17.477709575597
172.903811404453 25.5743295017045 -24.7806229244625
-152.626958558818 -6.49229692237804 -21.4273259215668
-68.3661593324203 -11.272336288683 -3.95402783671251
-136.489346452375 -22.9211153939669 -11.2458396877219
100.990552657381 15.0507020677827 18.6374127616998
-186.017752565379 -37.9720311845455 -14.9800503026456
217.888202298256 17.1836084903405 -13.3843035222845
119.480613979855 8.0665720021628 23.4659736501023
-87.8542465692062 -7.06492008191848 23.5507535275216
-23.9595756239367 -16.067468147665 22.3797218487524
50.7906347972221 -11.1612207856083 24.1679899433431
197.627294984831 -39.4711384127355 -24.6438632546015
203.695430491167 5.91186663864168 -27.0848849498581
42.3999895038916 0.0509205933943791 28.2477689434244
-234.107866452061 25.2572513000131 -15.4097383899314
-177.057530077413 -38.450508906114 -9.27724185775546
-232.38830947135 7.99107710816066 -3.9427243016118
-234.518603837927 42.5082089304686 6.06422590538557
-214.842770623625 -16.969778507541 -10.2144691307856
179.075564233777 11.485303941553 -24.0575237106638
-212.812335947859 -10.6629138067243 2.14124308256451
-230.538046288498 11.843135596332 -12.4586435503234
-139.65641272322 -22.1378993403293 -13.4797886729739
134.268182654627 20.4543984741793 11.6738877127135
137.373247892301 -13.4462991926732 16.4213262157544
-6.71995159619887 2.98893438034286 27.5506653896982
