105.219212503739 -13.6996990922105 4.9495768866573
192.510291315714 12.7461144353468 -28.1990231954587
201.948511717048 -13.7492319916968 7.5092976880653
-202.271448931587 24.5431864447545 -18.9087081412708
-140.583283024143 0.530260404842254 -21.6346989670755
-198.730041505096 42.4011406905875 10.8278956475835
-167.042386960678 -1.67999360710593 -17.7002208001483
178.149532822326 -23.4838308814315 -30.7286839414768
-125.505866245812 -8.65640147255824 -16.5752294300985
-151.176071507103 14.8188235807068 -16.6903427094089
116.578268370275 10.9941917001445 -1.46213089424245
177.788023785985 36.0322304078953 -7.7606501123932
104.975239068409 -13.262768136721 10.8944723587023
-186.138991957425 -20.5042099697443 8.25446590732512
-135.468458841937 -18.394064003965 6.14487531133416
-196.318292745163 45.4469865549707 5.86643165985482
68.0283700729671 -13.3392076567742 11.196371066539
184.57076264518 7.02991286946341 -15.7027861213952
36.75893530997 1.61779121803347 -1.78495687335684
-39.5725929527208 -17.6436706479301 7.77623278620227
-148.998790740475 12.6552058564313 -24.1901983638796
-59.8783837330094 4.2783818699265 12.3996688751623
116.008411100289 1.63111275787398 20.2057344413824
-143.730231412596 -22.4222703496946 3.01757482677063
-177.609669903429 31.9974300847373 -6.59244362076024
-23.7770356582182 -9.97086990286764 0.462385184251641
-182.742645117172 2.08194235682446 8.59394269040752
88.8275008696038 -13.4513710505445 7.53460880290355
-57.3466832883765 -9.36297552377865 18.02511411112
170.99283483298 -9.10181635367316 19.7323453253245
36.8937001018514 5.14233169021598 1.41029155515376
-176.170516379853 13.7371008186543 6.09718418708671
-117.802622148398 -14.3983623819241 9.43361625275546
-52.639337949117 1.66932915014988 16.4954170486369
176.046255299109 15.9849867285601 -18.353160937953
171.461795622941 -26.9209791536542 -18.2283308630447
167.431558104859 28.0770089975255 2.53029416538509
140.223237620655 -9.96531817413765 17.7601551653982
175.110711618794 1.78402561770999 -14.4606188135433
175.571803383062 -16.2579313094169 -29.2415888855051
211.325204705397 16.0042378189819 -8.1530602334759
-146.847029685769 14.9680139686518 -18.6929769767079
44.2711070291462 6.38186695842843 1.91016411751222
175.287170230282 -14.3137443297096 -28.2690048218435
163.970287218691 23.0891517311127 8.23876906174783
-165.882436869908 -20.0390771562816 -23.0756132711918
40.9041659738843 2.63670954524331 20.3705181969828
-74.4656064893555 -7.0780356475815 -7.99474060302819
-208.929444861069 30.2611533159826 12.9323949880281
-111.944594429028 -4.906717736294 -12.5966651763026
-109.353118226148 3.03787420340427 6.24184707274343
172.039989027686 -14.0283747892365 20.7989241543951
-92.7938770841533 -18.8743507459339 9.02291913695852
-128.957124227011 -21.6197217284794 2.6312495574732
37.2660310262691 0.016945687560546 -2.77202468227602
68.3090665648865 8.27153103755795 1.12548033743385
185.82708457628 14.0385454895569 -27.7616587669374
193.965390997734 -25.3220490645228 9.1567511940969
-76.8043163045323 -18.4634440256675 -0.731537910223863
176.32203686028 35.4759990063352 -8.55278274564433
-199.603626756318 32.8722511186253 18.1160829566522
98.1128284802865 -2.69237146310733 -4.66215736883903
-183.048608480508 18.2562390380176 11.7455494707751
-194.559882659241 -27.4718472424554 -9.23619074619438
152.050447910389 17.1617794272736 11.5827003274244
-91.8408678213837 -0.220310220160209 -5.48299154465917
-12.4892667952065 7.76583548544723 8.66739128311247
-197.921474391897 -16.1656910990413 -11.7698045338626
-158.139623047275 -20.8952444580923 -20.8941082646711
171.866255385964 -26.0094802032919 2.64038938039446
-100.256334382421 -0.238771921885638 -6.91757184137626
204.09894562064 13.3490587369253 -24.252988778601
198.036909428011 -18.9612510658759 -28.8755879720026
127.402222405431 -14.7013632311238 6.79060434200086
-54.1095066906074 -2.16865371307321 18.4431410098192
-186.969573788661 4.64676167892866 -10.7616460665857
17.9774908743215 -10.3292731172248 18.7062948898111
115.943925876035 13.4909438423028 13.265746320746
68.472835917532 -1.7618321743559 20.6415272312644
6.12655495051166 -14.9119155612944 13.6705176113953
-44.0224954222349 -0.938160515553113 19.1277604186436
151.1162142856 15.5436273607618 -5.77641298533626
-16.8529875944905 2.31328572513104 0.740997417997945
181.365051710054 -18.3142589491904 -32.3837296619278
202.134493713796 -24.2182802501716 -0.600978877171462
-60.6294305772161 -16.5843568402121 13.8875631680474
-174.65267138044 17.2893196118435 -7.72243782138943
-103.878133322516 -18.8765695495441 8.05198693410942
-196.209578298019 10.8399196355208 13.4303006682493
-167.395342739717 -32.6041179053314 -10.6612232908006
209.656425565349 16.1808325698908 -17.9760839639009
-90.3410719988174 -1.62508995538492 -6.34884871036697
-180.553268957619 9.07269737213102 8.56419438769067
190.631626736324 3.02954139844491 16.3758802388896
34.91727352789 -9.66888447886981 1.81700311269018
-183.844693180467 -7.00984840848587 10.2530681593546
-54.5310000835818 -8.82559001019631 18.410551643284
-12.3410775593149 -7.7460536213344 -0.175096989159442
173.864237111851 -20.2049384322168 17.9517191391297
191.964744096188 -17.9948663012975 21.8179035357731
-108.172579713095 -6.68315612954466 -12.521344495545
162.520188682934 25.819798293177 -2.71364826684853
128.13509484403 15.379655656055 0.514363512789984
135.274671711756 17.8334355570207 2.44117213691215
-65.7178884648165 -18.4681832215134 2.22548864441961
-211.386104704107 14.8836076353451 -0.542401509864623
-132.421962447611 4.57658616817977 -12.528955249287
199.776109589032 16.9471297155702 -31.3798352415219
-88.8682627779756 -11.0813096543889 -10.2816634615681
206.090772347759 23.6152918811981 -27.2331745947788
202.115059860671 -17.7208033031869 9.00845732497731
-156.712316709227 2.31504046138237 5.43692996411676
-14.7992586024169 -16.2326452663792 11.6493437008661
-185.782897639399 17.8802675588704 -16.562353130534
178.186275123042 -30.1885933262876 -20.3603747513892
161.050010108881 7.86937195334817 16.772527018881
-54.6772846642751 -6.11264116761354 18.88496822782
-191.998212308679 -11.8066478630553 -24.707221861276
32.6371096764463 4.66347185086654 1.22551249145467
167.048746683255 8.85183965317186 -10.1899818569796
172.064650016328 -16.9300992636245 -26.0899075496896
194.738239562579 14.5709590992395 18.4953765579919
-135.910451818594 -2.08006689838283 -19.2236707649157
-196.317604854483 -22.1695729346358 -3.10455338458894
-155.801072887711 -25.5943321471304 -13.9174780628155
159.753445039566 15.3390758457557 -9.58068349283508
138.668407454306 7.94990201409837 -4.95789696566644
128.545110275042 -5.09936043512043 -6.43599810544132
-69.8108070387316 -19.6610617548678 3.80036126576876
-171.040762493849 11.9446848559577 -9.56580210900664
9.17204985474146 -2.16927184171604 -2.72254414527994
-178.753420508162 39.5006387393196 -4.63447464651911
-68.0991382672658 -19.4913059593223 3.62602380545175
-59.3272326372771 -7.15151795682754 18.3043269621493
206.358254369286 11.7109221861295 -16.5040510268152
27.9698538694888 4.57640775104406 19.5369282064686
-180.656946157819 5.62791568883876 -11.1948139112019
173.939815152275 -28.7549453983816 -17.8873808199115
173.932240065051 31.0486932864626 3.67264266141778
-84.013521653296 4.69683349880586 4.52118011056949
172.307468688448 32.8363788047776 -8.23457355800218
97.3971434588713 11.5848555938564 14.7920290095489
190.769731011665 -30.0529673978971 -14.2101763127943
-190.86491871753 22.9288524906813 19.4038318293916
-10.4159275086506 3.16269608798109 19.2600468551551
-157.217088468017 -1.86610711589654 6.82771523274767
127.993894814759 4.92263361081424 -4.84778628422844
180.021015507659 -1.07120775046587 17.4625326160296
173.705474342742 -26.5214649387915 -24.2090195929932
195.01342263119 16.7811549859469 16.7755855027963
-206.340976486077 13.1146981014273 10.2304098186502
28.2784090422477 3.23532845071835 0.161776582776044
122.419627553628 15.1834693492421 11.3936593376884
169.08066976229 -26.445110416147 -15.695302504515
157.754144098309 20.8627715764782 -5.52400590872996
-210.409124094412 25.3063110493565 -13.0802747325625
-197.10440812379 31.5947575136462 19.1233721911348
9.41282370995603 -4.47648959749738 21.019301999675
199.20907439765 2.19567664367532 -6.4504098254441
180.150421388617 -20.6273658059113 19.4067756159569
-52.097133291212 -3.54867938343347 18.9574544318883
158.712986736312 -11.3701903955588 -12.0206056326356
-187.694853640801 -29.1402248261012 -13.2595827113646
-136.198775874318 -21.6679267093153 3.24133158317345
-2.92846788511341 -11.7732015233192 3.07230357115969
-197.282546245936 6.80899444636937 -3.28214005311434
-167.517142031951 -9.77029444521455 9.56794636739163
65.0281094528925 -12.4020957339182 14.2247405548431
-32.3540946647455 -0.590699381940279 19.8111152790198
159.789327543976 -6.60842089272627 19.6117073933872
-73.6525145692738 5.04605822014854 7.45091128217395
184.193716340121 -15.397421730601 24.9789233780861
-162.224349291267 -28.4581289398417 4.07978980464728
-29.5906014095393 -6.39914955634673 20.4369517260075
1.90122483609659 8.13955890185538 7.57522225681793
189.208221783901 36.8069467344836 -6.87177722430815
-187.4313614707 20.430153463922 17.3103220356348
-1.22797722463865 1.42417093711121 20.4477173285059
176.648479250631 35.0884623165493 -3.82380754342214
111.087652876181 15.1214333533568 10.3641185437041
-110.119476127655 1.60338744783257 -7.19964837191569
-86.3512418485631 -13.1788039438714 13.7621585300565
117.545724073792 -11.0755333202581 -3.67216498948758
-179.779948183686 -15.1724495750113 -25.0299962792231
65.4592323106648 -13.0559215480567 6.0261589864997
-93.9096212122904 -13.6001703939504 -10.3433658958304
-181.579222861281 -4.81644271907509 -10.1738272680807
-91.5117706847656 3.73613808995464 8.21291670119234
-120.513169777298 -18.5566024661986 -11.757609570225
138.376170530265 -4.60148338471271 -7.10838807578074
142.387474557666 -6.65436895990089 19.3128325474758
-126.850624369541 -17.7962238110302 6.99040336325466
-181.694865262626 28.4499463300513 -16.1985067787095
183.092283125462 16.0241301381323 17.8998961756416
-178.731505077559 -32.8923598976505 1.62322161503501
-141.220710026512 -11.3013711236498 7.02113006243394
-186.075935480109 20.1826595415784 15.576905024055
-15.0962747093769 -1.83876742228349 20.9412912563034
-6.00238348023839 6.86569305794046 5.87853689789344
-171.445976305851 -26.8185978426328 7.50002304358823
168.990127390762 -13.797579007459 -17.7021695095972
182.183467756583 -4.20636332304358 19.4147576624373
-193.061886571407 44.6546002894804 -0.972778418337254
175.811512817894 17.7981734186246 -18.4369482793349
-201.818490617415 32.1754493853979 -18.208402605758
90.0494707895269 12.3529287859311 3.1906121419661
-196.569306310593 -25.9193729126126 -9.0327132124034
16.8573481447944 8.87155934959956 15.84762755111
77.8469051542653 11.4710856017913 3.7238497242981
67.6967275825268 -13.0878404756452 6.11069273068778
-172.082050309688 5.98697886957046 6.18297870801263
-55.3620377974566 -0.194963883270198 17.353533322776
-118.929219467295 1.5697248729143 -9.98667986718239
-172.869913150093 -17.6711146938294 -24.8733599481025
-208.597296511413 37.6598112222453 -9.79837095484607
-187.38704159715 -0.812293491155162 -8.29490499489459
58.0305762786438 -13.1473147266786 12.9600820241875
129.929426559639 -0.601441111450989 -6.01983510059232
-193.682670322176 -25.9769188576418 3.00817162547529
-118.556418934285 0.307111276360252 -11.2572973567727
-87.7486400885819 -20.6521822677124 5.30719338319279
-123.448646127493 1.55379475282719 6.83042498598338
-146.308218396721 10.8892153870294 -12.5945943687388
-172.905743670344 -32.7067412809273 -10.6721589838076
-170.644597881704 10.2121694957108 -10.2943163802903
-73.0354581413974 -3.91869919469624 16.6362794322396
155.7497224774 14.9708956902982 13.652437939555
71.2556433969038 -2.26521032185529 -3.47266589627061
-42.0357312258049 0.213340444753637 18.8469616402727
-202.167763781357 34.9023475747607 16.2042131088416
181.945681215532 13.4770402458798 17.9643231247445
197.083716971268 34.0136020014078 -15.7242067631103
53.3203141147687 -0.397327820216637 -2.86218355244169
204.030412157131 17.9544700763461 11.9792352962712
202.148912975743 14.6502127975015 15.6076162141284
-61.0383803020254 2.3061179859011 0.297574035869193
157.619106378512 -19.4930578128231 2.36693182441853
174.738094288676 24.9409888667546 -16.1962320486861
-157.411775474177 -7.91591959783892 7.62215556358156
-63.0652981632847 0.772339013316926 15.6462350050945
134.557958302442 -10.5177298738348 -6.5916311926204
-50.2452425629334 5.52030164323858 11.8649524931029
22.1085966031639 -14.7739185702894 10.5757837529419
46.100994201132 1.15417143019743 -2.37573423946648
91.3906352717955 3.52239977725003 20.1211093893761
-162.189370889551 -30.0905335800105 -11.219364993059
-118.965147377737 -10.907716241197 -15.9068218231231
37.8359658977597 2.98772093128654 -0.618422712947475
-205.532435080267 8.66552128419747 -2.44220771908302
124.081637513233 -14.0118430736588 -0.0124150799181258
-185.563957276736 9.54928964803242 11.1701505145528
-156.403230721072 -22.6904832752709 -19.1106668069977
158.074216526153 16.661641834329 -8.87046398200861
170.808598940455 11.3873390362199 17.0528619631217
175.205839912047 -15.9329285974387 22.0104949398589
179.897604284844 -8.19256500069468 20.4998379342045
58.6000577693656 -8.71775915852734 -0.0532745508542531
-90.8759107858227 -16.5711263052379 -6.35891430160513
-212.317776864416 36.3626895650798 -0.0437359527087638
-138.647582051271 5.58474343295929 -1.75892291141754
-70.8825585240603 -14.4698113433371 -3.01076782384351
-164.632132924093 -28.8687439488485 -14.1935530540949
176.363595606382 29.7969083139255 -16.1376551421698
31.8104603427926 -11.8194284083617 17.1102759249797
-199.587391473335 9.98741762557355 -7.7988589049694
-181.60846962522 3.80526087966013 -11.0214650817735
21.2475948113169 -4.68850624876091 20.8031546256871
-137.79503826806 -23.5405518352398 -1.75805976010365
90.2151850817395 -10.2068444641419 -1.76649435719477
193.780907106771 -28.2268033922996 -30.8801747878982
68.6312450148362 -9.59520606594022 17.4246598252389
186.868609153424 -31.8392149935158 -7.32227776286394
114.616752803171 13.9637605483436 1.86716518957625
-50.8181431931022 5.44806906402768 5.67313383165883
54.2439815434445 -13.7489209847822 9.2107652759389
-116.606748395068 -19.0277653606047 -10.1593686247694
-181.384693961812 -1.13180985185314 8.30451966212289
-31.3723820329326 5.93182736209546 15.2011897177107
207.250807617275 13.5415387890125 7.38043880799016
110.181914644415 -11.7813412206615 14.4165002572503
-0.107307396716168 -15.0093029517853 14.5916958807537
-162.417662444152 -30.5253604966669 0.297428017904622
-199.588603668115 43.1880333741132 9.35020179717666
188.085605271764 30.7596258177478 -32.9766955049353
180.983014570757 -25.2702438785298 11.3871112058246
-117.518064042914 -8.13456915618528 -14.9293098669912
-175.485861914659 13.5044977328389 -9.71317082814156
-140.833268083155 -0.455921250594526 6.79069199345693
16.8009247655593 -1.95030790779356 21.1118568359539
74.1828167785992 7.21750296768395 18.2086420095181
185.708728000495 -8.85968902140655 -23.597919436081
-194.69190497689 11.8156838286209 12.7041980390851
-140.857312645003 -24.1217345974145 -4.83679706203833
-187.021876045736 -25.5006944577625 -19.1922182387419
200.056417266702 -7.2887017413578 -10.9279195026632
-210.813709033034 29.4063308789946 10.842736578248
-174.056084266362 14.3432886825449 4.73951111504961
199.231192626966 -2.50036056574252 -6.22453604694972
182.772751459166 -32.2072809528432 -6.42536046708077
-202.385479251311 7.16392571812638 3.65422450951052
-164.372983382437 14.1651193649825 -1.61661557228321
174.214942261862 -5.58735693473374 -16.2517393508793
-46.5379578730747 -7.80292816936311 -3.76231381822901
-184.85945626036 -22.4223988414107 7.76894605769577
169.693436383415 -28.4799891262858 -8.09309644536513
-145.977881529096 -21.0181100635854 4.77058896129947
-198.537485901725 -23.1698378487996 -9.6669063908917
-64.9497552866024 -14.8093345369984 -1.56312028417763
-149.468219478365 -10.374203627847 -22.3352177266195
192.866437437518 -31.9778633347187 -26.145082064457
-100.091077538395 -0.617924388257707 11.1127409453314
123.401435725001 -4.58482240317972 19.8369909921256
-74.9520400165228 -4.71343166314429 -7.25613879214071
-150.722653466798 -13.7162637928588 6.59388303205558
109.775161115648 9.68266300667124 16.9340943949289
-174.478364709692 10.192981510046 -10.3819770839116
-170.850220933678 -5.14970047428784 -22.9183290035531
138.887281129504 17.9259355426826 0.439255593577038
160.96248882898 -21.7645997870984 -5.99225053293755
-205.696072429647 19.6504692665134 -16.1300915869073
177.638291517654 28.6958962314307 8.1306814476261
-73.3252250700158 0.943491128792377 14.1321921185246
203.175614943388 -18.4879178647264 -8.56596776081086
-72.9173876210303 -4.23578761930805 -6.8219172389019
65.1108155347477 -8.94694800119341 -0.376781145004082
30.7156260364564 0.701162214601968 20.898240508566
166.825287420134 -13.311118014577 -15.2887206508179
181.190309854607 34.1735449056969 -20.6156204433543
72.1960524831826 10.0725163453053 15.7864599459663
197.612759484702 11.8852323909261 -18.6604299383732
-199.386731775465 18.2173504575202 17.6254208237389
179.526411825067 -31.7388799741933 -4.85750978954988
-86.0818209114697 -15.4006797932048 -6.24730734439738
-189.179639414641 -16.7610133847219 8.55460944979795
142.886189300801 17.0763100914649 10.6141508292815
34.6844567523116 -11.1624457852856 3.19162072655182
94.4255271022376 10.1704871356897 16.3458143069528
187.446293147441 14.4651485589101 -29.3474198737012
-178.57638771999 37.95834591936 -6.60108557260932
16.2786046359603 -14.5315926830165 14.0500801146452
183.190666051036 -4.75609902926297 -18.2988203378731
205.135270681223 29.5940153018324 -6.73235473712186
39.6918654260964 -0.0947010759526924 20.8868701820253
-188.677785598585 26.3392161985635 19.2289445104254
-183.859819588349 44.32425457497 0.494951119173347
-185.195996722163 -31.2302809620637 -4.26550028083007
-203.244176325442 39.1008464502502 -13.6868019841629
129.054167440796 10.6341678740873 -3.04509081121521
-59.4693911349055 -3.32411095113404 -5.05033603549054
-208.57686796928 38.1541147312441 8.47541569942762
171.414293395489 30.7159852534748 1.93917543436315
200.540585354156 32.7330396339933 -22.096216671495
-124.257122850102 -13.0348113132368 9.05488738511775
-188.922045329602 43.6593150046685 9.74154625781154
138.858302648454 11.9583320554228 -3.71211662416879
-197.615929543267 -15.0242694256727 -20.3222162695948
62.0598955132502 -7.95688924952015 -0.900899608031929
-187.046326551705 -30.1136427324738 -10.6720628951682
177.520408408686 22.3668630255753 -21.8605282617769
-195.176742995427 44.4234699437536 8.95796308960652
-201.983870602434 12.2230994297897 -13.5711509667334
-41.5870176261129 2.07329189321581 0.514631205917221
-42.7680926319773 -16.6086563300302 4.83573831651235
-192.622547739551 12.6611701342657 12.9125268320513
63.8483482976426 4.6450249183249 19.5788347744778
28.0875786609524 8.35733193494326 5.33115683482273
-166.451247189528 -2.74503292142625 -23.4098552269057
176.852232679971 -14.1198909779149 -29.2926629508858
203.793946548542 -22.3738805117596 -9.51770787593464
153.939788836347 22.8242048738049 3.77230603363226
185.832419832523 -14.2362421614868 24.101144866791
58.4467352265083 10.2717500518419 15.1385904487508
-169.845788537965 -23.6656125407317 8.27785238507664
-8.18561994294888 -1.75785850333956 21.0500641657056
-195.332629606964 -13.373823209044 -16.7521544371393
181.304971214678 10.1523007287277 -17.7826639754336
88.8894186213674 8.6183624604262 17.5715538778319
201.538016447197 10.1837428969424 14.77150721239
-172.716295940744 13.3598444332923 4.60931900236819
159.505093324231 12.0048472254714 15.4491732075842
-34.582688437867 3.30777333938977 17.7152658902586
-132.374144462849 -23.1510958324555 -2.34423466847058
-99.4067712571196 -4.75574682848326 13.0527036770283
177.683692226405 -21.0587286259408 18.4256460404001
-54.0956452603283 -13.6828260917401 16.5756553679075
173.739118992667 -29.136479303363 -1.81887827927622
-165.61484662941 -9.44423248658874 8.92714286613279
-68.2038449344725 -18.2110098864753 1.11503025697867
-142.691688476998 12.5499291507036 -16.7469052850628
198.337746050835 -2.34306518473531 9.88497441754317
35.6223819002159 6.19527883072502 2.45978480370805
-89.0175855540053 -17.3958637627431 10.8665382806327
-103.263307989957 4.3536957905414 2.56799868675599
-185.832112139067 -27.4354343107723 6.23927390143856
72.7594193386306 5.31886783002031 19.3156808417317
24.0137281492094 9.62593084567668 8.92032031986291
185.954778941665 32.5050089714062 -26.8613503045732
-3.4316216419014 -14.5631741456756 6.58491270766437
-138.503959372211 -11.3482599918905 -19.6555629547585
185.716839403947 27.947966552831 10.1583873511766
182.702738679293 -28.0041159763359 5.24076232340305
194.485459799055 10.3594957321189 -16.2257972793717
210.601609989607 28.4631740315505 -15.7516901123304
169.502060040167 -2.09023867436292 17.5702074548349
33.1869738438311 -5.30418587941859 20.3800448063359
37.1230311688985 10.5176050341099 12.1285733502251
-141.111688885373 11.5306212625767 -17.5317195187379
107.659187998516 -8.08634641241291 18.498712078089
63.0471757258831 4.53137633474838 -1.25278534537299
-196.355031751779 18.513237930517 18.2973532634502
-195.943767136828 17.0831821191976 17.6729236831497
-176.469139980649 35.033139929888 -0.116817248940607
-28.7564261211642 -13.354845642922 2.63486621865455
-40.5588572641688 6.42158449389607 10.8240318737021
163.935089186892 -23.0826974171884 -5.83857861548627
65.5698878550365 2.4916413085882 -2.28520663374814
63.6316332716953 9.67471969757018 3.22702692297001
-196.01447416441 -26.9263811388817 -7.12996791090239
-180.916200959739 -17.2950423539701 -24.6384679296282
-172.969647857789 -29.3175584251662 5.28614916877488
-105.486605095365 -21.3871619098665 0.0886355400620038
50.2821061873701 -13.3048041438992 13.6902738980306
131.179151326887 7.52975308128521 17.4992924800714
-200.765408854326 7.35011857264263 7.43532508025687
94.9480291732751 5.2641955262702 -2.62738958958788
-189.85488997861 -17.3555154636752 -24.9314470417264
176.43353805577 -6.09193045279648 -19.2504841364663
-179.19849784412 34.1975842684667 -10.5643923609913
-87.9483118490968 -15.5738531197562 -6.61609554708246
-63.7496573034756 -3.24570993497425 -4.97066741136821
179.555190924033 -15.0322418455251 -30.9077334463721
-168.48590393085 -14.5025070613299 8.46236114095633
-189.475190167833 -26.2004602111105 -18.0320642309951
-199.192238021584 30.7477954647989 18.8184696448969
-203.675652490531 35.6370805627873 14.9240086919426
-155.817054286314 -26.4278087549308 1.54254985540327
200.569623608784 -3.17265678598963 -4.7644950139506
-119.406662946455 -22.1452658333829 -2.42228521371746
145.287386876349 9.66952469536512 16.2132492928692
-192.506478483629 20.7694030220366 19.0667001844261
96.055167332484 1.96397130173649 -3.76985300575695
-175.212630705564 16.9674162054906 4.20056860900579
-135.335799543016 -0.436027047563673 -19.3623564348402
-15.1310263650943 -10.1959586602356 1.20534422988949
23.8063057723286 -12.5189161724722 17.1033209417984
-116.530113351644 -0.0628175798700504 -11.0033894326557
134.097238715054 -7.10197248894355 19.0857438443676
-99.2863331791273 -20.9073438292658 4.0986021855968
-71.2065316300181 -5.34792629803744 -7.09182210776457
-74.7690667570523 4.71645496120486 8.86632606463361
90.7875084036283 -7.94933648563182 -3.43736841140067
138.877482104235 -14.8489338442616 -4.32054642494014
8.72365984265232 9.36607014122477 11.0048800448421
-182.55139629762 -31.5129775393427 -7.98036022528415
72.0894311343193 9.3422887842464 1.8519011027338
-120.123075714484 -21.6328023204596 1.65764823453315
-42.7663731081273 -8.05672833065092 -2.96911478535763
-193.931213026118 2.30467437599975 0.250250258775437
-52.0961380003901 -12.4678682832204 17.3800221008145
20.709961532747 9.87445023398419 11.3058704598846
-194.987221189773 -14.4617294698275 1.50894141785113
-191.506921136682 39.2888400191455 15.3688320836778
162.234039882834 -14.328259273925 18.382913970409
-121.553271564259 -16.3075305558313 -13.8474132417103
170.826778762194 6.13557214045753 -12.1254444994082
-179.151593527455 33.7607758749693 10.5610846203945
27.6374636511152 4.64794437905693 1.49683794972313
-23.5168841978078 0.432956257360037 -0.871892592351546
-187.377624665081 -8.08967012136064 -6.45692827268121
137.893132421363 18.3763672940351 2.20247527222331
-62.1519733248239 -16.1263550393884 0.26603005388824
-199.61942791678 39.856449096431 13.7520088356933
60.5914396249218 -12.6020600357683 4.89453017385479
207.023714802863 13.7998072466459 -20.3373201344465
29.7841646038025 3.0756232840803 20.1932295914701
-196.569818083783 -12.4280839717359 -22.4947767725908
-12.1611647526294 6.4407276879802 5.65441436470253
171.281626899092 12.9368622756624 -12.217659509751
205.598571598223 9.4785399013515 -11.5555655585724
-165.715289600032 0.618141818536765 5.89246550604754
188.199901455346 -31.9903776194105 -11.5740584797741
-157.018577984515 -9.85089424466285 -24.4337572140671
188.129623676453 10.1940993699149 -16.9639688490047
-34.2164413486182 -6.64751695459065 20.2271111432102
-191.188758075758 -3.20775066298023 4.61144576525936
175.050158513642 13.6084267891793 -14.7966018964125
-127.656908508287 4.45842463644583 2.66614469646751
174.251139102964 27.9349109919108 7.35792932012358
-36.3962045518531 -4.37102402265031 -4.30728077312576
196.429988648408 -29.8803380174617 -13.6640155665206
151.163370000262 3.88054353751438 18.0763435816041
138.262212906289 5.6573832560515 18.051806385618
191.976434753259 -31.3461445749986 -9.46260924848569
183.272262750261 1.93982084992194 16.8094855929708
167.953006289916 -21.0531825655421 10.5261174034066
-179.711742636408 0.0667782665745311 -11.2139868181013
154.439583447973 -1.52012717278127 18.9137057715054
-100.110973955963 2.40788244913932 8.6305064624955
8.48305981012809 2.73056836812315 0.260713948007997
-5.07290524158898 -14.9987297636299 15.1637305899591
78.3897398794931 -12.4079821921886 3.22109229820195
-125.721336041228 -20.2777468040163 -10.3880962481778
-175.654643168797 0.707454973085287 7.3402853640492
-177.904753234983 -20.2316496397472 10.5247004096223
-92.8299218619639 1.0830305607909 11.0701743259057
196.20690326051 -27.32513594227 2.91352908105558
48.8999964418335 -12.3139904181051 15.4583296779228
-189.141518081803 40.5032158979386 -14.0932829114138
128.461066200757 -2.88986823432044 -6.22791180680735
-54.5754996128182 -10.5469721940823 -2.8815682396695
136.770448635395 -12.1380793472676 15.3948041970251
197.919926617024 -4.77183718927235 -13.7608228769789
-116.140684686676 3.52145832628177 4.39306439492167
-123.590376275702 -21.9411702293876 0.981803447956275
143.194592895537 10.6938430380345 -4.84801797861472
-150.384094957725 7.44305157809254 -1.85766116715962
-140.3621657238 -11.4858525160686 -19.9181290892373
-45.5617600887345 5.28526870310885 5.00566942502783
195.022027125797 -8.79165245255649 -23.433652232616
11.1146849876305 -8.58986569768465 19.765544402699
-153.983881869452 8.79744018984548 -1.63811603342426
-29.2157135331378 -15.6203518027237 15.4339428163746
169.92805514418 25.5640931095528 8.01065089009345
41.0031702324699 -5.00767731002902 -1.40825756971411
-182.183935324051 13.3468204216029 9.44851810083177
82.7293879288997 6.67960106986786 -1.03498590873581
-122.02348904157 -18.3530485416738 6.89641070673366
-171.996565871224 16.817972310573 -6.6455045799798
159.092862771097 -13.8392763971185 17.4862172962836
172.86667923495 -29.5851651414327 -4.53199442918085
28.6015669411001 -11.5636924219833 17.4865097891804
-179.714588954256 15.6437141060143 -11.2476634295709
8.65675520555862 -0.432778613963306 20.9895062047762
62.2454030359365 5.92921512480905 18.9392184641469
172.439233236543 -4.89984127078916 -14.4339021829905
102.994581225873 12.632871384029 13.7923256979429
161.837618740302 22.6745740305933 -6.4507251424627
-8.94799487230534 -14.2841872455929 16.4704350603289
-163.535000678063 -31.3598762355805 -9.21331933659744
171.272217927305 -12.2031077887712 20.3184378393735
-195.054788006501 3.3116673876113 2.10313370132825
-192.575257953043 -10.3337967522863 -23.2252442751013
-107.763659785032 -21.4279438712454 -0.819360491697249
141.66001247476 17.937806937625 9.23416889289897
88.081851878548 -10.3121090259831 16.4017822312828
173.98383682993 20.2862109192861 14.7106816522186
-191.826646352122 -4.55099963756686 -1.49700187463576
-172.886529742225 -33.6699457335388 -8.67218145199886
190.174748439953 -23.0471116030128 17.2333821333602
-134.079237556854 2.81938895481471 6.33823475527081
156.232306017003 23.3201240865349 -0.305111793064233
142.287910287688 -10.5666814776901 -7.5042104817199
-99.4890695157814 -2.3980130871515 12.2000960278695
-177.961878464089 -9.11833772917869 -22.8372917214537
-57.0920050128807 -17.0059967060129 13.6169396827951
22.566018262346 -2.01298855902325 21.124825688044
-142.771798359479 -10.1541482516386 6.68379972506204
191.505892924714 -30.9020541720997 -5.86659412018994
-46.5592648080215 -3.17274241645679 19.4378731882159
-106.73115859757 -14.6174031943549 -11.4259319952753
186.09857337139 36.907034888353 -10.57394577293
165.720362502166 -24.7082126879726 -8.26203228447755
-197.066266134804 43.6943954473231 -10.1375318885818
-172.828107606632 3.49425604871999 6.51172181836222
157.913718017456 23.3869475195172 5.16892326917919
-210.788327884397 36.9017288189659 -6.70020208008422
-176.026598290794 30.6302584167925 2.69681067122043
-182.129561539661 -11.7507217407812 -16.0260678985423
-36.8695599375757 -8.57351128914368 19.7286400090409
-165.53672190617 -25.8061129261894 -18.9483400953945
-186.198281344219 42.7511669705344 -9.48767902732574
29.6925006801754 -12.6102943939146 5.06282593770575
-186.717724976344 41.6333916470554 -11.5796476180602
-5.97738898370597 8.55388713668582 12.2259659847575
-146.962266285445 -23.67996479004 -11.1842789808291
-190.517729618597 -29.2583988912342 1.02002616315427
210.156182596878 15.4393885999321 -2.18579584935205
-165.952236469956 2.79869220960608 5.57325870153755
123.938149102849 5.93467296913499 18.5163037016791
-169.599885748676 4.45464337157475 -12.6674064852949
187.013243874593 -18.141719587138 24.047963959151
184.75405049892 -4.22081716943502 -17.438032670723
31.9258783755544 -0.185249801662213 -3.11561532765726
-190.656960628514 -12.7351233771815 -15.6519629944555
134.4075710581 -14.5021012112397 -2.96196710447985
184.90934918208 -13.0559014074829 -30.5175319047857
67.4482163303756 -1.32085182809241 -3.36807347840673
-199.222132668751 -19.8598021259396 -13.8247348087915
114.026389524495 -14.0174444799088 7.08428776250209
-169.376463217291 -0.68739039503573 6.3760809932626
-126.774774180672 -16.5545232371993 -14.7889429016359
-183.902346749358 -17.7326347663706 10.1747694729062
-184.679377460929 -12.2880782640913 -16.394618250011
-67.7263025774129 -0.264344898544834 -2.65217330539249
26.8824443884448 8.99832508860487 15.9221423560046
158.902273960592 7.00848039096661 16.9710385269963
-179.526333820939 -26.358628001185 7.2560272310573
-212.839799489369 28.7496385236205 7.24973676736568
-124.527158485968 -6.0178146728729 -15.8809330412805
198.01982506407 0.283556010253366 -6.52783025989581
85.1637425397697 12.5557236794043 12.7869073156313
105.297137607423 -13.5094424644353 2.95566988783101
38.6745091393807 -3.72000947761987 -2.28220758943965
-201.971592533352 13.0743736264412 13.8104335187699
168.252509640682 18.0091876601234 14.3009944788139
-24.9183109363949 7.34750968492364 9.60036394465661
-184.252556191026 -30.9970482027738 3.54561010447755
-3.58418421361355 -10.7218249496253 19.1413362232798
66.9018593163851 0.697890148027871 20.5879162812616
211.134712316626 22.2640097642383 -16.114935000111
58.1231369643842 11.6501926440488 11.3500522131555
102.254721069423 8.39390822756515 -1.67432440006811
-26.5375589943839 -14.9352517879793 16.314476625611
136.496765912529 -6.9910252114771 19.1260667170654
-180.512420485089 35.9768436060525 -11.900605881497
62.6744581146687 10.9897734751908 14.1399643162825
-83.9201724807544 -7.44717299973036 -8.80744694000069
86.5310729336538 11.2455977139612 14.9098477955315
-130.04479555891 -17.7589429263924 -15.0746943611641
182.210629939359 31.9283068357483 -23.3874224918112
-39.1335190985567 -12.2534135544806 0.698049995250152
-58.4056679652985 3.12140630395131 1.36978175105985
-195.211157826389 -16.3877739576656 2.98397699448362
87.267693346575 -13.4253041660836 8.58881569567109
-155.787237379 9.71682447110845 -1.79442129738436
-198.413956359412 37.7041928235455 15.9081254335212
-177.701377496779 -1.40978857601633 -12.1620540077166
1.86055842243027 -14.9470713741304 14.3913139823412
-166.733070401439 11.6917871083029 2.70381332816558
145.412420876234 14.4978591441114 13.2334077917189
-95.6393389079201 -17.4694200357628 10.1373623339559
-106.204862975011 -5.04239698171495 -11.4308057428399
-187.410588857964 -28.7867963594546 4.97360401748469
-179.201954396655 12.3820336291588 7.64212549476321
-124.475428119088 4.68442764162848 -0.969641439726001
-128.711887842726 4.90984046082748 0.615447557452909
-44.1426478196726 -17.0025066007718 13.6172532638643
85.5939175144384 -10.6292584062202 16.0538400239196
-187.572418133215 31.6775972410497 18.133621650587
-181.362706265971 -25.2240733964754 -19.9557487033423
-147.913792891653 -14.5316818071182 6.71187144178133
23.7082390008222 6.63834844225861 3.64586641685062
165.34355088415 14.0948811654987 -10.9235605217876
-170.821660847963 4.17594346472782 6.04025506649797
-189.920099085459 2.76346843934749 8.24544847727881
132.516329248181 -13.1434545232195 -4.46925790278102
-74.4688928493645 -18.9802598210274 0.636548325558251
-134.004787053561 5.06359963740192 -4.58148115848235
-27.5135595887106 0.223993053557241 19.8009036858494
0.76510978794191 8.33984924277666 15.6059919355805
-153.127587585825 -7.32690400587893 7.13679546504623
24.5094623180306 1.28122201581036 20.7576942956216
-20.1374388123459 -5.70737459265914 20.7666780823664
181.116278174453 -12.0535252225779 22.9636860785167
-137.298878968519 -15.7283493502965 -18.3921616312601
77.7253908419026 11.7052513255949 13.6960352852761
-177.436236441547 -14.6601031131215 -25.5509316054829
150.506145280988 22.0780351628264 3.03012208058793
200.985206183895 -23.3993421679085 7.35180140818532
32.7471205318241 -10.4261821868055 2.49340943757374
-68.8347334356212 4.58565547123432 10.3894898993438
-77.3420661467692 -5.14299416803233 16.2751837453239
172.245362707662 -9.03360699727402 -17.8747667491349
-15.7196460553492 -3.4885887525859 -2.78940309315989
-185.719585828491 7.87193509914388 10.5582749259658
147.624304152839 9.2759571663177 16.3522064833392
-106.696882562306 -7.75669154814808 -12.5067167376915
-133.030921342867 -5.1267730356008 -17.9705228257794
-156.756338050939 -18.1313185550537 -21.8805046936618
-61.5739850767989 5.46067482630394 6.98682811891151
-103.258081661528 -14.9892641350752 -10.9982662106741
192.95561362841 3.55919920865739 15.4859050398259
-198.930003515138 -17.0703409022511 -13.3723907484691
-16.6632497615931 5.41960486377986 4.32182585881027
-192.292997168479 -23.706224266818 5.0873755224697
-193.654219993409 -13.5438083914086 -1.65112868488287
87.4267768352818 5.33757607514447 -2.0702188090987
76.4220148619163 4.17202098200509 -1.92241344695992
171.30225837764 -4.01982863001966 -13.48743954825
-174.741693159764 -30.1547327778114 -14.3435252701341
56.7380101352234 8.63714377669587 2.94044278842251
-175.170258038722 -33.0124614223547 -9.43183677590171
-204.218454119331 44.2253544166475 1.38810165714305
62.4246750492755 0.838743578439766 20.6321597236703
189.191566953041 -28.5236548522642 -31.3073877937866
109.376582802733 -9.45760871779523 17.3439590503023
-170.857931231838 -21.9465711756352 8.83857079774999
-28.2324801598711 -6.16205958916003 -2.34202085243153
-169.161498143745 -8.62953452507503 10.2333097527191
-203.403724610509 11.6876902388746 -11.8169295415403
31.0718267667718 6.01406692872562 2.56043537145307
-49.1768176085605 -18.1580472965461 6.29160566679834
-50.9179287357713 -3.29022506985447 -4.62366298722094
149.217526456092 -17.2385106139256 -4.50403668871133
-157.160800303799 -27.2134098608854 -10.8037100871966
-90.0506558827083 -15.3433981476588 -7.54724426582442
-148.676435738545 0.62330170141238 6.8513727595828
185.395592062681 29.0187815697861 -32.2529531819713
-49.0076607210786 -0.409119560954438 18.3047317833361
-107.113943701225 -12.7195848898845 11.50332684312
199.406578266169 32.8996589437322 -23.6011110323774
-61.2399159162159 -13.3536669429656 16.1504020567854
-122.254068575901 -8.92400550354102 9.69752823324784
-108.26769115203 1.49158749408878 -6.80062452054938
-210.016171090772 36.5985013495727 8.19788526875674
104.931377732659 15.1744495245832 9.12359662350207
23.4830813775873 0.216576929098422 -2.86634300489662
-95.6179752404899 -20.4345440081163 6.0411007291404
-51.5198027442626 0.121269355377953 17.7026153338697
-176.116413637427 30.9920952020665 4.2914704581407
208.592544985854 28.8291861786136 -8.60060641773628
179.876656160636 16.8558541212344 17.6146842757291
206.902703833872 27.827859442262 -25.2663792230599
126.956253534709 -4.76931900334143 -6.31683248734495
-170.195959209029 17.5339804519187 -0.40626309684585
-190.03483740969 -29.7724536048973 -1.11511192629342
133.166097973733 17.0088418780028 9.41642617164664
-20.9611606289798 -16.3649297718634 13.1795206626041
200.657840744513 -29.8901463469788 -7.37114882864876
-173.75786441753 -6.10884142760968 -18.9610626832744
-103.93048244687 -16.6292139162832 9.78902586588372
205.334149134482 9.36767966066423 8.19765803489969
56.4398308529328 6.92918410264895 18.2789982618168
-198.01528744568 5.89302507162031 4.75948327228897
2.93497339471903 -8.50585889464634 20.0558365268876
-123.010520569509 4.44131276036305 0.791244041960694
96.3438433963659 -8.954720715128 -3.30393671368098
-31.236092960146 -7.43388388552486 -1.81250985319278
-190.3550038678 18.0646775640407 17.3937584234243
-174.38638588661 10.4148013739311 6.35496696314177
179.818565711107 25.2520693784576 -28.7770927102602
-136.713177870849 -1.91694238963148 6.63973160923795
196.184662311847 14.2874329703146 -30.4577090039748
-2.86614049977792 -6.37743375644141 20.7872424402396
-118.696196162798 3.48235695460258 4.27133838109933
61.0684442734843 -10.8175838190671 16.6544496391719
-104.319331158004 2.75196450420754 7.55819250079849
71.0244633931863 7.5529188850732 0.335373234224869
112.560519053543 6.55268556374755 18.707013812222
79.2462296723483 4.66302518544114 -1.81593723606017
-49.0869782777384 -8.338178564622 18.9529613038462
-178.173618438813 28.9196796187704 -6.43102520902493
-173.846779824435 -26.86382448818 7.11900237042372
126.200252381484 15.5587700361477 1.4041207300817
-195.764821349125 -21.8157070200549 -18.5384815433519
-94.7313872840929 1.00255201263105 10.8595444775599
-161.570096957223 -22.6539528726712 6.68169219276145
176.433992503193 -18.1331630547061 -30.1687556792194
197.771916298054 -13.5181414736668 15.6322144295512
147.756220652876 -9.1055843212789 -8.58306396418847
-63.1687700783858 -2.32435416940984 -3.898906786605
-180.856246244011 22.0383473373978 -11.7452776830989
188.569226023201 -9.82894126464136 21.3050362575575
206.807283224741 17.6753909769244 9.93448654901121
211.493249149247 25.6009770951611 -2.63409060618502
141.680610321549 9.20696012265532 -4.98442792169256
146.459607492594 5.32424104071978 -6.31402412639681
-104.540809581553 -2.20952184856856 -9.66669912778341
-124.822876772525 4.73075744946393 -3.08593961626334
127.927085611928 16.2422514220732 2.08959871539343
-42.8204177235155 -13.9926138736226 16.9269563601473
0.764179562450605 -9.11677662626862 19.8764150415505
-136.277426696546 -10.634910996001 -19.2676288029544
-15.9168886487485 2.53343323197802 19.3914028365729
108.642314974347 -2.07638834024305 -5.02476357889263
191.023115276505 21.0903949666142 -34.1869665671903
-175.179728467755 -8.90714070797368 11.8675377713685
-171.707502341037 -8.57647961452721 -26.0747413844403
135.737480741774 15.9193478861689 -0.958492287325614
81.6381314513692 12.4934128138425 4.79009632731421
-182.105553669876 -16.6088355363768 11.1008766874414
86.7172576407781 -12.3515810850763 2.01853169870048
169.896231976519 -16.0206078310522 -20.066249573335
194.513362773554 31.5517298984761 2.02098729657586
-165.295491178841 -13.1431966775391 8.23498409292619
201.536473074581 -14.5503547040242 -17.5084182982747
4.89921484081872 -15.2839329382897 11.9946783085443
140.836553414738 9.30656282539327 16.4200714211426
-10.9312530633697 -13.5749427048924 4.48463774265253
121.494466992795 2.54215602138888 19.8107014871052
196.075596977628 -0.840814664302455 12.1301966962639
-24.8954521164541 5.80278445407449 16.7095825773825
-153.116774654232 -8.86510180722446 -23.7279911306478
71.1688979566952 -0.439868593923957 20.6587435460354
17.1114779494752 -12.2058727976392 17.4436140744854
157.856674211531 12.0280337050516 -8.69652470944713
-20.3826109692533 -15.2663106067862 6.19881038785828
209.301779497145 29.3742214085333 -14.7821445650748
63.2574280863301 -13.2998072578451 12.0253590004758
98.4877912959916 4.22231806421634 -3.18252614770386
203.376349085676 18.9885730325214 -29.7717192526046
200.396032004176 11.2276251654431 -24.1739619554694
-179.917881281232 -12.063019163073 12.110007904568
129.424540626961 -8.78859504090543 -6.44746859180043
-56.1399571633052 -18.6347494684682 6.03056350807955
138.518166288672 -13.5423739204377 -5.49407067559271
-120.784085779675 -2.01074538916851 8.7920221087549
-193.048494731773 -15.6645340220289 5.85642495600487
120.039700254992 -5.85625453757653 19.5035645231533
-47.3771006599414 -15.448139927882 2.46786801328086
41.9575074965098 -11.1709018219989 16.8018686170321
200.517876822014 28.2604510772503 3.18514004762422
-204.06289645033 36.3492402021807 -15.1938933206979
-9.78020190763146 5.11973164147631 18.1641798650606
193.63392917468 35.6851048889373 -8.77340894234994
179.000041384966 27.7561678083334 9.80705641336771
-109.132974995343 -0.190344457935483 9.56325784775489
166.430800055409 -18.7577156157685 14.4736440991762
125.889927937171 2.03357355871677 19.7309258020556
-200.852250222434 11.3827785692618 12.8012109258135
13.1074689184461 2.10360688084361 20.3985153475522
165.280222990237 9.92176455551127 16.5145667309731
130.764462865635 17.5141919748591 4.42345586562596
0.399737194172969 4.01637756994338 19.1920315607731
-175.343181118079 -10.7368312252032 11.5398311778519
-138.62990995871 -22.4738023053343 -9.86310388233921
-212.857120472306 21.9516465360774 7.03115487613819
184.05825005087 -13.2808711368733 23.913004068111
-176.447244950389 -7.82197456598477 -19.9879076855822
-163.497381465123 -31.2822486892182 -2.78092201431472
-181.629874306918 -32.1459098715139 -4.34240417614267
-134.848671180852 -14.5797977306948 7.71527861730455
194.514486296634 33.5076691731468 -23.1588512472405
61.8756597279072 -10.6312651719733 1.514500858961
-168.837963308528 6.9508590334911 5.32665428323091
-104.848701722055 -3.8472946622552 -10.5267429779977
-141.47578848135 10.6892284399119 -16.2856421006743
76.3485250404739 -11.545908541081 1.54434534333901
-184.229326113574 -30.6778143252318 -10.9647806851498
-192.270895474139 -3.68489016560498 3.17995072402331
204.59187773968 10.8537861933735 11.2202949596946
-40.2454001388504 6.35770464328978 8.12964190009216
-43.8858398146607 -15.4848679839659 3.13591294387617
-54.5071774159568 -16.722464865352 2.49253345934043
140.99031571172 -2.36472883150496 -7.01487383672424
109.371772738007 -5.88467893915886 19.651291897854
190.959904768244 13.956452054736 -30.0733881738411
207.200905518074 9.31371352786619 -1.96329003248931
5.97907703924923 7.18301972649278 5.34720781199091
-97.4180377267384 -17.2795943182021 -7.56250913503376
-166.042658942024 -31.2352853283162 2.75010399919578
-107.124963286707 0.853239647845227 -7.16431027236804
18.1495942744492 -0.843911467818396 -3.17662929851853
200.211348783593 -17.7701745327114 13.0218997711805
-187.350008591211 39.5020455536329 13.7792514681446
-157.104653097914 -20.3731375483901 6.16927234178094
55.8788912033918 -11.094922820029 16.5699912343342
203.252196989907 -25.918125350848 -18.070875550474
-159.786601080395 6.54845766150423 -18.5150291322563
193.963928813272 -14.4285706702848 20.1796994602678
172.879721073228 -7.3323265562583 -16.6555125407473
188.078045660096 -8.8258799514043 -22.5184562764502
-153.404924354183 11.9479817351442 -13.1975977133103
-196.612925077425 -19.7097465546955 -5.15094586062177
-181.85523844309 15.8108194912026 8.81003957310029
-177.943415085961 0.766713629970679 -11.6237721279357
-48.3127843148392 -10.9340804998619 -1.60286088211733
201.833879145466 30.7914205409385 -28.5362834104772
-211.184428059291 27.1444589818488 -11.9069186891759
-143.252972403343 -13.3338601952291 -20.5531863619339
198.635285116024 33.2892519933791 -10.3691900174825
-169.356155504272 -31.4236017152205 -12.7965386598848
-164.124677288796 13.4611621329407 -4.87832457855369
144.644778753137 0.274433282674712 19.23104908923
-106.843204523445 -12.434409621774 -13.1976635429834
-0.918187722095778 -3.10009275558813 21.1866546104346
42.19785451434 10.8279275935297 11.6312718024332
-194.33473109613 38.0711353922251 -16.9699681607926
1.98968419621111 -10.7114250120345 18.994922982503
113.779232606202 -6.43142662675293 19.3590212612181
-209.882750909543 35.2076686187823 -10.1595635437882
-111.117228047996 -6.00430540220377 11.3795521871267
-29.0183106656951 -4.03868577218802 20.6039417527652
194.3006426172 12.0437951445976 -20.5957715878568
-55.3595087061767 5.32681771922447 11.1217481230624
-60.4213007430377 -14.9812900755296 -0.569096898297544
-1.33580733217511 7.89732061678491 16.3215018933007
13.953057120388 -7.7571200682693 19.9906372670717
200.305217609644 -31.0294348465265 -15.0612328708436
-90.7674187535479 -19.9557006753837 7.65367266760301
91.0503292595238 2.96829075918609 -3.17919759986393
7.14380116433953 -1.22205634916645 -2.91998230894526
180.148388859025 30.513233602684 6.46943902651144
-185.69045419617 -24.9751657203431 7.17702261887429
180.384525620264 -20.1503478439999 -32.0746995368032
-55.3458198455599 5.73148565029636 7.50303084664487
-84.214606324404 -1.94338318488262 -5.6924647141576
156.085655019253 18.4278812015674 -6.68314808586471
53.2351223992019 -10.386753221664 17.2183836639531
-182.366789620271 -10.4296301584902 -21.1242664640264
-111.450459512168 2.67912451789708 -5.88563699337399
114.113614292571 -3.95632239436273 20.1875505839785
103.925536601051 11.7415297292675 14.9412271015791
-165.102123093299 -33.2113729193766 -6.91260809360636
185.567893184122 -6.08305397988815 -19.4271253184861
-130.081831130633 -0.124897974578297 6.87212372859007
182.94808524981 -12.4774125520387 -29.8032134309107
176.516866893369 29.9886844284946 6.22972448060316
152.890654677199 8.28798422877751 -6.88969767898698
201.738748143978 17.7247079302172 -30.614878400841
197.068209788237 28.9094127980654 -32.8542416153414
20.2143620943355 8.12259929026783 5.73280907421499
53.2359651795851 -13.826878584894 10.7445825369423
-32.4956051572493 3.87782536474225 2.45830927869096
80.6796961762858 10.4396547141885 2.07852749101231
192.818279282698 -25.0078393073535 11.2169241727225
199.104151730017 11.7660703340991 -23.0665825298476
143.012573840591 -8.68671743283251 -7.81009305142593
-179.56099383613 -31.5405835164181 -5.66783751374603
-200.870651385148 7.33375770342257 2.79359360145394
124.387717402501 15.9860617971337 2.77005369567487
173.336988186295 13.1895074303019 17.1679959783395
-58.063813647699 -4.0882804891272 -5.26509486484726
115.251826584037 9.82222336143434 16.8168979523207
78.1465905270181 9.4456906736552 1.34556070277873
-156.389559060066 10.6826001395807 -15.0804959204358
-212.116141975137 28.6511851810765 -10.1911838349196
160.519731666481 -6.72847505888728 -9.96048635001884
