-189.087487102476 -14.5790820811782 0.16280426379261 0
-198.475423090807 38.0117183881994 -8.43923841017579 0
-17.6158145198691 -0.682351930063236 -10.5868151246239 0
-232.408887981209 37.2979310521606 -4.97735802869978 0
-197.71825938861 23.9881984938296 -23.4576827963586 0
-263.51970533696 -35.4714346864974 1.57993006948424 0
-0.0128793817597911 -1.76324133484679 -10.580660025123 1
-253.138160951457 -33.5457702165503 25.7245003508826 0
-92.2437540101419 17.0856788526013 13.8574349689053 0
-204.931701761271 -7.93382213598992 14.2101655431945 0
-79.3337048483519 -9.01811433337665 4.46830769146685 0
-89.9982877503978 -0.0483965919695173 -10.9247174316631 0
-174.992375695244 8.22623245333462 -21.8678246423829 0
-81.630615085319 20.1595866822887 0.934194097100965 0
-231.357922553473 -10.5168041889913 -15.4187883058783 0
-9.94307217566489 12.6964524302188 2.6923610894124 0
-112.316707666585 5.95814666033998 -12.312194978498 0
-136.803123851919 13.4616156663921 -15.4155546406605 0
-50.7734685292353 17.7008372172225 3.01963527356272 0
-198.681490983844 8.37728025404706 -28.4373251514269 0
-15.9425709410641 6.69826601287454 22.5747161379711 0
-256.227669435969 -36.5736000714952 -13.22801030499 0
-66.432364472388 19.4916101496445 6.43324145345307 0
-184.967204348906 -13.2369041571444 2.15015876874053 0
-149.43012126613 -9.96068128335228 0.807216819692128 0
-45.3219486416042 -8.94633246820921 14.9830432555584 0
-124.183720854199 -7.5621101299657 -5.69700195098694 0
-91.126029337839 2.16276119869764 -11.0357424321681 0
-45.2937586533956 12.156464784018 -1.87363027161151 0
-185.55150740401 20.0212277511437 -21.0460113308499 0
-181.043989319951 -18.7915564090983 -12.4846050437167 0
-81.0612888601402 2.24069965015502 20.9716761607298 0
-237.024746886468 -5.47882166724715 -7.4196122090087 0
-249.748022530895 -14.9343799431162 -14.6160982927902 0
-145.112156185163 9.37479534246595 14.2377424522205 0
-238.762037637659 16.2573400546678 -27.0874713342803 0
-244.560333436137 -3.07193819212296 9.29261086567045 0
-203.944126310635 35.1070450521264 -16.5306981142132 0
-235.942112558645 32.6279748523534 7.16433509579689 0
-187.38243218142 18.40585177872 9.92850353868015 0
-146.1154162674 16.1144828118389 -16.4260515194624 0
-34.0098356131816 13.4925303789856 0.868652247517738 0
-244.020545236531 15.13572653963 -22.3537113705552 0
-164.172628580064 -7.3482182563988 -23.3500041128647 0
-244.288799080039 17.5007817535225 -20.3755574927747 0
-211.356494261272 42.2873187873456 -4.23786966460647 0
-234.084326564868 -28.4630213593304 31.9894314046898 0
-238.710459484653 20.2931672410421 1.08138535137232 0
-217.811390905309 0.352441448477558 -13.0715807230487 0
-177.605065426909 6.61513646256088 12.1345734970135 0
-194.723450178927 34.6460246089289 -6.78388264190271 0
-200.772432537746 20.1563124774494 10.3028761325081 0
-247.62097714788 -4.33118573946051 9.13747597190767 0
-217.000366789481 6.15698724273182 -19.810386935677 0
-237.378546183536 -24.9487907447258 32.0521195407306 0
-239.008283556949 34.7397583597563 -5.81272519663831 0
-235.611460713102 16.9036021580695 9.04114016213308 0
-225.922887345566 -9.82481955818395 23.1457250513301 0
-239.467986149802 -45.1906894581448 -17.3206763347498 0
-41.3188719505883 0.559494038009826 -10.0468772948398 0
-78.2686748796428 17.0145259942798 -3.61282299300742 0
-84.3430622171909 -4.74231633703417 16.4652652903648 0
-161.923451687653 22.0929815498808 4.77374262544785 0
-243.363313161446 -11.7263069141304 -14.2162791371082 0
-19.2337184119327 -8.42792463913694 18.043386569266 0
-237.586613454253 -53.8980374224497 -7.71678757431814 0
-227.378797748927 -25.8851022992651 29.9739946185121 0
-23.3248591791873 -10.2804148084284 13.6851181776622 0
-222.70448245414 -0.423237342319415 -12.519995083995 0
-185.604306996268 20.2525474235781 9.38638065131768 0
-75.0015948984494 -3.0853146773489 -9.92075964270526 0
-264.113839849475 -20.1920595498245 6.44486158899331 0
-234.939201732375 34.0051861764144 6.34589943384723 0
-171.585648955147 -11.7156237020551 8.31035350615679 0
-54.7450977140332 10.3743297785165 20.7779451420082 0
-19.6382391899798 -1.89463548774074 -9.59711428639732 0
-31.8870382222669 18.4557558998941 10.7531999616587 0
-40.4101755340816 3.08827276899054 22.904593007328 0
-141.274451214398 2.53014946692798 -15.5704696144886 0
-214.643846125671 35.9731764545943 5.33578063768154 0
-167.755905880882 -19.0506400780415 -17.2220662311365 0
-180.130223938587 -0.124109958470658 12.9114357144493 0
-248.911478618882 -50.228257073252 -7.63154336851934 0
-36.0935372372529 7.69447342599683 -5.67432752542817 0
-264.631883822179 -23.8847095358059 1.62887167517488 0
-219.507433154649 1.01477342794042 16.6261280574543 0
-190.823044869287 -4.50591814071104 14.2193889823922 0
-68.3329231547067 -2.78595776014406 19.9783564894651 0
-91.0564310865494 -6.35675151247349 -4.58879479247569 0
-8.68564237895194 17.5102720029645 13.6133515027908 0
-47.8024077302149 16.3564199461205 15.8094123522558 0
-259.501960378054 -41.5355667762015 -3.96568605489408 0
-142.569060254208 22.4852578759313 -10.3487701543521 0
-140.111234233494 -4.90388500294679 11.3399537441359 0
-154.123705721351 -9.22209559803857 2.02282719047342 0
-232.687143432308 -24.9965577232107 -22.907200157672 0
-96.498331995855 -8.24335189715782 -0.00328629023435048 0
-217.425027296789 -25.4135981083215 19.105696187901 0
-209.053087858326 -8.89258629659263 14.8213879924236 0
-228.527749743256 38.7692739288858 1.41079886916048 0
-9.45329229524445 4.94528139718972 22.8729036050222 0
-155.945290480482 5.05635427670726 14.2736020350702 0
-20.245968056897 -0.1393856461907 -10.4708724365885 0
-205.017596675604 4.25201891211778 -27.5184845859753 0
-89.4700492810914 16.9636639414296 14.1414914302856 0
-242.158528144489 17.9580334574959 -7.9649642890254 0
-215.114924826967 -32.7264736892229 11.4150995044401 0
-208.323264752363 1.65023437223381 -21.7002695604755 0
-240.931073908492 18.4508349647111 -5.73079642752742 0
-234.711954753142 -51.6523360408442 -9.5714994262971 0
-220.726536747742 36.4543520648556 -15.4367777390701 0
-86.506990171907 -8.2236350871326 0.487731415553684 0
-123.086144649012 -6.49257923070155 -8.20638358748776 0
-240.006455796993 -17.9923883975596 30.3559686250975 0
-168.085296597857 11.0192197975885 11.9570368205661 0
-195.815931470588 21.2600007397506 9.52459622436368 0
-175.800556757498 -18.9633233922002 -12.8701576537492 0
-201.151752497932 33.4418936043989 7.25863873052181 0
-134.195761337645 11.0743302418966 -14.8768294397091 0
-237.984797120188 29.8279215520883 6.05815263151252 0
-257.774925656935 -33.7944887274918 -12.6867433552772 0
-234.650025487221 5.32313369689776 -2.00869353734332 0
-37.7191580514856 -3.10766856526009 -8.18363162608646 0
-31.3186570682462 -2.88212913034754 -8.04754783023995 0
-228.352034125297 -34.475182088633 29.7829016269794 0
-170.62683387349 -7.53555411603811 11.5307406898475 0
-189.793043650439 -12.9275338588685 8.35780449676287 0
-239.914337331115 20.2850268718675 -24.5747216021521 0
-40.7400121959367 11.9204377431319 -1.42791338683332 0
-4.27360059933428 2.66693259743358 -11.0419420335156 1
-248.5555257667 -7.65610157416628 -1.59645685672767 0
-150.185881852041 -7.49900104396907 5.61711266001246 0
-132.69048263347 -9.02528115151992 -4.66070207175611 0
-168.340459625176 -18.7670236601776 -23.371539578803 0
-72.8178255293772 -5.19576518572975 17.2340371630069 0
-135.686692536183 24.6849545705974 -6.17435401991774 0
-215.898699196351 9.47236266252644 -27.0613273101329 0
-4.56789031701717 -10.9117806240426 9.5879072758489 1
-223.593332139649 40.1248506087039 -4.26151877045293 0
-171.057649915653 19.6162752911603 -18.4210786205807 0
-192.298757155069 0.344346183998749 13.4226213898514 0
-262.011924631845 -15.8835393365701 -0.961240619978498 0
-219.798177350047 -46.3973125427571 -4.7474041011006 0
-227.452272926614 -53.0519649646862 7.75596745483897 0
-1.42029165193029 9.54688543325007 -0.531574891044361 1
-231.87082093027 20.4245540131024 15.9903459404922 0
-215.272839089731 -24.0417054219885 -7.79163710348496 0
-213.911006717001 -26.1883076431388 12.40180036663 0
-175.333588781108 -1.72460271513551 13.1888362753525 0
-227.532251165908 31.1997053693087 -22.5381013118925 0
-77.9733170269627 13.5421979534197 18.2193359423755 0
-200.158359275684 0.0774480510585661 -24.1970078420976 0
-213.63645366763 3.78539057147215 16.207846448051 0
-142.599451015895 5.4562605184163 -15.6305880440061 0
-177.256277921465 16.3863667797293 10.4306102997372 0
-235.692395551474 35.3200447912207 -0.15462805638686 0
-188.500597050019 -13.2369554136357 -18.575531893316 0
-110.469001235811 22.7130837762201 -1.7276520825891 0
-180.839095064437 -8.81674107438577 13.8568619260316 0
-97.2543877920839 13.5054157749624 17.1951180097211 0
-242.603812223696 -1.62953186361627 10.8017062564638 0
-214.661206091315 7.25846301042568 -25.7038840077147 0
-235.311899974532 7.43504189413497 -0.694826512792834 0
-22.1646691408275 8.54553424866051 -3.27070879009598 0
-239.654019393907 -1.43572805152557 5.28589212147253 0
-246.534449215972 -45.9728020006795 22.2642216672966 0
-253.724241829052 -6.13718544198252 9.96176614323892 0
-220.763190525645 -19.6878657213373 23.5944948082413 0
-99.9213194568427 -2.38034578942702 -9.94923027942672 0
-263.257696433971 -25.6805729222226 -4.90714186753554 0
-255.176443637955 -18.4052392779676 23.3715995276295 0
-173.842680799066 -10.2678948831685 11.8147343052837 0
-155.405926685903 -8.46021617554313 -17.3980468342938 0
-235.590759147962 -10.5224895694989 -15.4423120027646 0
-252.738739867921 -48.5912449276765 -4.11387801231848 0
-231.089918654103 32.9261417728508 -18.8902420212527 0
-226.859951363081 -4.94536861094633 -12.5547586163509 0
-219.440020775724 7.77019018520661 -19.0122404962297 0
-222.023847771013 32.2531195087618 -21.2699507179889 0
-11.4125346460355 4.83055129249959 -10.14510427864 0
-257.864960977724 -12.500774438339 15.1404079218164 0
-87.8733450524751 19.5386201785603 -2.91288018890747 0
-206.982303345784 37.6670295745926 5.47053967087195 0
-77.569758972813 -4.65995175408339 -9.11502766666602 0
-240.129598139026 6.95740743596551 -21.6917679910198 0
-69.1934750614371 15.399885313152 16.8159972493285 0
-184.210119796112 -19.0984019980413 -16.6544984462809 0
-10.7812117794998 -10.6945944939033 9.62477765346848 0
-238.349956637494 -55.1134210976507 8.48806786115824 0
-213.115801011195 19.6566992294089 12.7363345955571 0
-237.031851072611 28.7067737244253 -19.0664257529045 0
-150.559159001935 24.5522488858637 -1.80522731022869 0
-238.498597855345 8.32642321467812 -23.7242151584675 0
-210.802200880113 3.90932519211217 15.7042950602751 0
-101.472647122957 0.203845126962219 -11.1560156565366 0
-26.2371639301713 7.01777852481885 -5.64000796685029 0
-7.45928118103908 -4.4133648144289 -7.3157169106581 0
-145.78153685291 -6.11973200401176 9.32386717189491 0
-241.862891564089 9.46263833611018 -16.692601243733 0
-7.67985370129848 5.87060247282771 -6.76421718116796 0
-234.184979109387 -10.7315426382689 26.8430177383858 0
-176.88793612268 -20.7198362282333 -14.2433396274568 0
-186.301286230291 16.4814870310977 -22.3974425206382 0
-71.7595608274805 10.188955517935 -9.25589184093778 0
-205.129261412134 34.0945348940896 -18.4342347253863 0
-252.698861869304 -48.6857984082429 12.7241877703355 0
-201.460788071212 10.6257102733361 -29.553008176189 0
-259.877913772127 -12.1116950124157 7.52682302285668 0
-180.492495528476 7.42174816178774 -23.5321095484017 0
-251.524800218416 -15.2525515523717 24.8969471096393 0
-232.344764075914 11.414005839716 -23.5815258849506 0
-157.918379388262 -4.37135227803815 -19.3898845438297 0
-57.5030987129311 -9.41530100820961 5.76801834580717 0
-77.1398400977057 19.8794368732802 6.03251683843382 0
-255.938453806811 -14.8314952201948 -9.22244034257271 0
-105.345632464356 16.3023403281829 14.4218677497996 0
-165.004520257621 -17.5235127511549 -22.2270074856057 0
-187.947550899466 14.3352872088788 10.7923700730019 0
-62.09873469424 19.2544664170104 7.07409771464101 0
-211.129067796356 34.6838889423631 -17.7647962176312 0
-165.716560329727 -6.03226620032816 10.6662477660055 0
-75.1300028041426 13.5101056438913 -6.46221705507803 0
-147.495772877098 0.488538411383071 14.607605146481 0
-187.518021791783 27.8881789296098 -15.3751396405791 0
-234.031861936635 35.7720896945757 2.70810917334976 0
-261.298574719012 -39.7253793151803 -0.824682949207148 0
-151.745424645315 24.6697584808614 -9.35401429230878 0
-262.100521468953 -35.5012048235961 -3.97545860609379 0
-16.4213838702177 -5.80269628398062 -2.55283886333339 0
-21.3388621210442 4.52712866833851 -10.4736091978021 0
-18.5793509418519 -6.55593411502016 -1.33212544057393 0
-233.925738009301 36.4938073914836 0.836291093661173 0
-250.861954803619 -51.1354545231624 2.64954030747053 0
-139.914400802225 23.6455671048798 -0.21961580472848 0
-119.899905161053 18.7609835269967 -10.7693814340923 0
-242.144589753043 -2.34133483278604 6.19224179686752 0
-258.747469045589 -27.837717092094 -12.9190464720661 0
-131.341305265265 8.78907338379997 -14.3802582645185 0
-165.378541176981 -15.4258647679388 -24.3761304541702 0
-170.630623972817 -8.66167017911671 -25.8704379667761 0
-208.768595853943 1.27456731802367 -19.7024977864141 0
-177.150390152581 22.3334772458129 6.96941842799388 0
-98.7360883533005 8.89845493253035 18.7948678216893 0
-43.4398648223228 16.3113878976653 2.43663526554337 0
-258.095646183043 -30.1678400732395 21.835560301621 0
-201.729167350645 -0.578265152778255 -21.9597043025425 0
-239.872265308879 -39.308278430145 29.5093953392304 0
-162.319052743991 6.73940810852197 13.3250056933649 0
-240.839687112692 25.8913461254381 -17.268514901161 0
-233.448151552343 25.2214850976465 -26.5564744936057 0
-252.373440732523 -18.3745326842683 25.7410626697036 0
-86.8293445247233 13.0035688994047 -10.0034049206783 0
-216.253115281024 12.774796314602 -28.2195039006107 0
-213.084945251217 -24.530104098778 -6.18278935106839 0
-198.915181104915 -9.9809244141186 12.5078747063398 0
-36.6801423696767 14.5313234877586 1.53877557618735 0
-134.085208253732 23.5408344858301 -0.533812520363466 0
-120.879314234571 8.32710391158716 16.8112415611286 0
-236.476739460988 -7.95006278584575 -11.5639197901768 0
-220.550493851548 6.24164666355776 17.8529581122973 0
-190.723539709875 31.1328182126153 -11.8603464606329 0
-260.638230756943 -21.2551250233169 -9.20351455484443 0
-27.1880774892229 8.94444833287872 -3.08752454848177 0
-89.2057975376792 -1.40490666062244 19.0700715151422 0
-245.368011435105 -8.9592949454897 -3.76129328341264 0
-229.741706153789 34.0829236197839 8.05706435566394 0
-215.055977062408 28.5427693913282 11.0539246787522 0
-68.6461275452445 -5.97096153060131 -5.38558720740028 0
-197.698027108032 -17.4223023964387 -6.90621257069981 0
-89.0392614250135 -1.82694649944993 -10.7764180361214 0
-47.1715306995065 -5.05768261458868 -4.72182578481766 0
-157.442173404965 24.7179331141167 -9.91198461065571 0
-210.008433442863 -5.19105021711137 -14.5069911995008 0
-206.375523808713 36.371559879133 -15.3056339312881 0
-137.969788860854 -2.66774304286559 -13.1655164263285 0
-233.197672285724 13.2435348594669 -24.6857994427711 0
-50.413122871869 -7.55307230627803 16.4870062975254 0
-19.5648409733756 4.05358615881771 -11.0176766900869 0
-209.012617168404 -1.23311626583782 -16.4953038129667 0
-225.954801547108 -18.3484669532146 -16.3358657525021 0
-133.511455167906 1.33912803790168 -14.1905714212088 0
-162.727026611522 -5.85648182931597 -22.2667815865671 0
-245.045409312174 -3.39992730433739 16.521954430355 0
-137.942394088547 19.7040850989258 8.55754212679363 0
-184.121363449181 13.8535094079131 -22.5559690955452 0
-224.550458524382 -49.1885250620999 -6.08641619765094 0
-220.559907784371 -28.106175865032 24.9694924804428 0
-69.6011406869344 -7.82521477835657 0.157253635616541 0
-225.662970700633 15.5146725775988 20.8504501805092 0
-57.6728539421557 -8.19558940532682 1.84576605609021 0
-222.635786340054 -15.5651137853784 -14.1004239753027 0
-217.755973447749 -45.548818280084 -0.0383161723506427 0
-233.10838636204 32.2449544018693 8.48046960655494 0
-251.652710810478 -10.7934091273521 -4.77398662096179 0
-210.55253170946 -8.6926567284908 -13.0497284292535 0
-23.5323698200919 -5.29503071461506 -3.77522611173441 0
-255.803290974081 -47.3548800813373 2.72418958814982 0
-52.3074352651521 -1.58081802890964 21.916008373641 0
-211.488596317967 -19.8072543614934 13.1133958049024 0
-91.5735483958558 0.92882907506382 19.9562803766573 0
-176.089745795043 12.7108054672168 -20.8956475974663 0
-190.408851674291 32.1875066816543 -5.77433472721667 0
-192.644235718071 33.3950937667434 -6.26765921332086 0
-39.8115179063595 -5.37798125989176 -3.64589803302534 0
-228.60476054884 -25.2316682617453 -21.2251806195777 0
-226.995575402672 -5.33276771827934 21.2305103472775 0
-128.255452250031 -6.0593501668981 10.3938100709686 0
-223.932967865785 30.2355405775027 -23.32689339891 0
-246.652173910711 -51.5558721894404 4.43908039344468 0
-221.014244658439 -49.3864431494254 4.53282789575889 0
-179.404900841907 -17.4702263769662 -11.214835887331 0
-255.15794245747 -29.2368953857922 -16.4890129639504 0
-246.478601203768 -50.2180793750061 1.27206934732003 0
-221.486344279112 -32.9276222488385 -9.91904076278786 0
-236.632666834435 8.61552854197482 4.91960156883745 0
-244.528200315154 -54.0218965899602 10.7877046748183 0
-14.3366466727934 4.57943951660391 22.9070885458547 0
-263.276912569858 -33.9231817269908 9.79265642533769 0
-228.26595073571 35.3299952622246 -16.8251550337638 0
-213.616092491454 -20.3526606826915 14.7222124682706 0
-39.2805277542857 -1.31815007150478 -9.78224135799773 0
-70.7287970504929 19.4136147678926 2.74701626274134 0
-231.928145205556 -54.2013105611764 -0.870334817571864 0
-235.877214815092 9.23918878844836 -23.0831622180354 0
-242.359296010397 -22.8282314313185 31.3223093340818 0
-150.83711329623 11.2003984404242 -16.6967890014503 0
-83.5016697219015 -4.14005075839553 -8.98961092776717 0
-236.767778385582 -14.0888549611261 28.5470460521934 0
-82.0002059020171 -4.27996820936831 -8.86734300408633 0
-240.154808564211 -21.7106034961371 -22.4987035222547 0
-48.0276929742114 15.7565648282796 1.23320527173564 0
-208.447350943421 23.6149711940095 -26.8083845774085 0
-29.2508267741873 6.22739500543603 -7.36078646419196 0
-225.11655694575 33.6895137536359 -20.3386973594121 0
-171.441327927549 -4.44770355177286 -24.8198802113023 0
-193.735953909785 -13.2938479240038 8.71060974692588 0
-194.882080921214 11.9131775181903 -27.1848100324991 0
-117.139115900415 15.69749107001 -11.7492058424553 0
-255.946944858883 -43.7650112444253 -8.17181957726256 0
-222.749942527651 -32.4115225655778 -12.8772223064657 0
-225.916626229239 37.5309770908357 -12.4776804780909 0
-182.700063423628 8.39191447170422 -24.031239140852 0
-204.764189133181 23.8458526349799 9.86665327939518 0
-195.450013782852 -14.1082936874983 -10.6667430803873 0
-13.1183357630348 11.7941886071257 1.35064229379318 0
-257.566451464053 -10.1659185719483 0.036406188233209 0
-194.813226278322 -1.60814068002907 14.1012732856932 0
-90.3532864170243 4.5000013550752 20.206857000796 0
-195.168691587991 -5.40004153245699 -21.2573933691232 0
-192.865810508713 29.33771041818 4.48189330687841 0
-194.199143904666 0.545543739008561 13.8101567826754 0
-161.06581887138 11.9866267458561 12.1410525967887 0
-241.046936420351 -51.8957904568593 -3.31245115342897 0
-206.016072049083 1.61146510868697 -23.2763166675806 0
-196.52473504167 -13.9964894440234 8.67347761497288 0
-162.890189863358 -14.3070552657504 -22.8192351515591 0
-132.514751023573 23.8079348091959 -7.72945518413212 0
-82.7939599870037 5.13621556668198 20.6574332686184 0
-218.161168056156 -12.210608324626 -12.6103891234434 0
-234.542794654453 32.2297839330337 8.01837433144461 0
-86.65587003198 -3.19407208762561 -9.88576748504376 0
-211.052075289455 -2.73345301972589 -15.1850956124555 0
-152.045090286745 6.0112696830681 14.4548657629318 0
-252.769724881432 -13.8072156122753 -10.134820632986 0
-234.453876286932 4.43612547601492 16.1916912644849 0
-106.16812211225 -4.11234260373092 14.7431819892944 0
-99.3544797405555 12.5014217018391 17.5164192045917 0
-233.286792263176 29.6023886873775 -22.7678877773745 0
-14.3609341808985 -6.07371333734808 -1.90612492179813 0
-104.379672857764 20.8923700187533 4.77822176348004 0
-230.703801429422 35.5450519401309 -14.238330045327 0
-205.955977497723 10.9274952548282 -30.1776469344779 0
-181.090741198328 -20.5899796621374 -13.2614420931785 0
-199.481519943691 -6.98058389641787 14.1575443869205 0
-22.3051801609593 -10.5091200569937 9.26244405718708 0
-192.601491419693 5.70104421646065 -26.9825377090559 0
-178.728377816582 20.9289333628656 -19.480585385406 0
-111.579749063353 19.2795583486207 8.90023106254861 0
-144.7287163704 14.3076602388554 -17.5079714744938 0
-134.739667069161 17.0559721005245 11.5511006698947 0
-84.9352123087667 17.9266441668678 12.3399303371477 0
-12.1043470264406 6.31142361727758 22.630676991852 0
-83.6048032025705 -5.51918252780602 -6.05562064491043 0
-137.094637612629 6.03194253381763 -14.8104077328334 0
-240.676379072834 -18.1152791477832 -20.8113524582354 0
-147.824292596344 11.3014317129198 -16.1731116639059 0
-242.676516965139 -36.8519759988624 -21.5949489171564 0
-53.2708711755817 5.05536089883775 22.2118709559032 0
-250.750422317794 -46.1428834350836 -11.2868759902943 0
-56.2235863045841 18.6267931366573 10.9689633702098 0
-241.851798689381 32.8779415663755 -4.66740542034181 0
-174.859147565637 15.6106220736723 10.7054645175734 0
-0.886172097029469 16.6914988074997 9.32670346450358 1
-86.7195496159367 -7.00422536221371 12.8155854684524 0
-191.347025702203 -1.94694320912301 -25.5430180221008 0
-73.8842714636045 19.8388816191317 5.06023291915985 0
-156.781610448852 22.3891991866423 -12.705441540637 0
-19.7159529292375 -10.5441992155656 13.8595299740785 0
-63.426116666429 -3.72168194961229 19.6684278178493 0
-174.071055411655 27.0670512237588 -5.10885076567617 0
-177.364317646974 1.77846925762594 12.853814453902 0
-220.501060088422 -30.7364829820733 -7.9341004034212 0
-112.176069122973 21.0892894255497 -7.81249223152143 0
-117.862652344499 1.04165722750242 -12.1860165535086 0
-27.0173020920614 5.58983065639149 22.7001138791152 0
-168.432519395639 -10.7117563112464 6.13010918433066 0
-155.501888889504 -2.83935057872437 -18.2420784089012 0
-88.9798408076906 -8.62143040205212 8.34079755991745 0
-10.4864995375911 15.3294783549068 5.7444217370078 0
-119.459330735661 13.237472567441 -13.0347603175361 0
-234.161397964213 -43.0873501658343 -18.7937783853955 0
-207.11920895519 41.7703439492159 -3.39924962341819 0
-228.356635058237 10.5889611123103 -22.3023526928379 0
-129.31571757567 -4.1854917272131 12.9404132585046 0
-239.047354812748 -50.6684563650838 19.8226931289226 0
-213.604777758189 -11.7038684012846 16.1850796233595 0
-3.02914352128384 -10.6638021081849 15.8333416492501 1
-109.864108873874 18.8468728444923 -8.84803550596645 0
-84.4062585930674 18.6104262742478 -3.31452631131778 0
-196.681787885859 2.03958869941238 -26.9641132093365 0
-1.20235764460904 7.93880145319651 -2.81855587533021 1
-21.9107477103239 -6.40251007304968 -1.71005192948862 0
-242.244957327914 -51.2802098493976 1.33752562476287 0
-79.3806649008053 -8.56062023672258 10.595803809935 0
-175.250954036377 -19.1165920516843 -24.6372650389844 0
-66.1994840205364 8.37014877918203 20.939519801167 0
-172.437952553362 -2.16906914615791 -24.1262855119736 0
-257.493323318475 -24.663288439043 22.8086593434817 0
-140.122054230366 -6.89565335763536 7.29733856156611 0
-8.32106410132024 -5.17758327830454 -4.12590253506809 0
-223.167842219795 5.36099012812913 17.8790341528562 0
-195.659909890594 23.4280100467675 -22.7155206561349 0
-191.291149071261 8.15425856451458 -26.449614670934 0
-241.248816839473 18.2399143612629 -24.7001528881058 0
-74.4924421336649 -4.34182689888805 -8.45613017041781 0
-228.279559642099 21.9274927333684 -27.5143305292175 0
-212.069008828931 -16.8413344872481 14.897740203398 0
-139.054868678481 24.3680222700976 -1.87874064495269 0
-225.262435188443 -52.0165394367866 6.96391349585051 0
-92.4076808133861 20.124972745307 6.6541000496703 0
-227.144363973179 -22.4514368410684 -18.6210056718516 0
-37.4515288748851 0.954850704864123 -10.1375283610062 0
-161.733984966108 -1.80495076792842 -20.5068814491833 0
-240.664659540014 -7.81324216678295 -5.26461150308511 0
-155.246136469668 -10.2432646418871 -6.26183033808613 0
-4.68788677301289 -6.68170625388714 20.8650773544269 1
-16.3313246031864 -3.48590507647602 -7.54369095162587 0
-219.404954663993 -31.5934045364225 -5.64390606920909 0
-188.445789399856 -1.17530555989045 13.3533166772652 0
-264.586763742226 -23.6044662023492 5.88133134769085 0
-223.289197076962 -9.38457309157606 20.4406143234191 0
-241.416957155988 -53.0496386676695 4.33418963717296 0
-73.4287127640059 19.5768567527493 2.41465591012709 0
-203.196419172253 12.898500342407 -29.8006884572668 0
-87.8662619522525 17.8145319638569 12.6048369842666 0
-198.673698903087 4.33910150960372 13.5417764649122 0
-152.030693010022 12.5305778700898 12.6530646295059 0
-152.518281238447 20.8597951333953 -12.8170950361832 0
-225.794847575481 -31.699711902606 -19.5347969566091 0
-254.657235753282 -38.3952066392638 21.9616177364577 0
-151.561065449993 7.10645027029552 -16.6197566687593 0
-154.332790229289 4.78556824820781 -17.2799310911809 0
-139.316409317691 -0.435594477240283 14.7929589029019 0
-14.4408327795474 -7.42005521177433 0.560712631107311 0
-244.484987674702 -20.6758709173349 30.3585451743157 0
-100.854876295859 7.18219088333942 18.9064678949062 0
-36.935976910973 -9.77573969259838 13.5726951434461 0
-186.352243120745 22.6084354126717 -19.9839376652334 0
-209.853157394987 -21.1892750868927 -7.41684210610272 0
-175.38931144234 -12.3057552422092 8.02035007570722 0
-236.446750305627 14.4620654590402 -12.3551126757199 0
-102.270151151339 19.3122998241713 -7.30760247284061 0
-235.948279272084 32.8722445403406 -15.0273450213746 0
-48.2348652183565 8.51844288050621 21.5607077883101 0
-31.3304101081963 -1.00885875105544 22.8826438604513 0
-148.736714150588 22.7658518266659 -11.3073465295137 0
-132.612498165946 24.7784504100134 -5.53525854828058 0
-204.706942119461 5.56330379094756 14.8160105273026 0
-72.1284715650795 -8.02290044084052 13.3993860217771 0
-207.64088548464 39.4932624244724 3.67334469994495 0
-168.28171683242 -12.8373559862077 -9.45298353103606 0
-191.21384381459 -16.5560078029842 -4.94929396897227 0
-79.9247761768205 19.6664948485848 7.20913038444853 0
-76.0940598271535 15.7372699497476 -4.43035511312009 0
-238.039498603269 -17.0212549562661 -20.3060009774555 0
-230.684090870049 13.8971573813103 -24.6697522543006 0
-84.7807154812461 18.7807106766905 10.4588287607926 0
-75.4452742029457 -1.36264046695431 -10.7535179198671 0
-118.949542557553 6.42932381396808 17.4017957128876 0
-120.340680613388 -0.995351774648158 16.2093904886056 0
-39.4178833834294 -0.695050089196235 22.7240317708324 0
-51.3377805548611 6.17828329865852 22.0389965921526 0
-187.878871709011 18.4531421955418 -22.2237236021429 0
-187.322571412123 -12.7196485377522 -21.3389974287553 0
-204.827892669546 -12.2770466579853 13.0053258274451 0
-141.253736577997 1.84382633959559 15.4326743368505 0
-186.528687592596 27.2091584476416 3.55645883705563 0
-0.173082059116246 -11.1682303622892 14.8020630065796 1
-218.587968330541 20.4401991436492 14.9426214320714 0
-236.201419059981 -42.8176110818738 27.6126184862357 0
-8.14091540852776 7.37221905959813 -4.11658800667866 0
-175.172676506284 -5.77475616087116 -25.86278608212 0
-232.233398788717 -33.1333204219056 31.1602222239433 0
-224.150887607344 -23.4906645706071 -14.4515487721277 0
-100.485444686487 3.72663055381797 19.3933886113065 0
-249.571572646201 -11.4649303981133 -9.67276238515802 0
-53.9607835378675 -7.59990639970941 0.584521732324734 0
-217.032024641116 -11.467695744516 17.5665678340808 0
-200.653457627833 12.4600295716114 11.766764384257 0
-238.179544959517 31.4702692185047 5.25319272101714 0
-179.378136311721 -9.74001607121771 13.1708994173451 0
-223.273112471232 -18.7755662901134 25.9415986993755 0
-191.517532420347 10.6231793755387 -25.9615904442415 0
-222.548298584972 11.4302291756207 20.2467733641768 0
-57.9191288708308 -2.60557219282821 20.9785486260008 0
-224.597440435227 17.7790032231122 20.5208798800645 0
-205.969153815349 41.3983493039594 1.09283731539319 0
-216.011751636004 -36.4773840890981 15.5673718630901 0
-162.092519348658 4.27277894426561 13.8046879321192 0
-238.378654610892 -19.2740046700597 -21.7044242559914 0
-215.657429985178 14.7528286770414 17.1010457016384 0
-226.65105057603 8.0019025440766 -7.1624436991666 0
-232.03505841281 -40.5335335850719 -19.9852007987865 0
-241.613897520518 -46.1240650438091 -16.2052980965974 0
-170.605519119206 -1.69452246861093 12.9330716785547 0
-92.4261045393908 18.3328866693161 -5.67695062002124 0
-169.193008016017 -19.5105529735052 -19.8392806474996 0
-13.7375872739461 17.7561798678831 12.5138242468638 0
-173.751875945961 19.4471605863953 -19.1399739309672 0
-218.356517930211 -38.4881600530068 -3.33649335230631 0
-172.48325063064 -12.4844590355449 -1.31362013929136 0
-244.859019468952 -3.91582382110072 7.79194852912407 0
-217.514822084289 -9.67559530412909 -12.675987011985 0
-190.124793121941 -11.9981303955696 -17.39495712101 0
-182.77745297875 15.8551920881673 10.4310322555286 0
-204.635920926193 -5.42256048258059 -15.7420345425211 0
-166.640664398744 19.5674966024024 -17.4725096976804 0
-206.958086278349 -16.0472449218082 -9.82829600424773 0
-211.719327780878 36.543870278517 5.77283978964599 0
-211.396645534183 -25.6469715581766 -1.99361616618585 0
-173.520005261493 16.5778696800023 -19.3871964188207 0
-203.813090416424 2.22331814554172 14.4399617770459 0
-240.744142467513 13.6229627174515 -25.2811515725837 0
-63.3064201153981 -1.78841300775149 -10.0714227632241 0
-263.278957890498 -34.9767028389129 -0.643929624523959 0
-228.113791400109 -36.2229493993654 -21.0378111263581 0
-201.554439196941 40.3527390724499 -0.167225678968999 0
-19.2494632193456 17.9792007117838 12.4973008519929 0
-242.655791667878 -17.1543564877484 -19.7136505150649 0
-163.107153141683 24.9942944691284 -1.72405027765997 0
-236.076096073334 15.5977670457442 0.348913297472662 0
-247.063911685161 -18.6253882590828 28.8535597738962 0
-172.042063250149 26.6984518522575 -4.3986709794314 0
-251.759152969464 -6.46133708845597 4.47391536324456 0
-11.3794031049295 -3.24058132591653 -9.2023629472019 0
-232.677668107066 -44.7549656995549 -16.9908861522998 0
-246.607006980721 -52.4375797482175 9.01926291728508 0
-120.95080698718 20.763915397437 -9.83902252444869 0
-251.397159454718 -22.6892503405516 -18.8358342177575 0
-177.740373597402 0.888529763629664 -24.2228332599576 0
-12.2801972337474 13.9103782475759 3.85249297390502 0
-65.8059886139751 -8.05362692548464 1.1342072980321 0
-49.0263672232855 18.5803241022764 5.35713441065428 0
-129.213623587161 -8.17445371446168 4.73831438206435 0
-97.0707408688318 -5.3874020722762 -6.26727280867732 0
-256.21528328818 -46.0343955924427 9.38520903849278 0
-50.4556776288775 -2.98850997455339 21.1845164515472 0
-199.862183187977 5.44724467391791 -28.4122214162846 0
-230.170890459719 -53.750888567315 9.63084421027485 0
-77.9248401503894 -0.740667631725059 -10.8050826759552 0
-173.894734674623 21.8559177738454 -18.2839474601906 0
-43.4027393706889 -7.77981554565767 16.7687815502218 0
-231.111665524289 37.4666598722245 -7.51503547908319 0
-193.116125271136 3.00770501705953 12.8855198365424 0
-226.678534750347 17.416381599314 -26.9405401343295 0
-5.09797636827134 13.6060312359441 4.25307798251229 0
-203.414028782177 -2.44614888186628 15.3229748353356 0
-20.3694443363368 -10.7803530412479 11.3051114416 0
-150.76878784141 -7.25952961226928 -14.3534625122845 0
-219.494175614552 -26.0355665285428 23.5680753453209 0
-9.71012111455802 -9.37574194922842 4.58780847495509 0
-90.8286230163663 19.5993984166843 -3.73831623357703 0
-79.8566864892758 5.45015706871998 20.7985801881557 0
-218.801643963999 -30.0947694570303 22.5342129616278 0
-189.536266562 -7.6716071710805 13.4231545155198 0
-233.097343962027 8.21755053723672 15.1487206422018 0
-16.9558483039845 -10.3067091048182 7.67802368649384 0
-213.673946044033 -23.6697885763562 13.4480424775508 0
-209.692267880321 -14.658331970132 14.2805080606167 0
-235.575581972485 1.97786161022683 17.0823588714248 0
-112.378760866685 12.3504075341075 -12.9547506034559 0
-23.9809259520643 -2.20307632596357 -8.60635881547324 0
-128.392806521142 19.4519682068805 8.76714308568418 0
-172.091698023733 12.959504080492 -19.7712721261314 0
-264.51488725533 -29.1681469274054 0.31047012365928 0
-185.438235965225 -9.87427486012033 12.3667270047788 0
-65.3579107996179 15.4490879465395 -2.25297636704817 0
-85.8574721030331 -5.35509781780381 -6.32320082762673 0
-206.576230732227 -10.0735018506936 14.1013570638971 0
-195.608363117084 -9.15196070340719 -16.0725584926327 0
-213.693039137784 -3.78662803295869 16.0169765804351 0
-172.669025912418 3.57101277463088 -22.3098304802715 0
-216.864739213332 -40.9254800834795 15.1751712865565 0
-77.4692256364188 3.85705729192557 -11.3007267346335 0
-48.4347816901404 -7.24742600942926 -0.0228479001533092 0
-216.231898022988 -20.7486316080746 -9.70308509315771 0
-125.221387331075 19.4936842614177 8.51820403310491 0
-184.497445311674 -17.1429632019213 -10.9781031264915 0
-204.168226050637 33.9017726236044 9.41881867080713 0
-227.803632394007 36.8500333060064 -13.9579221846689 0
-209.244861819627 -7.147544951198 -13.9004196381423 0
-246.807723192535 -5.11254559308691 3.84876232878587 0
-34.0505059537499 12.4277342640316 20.0442333047688 0
-238.732865233223 12.3281694763747 -25.4327212412965 0
-264.773833233522 -28.982362917463 5.06403174149329 0
-229.558392599925 -12.0628894238895 26.7830206756082 0
-239.550564103873 -6.70160180718012 -6.7236351531378 0
-142.594680432912 -9.12996122691223 2.05039288787719 0
-201.229927106658 10.2999256603954 12.462658545175 0
-44.5577394334596 6.14626697331473 -8.59956527701524 0
-175.179475533974 1.74603643885555 -23.4086591556677 0
-192.980938069084 -15.2819885928034 3.17658542293447 0
-53.6787908910878 1.0790531771871 -10.1522996644965 0
-65.4358390565215 10.7452543784091 -6.98319652896931 0
-190.587402107896 13.7265417402964 10.7436534063384 0
-215.491246952676 -40.9692376040914 5.62872815315959 0
-124.859772666223 2.02546701857141 -13.1946587905029 0
-134.357853442923 14.854633243458 -15.3498844728782 0
-56.6610835940822 17.2516687227872 14.1056378444409 0
-141.766171938163 16.2074064408718 -16.2813804580162 0
-152.886991480591 20.4919964618608 7.08072973023888 0
-51.4867535114002 0.837432437931965 22.6528374567885 0
-88.2724753927145 10.2783336839857 -12.4780558995114 0
-196.844446497313 36.2749609943156 -3.88130589410595 0
-27.2890079939083 17.1680004120383 15.2293344156143 0
-16.5091895299388 15.0871370769533 18.2089648405675 0
-72.9933046988829 13.4328853263011 18.4911264070855 0
-233.282404865997 -53.7424041640127 12.6338637220393 0
-243.467600003082 26.8525433685685 -7.85986139042878 0
-220.205434705234 5.10476020814524 -13.4039278419291 0
-204.205320564967 42.0356019036442 1.53935251692572 0
-142.042568683849 21.31360430548 4.72193268130448 0
-10.7023766110033 -1.08914761676362 -10.6944715032563 0
-237.177564567942 10.778357030988 -24.4755503804198 0
-109.369330335643 -4.00286373291927 14.6277673612266 0
-200.349375423427 22.7446272645516 9.59640795793906 0
-174.374402876848 -8.51052992474229 -26.4331956724532 0
-123.250054816873 1.71513184847258 17.0447541650006 0
-250.374122189343 -48.3560178683183 14.9815081918175 0
-96.8685752700961 17.4546290540345 -7.66116998317249 0
-239.673533256249 -34.6461152066355 -22.6831768282851 0
-149.105587920352 13.5452728910408 -17.1816512160654 0
-211.633047386097 -23.1419629581593 11.5658473896291 0
-74.6869721826853 -3.85986211214386 18.4754212936332 0
-217.417040254812 -17.326565212172 18.4995115262195 0
-65.8519894807164 -2.7946361959517 -9.72266433910826 0
-253.957552726306 -21.7252674951527 -16.9404260827617 0
-225.904681093314 -23.9410326619514 -17.3994884753756 0
-131.157140677138 18.2955222645229 -12.5012078567022 0
-240.327308731529 -0.502089494280602 14.9505712040473 0
-119.043960064511 15.1475656733361 -12.538325049853 0
-173.102738070181 -18.8500833832042 -13.4070312338892 0
-190.75602049746 31.0249468027038 -0.970160705771558 0
-208.339043529431 5.92158899537392 -28.0605750026758 0
-260.759665444185 -35.0978593824161 -7.53632572071897 0
-85.2402572739853 -7.24352892891354 -2.3996308970335 0
-155.47331067283 8.11847949092902 13.694026050328 0
-217.328465635221 -20.2876389831743 18.4740697753747 0
-189.718850924766 26.405887386858 -18.7438009406756 0
-36.9546518144452 18.2934098526939 12.1999613145401 0
-108.645173845871 5.30360575479465 18.5672712780206 0
-192.657390885568 31.2551308903553 1.22653684964361 0
-70.7765716071035 5.68678183684366 -11.6417900796082 0
-165.686584272996 -4.38205312797358 -23.0840889185145 0
-96.957806570069 21.1864011325671 -2.68560578281704 0
-199.212142610649 34.3867400964957 -14.7721761774132 0
-250.380785698545 -5.06288675085192 14.3825854346471 0
-212.528957624979 -8.25075613016626 -12.9378413430109 0
-162.278563210214 -9.09610393956385 3.79890498655601 0
-105.198448230768 22.2873704752033 -2.84460652760796 0
-188.678180738451 2.45914867632871 12.4480112977789 0
-56.5866164784444 5.79140208634997 21.8983148645532 0
-239.916123087691 -6.47363330315421 -4.7430625340788 0
-227.311954745199 -31.7810625855431 29.8238563670158 0
-185.835204933077 -17.0833718579535 -16.9463672279187 0
-248.353583804417 -9.37010309401968 22.0887880963157 0
-229.359186219319 23.6621140636547 -28.0544895830615 0
-243.140438190297 -8.57119113121349 -5.6890151402049 0
-93.5494171055245 -8.84827982245168 3.09502304306852 0
-241.82078342703 -53.5251825193464 12.1392172530566 0
-177.783510282853 -11.0030659022729 12.4679045285167 0
-209.699243469258 39.0015319632618 3.34326978677753 0
-46.5907731977288 18.9167539780274 8.21185541845321 0
-221.828711171343 41.1176024438057 -5.69455858103641 0
-195.948024742195 15.0676592501315 -26.6545567919136 0
-218.351224034447 39.1244449306208 -11.5095838788181 0
-51.7182687636134 -5.3611050837232 -4.6960039080926 0
-228.387441721196 -0.296516496449385 19.6312423626233 0
-191.514554975714 27.3834055029176 5.75754734432362 0
-50.6478099311517 -2.34523270520823 -10.7857461875117 0
-164.866704131473 -10.2727577195618 -2.2658793024029 0
-110.705666531712 4.25522359769242 -12.267927834571 0
-188.653076690999 21.5464286788842 8.93607697306447 0
-163.775976121241 -14.9803923724695 -14.91082739833 0
-168.037785312257 -6.07419147255954 11.2697679970287 0
-121.866312866116 12.1669985269299 -13.6018236897315 0
-166.351756422384 1.30090875591991 -21.289940664713 0
-192.732400094249 29.2289686585257 -17.0900139865697 0
-221.178935613475 39.6415524075645 0.811769506595318 0
-67.3252304447557 13.6547314074472 18.5097646324838 0
-207.063813090143 16.4171825176889 -29.7151970701044 0
-210.852106342023 24.2779378171142 10.7697656514415 0
-262.307852123066 -30.8282369771449 -6.39154405607666 0
-230.603889973479 4.79438668763438 -5.93707495150164 0
-44.3491459704246 -10.2144124642041 10.0362384230414 0
-209.471492846134 28.285139829452 10.6223312303567 0
-156.192008179155 -9.72532066957038 -0.748314048254174 0
-183.077512410232 -5.67541459630337 -25.6925516965482 0
-231.801366716723 -19.7282600271141 -21.1259888279867 0
-114.182713979382 9.583362551123 17.1446822154921 0
-244.582478104815 -49.910322489315 17.9152661619945 0
-169.996099569023 -19.1636846803732 -16.4440877671257 0
-259.423078605413 -33.9004509428258 -10.3760799373264 0
-129.064631682416 13.8157912919205 13.813107332401 0
-108.136068659936 2.40866037264667 -11.8449054410469 0
-71.1469898485568 -4.78431733163272 -7.35066868773801 0
-206.702694941749 -10.8871609743602 -12.2282957996036 0
-177.885740090465 -15.6084835102632 -8.63156656231423 0
-175.042311915624 4.09015560884232 -22.8108538241699 0
-88.2791345952435 6.71657420943726 20.061740453094 0
-211.251902480265 30.3788647212015 10.2376761418967 0
-234.462379291999 15.5453559955686 -3.19491581136455 0
-210.658305093712 -25.0723723509361 3.07925215058196 0
-223.536772600646 -21.0635755484233 -13.7285622878462 0
-252.377845293393 -15.1913939307778 -12.7600391892693 0
-137.731290727425 1.79462056473233 -15.003522664646 0
-206.656812839636 -20.7072826659368 -6.56015031485006 0
-68.4437335972571 18.3960732220725 11.4864765168981 0
-244.770427330244 -51.8022245301086 6.12234050809171 0
-68.7963346135068 4.63323799612524 21.5215134221581 0
-222.174659856328 11.4042811796448 -15.9744189601353 0
-164.994582255124 -14.2651857223852 -12.222860833443 0
-219.759928210959 29.5745237989876 10.0415092161577 0
-36.9341786953442 -7.63682000924507 0.91948778683798 0
-206.878299954684 28.6572250789005 11.0735851138598 0
-222.295984058582 36.9201916638254 4.07882495936471 0
-143.784364774109 16.758479614785 11.2633118153204 0
-232.065742921678 4.38227843920744 17.6288523612025 0
-218.727732409158 -46.1232380252004 -2.43168549237432 0
-237.542014661603 14.596619705955 -27.065289221242 0
-222.709186387468 -43.2443550621849 -13.2254906536395 0
-75.5420448009428 19.046945200237 0.208112472205464 0
-215.267407790837 -37.0729710606827 11.848118335467 0
-235.466911049614 9.31397231188856 0.160570212716005 0
-193.320690168908 24.4253092470099 -21.4544767601705 0
-242.818370278929 -40.3443925352175 28.5592160073991 0
-184.888795713583 22.3039560004871 8.10326801945171 0
-213.202974912002 -14.000459781995 15.9928912334086 0
-215.241715108664 -27.2958063515688 14.738216426158 0
-232.81479533914 -48.5085957465409 -12.7305806012186 0
-262.518310137314 -15.8647886084387 3.40430533704596 0
-233.838471549847 -52.7736753131245 -8.02671500739133 0
-219.647790729614 -16.3910811329911 -12.3366855550559 0
-208.841053656305 -23.5443093744329 4.94332732877366 0
-124.756776455961 23.5073331469642 -1.34908659524647 0
-203.006898051583 33.5321883332931 -17.9919713567127 0
-194.043769748553 26.6755243607848 7.49809544362684 0
-7.45783689134723 -10.6794335133444 8.85518325067697 0
-222.437074370109 9.87449898899454 -13.3094313472558 0
-235.26220196397 -1.08253155663232 -3.90723087874632 0
-135.265595780556 24.1338208207016 -1.7520984551606 0
-105.936812735999 11.5724095901122 17.3564276143947 0
-208.181526946443 -12.146440300964 14.3246839912523 0
-227.501316013412 24.9707103735982 -26.8897876741048 0
-236.825533282727 6.31142061969027 9.92921921160575 0
-93.0576907666994 3.01348077021037 -11.1208375495698 0
-218.682763085788 -5.39953256528756 -12.7719043892323 0
-181.565841372333 -12.3025240177247 4.11740779914121 0
-237.369521541047 -30.9366592065025 32.0313743085062 0
-209.959659894051 15.8547636681096 13.8869529582362 0
-234.36091843657 -35.8788517304818 30.7674034397642 0
-181.437418042367 -12.6052729064373 -1.59679051617427 0
-22.319850437928 6.24168709666471 -6.75439116911179 0
-92.7681229706962 -7.02317046596405 -3.28363772699019 0
-179.156610826768 -4.12364842979101 14.1555020110256 0
-229.883759579935 2.41460221148024 -7.28183865542279 0
-206.497309306945 -0.424782984214166 -16.869585423961 0
-130.994212408905 -2.05645848928964 14.5670163874306 0
-33.55484288658 -9.56784411673284 14.5969271467527 0
-201.740339695562 40.9305471605183 -2.6137398801259 0
-183.668838740923 -15.7676656451013 -5.82484597522425 0
-186.519088558791 11.3757306934595 -24.0993723583244 0
-159.021972021186 18.7029080922483 -16.7733405622072 0
-8.67379529609534 -3.47080386811087 -9.22186082536964 0
-239.161792726388 -23.1046389177958 -22.7269288665389 0
-26.6290820225722 -4.30000363681835 -5.51751747877478 0
-261.645561784555 -14.6412372633242 4.63673530698814 0
-2.12933510115951 -9.69507606216201 5.26725701979797 1
-40.8061613961118 12.3247621315442 19.9061060931335 0
-196.955764901147 10.7532783970578 -28.0932082882653 0
-73.7943787242488 16.0530018705021 15.8614305164187 0
-131.089447233873 8.56741241072463 15.7795086834887 0
-208.631660494643 29.8371260582504 -22.8292447332762 0
-255.369175811739 -7.80535409543815 3.70281743594673 0
-138.758742778034 -2.84242500980951 13.3251967822848 0
-221.709986169527 14.4528965214089 -26.4809644817991 0
-211.802944279128 21.8781233214593 11.5014445220194 0
-238.05204502186 -28.8516500672056 -23.3555681706593 0
-218.168351964061 18.7354443793134 -27.9365526566695 0
-128.286035444952 17.8261496299366 11.5676605593013 0
-235.918702347423 -7.6267460719442 24.6931926093055 0
-8.93577880567363 6.93901496532123 22.5116907086971 0
-118.455189360971 -3.00748372924607 14.8292245272494 0
-133.71565128359 -1.18511870549142 14.8254227029074 0
-204.72095969379 41.1234723820548 3.06063688993246 0
-11.868392422637 -8.51644891023511 18.6195385694898 0
-101.948359134898 -6.4618636219805 11.5300451442736 0
-231.205383140201 -54.5143766089194 4.53843297795259 0
-83.9311966859088 -0.323201027404819 -10.796652399763 0
-226.347167541442 3.91518065642213 18.231572476096 0
-145.174431024032 -2.37827374442979 -15.4413682486937 0
-49.1484199215571 2.90870896949497 22.6980868310464 0
-139.823038975708 12.077999929522 -15.4688725014718 0
-198.944697331659 -18.9460998210795 -1.75993643443454 0
-229.400191471162 9.88730265943775 -20.1066313379034 0
-131.562731452975 1.32866121327596 -13.7846804532197 0
-49.5594603644776 9.46544659698978 -5.37701883912023 0
-127.427621425421 9.34601284368086 -14.2212828818608 0
-176.588572619848 10.2086809373212 11.6279235129794 0
-71.5560445107609 7.63832845908031 -12.0657762258178 0
-173.644755627861 17.9520098204946 10.0052292520406 0
-215.586291446851 36.6638794555033 -14.9369651976386 0
-42.1508331115108 -1.64490582070837 -9.58935625198973 0
-237.383203319173 17.6597775407414 -1.3679200337208 0
-207.07841217465 2.97500750525792 -24.8539402991225 0
-164.346618012908 1.70075277881235 -20.443933439935 0
-83.8962275049829 -1.75940258569309 19.2886321339347 0
-206.807261515243 40.7503406477322 -7.78435644436659 0
-223.086829150654 11.7783328666325 -13.0251943134315 0
-240.383601206752 24.4811060896158 -19.2409596194391 0
-35.8059422939087 15.0227177040797 17.7253456116644 0
-99.6238975446267 19.7704235762102 7.87723985816944 0
-47.7361662121478 12.0241725768142 19.9431512872413 0
-11.6147988412591 17.2954741233999 9.34751970967386 0
-235.24137804796 34.5744730205563 2.56971101619755 0
-242.473031443094 8.05276509718186 -21.7715665593565 0
-90.7513379490155 13.5643257046115 -10.2350308527409 0
-242.511948237093 -2.34907008309076 16.4101392128873 0
-107.917286820933 22.5694989749825 -2.39386784769084 0
-216.135250959137 19.8246777003933 14.0891901096151 0
-233.699496984103 3.81059451570796 -3.49956941034142 0
-260.929558591935 -21.7058416927581 16.9860871596876 0
-233.616382877691 15.0278989792945 10.68415229068 0
-223.329939423061 8.00026135470239 18.2811745658195 0
-38.8230416409452 17.1325627790422 4.24545636313873 0
-102.659710404522 -8.05248134817608 8.02705029029811 0
-84.4661956276978 1.74357824477929 20.6750397816941 0
-161.859294063216 4.99587576252447 -18.9860053202755 0
-1.48565558697312 2.96655291091109 -10.86008016874 1
-232.585884338504 11.6765203116694 -3.95530859118999 0
-257.773092518136 -40.7942766065055 -8.22676677648211 0
-255.002825790191 -42.1654246880701 -10.781255572613 0
-218.446736258887 -32.926811824501 -3.59990855109029 0
-196.439084376082 -0.322086379610617 -25.8522734362774 0
-142.013027143308 14.4282586186748 12.4752849555346 0
-220.41703016056 -31.4406515047931 24.4744950788449 0
-157.134377422058 23.2656377635229 1.72992245890374 0
-67.6437053344926 1.84651183064273 21.73817639828 0
-259.721008797659 -42.6478804480346 2.69341922442769 0
-15.0461077256496 14.6739038328455 4.45160568026067 0
-239.684137599429 -55.1101331919126 2.88389499280247 0
-249.431168060918 -4.7046544877239 6.3046290929473 0
-230.057699435489 -51.3140863415057 16.580864492771 0
-132.139733032898 14.3313746083449 -15.898171949248 0
-173.392669872765 -12.3703865785505 3.15403022807509 0
-236.200131990974 8.3040963366435 9.95037436096952 0
