-57.0181228741669 2.87985778666335 -11.6781671418077 0
-74.4104441527416 -15.8942147584334 7.08826096832595 0
-38.554986591418 -0.92770023780017 7.4354437469531 0
-27.1471684563196 -9.64036356925168 6.97241078936531 0
-171.675105903444 -11.0693180659274 -8.30365796112429 0
-117.787316487053 -18.7949322851391 -5.21333741172623 0
-45.3212233002757 1.50129285400097 -14.104661877846 0
-114.380838012024 1.40765105899689 -7.4417698843938 0
-55.0868232008268 2.88107611131818 -11.9006575268424 0
-147.119344059571 -10.015503522012 -8.96876626448544 0
-207.817612082594 -2.90767073364607 3.29959235982678 0
-43.1743194172481 -17.220947710777 -8.56708282243193 0
-16.5016425614508 -7.85815123239653 7.68123794108179 0
-166.457635510746 -5.19510876813465 20.5312051442214 0
-210.894342466624 -28.2202015138063 3.02278283028068 0
-123.748240543706 -5.75334468844743 13.2809915175722 0
-50.4047772433255 -4.39238873611116 8.52682440304457 0
-170.616387083626 -6.08269317279433 21.0436339949212 0
-192.195281479376 -27.6611424115244 19.3066162671361 0
-157.653788886669 -5.07976794317212 -8.28049372727422 0
-161.780273014431 -19.5215459179258 15.6879182809543 0
-198.591096446764 38.4283238675573 8.26623130975647 0
-0.563929216301537 -11.2256853963566 -14.8331503220233 1
-176.716855812827 4.94822779664535 13.7063237748371 0
-2.91246347674134 -11.622611241954 2.07744084220392 1
-121.950027039205 -18.1554761407042 11.2115902933566 0
-27.4469606794216 6.20232976639858 -2.09082614764837 0
-93.1422013717852 -0.0677219913412251 -10.9155274805308 0
-215.547374561905 41.4606836614985 9.93758587501519 0
-194.710071568834 -3.20837868121143 12.4197760130162 0
-65.6172469503974 -7.43566775533395 9.68255447596401 0
-198.941666085771 -29.0671750622643 17.9878851678178 0
-210.051664610979 42.4426185825951 -0.846757420551183 0
-84.5278402360948 -13.7907450441577 -12.0784889627167 0
-123.974397834613 3.79003858981099 -2.50899454135826 0
-222.749600877967 42.2485747027332 3.1612531060791 0
-190.136953152142 15.1745997055672 -8.79025922245299 0
-219.368128985888 13.5138502026936 14.284454870834 0
-119.400190129587 1.81925829561794 9.79806481073798 0
-82.1622323145425 -13.2158513934129 10.8649906662743 0
-204.000474288564 22.3571113854997 -23.5833663083754 0
-32.3428466185822 -15.6570207293307 0.0249779070133208 0
-152.124344256175 13.4517016626446 17.2150494312699 0
-214.650505167685 9.64840976448682 10.3451093225011 0
-98.8496208283937 -6.35369030923936 -12.993559912345 0
-159.186839815543 -21.2825025673763 12.7177125900497 0
-44.6346763370873 -5.0109583887143 8.72512491295461 0
-222.75241321371 31.7441846352053 -20.0865464025595 0
-190.106082044286 -33.4517720700333 10.8966718151503 0
-33.7682717977695 -17.1019066905729 -8.31735335551883 0
-148.72182649473 5.32484906747513 0.230286446096352 0
-194.177725582253 -32.2331821976813 13.158985780912 0
-206.678811693605 12.052407297049 -20.0887459278306 0
-232.467243360659 27.1656708428604 -7.23366543594063 0
-198.410362692572 5.70159319287458 -13.7969638704549 0
-134.604883042654 -21.5582985199291 0.527330260037059 0
-206.646428405266 34.8307436216912 15.7045303627439 0
-223.819014405568 39.5180448940288 -11.8479116678922 0
-158.196578193447 1.83959494595782 -5.22743524750567 0
-223.33494780775 10.4133174887736 5.79810477484699 0
-170.014296287877 -26.1828092121855 -0.821653661147713 0
-5.51037917240271 6.17672019548182 -0.667226253071136 0
-165.696628447555 -25.8942354049862 5.25532381524804 0
-161.719176026157 10.8121974777106 20.4563656878741 0
-28.9697698972079 5.28300400816981 -11.6528677723672 0
-201.935178488728 7.75317471147607 -15.6243222348619 0
-195.040526322966 -0.384773040661741 -12.2441196026651 0
-115.369414986553 -11.0200367740266 13.4454839827444 0
-176.979694578765 -9.40045323877599 22.9037874377195 0
-43.2764014320245 -9.44070566973219 8.82533884594842 0
-129.650405381825 -11.4152760244122 15.0117585944135 0
-215.076867197303 18.771275573573 17.8099871943171 0
-217.500783352582 -14.491591436687 14.5764270270104 0
-188.400080030956 -30.6022068205084 -5.28365533722743 0
-221.961289456204 41.0220992603498 -11.5843160121609 0
-206.625205174273 9.97533889891406 -18.261001628588 0
-171.273065223182 1.98380792729337 18.238324452003 0
-225.714922494799 35.9558954028605 -14.4885302907955 0
-186.567854768705 17.1352622398954 4.37299533040086 0
-206.504038542381 -28.5944924656722 17.2091749744621 0
-3.13457855486715 7.67897597506368 -3.39409319191906 1
-166.160354694714 1.68877825828137 19.7562196875321 0
-116.046940442563 -1.6442333751099 -9.48948365018073 0
-202.599319872431 11.3380376407494 -17.8557481250805 0
-122.374789362342 4.47736974277371 6.23663213228934 0
-59.5788378322295 -15.880089561155 -10.8810740010896 0
-185.13920985674 -6.07983143128185 20.890073457737 0
-198.266472737344 36.0135272689476 -15.8565489318167 0
-103.318864909663 4.19473269257198 -3.86103054044056 0
-5.7227663845258 -12.6679973830788 0.975502554277368 0
-212.17777042587 33.0222212833733 17.0425169859523 0
-163.650716562326 3.73976848105728 -5.50713023346553 0
-76.6546960704612 -18.083933906977 3.23690646542018 0
-4.12907633283634 -16.0920549856718 -6.51491730141456 1
-124.249617281839 -14.0166807617696 13.8577893349292 0
-193.187625096794 32.664034844648 1.95939983236934 0
-213.643496530435 40.8185032563444 11.44866103785 0
-198.817294357896 11.263150073677 -15.336460944353 0
-5.74958387363304 -2.18259740108509 7.10230689212239 0
-162.466719832514 16.0950931786464 13.4147009637515 0
-57.9334269194688 4.47119896233201 -9.17815539076621 0
-91.84615434396 3.26758146393683 -7.05022447551287 0
-110.712615588177 4.37456109032118 -2.34728241211488 0
-198.343418209508 -35.2667499823814 2.30495697665976 0
-155.448283321194 15.4014940330485 15.3366031940805 0
-167.408868578315 8.29771525426552 -5.21867931918439 0
-19.5435659471067 1.80865084243865 4.11857289507082 0
-89.4732019936266 -18.9723201202486 4.07203127575792 0
-219.760522257348 9.62401938010918 -16.5401079476187 0
-106.408574226974 0.393846047724631 9.93718937495794 0
-211.11234533861 44.4533424139428 -4.78459518165201 0
-224.192024618167 7.43105418282927 -4.62623276116812 0
-180.599330998815 0.956370239698772 -10.1568929920409 0
-164.980591684879 10.3941507491597 1.30979091766809 0
-209.787342957567 20.9427060850673 18.5611258063734 0
-102.575095639197 -1.06628169175063 -10.5614991408107 0
-201.852001428239 38.4941967249948 -16.7422849709352 0
-130.3268860027 -18.3282813253965 -5.59582200269898 0
-166.610032684924 -15.1754975290572 19.9001237701337 0
-202.536489708429 -33.0314488050335 5.76274674545226 0
-200.781685783266 -12.6513506998627 9.09183110679767 0
-80.7008972022578 0.575061526114893 7.45992667029478 0
-139.195313731209 -7.0910580740648 -9.61753032966764 0
-195.011816236316 -15.4794490488933 -15.4115107014022 0
-188.055949304391 6.01222291498409 10.900207102928 0
-61.9294044577949 -1.55863583700132 -14.7078379649109 0
-190.917536716408 4.60249347169077 11.1166291601158 0
-201.679646866696 40.6506298480738 -14.108497668397 0
-160.685310206326 -15.3285014634692 -7.17489760666378 0
-71.027506514447 3.23198999630305 3.79137125163193 0
-50.8115901599062 5.75358856314288 -5.23290413247682 0
-31.7053363099879 -8.33477563778766 8.43495000477462 0
-135.294620673544 -21.9283357656966 2.95557942386156 0
-200.792737591947 43.1874369913921 -7.2881088851472 0
-161.498723448286 -8.97386723132421 -8.29970567589663 0
-187.453406157841 2.76536189726913 12.270014797558 0
-72.3726682916027 4.96587023219558 -4.50061041991962 0
-62.3714131908176 -9.66936370264774 -15.4644955772038 0
-223.588985865896 39.9990744008942 5.72376289160301 0
-109.278735977078 1.97180275261836 -7.40187985617782 0
-159.594100812961 7.45781187307951 -2.83363572115873 0
-114.244961023605 -20.8448951112066 1.87803276959147 0
-51.4842835167091 -0.100024714254535 6.90181648542586 0
-50.508781635264 -2.91905211948188 -16.1913359397216 0
-91.5310382717422 -19.3546081278445 -3.02937922190305 0
-164.88567493321 -3.59947422187619 20.1966610711178 0
-144.063574829773 -17.1093172138357 -6.59303838852851 0
-217.727398428704 24.7581909739762 -23.8179423527986 0
-215.624847548033 -11.2445318861153 18.8614043946833 0
-170.729097107012 -19.8284318967525 18.2203598504604 0
-110.224617247 -10.255590943616 -11.8435807963067 0
-143.109687415948 -22.0416112792244 0.78233360743047 0
-105.768785332935 1.46490977388567 8.63827386323467 0
-218.93555450956 44.1374562412646 -6.35560010484384 0
-57.201171741949 -12.5137045471631 8.07337002124077 0
-215.260910349315 -26.1103774818895 6.76560448440376 0
-143.455322550831 6.04052799746728 3.79149576023103 0
-162.409539206647 -17.5679288977047 -6.44471518891056 0
-79.5626833542864 -8.25107518776074 -14.7611760875695 0
-210.478024974225 42.732725301712 -2.60687998007752 0
-92.5390743167339 4.15832641780864 -4.96793859385004 0
-183.506201606654 -22.4161091242966 21.5484799428323 0
-133.947890355275 5.53567090601258 5.55320927420965 0
-2.60313590940417 -3.807973871644 7.37890525105324 1
-213.919860238538 2.84869147405717 -9.04998313606791 0
-195.395340803534 38.6520134441829 -7.36605263311955 0
-181.875336877574 -26.8215489629135 17.9440876466626 0
-210.45812303609 -3.76692671774739 -3.5492976441199 0
-227.557809463476 36.3351142247195 -11.0125127141926 0
-111.616010725736 -6.66914977219014 12.3616995317114 0
-38.1384309129667 4.35778715544756 -12.0635494620123 0
-223.678787062176 30.6344174177243 13.3745682916416 0
-136.779680508139 -7.02519551982167 -9.79127930623981 0
-144.671610116485 -22.1206678671675 6.86156522338627 0
-172.70895780339 -18.9256674258631 19.6518085614614 0
-177.121953318305 -11.9084161887363 23.560414633301 0
-64.2735799920582 -18.5533685887161 -2.9997111392869 0
-193.062536818232 33.8624442728206 -10.2726024811542 0
-106.854399755489 -10.4437178230832 12.6250671273815 0
-190.131387935192 -31.3566829769848 14.1094470796796 0
-217.331698110832 -13.511276611968 17.6790742917082 0
-107.515840531669 -4.8926481870223 -11.7973172380536 0
-203.530461547503 -4.64534230188033 6.8839205327407 0
-61.3586434294267 -1.03542165924122 7.75660277396694 0
-22.2685411204752 -9.05897823805504 -16.4500961905611 0
-197.401505923004 15.1003882879501 -15.0216595592474 0
-215.110458403512 -18.9135517863935 0.851771498636812 0
-145.569568400321 -21.3414169973295 9.33711649053187 0
-149.38488967344 8.25340992297641 7.85464495292258 0
-129.002654369245 -13.1220237287599 -9.40367679348071 0
-209.495768822764 42.4938621994904 -15.2519455794988 0
-146.884437406477 -16.1436950757767 15.6680200913108 0
-195.720915013525 35.5293863256097 -13.3741198933111 0
-4.04733629182318 -1.7941972240022 -17.677987709969 1
-111.663257892493 -20.4644775992203 -0.714493440372326 0
-207.156555098993 -29.9896616354152 12.1339211913416 0
-226.96329047921 24.1876039817025 11.7412744512437 0
-113.23046468703 -1.32773600442685 -9.59435074900426 0
-107.254623360211 -14.1623308720815 12.4866759183285 0
-51.7887213171938 -6.95474478586144 -16.581298878992 0
-82.0550790295179 -3.4072755002744 8.93662340399246 0
-207.335608593795 37.9352117369979 13.8045643447665 0
-152.496403964647 12.0171186580828 19.2592222551551 0
-214.558625236634 13.9737813583263 16.0351007049783 0
-208.933860201359 11.5923543512018 -20.3173518101076 0
-196.630343516326 12.9889476065019 9.95282131791786 0
-3.19110784714404 -1.5187022200492 6.81305979828087 1
-43.7452630806539 -3.17528400536485 8.09406144173744 0
-101.044757738954 -13.2777042766442 -11.4387637072835 0
-46.5963931475411 3.25356721047236 -12.4893260571022 0
-189.533008906751 -33.6394562948545 -2.24709961499143 0
-215.988857823305 -21.7003232523806 15.0146214730294 0
-176.698896607639 -20.7788000871138 19.8110330963305 0
-81.360601596614 -9.37063311269875 -14.4569658312124 0
-75.0751015623113 -11.2147516536203 10.687878754426 0
-155.261943436005 12.6724354376224 20.0951800440888 0
-205.059885519919 -13.936813942537 8.03312200166358 0
-28.9654510271417 -10.363034929836 6.36924833629346 0
-139.686382076158 -20.926811499666 9.26696738723472 0
-59.6962505713923 5.33176432438984 -5.79806081148862 0
-76.2186050267181 -17.1444165872373 -8.67514069302204 0
-206.10895901279 23.4548936776507 18.2929262681519 0
-189.11474315708 -19.035572316152 -9.94767812960265 0
-222.655800224675 8.38177304332952 -1.15846407778666 0
-127.763129594468 4.90849374537241 6.49582237674894 0
-157.471989643546 -4.33146612190075 18.840847373787 0
-210.728566516123 -1.36329010175788 -1.28835597628494 0
-183.344606251044 -26.2000435702848 19.3248124496472 0
-6.97466545602417 -8.07791660798502 6.68733727879784 0
-223.183913963312 11.3310701463174 -15.8238786647449 0
-207.262953402563 45.369252223715 -7.79839660470996 0
-193.957760442153 37.4531728761797 -5.9521796531212 0
-197.385292027933 -27.1997348367695 20.1020348856254 0
-218.449432180405 38.2421472925652 -18.2151321307796 0
-213.502428388964 -17.0700630410669 -5.32806624686537 0
-184.707300235567 -27.9497557517962 17.9430316524452 0
-201.684305975508 37.6072476303669 11.7876397126881 0
-232.257605838337 28.1565198821632 0.588788295190988 0
-60.935769163684 -14.8337896434268 -11.9266160544198 0
-11.815598672204 4.20836448819035 1.60055405102208 0
-199.10597527768 26.6690751822884 12.9930829662126 0
-75.1994125577008 -13.0740493919027 9.83113515628727 0
-197.419029053749 22.5310113989741 9.1031462097859 0
-26.5527294504578 -17.1952911020478 -6.44775059153215 0
-92.3675286601008 -17.1928048431406 -8.23675937748232 0
-221.479618393524 10.4951476319752 7.43199459087927 0
-145.719592360986 -20.6296425238164 -3.15134974646336 0
-111.012494069324 -20.4667458515983 4.46359535929451 0
-86.7718322759847 -14.3326173256397 -11.5832962840917 0
-185.793534385474 -23.5312817687206 21.9754926710431 0
-157.45332329198 15.9010880397071 15.839591461542 0
-195.559878054396 18.5921739234296 8.34303311734331 0
-95.0218114693489 -15.3948175059761 -10.2653100949072 0
-151.43752943224 1.67989070572813 18.0537589797682 0
-194.163339794155 21.837871037847 -13.0771613267402 0
-135.651112995818 -15.2066091695546 14.7035602645957 0
-34.3789417666213 -11.5464773387077 5.67051864379591 0
-136.6025208739 -18.5694436912565 12.4917063405194 0
-200.338389109836 -33.1018001761578 11.3696100429355 0
-212.112350410728 35.3218235455633 -21.8091469412192 0
-189.708362854607 -35.826866783613 3.56721617798632 0
-228.771112976036 35.566042295388 2.45748225786503 0
-210.89057699423 -28.4829628975878 6.84274927324302 0
-180.095280276376 9.38744757493127 9.8760480756373 0
-215.881596340138 -23.5685266048846 0.763174743924617 0
-208.070680351679 41.6367585658617 11.1004648207396 0
-188.736253934177 -19.6623244382462 25.036597919641 0
-119.769669101153 -16.0967582467719 -8.2706157608342 0
-2.92089611813147 -14.471517863887 -1.9097384387168 1
-230.280579174987 32.53282902874 -10.0326079198974 0
-217.005456492424 44.2509543780893 -8.76431708401417 0
-37.4607994409684 2.64739064801819 -13.8196503001573 0
-108.122042692521 -0.519038029162651 -9.61986444904571 0
-203.080588014241 25.802710328932 -23.3186855430203 0
-195.574831332648 16.8847816132357 8.79115584046023 0
-200.220187615341 -29.7699444256927 -3.91389640800686 0
-152.351999813841 -4.71945962336096 17.7439250376987 0
-144.516379299017 -2.42388981593081 -7.9574664130851 0
-229.5053241455 12.3579010807434 -2.14672084280782 0
-191.536403106641 -1.41814516632846 12.8434384260027 0
-219.298562374629 18.9876735148706 -22.5618087249727 0
-39.4511571591367 -12.343506228932 -14.4687972326517 0
-184.032785639808 -30.8360621951521 13.4999429299642 0
-27.5686342856757 -4.71082274890213 8.30038667558405 0
-150.287115472829 9.65437350641918 18.9543249171032 0
-231.072680067251 29.3624603777453 3.739771112905 0
-225.302261668089 16.7756348471039 11.8540260136381 0
-197.789381394795 -4.32800718747053 -13.689779452005 0
-201.225467328335 -33.911233811103 4.34755847169451 0
-201.70327732315 -3.90803295679065 -13.8697994877989 0
-129.870588516862 -8.66939023534167 14.3026781003078 0
-201.425057559111 25.4828452603052 16.6172808923188 0
-229.663022121965 33.3749784394157 3.25781912982983 0
-182.701374490897 13.4861825982425 7.0089651277332 0
-197.954506007033 41.5527727366607 -3.68213352130621 0
-155.773179712192 -12.4183113679415 -7.96877371151455 0
-215.342782797216 40.4939226438076 -1.74450853684077 0
-166.419866886348 -10.5752533952623 20.5190435286169 0
-90.0961868328234 -10.12881959645 11.7658556870198 0
-204.404350403616 43.0142145767399 6.61583904105167 0
-3.04952140262205 -4.09729628297862 -17.7223061032827 1
-81.6716835587555 4.52933962619931 1.7260014050577 0
-62.6788508612954 5.10537300905505 -1.15951412550815 0
-135.039876736304 -13.3755981347054 15.0870812136297 0
-222.481329019404 17.7494978942842 -20.4473110880307 0
-189.615811113325 21.9353119079255 -0.479821558160796 0
-229.569172008849 16.5107232118081 5.6126718041762 0
-209.108718319809 -5.80567577143266 -7.8325272037223 0
-91.8693515975479 1.69351078959471 -9.49480030893359 0
-224.809003622406 10.6319245470868 4.68864859028093 0
-141.863181581829 5.4456945431606 13.0129077795155 0
-190.674138183743 -11.0293381097894 23.9395171557562 0
-203.44341469966 -28.4095711426674 18.6942945415038 0
-204.615757735892 16.3125937760565 -22.3592310092398 0
-211.251014020667 41.9929034073493 7.86562047343575 0
-212.555747759937 25.5271271118961 18.81368066864 0
-170.589234545902 -18.0595169946076 19.5015975083314 0
-119.039211971474 -5.76626349784448 12.9203787791359 0
-33.4966965912319 -16.7938197016869 -2.2369812288785 0
-101.497638264458 3.28712288608019 5.96786765881721 0
-212.369668055019 -26.8441941317982 4.37380930933251 0
-119.264507481577 3.01874956995698 -4.69927450156145 0
-77.4616873747834 -8.9369785285377 -14.8936211286063 0
-222.495364306493 43.0777512293186 -2.86031241003747 0
-202.428393791378 4.49167821756672 11.4173360291119 0
-122.888464569473 -5.4248669966178 -10.5889644802001 0
-115.824675575993 2.68451085220267 8.86377054236867 0
-51.1484775154014 -10.3455087198185 -15.4368501877932 0
-182.904220364806 5.72498736461697 -8.69274388241703 0
-179.062589485282 -8.14669385551376 22.7277059659219 0
-178.117982647637 -2.0755902404918 17.7620039868156 0
-181.885512948541 -17.8778328212702 24.2897331771278 0
-5.33405554039891 -14.3093488156069 -1.37070437595661 0
-104.638321472558 4.65642601570313 3.12330423732366 0
-124.793235417907 0.486596863237189 -7.18797446442678 0
-200.390180258951 -1.17128464562904 11.1073006158268 0
-196.16661251816 14.9401338003987 9.52800142501982 0
-29.9763595613255 1.41878968251853 -15.3074913828912 0
-7.59493082218066 6.90007812203362 -1.93908169619926 0
-166.231684584608 -25.9322043829069 2.22382549782296 0
-60.5428434287175 -2.74300273070636 -15.3827149945419 0
-151.010691052283 -22.7554467495042 6.61648249183027 0
-204.609866521877 -29.3714147530171 16.624296019281 0
-202.256964795703 -16.5237079059201 15.4917874560073 0
-209.73541252784 -8.47509237578701 -4.83463638283894 0
-197.465636209683 34.7442608753765 11.0121512505704 0
-130.948574456259 -16.3117108606535 13.5765801807499 0
-144.895402819401 2.60678334716445 16.4751728471114 0
-173.622990817038 -26.1716951893237 -3.62222446270561 0
-185.136467275223 1.08462291608326 13.4179744819844 0
-26.3092288596376 4.80437792634864 0.680789462664945 0
-142.362213630348 -4.75753514902185 15.6935344171796 0
-68.4322174865954 -14.5885319920766 -12.0446884549458 0
-8.73738545694108 -0.570644047383661 -17.2965492337357 0
-177.874896344589 12.1567952545416 -2.4330672376549 0
-119.754970932618 -13.2917166078855 -9.98971205112293 0
-19.8596857046013 -3.16248024771189 7.64057951532188 0
-4.82825464377269 1.91791372397781 4.03467734286157 1
-151.14841089752 -11.8809212643197 -8.23136898383095 0
-167.462277816023 2.29296528365567 -7.10303391768439 0
-41.0306933825696 -14.2699693948726 3.35188466079232 0
-200.806604559312 1.04700643701912 11.2886101720644 0
-171.316462879712 -13.3021509277072 21.6235007670354 0
-153.486444473569 3.25628067712809 -3.77126945570373 0
-97.5965757875438 -14.7788563079525 11.003359479631 0
-156.270654839225 -17.9844135981199 -6.12879599704937 0
-181.7086688243 2.7315541009402 -9.79585443725555 0
-55.1977854574164 -4.22437683215898 8.86699571400893 0
-152.604132988832 -20.8363707292625 -3.72981337908427 0
-202.605865603433 39.4713774241504 10.4335400424684 0
-65.7095774036371 -15.3664321199695 -11.3037884989862 0
-112.115088105311 -2.15534750667924 -10.214640702815 0
-156.553687082236 -23.6356597457498 1.46188186429056 0
-93.7644296713201 -9.66949279438016 -13.3336805986102 0
-32.9743868384709 2.99853564999739 -13.9335357245049 0
-153.484239285773 -23.136923240417 1.36430071752152 0
-130.575473145858 -20.7950491804478 8.23550879465172 0
-195.542134126934 26.9583836580214 -16.0144999792534 0
-217.76961280841 -22.9486639702732 10.0637612992777 0
-173.671821819719 11.9022528542386 0.440609423708896 0
-224.026907448367 40.8273798662673 3.24035549895902 0
-158.035229103409 0.837676988197759 19.4688146814119 0
-177.593388956666 11.9898782346923 8.09781690287704 0
-227.411745129395 38.2146456981317 -6.31815003295314 0
-173.640069411407 -26.4925354908849 12.0311674978302 0
-31.1115266257652 -14.7462640971049 -12.2983169087716 0
-95.784701372685 -2.85281811881749 9.90029189223507 0
-184.192562419994 -16.7278737291137 -9.72764399639914 0
-167.032905539611 -12.4786385831492 20.4807930026265 0
-174.339466732774 -3.45680597037711 -8.66130213945978 0
-186.093308793844 11.4084223322149 -7.67235729212841 0
-127.389261483261 -11.8167185034318 14.6552207578188 0
-201.211121456788 20.4067599814891 15.5766493693038 0
-133.203978055923 -9.4318890214351 14.8648835086016 0
-53.4571657688882 -2.90259322443014 8.4679677671151 0
-126.223337941944 -10.5500245765297 -10.3850173167071 0
-211.879863584044 -13.9449844998122 0.669490537827295 0
-197.360467114431 27.7806721409437 8.48097272109703 0
-214.413099800032 4.46171695002177 -0.269506475491994 0
-214.263709832937 -17.4779684046735 -3.05089687576738 0
-181.868034825384 -19.2012163363923 23.076849833508 0
-203.147629238309 35.2340295459562 14.3535838023569 0
-55.6940716464397 2.54831062997899 4.22663589299046 0
-193.280586583609 26.5084462136828 -11.1797396959583 0
-195.329614997094 -10.6422323493373 -15.3583350401951 0
-97.1587995269496 -4.217139279904 -12.6918607017671 0
-144.858026983352 -6.94002025173284 -9.24519877223095 0
-181.833234606264 -8.03790664590083 22.985873547614 0
-199.68130657824 -10.6265534177516 8.50127676525588 0
-205.124427869206 14.3529995034755 -21.426444510094 0
-70.9923087002984 -17.0942036449619 4.36694090590318 0
-206.345728151341 -14.7321337504517 9.93114089280318 0
-2.42476906017469 -15.3678821348339 -9.86894567277582 1
-212.568580113361 16.4821639962737 -23.276317263516 0
-194.801948368208 -7.91142869641769 14.425675481398 0
-49.85551487376 -15.5984941951703 2.93078905177276 0
-151.941329078059 13.570667567247 11.877083964036 0
-199.64775694817 -26.6659360259125 20.8553326482904 0
-186.065184100236 -18.8328162281936 -9.25340259449791 0
-171.65878779164 -26.1743876281455 10.8248576537667 0
-4.34958640614773 8.1921008760358 -7.13476280123661 1
-208.472001769745 -3.12509447874323 1.96638584856123 0
-178.906283087787 -21.8318026750788 19.9820366848098 0
-230.821345891951 18.8721294306398 4.3488221290671 0
-204.11206531613 30.7317110937412 16.7824088991699 0
-28.5613360670406 5.29902439740953 -0.268068159969487 0
-75.0313088355762 -13.6593575652998 -12.6369070954373 0
-200.123547296107 2.04151480595077 -13.9371880355041 0
-73.5906501213108 4.91315275891591 -0.672910661965166 0
-77.3826582623353 -15.4087895458597 8.00904473530566 0
-12.1526042685132 -13.151529238332 0.933877431739992 0
-166.882396229543 13.0541194659888 9.88001617537429 0
-199.119611961431 -16.2669694664144 10.9104776149672 0
-157.504417591831 -24.0001408687458 4.63686770358974 0
-117.648036509876 3.79070640822669 7.14370865205024 0
-157.599728018809 -14.9865388488431 17.6532569487552 0
-137.281113190889 3.84871651990331 11.7141332386145 0
-194.464651011316 18.9998118106705 -12.9597810091308 0
-112.953937878955 -12.083341760716 13.8353489633225 0
-193.862819917529 -30.2393681475631 -4.19946954577078 0
-201.994192501869 -14.4428418226493 10.3817712121648 0
-209.182461226538 -1.90122523592953 -7.68831310521629 0
-218.984100683574 23.3581532409024 -23.3170962106999 0
-217.853118026512 10.0051068312937 4.72216112280436 0
-42.696796980451 -9.2862112203637 -16.2320662586878 0
-215.321618216883 9.04931066653301 -17.6821818025716 0
-208.553592674403 -9.87653636915364 -8.75583406317028 0
-110.869576942933 -18.268585246312 -6.10981191330657 0
-145.956738254422 -3.44969099417644 16.2065089157728 0
-212.25751723081 20.0067024972406 18.3848030790232 0
-201.043566803795 10.7410359090082 11.7520626233989 0
-123.785775248722 -12.045262303856 14.2935446329606 0
-75.1621302859041 -1.28784110399627 8.51181033572288 0
-151.710373474851 -12.9448318686017 17.0935750895492 0
-230.742341281995 22.2269354263147 -12.1248749308471 0
-210.795250535787 -28.4980696096315 8.62458488008086 0
-182.796105437297 -34.228109727603 5.7239269811507 0
-23.4421852272815 4.89762449211262 0.610306537517495 0
-218.065602401974 5.64336499442189 -10.2794902560181 0
-202.017056008306 -2.55435841041183 10.2044125958503 0
-136.640400859116 -21.6548415924329 0.386865124705345 0
-73.1125054887629 -12.8758778010513 9.82042449816558 0
-198.980019629935 14.7970460737963 -16.9878041012924 0
-199.85561620456 37.2576464503477 -16.2697531904863 0
-175.003452811156 3.34054179910389 -8.93507920566911 0
-185.084887151579 -2.4959653743144 15.7933039096469 0
-94.2769874272274 4.90260220841793 1.00137114605926 0
-192.238880653631 -1.52227370638615 -11.5605032589533 0
-194.431345876601 1.727569205442 11.5386908594429 0
-190.051698695543 -16.2145702345903 25.8183804062992 0
-201.167506485833 43.852179495781 -1.24969888962853 0
-109.972848916291 4.75170969970239 -0.674416613362982 0
-213.746602896592 -15.0183272376394 8.09029046417851 0
-221.559344317575 9.26423086005144 -14.9754090992479 0
-201.58022251375 15.4232724410256 -20.0701018279889 0
-47.3584161893944 5.78875061247408 -6.14406141785273 0
-176.82546814036 -10.5525596497198 -8.92823746593247 0
-44.0444464258823 3.36187144575223 2.86042448564453 0
-187.214805063443 -33.3697364601822 -2.80218764692143 0
-173.852825112297 12.5033462513416 2.51663984662743 0
-197.852370397422 15.8910600198617 10.3349157392017 0
-24.0901585819737 -10.9572878814975 5.03181750055232 0
-202.466162710778 13.2243355174471 -19.0889104535178 0
-143.415714802912 -19.0690376504207 12.5068820297968 0
-204.715907531106 -19.3831493103262 -14.3145603078916 0
-147.407735768422 -22.6459279470787 4.13495566850005 0
-209.977411191362 -2.4868733201155 -7.97028128983476 0
-8.88605116185315 4.32250901389922 1.54169363956757 0
-197.452427982557 24.2752812185736 -19.6375045299905 0
-26.2521887615791 1.37085707773504 4.7481955584603 0
-203.786014390924 25.0786041962472 17.6767740562553 0
-199.734172360977 19.4749501199288 -20.8701013815083 0
-17.934358776617 3.23537856116846 2.69674756917052 0
-84.0203403854862 -16.5171887092685 7.77327522963865 0
-170.117270730542 -27.30715328232 4.75566279034558 0
-46.0654911300749 -17.7520842517896 -7.01441104157191 0
-138.187965833843 -18.0752877062818 -5.76172931970406 0
-85.1651989841144 -7.6267332488875 -14.3731179743335 0
-6.26577037186272 -1.68852497346071 -17.5938874852852 0
-228.627522670019 33.4629655273104 5.74259159232149 0
-112.90203458238 -13.3719245212534 -10.4619748328572 0
-168.858402597196 -25.1920814383252 10.8608938322578 0
-172.186798083979 3.77116808437132 17.0685505544095 0
-231.602329102648 31.9030471793528 -4.50438438067618 0
-25.2988574662431 -9.27571438552835 7.18405707178086 0
-227.672942627266 37.0436864693777 -9.25825745897559 0
-228.096257632855 10.4747691235504 -1.8056478945063 0
-180.753303534186 -21.6215156753813 -7.19208945669307 0
-209.252895491192 -4.66646900307633 -9.00781291477956 0
-116.465692014325 -19.64484354393 -3.54274138495176 0
-210.108442451443 8.50716223345327 11.5704292196413 0
-53.9880875785447 -11.0337417513705 8.9073622530581 0
-65.7443094096607 -4.01000323705446 -15.4245695293595 0
-205.308191814563 14.404770601359 15.579461427384 0
-0.746750557111812 -0.0316430473983179 6.29071370639915 1
-208.72419388857 -9.52149032805713 3.49831110332268 0
-217.418638545176 12.6757229084866 14.6523634890508 0
-200.029871591744 42.5984377510656 2.62527996526033 0
-193.660902532379 5.93331141789256 10.8485264811151 0
-205.392961023498 45.1698840196063 -0.0326267444576306 0
-214.445890245654 45.48582132903 -7.65965106622035 0
-228.302823464223 37.4075540941601 -1.29207081886031 0
-181.978014441457 -28.4336159541047 16.4923673692354 0
-9.74768546897071 -16.2109475236268 -8.21497642627094 0
-184.802314066013 14.2482641929926 6.73306074750269 0
-216.225908776821 7.55678671918179 -15.7647635594836 0
-199.820278440767 -25.7336806868771 -7.69011017203379 0
-58.1408243265161 -13.2716507942218 -13.3591910225556 0
-170.511222278054 -13.9968298405385 -7.70885896437567 0
-223.615927666202 41.2788446560735 -7.92018495807929 0
-59.2631947549257 -6.37516968704942 9.25123191290266 0
-186.697108001426 -19.9140683990582 24.585227265601 0
-194.917964129932 -8.73567085346245 19.3495674929846 0
-122.819280133723 -14.6753924210806 -8.98680296703634 0
-202.432018100772 24.1199611027393 -23.0131355681755 0
-219.548411156455 25.5301280445117 -23.1048682731905 0
-72.231757619928 -3.98722011314018 9.35450176639728 0
-42.2043021705518 -3.58319581164738 -16.8798128869031 0
-132.151250555305 -20.5591956111303 -2.33386332179988 0
-72.9685842850827 -13.0396416439585 -13.1798393852707 0
-206.403811836049 -25.3207130329326 21.8514731819568 0
-204.999601809307 -6.2696004180046 6.03134864883835 0
-113.736664589174 -9.87563773766413 13.0118198088611 0
-22.4733417383001 6.98264730042063 -4.0375361445165 0
-195.560058835053 25.2046382847761 5.77535099440656 0
-204.48692978557 17.7605581332849 16.6982161603108 0
-7.75831395216072 -12.8302775653836 0.964170966922735 0
-169.276309884264 10.2715206121861 13.3201948978171 0
-14.3780387895855 -12.8115660526172 1.55805581878719 0
-176.217654458241 -19.3358896426162 20.756649356669 0
-181.264418118804 -5.51876732943308 -10.8831820887692 0
-25.4006888143338 -16.936896168659 -4.22946715547379 0
-179.795386339835 -32.1909244799395 -0.0466002253027188 0
-101.947401094629 -17.5795865070192 -7.43133759999205 0
-154.686456291321 -1.44552672220392 -7.09045329523679 0
-44.7195021745757 4.84766506133415 -10.4719339658378 0
-112.282246264133 -14.1687109587256 12.9168426923736 0
-209.752362161991 26.2763280082808 -24.8323195720129 0
-186.228324606945 -0.634192479855804 -10.2811260311928 0
-177.503843681292 -19.2252260190502 -7.40569158421978 0
-207.511684710987 -13.3441893292946 -11.7184707435111 0
-25.087027420357 -16.9052029716958 -8.00898407585168 0
-62.3922127603793 -17.4364037000365 1.72795445245224 0
-128.812653308017 2.18829832989539 -5.00244323347647 0
-42.9193720659091 5.51450926280221 -8.96006313972292 0
-39.9153755666291 -7.07318961778418 9.09518054791266 0
-5.03454681103873 -3.77304851837868 -17.7527792406664 0
-121.430448743989 -21.2257214267897 3.12768154013536 0
-149.26560358841 -8.97187423236291 17.1896774585478 0
-185.75068802455 -17.4156812985377 -9.70892896976071 0
-158.583861904978 -22.0634677000762 -3.21111840309453 0
-61.4338359879667 -10.2830682701789 9.92219119768866 0
-212.944299788845 -15.1729367428469 -3.2299898393876 0
-158.873900648188 14.1440140120934 18.9700666684849 0
-102.598379512183 -19.913482419216 -2.147344997942 0
-203.3481522123 2.94177257245488 -13.8262630346405 0
-7.58695118681495 -3.20580669698081 -17.7991512675307 0
-205.335180551228 -9.82370107542461 6.16153466554754 0
-102.933623668525 -0.937830056038744 10.1857650031437 0
-103.814784981512 2.26681371827086 7.40761853819937 0
-122.146146355636 4.52671714654066 -0.497265937487828 0
-132.529616464008 -16.6881651941702 13.6663109775284 0
-31.25223090595 -8.32679921435141 -16.7685456075386 0
-225.859193724965 21.7042370277429 12.6829690482461 0
-197.81149759523 -34.6965376018699 8.42346272353289 0
-134.856952325163 -10.9968485716329 -9.63448111154004 0
-31.729637734651 -10.6552500787625 -15.6238014356582 0
-127.718253249833 -9.7185664852409 -10.3489361994573 0
-193.806241832898 37.4801613811083 -2.00416687492557 0
-124.066024064436 -1.09613396523027 12.0998504191762 0
-206.296273732706 -6.52637966938874 -11.9651490984934 0
-95.7603354149941 -16.4201109299638 9.68685228757248 0
-184.178026838543 -23.6014087635472 -7.73378836075219 0
-29.6058234553036 -11.4161583344069 -15.1296616180093 0
-177.044568042907 -24.7691404140219 -5.61684578694718 0
-48.0182251014171 -17.3505499895408 -8.45041768162426 0
-176.572800202778 -29.5594629074161 7.49058830571048 0
-223.943925148713 29.0241440246192 -20.1491774027451 0
-187.905700265909 -22.8660444132298 -8.6155005994533 0
-184.92692096059 15.5890813953352 -4.56251990396661 0
-221.806264663856 10.3376966607484 5.74612785590052 0
-159.849894961573 11.694641582863 20.800685933715 0
-200.751526756083 -18.0565809440581 24.4035990710353 0
-66.1275211377097 -15.5476451842548 6.11771549179907 0
-148.545941628874 -19.1641780568997 13.0958649148001 0
-42.4373196896141 0.550587451548441 6.05305191078783 0
-193.326337612174 3.50740094140885 11.1597711710935 0
-230.340551423229 19.336707790469 -11.7834335912826 0
-180.327094318451 -18.0074245072119 -8.22388339365446 0
-118.49603795848 -14.2413604331953 13.3370664183908 0
-54.9028396064286 -9.29530869517173 -15.8726694765314 0
-210.846273885398 -10.9294361802002 19.240378004279 0
-146.586519875564 4.93242396343764 -0.0481911890814192 0
-171.744112115042 -3.07133759564573 -8.31691387348981 0
-50.0411299785771 -17.592433830468 -7.94625592695728 0
-191.605349451908 15.136862899511 7.94284263973562 0
-221.248850441383 27.301611090106 15.9205958849239 0
-182.824339202099 0.210504700793047 -10.0180845867344 0
-189.003656690496 -29.9518255129892 16.2747035620052 0
-94.5959611308707 -7.42692538044162 -13.493335481174 0
-0.681167928946035 -8.62514344441356 -16.3545532308238 1
-195.990608745534 -31.3536228922529 14.2826800454462 0
-210.538500284093 45.3990822683585 -5.79664960869659 0
-231.224296461597 32.7779945373077 -2.42703288970792 0
-139.203386583177 -17.8323946652143 13.4275627660976 0
-8.90806401870693 6.49692746287683 -12.1919977410345 0
-207.5801264544 -27.8142170373189 -5.91784336841874 0
-126.587613327054 -3.84429094033795 -9.80508044537414 0
-76.5379057793969 -10.7708895023523 -14.3670814173975 0
-23.7379031086704 4.58281000469618 -13.1343604539836 0
-196.415908701945 -32.4732619808657 12.1539216694454 0
-210.307055617547 12.5510674247277 15.5770950324183 0
-217.717491891262 -22.0942980825474 6.34859481839484 0
-108.91136910046 -20.3830634871649 4.18920121093632 0
-87.0230338474231 -19.305506557462 1.60463042144388 0
-212.084119996381 0.336401057013821 -5.23004909891437 0
-201.219908681341 -6.98581705093336 -14.4997281884788 0
-183.776658455083 -6.92163129078058 21.9445576704974 0
-206.870565492397 -14.4409429404006 8.00957013726956 0
-143.203411545847 7.0461282337534 6.01830615915804 0
-16.2799704852196 -2.79933680988299 7.49948076668575 0
-160.613826815215 15.3002049699457 16.9734106949084 0
-89.894090851748 -14.7803356379507 10.2037566863355 0
-92.6831247332858 -2.74084707219448 -12.5236035961403 0
-78.9508222404554 -18.5593668810232 -5.50292474195219 0
-100.260708047795 4.96829429043787 0.107722090067143 0
-227.201104590535 16.4683730408636 -15.4211859724186 0
-215.984768112951 16.3756876690672 -22.7563352798563 0
-61.4760002896653 -18.137282987593 -0.879427613783147 0
-43.7893306890366 0.280753768673176 -15.1222921410862 0
-189.175575480606 -3.60293174797046 14.6989504123001 0
-29.4486047668245 -9.58853320224336 -16.2033555850388 0
-140.864528606163 -6.29158678509045 15.4674487532349 0
-189.482310365147 -6.37506881008237 19.2720054188564 0
-48.4507383258917 -4.63545956671832 -16.6971838526093 0
-212.636273506185 30.2885356765259 17.9703477583478 0
-209.521586308588 43.2396516831174 0.716674100277589 0
-1.19141199600099 -13.1207253438948 0.0663755802832897 1
-88.4150753327982 -8.48992549016747 11.2084153584881 0
-68.8704614420807 -12.9611971276239 -13.3850443096178 0
-198.717081753958 0.704430068154025 11.4406334146283 0
-200.374390417007 -22.4610733326995 -12.0557908844922 0
-209.018947139119 -27.7964691115696 16.0694682790198 0
-192.860155877778 -29.2194593265961 -5.63999269520446 0
-102.278451328375 -10.5422837540384 12.5177223917183 0
-77.9073214839452 -6.03478041168501 -14.9065467354018 0
-189.355301729999 0.0422008880386747 -10.7024597829121 0
-23.2692413941147 -7.26894974585636 -17.1654468164069 0
-14.4277105292507 7.67727986005809 -6.33418638941898 0
-192.304586162275 10.2783207842303 9.69836838361323 0
-201.425997239251 17.3866156796115 13.9731774253577 0
-169.910420404057 7.39147599918294 15.9085710002904 0
-215.212997421831 25.5420395587456 18.4626037377487 0
-86.3966841687788 -5.0804643730846 -13.971856297241 0
-231.811969492924 28.5701214734192 -8.97797389387879 0
-191.090760301137 25.7510314060439 -2.91551325005755 0
-62.1515915877097 -13.9443894066392 7.63704192543679 0
-232.794119131688 25.9429638914317 -0.805712755107741 0
-59.7794384447945 -9.5277159879974 9.96433944134962 0
-196.454971947781 24.4666010889798 7.40117777458524 0
-227.774082144473 22.4486883887354 10.7150279659078 0
-96.7938286549722 -6.64347820790496 -13.2407048583603 0
-12.6681210970456 -7.13042242670053 -17.1760493160766 0
-152.113303343764 -20.9579743131178 11.39361069168 0
-213.592433225805 -15.8690811314774 3.51984121270259 0
-214.027780110828 23.7657474077868 18.6726694047587 0
-121.060468126471 -0.429628545881951 11.2644424708029 0
-170.869064367221 11.615643036588 3.76116652566954 0
-211.903799422959 39.3267177578455 0.137130511518884 0
-167.156103603651 -25.4345461422364 -0.396799606751982 0
-205.744238278806 -14.6261603531316 16.6357384696139 0
-53.3059921019898 4.76778253683381 -9.11713533723058 0
-201.93124595147 -11.9426260884517 20.5253233637589 0
-204.139941424197 -15.7686123041176 14.1314577211215 0
-230.229679327707 14.9815207888226 -7.54874249554913 0
-218.35155192795 -20.6982849584153 10.0844605506909 0
-198.302135440723 34.4860756833294 -17.4073981632289 0
-21.2352803880781 5.89204831101801 -11.6187150133763 0
-196.582050442757 -20.2093519827563 -12.8894886781591 0
-129.06794155588 -13.7596889230103 14.0923467323869 0
-180.367964074678 -30.5336587984259 11.0322588250985 0
-122.465567870003 -20.1780652674945 -2.64389939672544 0
-214.666227806669 4.97476486843303 -11.5920880259216 0
-156.965688230284 3.466316116866 19.6495800071048 0
-200.985503472247 17.485479167392 -20.9861038160396 0
-159.271061370194 -24.1696051172937 6.51109109473601 0
-206.226565686418 34.3765070797159 -21.7848125286876 0
-67.1593162283621 -6.48705940996793 9.50201850888093 0
-77.3142832895985 1.98220359017872 -10.6634802374477 0
-182.163329823156 -3.75261440964756 -10.8290551802436 0
-184.610905560123 17.0317893128568 2.82873575609881 0
-86.7525406402846 -12.4932567327115 11.3947458060253 0
-196.455415587171 19.6140187335069 -16.2166363182505 0
-10.9423746644394 -12.6142738961808 -14.0654226958873 0
-190.026317945176 19.8798172719783 -7.21310265721588 0
-229.585528264567 30.8678613833325 6.13140753206577 0
-55.4317174401511 4.1385891197289 -10.1623889461715 0
-34.8861858888515 6.49743446522786 -5.72118997416648 0
-0.715907922734703 3.36773855703821 -15.6303653835259 1
-34.1531236265987 -10.4723253730261 6.92751320426133 0
-170.715878802538 -24.9675889382311 12.566176264658 0
-78.2815493421326 1.71076730602441 6.39048919089673 0
-201.489171236365 -34.2372531193721 1.3671241111362 0
-162.474206770702 1.51470788462452 -6.19721802020661 0
-216.473150024303 8.74786952292839 4.1801976822557 0
-140.666525846876 -18.5706975759887 -5.37725190904371 0
-203.721139339294 -0.958585597185329 9.62192416835489 0
-104.683552442431 -7.99977730033365 12.0151090849416 0
-191.829943221327 22.096599525026 3.00018554560681 0
-230.16673635212 27.9661465624297 -13.1950286592153 0
-53.9819730990168 1.13373616810837 -13.6358120179168 0
-210.118050323877 -20.8960839872072 22.4818662341807 0
-207.751050502145 -28.9581165202667 14.2725380262867 0
-106.288199147704 -1.47373025548068 10.5144559522059 0
-215.112163781642 28.1314718527742 18.1156044343892 0
-197.050526347118 2.50712076008852 11.3593717046243 0
-94.3019364749967 -12.5891948601264 12.0817328308901 0
-226.866403671421 38.1329011893455 2.70230902376357 0
-46.3335508406973 -4.24037302422199 -16.7381716470334 0
-32.4716483010184 -5.44186097218367 8.60649267426005 0
-6.78248874077656 -16.2566186725663 -6.81126723041724 0
-7.65902049038343 -11.3979916177689 2.72599421203004 0
-215.485521434205 38.2546307494785 -19.2271727832677 0
-210.172598935925 -26.5904899010672 17.113059455671 0
-83.7122332761856 -5.00143446883884 -14.1920483163626 0
-180.949060103847 7.63896121382709 10.8012984163865 0
-131.017741512535 -21.6869774685169 3.54740674472192 0
-2.43174327954288 -8.37731656035836 5.93575550707415 1
-212.997783454936 37.4403151963321 -20.3308315452872 0
-51.0491438965457 -12.797624737425 -13.9523334114905 0
-217.754284220719 34.3046176237422 15.0714907807802 0
-176.119933697255 -2.17427019589542 18.0359591369226 0
-28.055094142371 -17.1233088556981 -4.50517532190096 0
-118.99586057336 -6.74428653883805 -11.2339203705988 0
-9.78833040797446 5.38673671355396 -13.50731677392 0
-215.917643692112 41.9847287970614 -14.8874935733656 0
-140.272446648366 -19.3729605778554 11.8841901562091 0
-113.099394552364 -0.939881705420814 10.985253072183 0
-91.8956447813452 -11.621551981822 12.0214210139908 0
-226.042551891749 24.7464652176505 -18.9353556749731 0
-174.732641818393 8.02052943349529 -6.69184391176852 0
-95.625102315647 3.86820558739718 -5.46840205310526 0
-191.750914406751 32.8252306839795 -2.66825276202548 0
-225.713252815566 10.8272814872985 -12.2706369891701 0
-139.948477418766 -16.1769189883469 -7.22041281796398 0
-218.018965992482 -19.4093994660015 8.05496703246397 0
-143.183907812103 -8.98584272099514 -9.3681636753699 0
-96.632244123605 3.99738327127433 4.36819478187127 0
-52.2835354020777 -5.17957378056835 -16.5670941552534 0
-166.183446950913 9.44897358460863 17.7474471410135 0
-212.420650165426 1.12382142227811 -3.31450283006085 0
-188.076776666112 -6.47484014966385 18.0066434762883 0
-52.1293710535025 -11.7968793057823 7.97313154984251 0
-205.490458883948 -30.0171960528628 14.3971753699032 0
-35.3538261925246 -9.54476936504077 8.08272296296929 0
-117.858658038202 -2.01238418932502 11.6419717973299 0
-94.2689063624691 -19.1774057229398 -4.07691498369464 0
-195.600298951291 -29.8350219894527 16.7980180525365 0
-168.709565187277 -24.7988401393003 -2.73587662792316 0
-193.976095848626 21.3308961138146 6.01610043608846 0
-87.9390850160947 0.186443812904983 -11.3203760620957 0
-119.475397231954 -21.137983893814 2.68917645887264 0
-98.9427600659019 -10.91799938616 12.3711283101873 0
-18.9555991412044 -0.205271926231642 -16.785213277024 0
-114.374829317388 -18.908791982487 9.47529702455222 0
-61.1281132816603 3.6595331945998 -10.2775701299369 0
-82.172816932918 -1.73989377033702 -12.9552301988996 0
-91.9256443231187 -19.7165185510547 0.0755444679863579 0
-211.768837073999 42.274997717625 -15.5721474282348 0
-55.6362005391758 -13.9144699665754 -12.8990135548901 0
-211.058505455064 23.6370458861713 18.8880957625726 0
-185.560090747512 13.8702035188669 -6.0709129556378 0
-145.469410846937 -9.19001386414365 -9.21139159448459 0
-209.477616324307 42.594676536163 7.05512676787527 0
-191.143230702343 -11.1781812652949 -14.2013884532121 0
-208.4528795643 -1.84615560525773 -11.9604593378028 0
-11.4827835359127 6.21126543346494 -12.268971666147 0
-204.489163298493 -1.44714342248231 -13.6172174601704 0
-208.331081891541 -11.8336920931264 19.8127265423775 0
-71.8216473330923 -5.69146339922961 9.50047610197026 0
-202.573816332268 -13.0666864407844 18.8983951614689 0
-35.0185140420826 -7.8782210073369 8.83451815932004 0
-45.0405120318 -9.29368252322003 -16.1381930174041 0
-195.024963410711 38.9168157880548 -2.58370313984091 0
-164.813232403697 13.9674047596286 16.1463927398766 0
-178.506908165416 -23.6672386552632 18.5548755808644 0
-160.55120071076 -18.5950327364813 -5.98943300322014 0
-193.184342115197 32.7039892746718 -11.7716915880435 0
-128.152333567801 -19.8622876349194 9.82198690571589 0
-85.9216311240313 -15.9344870784787 -10.0741425284858 0
-126.418032179958 -0.5127093111175 12.1906411092934 0
-195.402166854446 37.19173976158 -10.4388258973119 0
-67.2460759711617 -16.2890358955467 -10.1380775629299 0
-56.5678505843092 -12.1909475492347 -14.2449751527722 0
-3.07472815092861 3.4475405843923 2.5681345384556 1
-187.584914806263 -5.31825499643476 17.4369153253543 0
-35.4959614947728 5.92814987169904 -9.40329207703122 0
-194.88945770813 -22.2191591095254 23.5709600171606 0
-21.8485733384756 -9.85195040714252 6.17814257898653 0
-190.521302947517 -31.1719299015568 -4.26766001512395 0
-171.090073069686 2.99646640038795 -8.27091290720358 0
-197.92304967193 9.18441894657961 10.5861630165473 0
-33.9919520999794 -12.6717630425522 -14.2718893618862 0
-223.899927906974 7.26886390699826 -8.13073699299754 0
-228.380005170912 31.8800423306821 7.64690503899929 0
-215.046715014069 38.4985457904729 0.385016423320127 0
-217.893481199943 20.5728030343915 -23.4613055138046 0
-208.515059776561 -14.3950458123455 12.9873761055716 0
-99.680759376199 2.22155250488956 -8.07024070185279 0
-68.070581692483 -2.65177255810254 8.82947835143144 0
-199.784919052744 -23.5097013889421 -9.91053183660863 0
-220.122157069422 42.5696241348129 -0.345962007827251 0
-148.821523842563 10.2467949900881 17.2168558209813 0
-24.8166814793716 5.94029310597052 -1.32800712285858 0
-161.006252225818 13.3637809442857 8.73605886645892 0
-183.746029933293 -1.99008136109005 -10.0259874166058 0
-184.8649501381 8.89701499389868 9.70875155123913 0
-14.4504367944513 1.04512125776933 5.02220635664887 0
-129.632964839824 -16.771517205328 -7.14847539566258 0
-55.129187437284 -17.8206708162545 -1.11087569899815 0
-193.546834979533 0.625371695818304 -11.7066580702553 0
-214.751252482664 22.9429951026792 -24.5500801199434 0
-226.980445117407 12.8992075630513 -12.7885060284374 0
-197.799394660142 30.8275025481555 -18.9444230823981 0
-150.669925792256 -17.6651672035057 15.0631149547731 0
-41.785072908445 -13.6741532770235 -13.4171269666128 0
-42.7039891736613 -4.90789327568588 8.60323684647129 0
-227.499769072406 23.9072531323134 -17.4141272564841 0
-220.1837315673 10.7285041529713 7.81997543022496 0
-231.606375921087 25.5605072371988 4.00125208533143 0
-150.622348447462 4.9260662206539 18.5115453212393 0
-47.8116887304481 -17.4301360267842 -1.46885707523221 0
-207.923312439112 -30.8822570881591 4.72997383944596 0
-152.874731892898 9.49178483024343 7.91429950741318 0
-49.6454892296159 -0.971473501335775 -15.4153771783904 0
-149.383874512218 -9.20169514332487 -8.94622297217403 0
-185.020191736985 -33.1616978809367 -3.25029490895781 0
-155.743252093981 -15.5583470824557 16.9569583417883 0
-198.362893600784 -22.2110034782235 23.7259398675437 0
-195.800708643709 -33.8877218844981 9.50981610793357 0
-217.182654024972 29.7635427885702 17.1622599806615 0
-139.788755732794 -20.6702122452457 -2.53037587165344 0
-79.3673036105147 4.70549858271034 0.852340236692305 0
-104.541116482525 -3.95726244579656 -11.8031219441909 0
-160.058761428471 3.43982296677446 20.030350489297 0
-100.305276460536 -19.7335771112498 4.4088197000989 0
-64.8477004845754 -11.9115609391068 -14.2012409492815 0
-163.477446972279 10.0008975506479 -0.614600882762293 0
-73.2534291649705 -8.01058004453188 -15.2914243827647 0
-164.883101367182 7.55474134664774 19.1649155849051 0
-219.042718098678 35.4915810002907 13.7547110776915 0
-65.8536523957119 -8.93276553111859 10.0727013428898 0
-164.990724589469 9.39568090212564 -1.85032625795805 0
-196.416057348357 -24.5093720406467 -9.7574626853196 0
-149.024542439111 -2.65635339611127 16.7428088832055 0
-195.980421977849 30.6108723706542 -17.5959966492325 0
