-176.804840571869 33.3381059015471 -10.9992375575646 0
-74.9168117891155 -4.1812220425314 11.6663027937977 0
-196.944148161286 -6.39095794108447 13.2330634911499 0
-64.4421349786976 -2.24070076970744 -4.06743782969861 0
-209.87676157091 -34.0089860423441 -18.0305149244665 0
-161.845852259836 -1.4489904750138 -22.2897961326775 0
125.70783782612 -11.8089316540399 -0.575673081334652 0
-187.372201573567 -23.3268529026011 6.69879801549303 0
-180.106233791623 35.6928772533449 -6.42878551604711 0
-179.150327384095 26.2498244749987 -20.0113736645782 0
-162.749429215182 -9.09771224719473 3.95037945586755 0
-188.234057182649 31.1668861003526 7.64494448728127 0
-17.2801783927204 -9.28956180750353 11.1684910086184 0
-205.241747847204 3.86692315979897 1.99764792236143 0
-112.02654399907 14.4520321769324 8.57974517415275 0
107.843308541686 9.53109553905058 -2.99563267745742 0
-185.789769525235 2.67869237413017 11.3615815889476 0
-194.861352680843 16.2585462004259 14.4851220641085 0
-150.84805580123 -7.4156378725002 -1.87458348557919 0
-46.6811065111531 13.9169264802998 0.346414447606926 0
-165.256425537515 -10.1334473717158 0.299007909005057 0
-181.470970448697 -5.67022419110057 -12.8460853192732 0
-49.8744986763348 4.28389374833589 -6.96847956631941 0
-229.335056047695 -32.1262169000718 0.268255545850735 0
49.0271953502931 -12.0865309110621 11.0448076506181 0
121.870757435935 -10.0579321653122 16.7476637547549 0
41.2512869395692 10.7681003624827 14.4405707951005 0
-101.756722446601 7.92216440957919 12.5291783807402 0
-20.9713790595842 0.47984789341346 17.809644789796 0
-203.834703882688 12.163330810546 8.68191586633449 0
7.7465519046583 -10.3474373473675 10.7849549845653 0
91.1033359130953 -12.4612366623328 3.60905670626057 0
-61.1177929470052 4.33122149387256 16.1216774526445 0
35.5743163801193 10.4259091877167 1.00483046256838 0
-56.6227834594591 11.0303552872529 13.9937994246366 0
-205.066200999263 -48.6904228754586 1.01457757097413 0
48.1808153595619 13.5505187305883 7.13536371864549 0
-68.7862979569355 5.61874651999141 -8.17388570372812 0
-195.006510876664 34.3944407866169 -2.36221884344992 0
-43.9254576122686 0.594592270343039 16.9001149957091 0
-75.8198971433598 4.44096753127943 -8.12178771555972 0
-190.043880746442 -29.1296691430335 -2.1873552704453 0
-117.665705832726 14.0695691874753 -14.0191695980655 0
-154.359762572411 -9.1067573963664 -9.32773125381408 0
-158.59435993704 -10.3812901748875 -9.58538414744494 0
45.381438789637 2.7460375668383 -3.02224453766222 0
-190.895412737524 32.834717929853 -14.4938764652925 0
21.0960036714382 -2.77119723203014 -2.05618821009187 0
64.4139208844972 -3.66248970272906 -1.2492228213916 0
-128.416978655419 -3.32788841138927 -9.33513122980643 0
-137.676003812582 5.74599178466369 -14.9453992393729 0
61.0103415671094 -7.07968833655528 1.39523394724144 0
-208.538215776354 17.0719625661851 -23.10233571766 0
-224.000954040562 -23.3013837367043 17.0369691016755 0
-187.997837454558 -25.4515098002094 5.97104389384128 0
109.548444052686 7.57131896257439 18.9024883397879 0
-193.807502755665 -39.8038291225737 -6.58356226415741 0
-192.140564638081 -30.6937699116377 14.31784842087 0
-42.0980009976317 3.87113021095155 -6.29475661282476 0
-39.0544335843467 -6.58968269381861 1.4680539253148 0
-200.18763489993 -12.6968165056442 16.776504923069 0
65.7898640721646 3.63080837502941 -2.78269446224696 0
-196.159159179366 -2.7265047372776 -9.44881613703426 0
-41.1711020544542 -8.55339119656927 5.17048101047682 0
-26.2007582956008 4.27479883289655 -5.59363215156372 0
-189.165347487951 -14.9848119059239 10.1727174352668 0
-154.874428766115 -15.0352796027343 -18.3873477646106 0
-191.796144723095 32.3162990478783 6.21327785211466 0
-208.90554306612 24.9759073517807 -16.587069742002 0
-193.621659975419 17.9325881571554 14.2707708997337 0
-178.857515415325 -17.0486098126305 0.203953707000828 0
117.352232130338 7.31777867156895 -3.05413418096444 0
-45.9610041484516 2.38465410812396 16.9897945698045 0
111.086155337328 -1.86166192387726 -2.37041103026622 0
-158.675440442652 20.8419386398951 6.57250082673492 0
-35.1819813422158 -5.19001292380646 14.9690306330724 0
128.435598504858 -17.8218587229628 4.01816723094394 0
-194.772123390488 14.9881676326344 -9.29375861125861 0
-203.690158039804 -48.5187473387617 3.44307405422877 0
-205.230163030187 -11.1302929972086 17.0477345601839 0
123.319140594032 17.3520917296608 2.4928938373045 0
-186.135835068492 21.215031326287 13.3199003713066 0
90.0464251829433 -0.160422164700819 -2.52982028679555 0
44.5733918197451 -9.8904312775246 14.2779877246598 0
-169.063106894888 26.3577185443959 -16.7254042784644 0
125.961095576635 -7.23170270153619 -2.02864369026885 0
67.5241745672512 -11.1447065784771 4.2521375485693 0
-138.213872211362 -5.72357727829107 -5.35972344012427 0
-203.180993417865 -11.4820749864431 16.9919026013472 0
-29.7677609035061 11.6195401189767 14.5370646567697 0
15.8111977559443 13.6041507195916 7.9101888129063 0
-133.574551035029 19.4314807197555 -13.5976499843228 0
-216.352019289873 -11.797044011737 16.1385663899521 0
-202.238042027523 -34.6079424986765 -16.8456863678371 0
-127.771125974194 17.2456275768263 -13.9871112193504 0
-196.500961643849 -34.2780528921168 19.5012032248878 0
-20.2929760954562 14.514979947036 5.23045314808114 0
-211.560902578783 -44.4188608298773 14.4671871910584 0
-165.916762723989 1.99742963500876 6.99288960292832 0
5.5267628648507 -4.1143033238275 -0.488462464047551 0
-222.139819965636 -14.1532948561683 13.3453413300609 0
52.3995964064077 4.93504494915849 -3.07057631431649 0
-67.9151400302286 -0.0371501902613071 -6.58161946180877 0
-165.516836218135 19.8776532620443 -19.7979658987424 0
127.513200490212 2.7702426723359 21.3535712407815 0
132.366371663523 -9.41806414985641 -2.39328755050403 1
44.1837142973774 7.48251701330798 16.9836235516608 0
-205.414253089771 31.2686850345407 -6.1732321420111 0
120.939493162819 11.1669696978645 17.2302583257826 0
-210.457330112194 -14.1477152000521 20.1235279101823 0
59.2104053891849 13.7603874663882 7.03535650009324 0
-130.171260493057 9.08947725229382 -13.6241064304155 0
-204.548737714781 14.6107813540828 -19.4720572713742 0
-225.120868449067 -32.5216359618371 -10.0273326658585 0
-183.619244402375 4.91019180427962 -16.4911929040645 0
-92.1755180380095 17.1171510931887 6.31258201938811 0
-171.396571612129 -2.12789676670325 -17.9143086024277 0
-62.1451403398641 -3.07684867261839 -3.1255951997842 0
-170.58481288652 -12.0088159089909 -1.84811065986281 0
-70.6869474391154 -6.77565188747981 8.77866492135772 0
73.6710949052361 11.8568933427337 -0.0853909418215688 0
47.7310754609672 -9.60830706684545 14.7020461489149 0
86.2439521815026 7.43454596436654 -2.62321532516857 0
0.613671056202993 -1.33247197014384 -2.88956029714725 0
2.11100444077135 12.4704388799975 3.59934233430792 0
-182.721921962835 -7.57466549149731 -11.9437023624171 0
-212.454814116068 19.9281917993785 -6.37768201325357 0
-96.8358409068641 14.7094037499754 9.0480710619355 0
-145.454355434475 -9.34891138615219 -13.0757960944935 0
-214.126470012618 -45.8248296906067 -6.0611035797091 0
25.2416599831783 5.99548629533896 17.8116002377796 0
-135.879599891815 22.1072753011353 -10.2877597704792 0
91.5432598357703 -5.16407494540887 18.4630757484731 0
-207.192896387984 -4.60092247966251 -0.822872094842002 0
-31.3372851417532 -2.11907034858298 -3.16385374251973 0
-200.688216344238 10.3204471152542 -0.885051751625905 0
-200.975066282634 -47.8919293457759 4.51371976846928 0
-137.629744457712 -5.19970017372316 -2.40427810177973 0
62.4087849648108 13.7713860817146 7.18725227718833 0
-36.637774185451 6.11757357869758 17.0124024757824 0
100.290013208352 -15.6420751727466 9.53045079309097 0
-27.6412690215164 10.7263237856257 15.2259558760166 0
116.864198930931 12.2809768696325 -2.72110496804968 0
-211.643717074572 22.3881141734292 -10.3714547028351 0
-160.226339523815 -13.4566870390139 -13.1386500868014 0
-196.21211982714 -13.4653308917506 -11.7527255903613 0
-119.275804067093 12.7815540558903 -13.4177807605223 0
-156.303890207 7.67580075349102 8.02118524576148 0
-140.789365569809 -6.24133931273427 -9.5281548112311 0
32.1769661640662 -11.3759502375787 10.1543083990669 0
-85.8574809152441 -4.98804835150977 8.65747433366419 0
18.5443849847472 1.19247906015982 18.7110274247061 0
-148.799086414754 7.92718912462875 -17.0897473129435 0
-201.920389381369 -44.7548735639738 -8.71064156793257 0
105.967578884572 -5.20157988964406 -1.29786996465297 0
-101.074046791285 -4.79178496472303 5.72728476793228 0
-52.5644261001082 15.2640279297746 9.07638187307968 0
-175.236500288654 26.6044975612659 9.94570224248069 0
-212.402209793696 22.6235188508395 3.16080313848421 0
-194.177476133893 -42.596002951531 8.42025713857761 0
130.187359160933 15.2128697131833 12.5113501634639 1
-90.211857020449 4.93368958418925 13.8813703496779 0
-170.365409200412 22.1241442594453 -20.0869799161407 0
-149.448591879408 18.564740720137 6.45418832468533 0
-35.0567687797375 -9.23802964757051 7.29331856178659 0
-81.3614800501502 -5.8258740318393 0.66145829878406 0
-91.783952838378 -5.96971082520948 3.85457281566644 0
-95.0513536980395 -2.40336225313216 -5.834488873023 0
-212.064671809857 -44.5893252213456 -10.1209107630094 0
-87.5651193241266 11.9136609673717 11.7665119534682 0
-93.5393969464241 11.5167031642621 -10.7477768654638 0
-82.5443378634965 -3.96609203150091 10.860889679303 0
-210.207612748127 -10.4495577473846 -8.21147598153341 0
130.836230090352 14.7034693428093 -2.91020805003298 1
-182.327593190095 5.88953129656359 10.9411349802249 0
54.1479111044397 12.0597826837068 1.65151257163011 0
-124.860138346172 -3.81912772645791 -7.95022206278596 0
-149.322855882969 3.71934652781424 7.91396189337662 0
31.4898332814764 12.5970652989479 12.5059681376581 0
-196.926716526458 14.7883161568083 -6.86517599000515 0
-95.6443120267437 1.44220495551882 12.9139138376299 0
-168.4257697905 -0.572646564610917 -20.4627440046549 0
-49.6661199298647 9.2452220014264 15.2767141504418 0
-209.020527784505 -7.45131281733486 12.3703447515057 0
-199.777848147039 -11.0270013321411 15.46220786671 0
65.8325648975366 13.9262285262108 4.60336481898465 0
-195.721383703276 19.6320348706413 12.6229187202332 0
103.9659702385 -4.33747576455225 -1.52369078679422 0
-176.483501299273 9.86925005583707 9.30766280687883 0
-147.649690274089 2.8212208331712 -17.8795234491274 0
70.8897081750709 11.6881889146582 -0.0463385230762141 0
-186.01929113944 5.37979982655962 -15.6337795585833 0
-165.512616742301 -9.60390674973883 -16.5615792790022 0
-119.88698177662 3.60682571420628 -11.7575990806425 0
47.8374293603471 10.3958490956198 0.301193154920972 0
-224.212084995146 -26.0198323536757 -11.9166753904072 0
-220.007678836169 -12.7387391491103 14.1072070727798 0
11.5415895540305 -4.38035035305553 -0.262559304871055 0
85.2726995333879 3.65580567522239 -2.67682547111857 0
-201.479073766852 5.24862512549205 -1.24893492513641 0
-41.4916456742508 9.84037580711178 -3.3797459680818 0
-86.9068929908893 18.894011883496 2.38071263293073 0
111.828343624727 -16.7691902829037 8.36175203794522 0
-92.0533904925983 19.5735773364076 -0.820019017117646 0
-207.490532558524 19.1002350912716 -23.9957642354071 0
-70.0450520554572 11.0658123937031 -7.53817074667976 0
-202.75151080237 17.265345814234 10.0247085260704 0
-219.313502616134 -30.4957238714491 20.6356957287487 0
-124.183422461798 22.1348597815136 -3.89518322265415 0
-218.818604295274 -41.9013409580497 13.3443425757996 0
62.3200703183182 -9.48262120392464 2.97605624153311 0
13.3882826994827 6.28334184587335 17.7003538601333 0
112.462918021177 7.99011800731283 -3.02475202642875 0
6.10245303309904 9.12795251611964 16.432593927558 0
-125.672069261815 20.3980739349882 -10.6518820074382 0
111.290101381288 13.238701938756 13.7136996981679 0
-200.478769424689 -29.3956973547368 -17.4029243101261 0
-2.20934326772931 8.84159577098041 16.6955807487186 0
93.0738801846339 -12.1098047338315 14.2495584394901 0
130.874732992142 -7.33481675728594 -2.62460920417705 1
130.067244897234 0.265747935052708 -3.12467259850009 1
23.5386241652458 -10.6403557786927 6.25214412314602 0
-199.793186767367 3.84550457478316 10.6579731612936 0
-161.13888437136 9.02647073599969 8.26821851810984 0
-214.536643526066 -12.8075588383785 18.0490673419531 0
-175.295752172915 -14.8914175087956 -4.81903133950221 0
-193.61144154303 -40.8217795041468 10.512188432163 0
130.844259007145 -7.59597451012445 18.3718935047839 1
-204.275931204763 -5.83231493778133 -6.18334857029873 0
-215.46323509426 -15.8342041580638 19.9852826201357 0
-179.655848903667 -3.03367741581545 -14.0374494582295 0
-204.610063031907 27.0181800774704 -19.422415288747 0
127.936338553091 -13.2033562828419 -0.200642694546743 0
-175.784056740347 -13.3725692627049 3.05964081010715 0
-201.303255510633 -39.0697250530488 19.7170975793812 0
-164.995774921961 -11.4399318785368 -14.6164252748668 0
-150.390147810198 22.057015369806 -14.6801485029495 0
-185.375204347532 6.78243243308177 -17.2712136726117 0
-189.663330968325 -11.7714666602468 10.9418317545204 0
-156.080147640184 -15.6806915948633 -16.7102576207665 0
97.5584790591536 10.7761157030087 -2.20573188424185 0
133.001072264186 -13.8906303384009 14.5566928208971 1
-224.500398471602 -35.5415497195908 -9.28669299328695 0
-165.137396629294 -10.8724733284015 -6.15799248372811 0
-32.5829828103698 -9.02330246719466 10.3990711949261 0
24.4779019109795 -6.28391194969276 16.5952356266716 0
106.178698447158 15.5901481625985 8.540914318055 0
133.841960530647 -3.576259569977 -3.43504463223062 1
-112.647356376772 4.21067789104983 -11.0303536572943 0
99.529790306848 13.2342892655399 -0.98085423149764 0
-154.266907246546 17.0943607157181 7.84823553195007 0
-134.853454061921 19.6354114361232 -13.571109890959 0
-3.63172356024502 5.84543732399619 -4.44173471447127 0
-57.4555829988948 -4.5766291581947 13.3702719551296 0
-50.1909028202406 13.2406296321314 12.4904295191187 0
-208.200964522177 29.7673031483188 -3.44036647762244 0
-62.6575316617837 15.6106370847313 8.3924819591118 0
-207.80852452006 -7.56588247020515 -4.61212441791836 0
-193.560314280518 -21.0753280308066 -10.5186157544489 0
-171.75065349035 4.81459404631243 -21.2847007321423 0
-170.289609980736 29.7499837969435 -12.2767217541898 0
-114.380370824118 8.26821047700738 -11.721368678604 0
4.97380275718091 -10.0914775208998 11.2130637186763 0
-110.739617914129 -0.960347470100251 9.89506402122904 0
-200.571344046591 7.67407304474134 10.876342514639 0
77.8509588130132 -14.2977681178988 9.19143266391067 0
93.0852297416335 13.1203117311456 12.183512030047 0
118.051317369075 9.38065550603006 18.4605788559356 0
-153.303046376967 -8.53891495208573 -0.850548004652726 0
103.356196109251 16.0320085730927 2.80267678708681 0
-215.515633099553 -9.98862475708534 -0.082340334600107 0
-194.636948935915 -15.3410206487789 -11.643952140136 0
-7.24110607039244 0.317000921378173 -3.91934431183636 0
-60.7107677946457 11.7976088592809 -4.60757150274482 0
-83.1372486543456 -5.73936240554161 7.73777300261269 0
-211.408491573649 23.3797624094467 -12.6571585838807 0
-98.37837179143 -5.47455488377522 2.82876758570527 0
101.590798802805 -2.71244471260434 19.5846740064482 0
-210.678667542086 -16.4899580697483 -15.9178652188113 0
101.569275858616 15.8216003275629 7.15543459573198 0
-153.846643680438 -5.65439092167541 -23.8002088009166 0
-191.974651445421 -26.4862583010264 15.7478099109546 0
-199.506352553988 -39.5437965561037 18.4358533936619 0
-40.461007788018 2.71850715110879 17.2104198569293 0
-184.056502954984 32.0220843337471 -15.1169116199314 0
-97.4853055930744 6.54142878312159 -9.99263681578894 0
-92.0493872654074 15.5353209999023 8.35112348564141 0
13.6208216610208 1.60390671171593 -3.56249315318488 0
68.1046854737575 -5.95402227028745 17.695714499143 0
37.847940310377 -11.5653482216998 10.8373813471287 0
-43.9783828901982 11.9951321288206 -1.60346218949804 0
-214.770350467818 -43.7295448727066 -10.1418068758611 0
5.91985826108235 12.5483674221281 13.4042599347359 0
-188.60859504218 -24.4299419045448 -3.93875420048762 0
-164.035662712248 5.55808558059597 -20.8871433466324 0
-132.614342634562 -2.58250641534448 5.33324368149853 0
-66.2444548382254 -6.47314800518349 10.2370682495834 0
-61.5927564480348 14.6003032258896 9.99828401519991 0
1.17434529239358 13.9955429894788 8.5543898559325 0
-212.768856168657 24.0543887045185 1.58793729740206 0
-16.1289537985442 -1.36187415721456 -3.72495377772317 0
-28.0734032413481 8.89397314777927 -2.6059224224449 0
-136.433697147273 17.3881538796416 -14.7915454525224 0
86.6756088971379 -13.9684320394589 11.5587169744548 0
-112.32770996536 -4.84041639619863 2.48625539868409 0
-187.007884784311 -6.59103187567971 10.3909403426072 0
-193.592839519362 34.2521365678268 -10.2184133204591 0
-200.367600825304 14.9597204063269 13.0688376887894 0
-203.024978025732 14.2787616491718 -17.8703292827581 0
-195.731722616433 -0.547508079359548 12.5122196251419 0
32.8671159398312 -4.50549916739748 -0.367597423184036 0
-83.8274657844433 -4.71243966742713 9.4150964579565 0
-198.86281046807 -13.3416432724939 15.4726301075849 0
39.6099099609021 -3.0066990817344 -1.45339717055882 0
39.8299864781086 -11.7192735834562 8.94921429010436 0
-198.626374080189 -34.2186192590097 20.8887633310071 0
-204.761548667726 -22.418064291743 23.5643456565887 0
-135.292312701745 -4.54219689452653 0.46169905824636 0
-152.767978734168 19.3111596827599 6.36139459732388 0
95.0807488984378 5.23804237473446 19.1476675525278 0
-188.44473916942 13.6247571950145 -21.9416513445466 0
-199.086667709896 -45.0011882032965 -6.05334158755803 0
-205.724266757046 -8.15138022403753 -7.58553370478133 0
-152.239060942241 -10.7393505889907 -23.3918763130436 0
-180.656445734952 27.51910266858 -19.4043168550891 0
74.2057094924571 -3.72602992121307 18.6820387706734 0
-220.435895405784 -20.867102598698 -13.88576479181 0
-191.821637292199 -29.2308148424086 15.3331108037252 0
-188.726701351099 15.653472918758 13.462549288309 0
-201.577798773666 20.3076215258574 -23.7135201472898 0
84.7916930605708 0.89980570754465 -2.52868669116488 0
-193.948035729888 23.2170477516033 -22.3984983535561 0
73.5605629152055 13.8083541799411 2.45556066244346 0
-174.023920001637 27.1535334245788 -17.9501739518439 0
130.174982228626 4.91397373131203 -3.32947883894809 1
-190.050167635998 -31.0980731209852 11.2679195666733 0
-101.330487622558 16.0201952908305 -10.6392994580747 0
-157.693031760961 0.0298811478412974 -21.631168085466 0
56.0761473273126 1.39124069690204 -2.71782441524229 0
-156.975277668515 -15.8595209498057 -15.2372099054963 0
-198.074650890535 7.0762538195941 -3.67041118722963 0
-36.1104934606744 -8.07201290540623 11.7050172378631 0
-79.6809230878081 16.9020178523617 6.9344617266839 0
-124.869563087587 21.3273135362369 -0.310337071169814 0
89.2436837538548 -2.07381387963042 -2.159275813694 0
-144.834434731536 1.47920440320457 7.45034311561831 0
-183.356332371095 10.8664198124001 11.1674848990215 0
-128.818622050219 0.259547185425932 8.33677283722412 0
98.7209194209908 -3.96834231375765 19.0545530273324 0
132.38041831403 17.1502857383625 8.16081251919049 1
-178.082716055832 36.3622195812138 -4.39284037125296 0
-136.784356516744 -5.35881612935614 -7.247045495599 0
-65.3733976267847 -3.60817403235644 -2.53807856847083 0
-207.708071584139 15.7622585993845 -14.8519704162525 0
-171.615572274833 -12.9073411125785 -4.08109167045978 0
6.72975843055902 13.4779842325522 11.4721324051966 0
8.36891514353188 5.74362009940192 -4.12129459448859 0
-204.621598871178 -15.6801863093707 20.824554265082 0
-211.891131606256 24.8332529197732 3.10781380451847 0
-4.78291038157239 -2.19013392639854 -2.35148682492629 0
87.6270977285569 -10.1704088978786 15.7151667134911 0
131.287017705236 -3.27882118649482 -3.25303166509432 1
-204.609440194736 -19.9501585915202 22.8334531586842 0
-224.955373415953 -23.7946504567007 -10.6313938589424 0
-55.488213205358 16.3310220667347 4.4766265848614 0
114.047444039159 15.929158032495 8.52469591943553 0
20.9646951317133 -10.959887645082 10.2340668855819 0
131.448227956167 1.97320986795198 -3.13333148468012 1
-103.937634102334 -5.13330756287791 2.9297339087286 0
-80.9012865728811 5.45810599080208 -8.4933793956406 0
-130.47005798152 18.8386193068532 -13.1716909353217 0
-197.978676158857 -23.1714314543309 -13.3800232011046 0
-205.150664349462 -47.6941077177991 -4.13824788348521 0
-185.963403619518 -22.724402183559 4.47888134492032 0
95.9998485648835 -2.02369795581687 19.668289649519 0
-210.336743202617 -45.3535677243635 -1.51105582173018 0
-216.840793667149 -39.3938921300388 17.8898579239113 0
-191.716845769869 -34.2421482186427 -3.93228818463436 0
-118.179813196295 17.6917637225743 5.25009651098453 0
82.9248099092218 11.8616365485048 13.2077336419862 0
-161.23888175815 3.41998937271844 -20.8781926748625 0
-157.885077278795 -4.44421841078483 5.88072629823012 0
-128.61197661555 2.6752982526815 -13.3240030203775 0
-175.859441573786 9.54067635417545 -23.0777884830937 0
-120.291639801006 20.1429954182623 1.98128534895327 0
86.5117938417246 6.27521673212188 18.3153096076135 0
-135.78105010219 0.769830099047589 -14.7267612544545 0
-157.858755368649 7.62713339551688 7.91389425847019 0
-218.106710216823 -40.5218113949425 16.0102791621632 0
118.768393029633 -13.2160171087832 14.4028909709002 0
96.2620061513893 1.47183857564834 20.1026194954702 0
-157.556171211168 -8.67503855661714 -3.93689678040293 0
-163.547226503723 27.1047903981192 -11.5011980134212 0
-49.5255004798645 15.0410204258571 1.79123294042687 0
-103.76533341131 20.3170252867119 -3.97970783931677 0
-190.238568276418 -25.5752456654595 12.7159416529888 0
21.2092232964665 13.5268841051206 8.87820389665279 0
-177.203824309305 -10.5147767775583 -11.8125819086909 0
-95.4010235820281 7.36399209201468 -9.99795088634688 0
-147.416078713225 13.437267511313 -16.8894902692916 0
97.313220391862 -15.5185991915119 9.35250013197807 0
-175.256928189235 24.0770646297931 10.1271247732983 0
25.0135372123129 -0.279365594350944 18.6808137860152 0
10.2537238327389 13.5992165387424 7.08888988193388 0
-149.861906485777 -4.08480069301263 4.02307056183081 0
-41.4215063973208 14.1550969151676 1.38283859326914 0
-181.265986309051 9.06692826043277 -22.1241871913095 0
-190.331082955739 -34.18414020572 -0.820548047196104 0
-191.299261229164 20.3141089443685 -22.8021467672127 0
-167.01341494423 24.4589726432276 -17.5545388949472 0
55.1522032184804 -12.692117377406 9.17540642560946 0
-151.295303785101 -5.93967858301131 3.05992741792711 0
87.075544076162 12.8007268414995 -0.39352857673662 0
-141.41005749527 2.13169964892661 7.99696069110913 0
5.18244196970569 7.45948934068773 -2.0636744390269 0
-135.000812683516 22.6037147160462 -2.75958636386175 0
85.8134360636869 -14.7243177161423 9.56885332978692 0
-144.621631211654 -6.05460684332493 -4.01981757805793 0
-190.569020710615 -37.3075417715666 9.27273928251535 0
-189.60139741486 -36.2326933563022 4.97072551396355 0
54.4021039865116 4.5891535656827 18.4710682639493 0
-151.526910880442 2.26400631982817 7.28523756789553 0
-196.804304408906 -12.9858273629939 14.8995373557147 0
-203.359469083464 -47.2604489804763 10.3641287637672 0
-102.55292967053 2.61199670939821 12.603867532863 0
-98.6668568026231 18.4102894596563 -7.28007396466488 0
133.590472131761 14.9799760583554 13.4562401337514 1
10.3508140034869 11.7552977766135 2.98584608244392 0
-190.601395805848 34.8217139019829 0.904117637286478 0
-198.971711643741 -28.7155595999028 -16.3600872578835 0
76.1205310314583 -6.65431910093962 17.5563490264698 0
-214.196294112147 -46.4407836317208 9.85067757979973 0
20.4007479378539 -10.4765712178505 5.99321884624676 0
130.081575503416 9.07002810596861 19.7748281416865 1
-29.267404901942 -8.34533498664648 12.1909539485863 0
-201.886919009565 -6.45061521221275 14.1043965053338 0
-175.026848900459 -6.40068941208415 -14.3443700781039 0
9.46930919034692 -9.59411667426759 13.0962617353722 0
-138.47092723471 11.4167611990205 9.42890514853908 0
20.8998700129622 4.28040091520187 -3.84398168623925 0
-103.067235116182 -4.84779951207547 4.90580288321041 0
-226.901925822154 -38.6191686226708 1.95613903967705 0
-220.548853963895 -10.3719550354703 2.49939862092473 0
0.499955449106191 6.16375516752417 17.8100704647705 0
-212.09312989002 -24.4574197890984 23.9505416337888 0
18.9930148838137 12.9910719236793 5.62393342413967 0
-66.6683553913258 12.7425940754886 12.0536332377901 0
-168.756192128493 -9.66165010613421 4.13557995473073 0
-190.93971099053 -35.0413264935216 11.6231907407018 0
-134.463844689222 -4.92134017011973 -1.89647616684618 0
-182.107888766615 36.4967143200715 -3.54548162380578 0
-211.045684494218 21.1024469251114 -12.3377137416969 0
-98.3871396853079 0.821358006600978 12.3899816801904 0
22.4534232561259 -4.78385899668677 17.3094503286149 0
-177.594719250623 1.2243810637867 9.3321020088999 0
118.500440659061 -17.4006414432322 7.03729231511969 0
-85.9906462345224 -1.17051142498888 12.7315633476091 0
108.399060456786 15.7051460263006 1.12630961256768 0
-201.13255207208 -43.3655427763593 15.7232394196456 0
-92.70194462333 18.7475629612847 -4.28461349037012 0
-197.333425906633 10.0650855433766 14.1806785944114 0
-197.896528575558 -4.30168274722629 -9.32525567841343 0
-192.567401389454 -0.411965323204155 -10.2864366211769 0
-150.825595097231 -12.8116114590061 -13.4096903643232 0
-28.3104228022393 -2.47889703652478 -2.72746330114079 0
-147.642975611281 23.8170059293791 -11.3514783075797 0
-119.614447598497 14.6846532742413 8.23972647042016 0
46.0740311676659 -5.73949625046609 17.2961796290642 0
-219.131304542086 -45.6502798670823 2.05768234561857 0
-162.586766279181 27.8398026322566 -3.43608554466659 0
-95.5502060668943 15.7408461631211 7.98345727423011 0
-3.72464074947466 6.70781208594651 17.5903774619196 0
9.03611761280887 -7.74264193879837 2.15191496051554 0
-160.854973984768 23.3598905310718 -16.4813550695817 0
108.379673695924 -2.97631592532612 19.7154073888178 0
-223.471577459436 -32.0507194392853 16.7742552706139 0
-101.619422529857 17.3946865990779 -9.30304589703879 0
-25.1730491853845 -1.41309271141514 -3.91516947430406 0
-112.643571308259 20.568986579837 1.04152698211169 0
-134.525440108538 0.685070568592581 7.96767469749219 0
62.5445945840769 -1.90808698088386 -2.08648681232852 0
111.155532707438 -6.14500056170009 18.4821293248868 0
-207.306813713485 31.0219438537353 -0.897626439624042 0
30.3555211121429 7.97263656850119 16.7947522100906 0
-153.31329878832 -15.1380220930235 -16.793651737738 0
-167.780303745182 13.3591671172181 9.16322811812979 0
-93.7358566687025 15.8501683908764 7.92509315841844 0
-174.792653715938 33.9556579605957 1.39241543618626 0
-172.475390948451 2.78044748522712 -19.8276358099037 0
-103.860135424114 9.9115100355102 -11.1009247857191 0
6.31339537339891 1.50528628418003 18.6407773088771 0
-54.4800258408243 5.60971068026896 16.3060396391442 0
-202.312190536247 32.3545951280801 -11.1572560546954 0
-204.813334222558 31.7596519765156 -0.283409132559723 0
-100.490204300011 -0.638618617588161 11.4049230151963 0
-185.412212920582 -20.525502066317 -5.55285217936205 0
-98.7560122902397 15.611360868608 -10.2563948367386 0
-96.919555690984 12.5704507703054 10.8641102003473 0
-124.620852963445 6.90327658336227 -12.6039687275625 0
-114.684472746284 7.57157822459282 11.5203278442924 0
-204.175450334697 31.8330480822607 -12.1593744650962 0
-218.568131638556 -15.9100719740871 18.408229771494 0
-209.571383158337 -17.9432918516719 22.4115174592028 0
-166.895147959388 -4.54167403089009 6.99297471666375 0
131.392101775798 18.0162969822238 3.41939256969995 1
-6.76271913265358 -1.72872630305771 -3.01907575938439 0
-195.806014101081 -15.5858673786425 15.7393902730551 0
-223.629294186245 -12.9228316677146 -3.63094619639753 0
-200.680451425897 5.96518247019353 10.1768150429314 0
-202.976899223889 16.9377701746942 -23.5188548183305 0
-176.933079499089 -0.299966401077768 -15.8916184895958 0
-123.685132700471 20.6215293814808 -9.95592354178672 0
-224.694979647568 -37.2605833668709 12.3123047624824 0
-83.8761624453425 18.0509070778646 4.73448169696439 0
41.6353932495054 12.9640861416909 4.93073263012308 0
-191.241507821228 17.9834025899754 14.154513769416 0
-177.803420159692 11.2846075168205 9.6337905665036 0
-41.0916610483431 1.92727299908392 -6.08455150191952 0
-215.22695406812 -8.68660078747289 7.72588483321258 0
-96.9734458293918 10.3589869099976 12.0566464254051 0
-76.3037070672099 6.28560892112969 14.8449277675272 0
124.566564946419 11.9817125250861 -3.27450298045696 0
-203.947325838782 -1.94689151859355 -3.16139343237521 0
-190.285270425721 -11.9721115047544 -11.1545579740514 0
-189.413061021084 -26.6762718962317 -3.0188552652016 0
-191.685751714921 30.1406092883091 7.32169008326016 0
-42.7171462556206 6.05974126346718 16.7894732916132 0
96.1824031866907 15.6547381015527 6.63057588960331 0
22.3989378803225 -4.37058228804946 -0.341060658305086 0
105.588875338988 -16.1337912346417 6.42606931989361 0
124.619628005356 15.5436596250673 -1.34028703974146 0
-206.004501658795 -38.0303386157332 -16.3132765051238 0
-144.737749559485 -5.81897959809401 0.3201234720901 0
88.7954094016723 -13.6943485306784 4.99361249501098 0
-208.626680310567 16.6484269158831 2.21120617143569 0
-193.909200366043 8.36802252856206 14.4732018477213 0
-130.271319368692 20.0736233401254 2.48234739738571 0
-199.441009212012 6.2937238051783 -1.2157371067815 0
-155.628738388726 14.0167426080999 8.53805822753648 0
-94.4782892488688 19.5398857183186 -2.19920335360182 0
21.9821460156754 -0.374543625422447 -2.89031941560682 0
-188.286334234967 22.1539956577112 13.8598924794415 0
-13.2843489790174 11.0983118526582 15.0967722067627 0
-213.594485805501 -43.782234897446 14.2776441927559 0
-135.924501094705 21.4229368499881 0.578916206782423 0
-190.334053368462 28.4448154956538 -18.8513896088077 0
-212.266434380426 -12.0698904511993 -8.92714785529599 0
-167.721321492871 21.2743854120617 8.47796275590603 0
-137.650714295827 9.16940572457724 9.81124913902108 0
-158.585624413759 11.4198126463204 8.67108663220916 0
-193.272921618404 13.3716588133822 -8.03635478867919 0
-122.242947609713 -3.64750224054161 4.45584327261338 0
-20.6712415989901 10.6513308690009 -0.140472590422954 0
-183.574935953378 27.8401570136364 11.6368631519062 0
-102.964140645794 -2.61539620446006 -6.94222624273365 0
-57.619580635388 15.1637444904914 9.23843435400421 0
-108.80736354376 11.9764840954597 -11.9772637619252 0
38.9680378633476 -4.51793955390576 17.6580114572262 0
-73.4363715992497 2.31540180097933 15.1839440375282 0
-199.668327346116 9.37778138290377 -1.12244930341379 0
-22.8352726455535 14.5066303879261 10.1801658990599 0
-223.775262323504 -25.3554846922362 17.5837955418986 0
-215.275625725174 -10.7945269215831 -3.6768030979654 0
-11.3733659566074 0.802995191579678 -4.34991022658882 0
-186.228885696464 -22.1768504282112 -4.06639652315475 0
4.68252398203411 -9.16248476320293 3.96360655988643 0
-209.731834662943 29.6386197666486 0.973402719392792 0
42.5606368993254 0.324595141840221 -2.68552073237507 0
-113.13044946597 -0.766616913292865 9.72976014477535 0
-201.160182704612 16.6752620785319 10.8789654713135 0
-173.199887308734 32.1949028312892 0.203848804924923 0
-220.700654128004 -11.3065871454851 -2.06140382347924 0
89.121286758545 -15.021918123669 7.37849458363359 0
-112.508544277878 8.22392302440494 11.6118546900339 0
-166.041417962047 18.1510493245049 -20.193391513977 0
-60.154325907585 -7.5071058587702 3.09880975788032 0
-189.410450118258 -6.88397281238201 -11.2695017448171 0
-165.354255486329 26.2941944651223 -14.9986572622352 0
-199.058519462788 -3.04974056186558 -7.87634490857515 0
-159.268799494685 10.6139839668298 -19.3101404280245 0
13.7423066375542 -10.3737354507825 11.7210475970772 0
86.8081495744209 5.36107374270214 -2.68581250404045 0
-70.8353151883459 14.7128484294914 9.95090403334485 0
-123.771675837516 -1.00854218300122 8.08199422181331 0
-170.310216121382 28.5914472244603 -14.4931347665369 0
-98.4704669107006 -3.78799796205631 -3.72767046785692 0
-126.550206403501 18.9919857762885 -12.6140686962594 0
124.118188143434 13.8070053428403 14.2007400916715 0
-201.086302275983 -19.0029802958478 -14.7682146008868 0
-204.235998777249 -6.60230934975143 11.7865789642771 0
-224.466957999473 -12.9260372485182 5.43973959807252 0
-201.961299799557 32.5329261804705 -0.0129146181632518 0
50.2316162114246 -12.3103879671509 8.52346827605994 0
-180.16428492463 16.7067624209962 -24.9046682065529 0
-91.979075183669 -1.92591534144929 -6.11278864023862 0
-205.516871484393 -48.6082042611731 5.59264987474185 0
-205.553188691655 20.2751838998634 8.85995410971032 0
-195.835456124644 -6.81608671110597 -10.7459880002283 0
-161.248074229506 5.32883823387297 -20.4578317879745 0
-194.361050331566 13.2941156337173 -7.08807369827756 0
-208.842552474804 -6.21481826277983 -1.29452647500073 0
84.8034962995558 -7.22754661725348 0.760862203013528 0
121.033704353718 17.2896150190704 3.55919115415826 0
-50.2656896992449 4.35239613073731 16.6998885836402 0
8.51613961291593 8.10876009401038 16.9780248313813 0
-106.486918261442 -0.244239011562094 10.8998485759705 0
130.544890167267 -17.8723002447696 9.13243220726025 1
-195.811009865743 33.7333613556077 -10.5331407916301 0
-74.0036144724837 8.13579647353698 -8.90363756392778 0
-186.005905897747 13.2553121006884 -22.7454432777988 0
-176.013237796175 -6.57884166146298 7.27640502041551 0
-162.78216438346 2.03047959591041 6.99931733240575 0
-79.3837148421017 5.46585950298222 -8.47499538372196 0
-191.945453955772 -7.38142793383597 -11.2764310529437 0
-32.9708287517141 12.1013926224109 13.99914391682 0
60.4396386404994 -0.372897159514429 -2.38608287900652 0
69.3056829727318 8.50335622382794 -1.99188107396994 0
-201.000210378517 26.6580264722577 -21.3535669411707 0
92.2663958299615 -15.2751874536277 7.31369596789911 0
-104.39622096424 19.2650407920152 -7.62739952840703 0
-227.314133724875 -27.3377359247963 -7.8015326562348 0
-66.3682265393377 13.4194595506515 -4.3405760516246 0
19.3115996145944 -1.35897895519771 18.3870426670665 0
-189.932909181287 -35.0973408631039 1.57302326823983 0
15.7542280911522 9.87556139788066 0.684272094385773 0
-9.00919780024448 14.2888230192906 9.67386462671333 0
75.519828125496 3.04639597399851 -2.67300824389397 0
-192.209568177013 -26.7404313144502 -7.23991908341918 0
114.902266974711 -0.0658588344119474 -2.60447346699595 0
-132.725163900009 4.66132910493606 -14.120682233049 0
-147.07846647829 13.8945870678069 8.57144626386405 0
-10.8788731553077 9.15717524976285 16.7122241361033 0
-87.4699310420773 17.021584302799 -5.92007021083049 0
-185.347106771791 36.645898282978 1.86927688943193 0
43.1978667099092 -1.49852855189239 -2.0395614376836 0
-209.706774054711 16.5351289681492 -19.9785416234816 0
87.8638647387604 15.0730464142468 7.05115958125618 0
-148.417992741781 24.3203889047306 -8.84251610920426 0
-221.69805091224 -25.9790808005087 -14.149689903551 0
10.1853702705244 -10.6610568814035 9.70904422246091 0
10.0925169845155 -1.67786126166182 -2.86583439816542 0
-220.226613153374 -38.1863891068754 -11.8258327643909 0
-160.190268656006 12.3443930622637 8.81612767733215 0
-27.3573094614329 14.733808867374 4.91162200433168 0
-202.014983029234 -1.77551968230045 -4.79184282798342 0
-196.550786390488 -30.5457098374564 -11.8473588153562 0
-77.6570473495891 9.26407078559065 13.7774960382215 0
-152.225640646493 -11.7384394051364 -12.489682979878 0
-6.90139462920135 9.18980180664898 16.6751653044442 0
51.3544988794317 -11.9963654888364 11.6481840345273 0
-208.738312011945 -15.9927324725627 21.4249874043203 0
-202.309128502909 -21.9926654462223 22.8201548220894 0
25.521628915058 10.1472065005641 0.949495414349634 0
-103.320625725471 -0.74696297781501 -8.53092227203431 0
72.1314035936485 -13.9238581495986 9.27801536298433 0
86.6698644730015 10.3483906488973 -1.89207326671785 0
20.7593706919427 -7.93583387742062 15.4127678410728 0
-200.955134425642 11.6111568958541 -0.911219892984926 0
-64.3832761050535 -5.67843468636494 0.261317926130682 0
-209.571899851875 23.1806320629237 6.68228629847206 0
-202.111881222433 -10.4578820049957 16.0295552804215 0
-51.2160690778259 0.516000420610015 16.4396177058002 0
-223.505928442192 -20.7632791174247 16.8311459222127 0
-203.270179693584 -24.2465038861616 -18.040398136909 0
54.8919436524186 4.07890283838021 -2.89894941100531 0
42.6189299337251 2.31118583639486 -3.05385852665548 0
-208.836282888449 29.8832904804702 3.49533351032264 0
-14.6911425541907 -8.91974693689824 12.1959675045299 0
-223.267774849646 -34.5767558972414 15.9768548064219 0
45.4890734518387 -11.8068818620683 7.42789488507487 0
-183.292626791376 14.4834507665177 -24.8160245063663 0
-191.458308025049 18.2087660734691 -22.7523246409935 0
91.5106810911336 15.5675329229603 4.41848043044555 0
71.2088927340112 6.53316429348488 -2.79055410420269 0
66.123692043831 -9.18670360918687 2.6841581330559 0
19.7403116467821 6.4985416254332 17.5530207191751 0
-183.815959892718 32.7544367141747 -13.4790780661511 0
-185.170066283377 35.6852619453553 3.62508740369963 0
-33.8717110944933 1.7672919501849 17.5421595211316 0
-159.957158308977 -11.1927878509024 -22.6322382970265 0
-206.26935464546 -1.22629954924693 3.98521473125814 0
-217.110394156103 -17.8350234512334 20.3581239038327 0
-176.291238429807 2.59432017708275 -17.5656604306435 0
-60.7018114891419 0.920476181541889 -6.62396084564825 0
-195.715690866173 -27.0611725900747 -11.3484537236368 0
-219.030095423796 -12.4555357230736 -7.77581161305902 0
48.6325625744694 -1.61311466279105 18.7200948216953 0
-205.808807084089 15.360833057226 -22.4708132049331 0
-189.869694366617 2.07590274513304 12.2497040680784 0
-197.422344114082 10.6631795292038 -3.12784558629656 0
-54.041202737467 -8.47309703507501 6.79752412734886 0
0.0508896086482746 -4.93008793796713 -0.0417867395705286 0
-15.5149819876465 -8.40041472617938 3.77098553218872 0
-164.045434610514 -12.3591784190335 -12.3967293272081 0
-187.277574770331 -3.28304534307906 -11.7069119074003 0
-185.015271262268 19.4746095264345 12.509454504355 0
-178.274046805419 -15.8897374212396 -7.3465631481527 0
-25.5192112384054 1.35818369330429 -5.11323560946292 0
-216.885722297081 -9.07077502685497 9.53346332979859 0
-209.736815794384 -27.2034493193196 24.3954404342703 0
124.199711595317 -1.31807142585575 -2.77982141917612 0
-174.778878638929 -3.46689204668217 8.03088187491504 0
104.151106928514 1.99192318342381 -2.51693867676241 0
-193.014566978673 31.9655241179 -15.9644374799981 0
81.883182739001 -13.5300516784266 5.579933451087 0
61.6372358288772 10.8547054850079 -0.158289893286741 0
34.3642277098349 13.0321681200124 5.35530469881572 0
123.813366079353 -11.7855268727725 15.7221638907651 0
-152.346212155438 21.2131854559599 4.41213882949571 0
-226.812698545699 -35.2290026099035 10.2379951678998 0
52.5371234772734 -9.08464935158805 2.85119811493215 0
-170.308125698991 20.6960424707886 9.17960534296193 0
68.0587386144136 11.3521157073558 -0.165976918909971 0
-156.578055700253 11.7712200461127 -18.6623094568511 0
70.9504686915856 -5.89674224345954 0.490784801921089 0
-209.606523259762 -6.57122317444566 0.879572033077265 0
-167.232178760695 -7.99355548439152 -16.5217943771382 0
101.515340272963 -11.35236644964 1.8427566135057 0
-59.8740375019167 0.504987840382973 15.8611814109459 0
-210.384411406188 19.5139876586619 -10.9848689672788 0
98.7390389877662 15.5768474944536 7.49257301936191 0
-186.343025372604 32.3990226960898 7.18007373942628 0
-211.634602758764 -44.9640431226076 -2.68617264719243 0
-143.020702711177 -4.07288744816375 -17.3223304967956 0
-205.137259852135 16.0083696422135 -10.0544533984995 0
-182.432984075537 -9.67858415906423 8.24181468075205 0
61.0500192135262 -2.36328887519902 18.7991283447733 0
124.164314049085 -17.8576746340542 6.76790825193639 0
-86.9075572008836 -3.80149234934288 -3.08532895941315 0
-8.88491898171463 10.1464247618966 15.9591086081401 0
125.822833634923 -4.41343592896246 19.7504757608816 0
-193.761375207151 -1.03944822952489 12.4805581118403 0
-0.113518861134919 -10.0889230557181 10.5109536168532 0
128.295473703369 10.2948994341689 -3.43127763631466 0
128.099384753547 -6.67305429167502 18.7516337465604 0
-213.941385676367 -31.3282231274725 -17.9207874393028 0
-183.552876740125 34.3017100246791 -11.193699556448 0
-210.216104804325 -45.8742766032826 2.13300621641594 0
-179.408169848346 0.342016949824993 -15.4387863666744 0
-123.927766349256 16.142657816101 -13.9554973244402 0
1.88208667722402 10.2428762006369 15.7962591580008 0
129.31202807053 2.30512678273587 -3.05808215695302 1
-38.0671276618696 11.7153864183546 -1.06420004521045 0
115.163745220151 -8.54453585641009 17.402714540609 0
-190.299711436185 14.9803332506371 -12.3288223930812 0
-61.3395941393985 4.61561361572341 -7.6070578861603 0
-198.84420054474 -46.9707321017671 4.75675932890884 0
-93.1382023142088 17.807982824153 -6.70631649242792 0
-223.906392852749 -31.7897533017668 -11.8446036300855 0
-77.7078718747787 17.9617989023112 -0.312093302535488 0
-212.408567134235 25.718974342106 -2.68438624230957 0
-218.20108167432 -46.1763864885605 4.34718219491633 0
-166.584401859486 4.19901628340598 7.54192335236949 0
-43.953200503956 -8.68716601938459 9.12955918472903 0
-189.958404226259 -37.9643212299264 5.01322149802117 0
-27.67186149081 -7.49501923079578 2.77631751969568 0
-140.791584313529 3.6547144156398 -15.8853554957206 0
-193.485639549567 -17.1125355028465 -11.1516851102106 0
-150.554287026286 23.8010522514204 -0.422442709263053 0
-22.2017753746855 4.93407853430175 -5.49758022423267 0
-188.211648031295 15.2431175063742 -22.8471660007984 0
-148.146020727848 22.5957665519287 -13.8266259032255 0
124.552420630329 -9.63928292736753 17.0373523901212 0
-112.231857807828 3.49213195352272 11.6669865267379 0
-144.486203828334 -4.64812268742695 2.84318735615913 0
-118.867841132358 20.9062720278205 -8.09624817573319 0
-150.394304365043 24.3401704476385 -10.3703403467829 0
-137.167322222196 -4.88484825395162 -0.72068480198532 0
-193.252749216527 33.8163907555337 -12.1100568657091 0
-212.30003109753 -26.8226865042699 24.0733148118369 0
66.2233624074483 8.79780284694477 -1.74074937534449 0
-57.4897116852031 6.43100077144555 -7.68402962752047 0
-200.33399521431 -2.29594657255992 11.9183200844331 0
27.9090690045005 9.47857188293621 15.7832019846695 0
20.9598078349217 -10.4527719666127 12.2304814973069 0
-170.738603139702 -11.4226111786476 1.66889476570543 0
-210.009399307705 27.4570923088323 -6.10080260912218 0
96.8342856036092 -6.01634351277374 18.1926070625101 0
8.10412561100327 -10.6406821979656 8.65604357777441 0
-81.2995402653006 -4.13161981489799 -2.22340236411246 0
-210.600541983903 -43.525363298216 16.6140365751166 0
-162.437843292653 -0.0355698411982651 6.87881103087035 0
-162.123133827828 10.1046267753175 8.5790228225282 0
-176.436170140867 5.99220564410623 9.38131408200424 0
-107.221286894096 1.87555517676586 -9.76588390982673 0
-215.68672727991 -12.8019684673734 -10.2281433743854 0
-208.879852131923 19.5101082296812 6.86833757290634 0
-169.192561193696 -12.6316640365786 -10.7185275871923 0
-180.03894951336 -4.09226389753408 -13.574681285743 0
15.5881374433851 -9.35477777589613 3.98676141136912 0
-28.5737707637337 -1.19091392411588 17.2464332652203 0
-94.3421809817517 -3.5115703110481 -3.95895606629918 0
-95.2808222700491 9.82599286783095 12.3388455279355 0
101.586048809866 9.84358997940292 16.7143990624215 0
77.4198728629398 -9.39199721528681 2.26222954106169 0
67.8795501607474 13.3032722132226 9.70922072601084 0
-203.199193281779 -16.1276880081173 -14.0224160379137 0
-191.356575514793 -23.3986201432428 -7.91643011630291 0
-35.4852031239829 0.225565735465792 -5.11288194630392 0
-209.310825381883 -42.442954724067 18.1550845388878 0
-69.6347841085666 16.249218086504 7.86757425802276 0
-9.22897090729239 -9.87278617236426 10.3808819250964 0
-129.388272491311 -5.38566365766475 -4.20883023035159 0
61.8783950018861 13.5397747650808 3.75220200210652 0
-101.957750950809 19.4374095109682 2.82040656397283 0
-212.534731265981 21.2125173411319 2.11737045832849 0
-136.722620462239 17.8448907633687 5.64317876718009 0
27.2122925913269 -5.84206234821878 0.749906982008339 0
-175.291535330816 4.78365827023643 -20.3469730568704 0
-33.2738058072162 0.0100897051363518 -5.03385462195047 0
121.099892013938 -3.85286976250509 -2.34076170584086 0
-149.413102279168 -7.47674941777796 -8.54320681442322 0
10.3469165720738 9.47004879077816 0.216562076297815 0
-106.435707534176 11.1660686436647 -11.6143922693596 0
-47.9831403710527 10.3408692339831 14.8213947540943 0
-218.841533703363 -9.5802322218723 9.12328311564621 0
-197.142149635648 33.0542328917366 1.46367354857966 0
-219.304554160641 -19.1894731933317 19.674833068309 0
-155.562638883458 -3.5835609295228 5.49140410838106 0
-218.155057091243 -11.5083747183298 -3.53113294513427 0
-189.818348611332 -36.2030614394297 3.02476814806911 0
-194.481907893092 -39.6140908430002 13.8055714079594 0
-185.577290314392 -10.6957780435039 -10.8090744147696 0
-159.35770476756 17.4479820140397 -18.6452100327132 0
-210.538059882265 28.4812887301116 3.82219250487732 0
-180.044054611572 -12.343886114521 -10.5155228180937 0
-217.45581979907 -14.6851247989402 -12.2963423207295 0
-189.321061472063 -30.6102842847516 5.46532004536946 0
-193.6049639345 -33.5576315964508 -6.99710679528969 0
49.127180156801 -9.88980657633887 3.59372961348867 0
-203.728394807113 -7.67419820165834 -8.14016692414264 0
-12.856886792093 -0.133049091460863 18.0742506445321 0
108.653460164657 4.70501497537766 19.9736123914007 0
-166.481674471227 15.609127349577 -20.8691191357821 0
-26.6733935860249 -8.39923437391414 4.29249531104239 0
-177.418011015518 26.9222879688046 -19.1509123247807 0
99.2029194815605 1.08075219325261 -2.61840103707747 0
86.3248708853619 14.0834903787147 9.74311543405363 0
-207.129210853157 -9.81149802226638 -8.6492592934334 0
-216.128847414644 -45.0885431910083 -6.85419606368155 0
0.387950829169125 8.29386126963745 -1.2581945135503 0
-191.5563317226 3.8719109530102 -9.96354297434487 0
-96.0044477365055 16.1635600227835 -9.17973837682563 0
-115.178757569512 21.4358163938815 -4.96140304470869 0
-4.10010208623078 8.97674066864217 -0.716986149807774 0
-43.7391369138865 2.17811942273961 -6.33943588858425 0
-217.572795952183 -31.8827630929667 21.3103113246072 0
-215.096299291705 -11.5781596785493 -5.24906083481358 0
-196.275086910927 23.0690624112326 11.0874637433096 0
-214.42622470207 -9.3929587199734 0.303211858167678 0
-196.276606883646 8.64759986760967 13.8813449338849 0
-116.901086328809 9.03043005260761 -12.0926062874578 0
-193.451681290418 9.8801026596337 -5.31269773362406 0
-197.881763594645 8.31371676125133 -2.12815066214543 0
-207.297219930969 -18.1333109779437 -16.6929159812266 0
-168.477025055721 -6.63116458705159 -16.8256400171918 0
36.272608835603 -0.594603730220198 -2.12009429531303 0
-43.0503549863735 5.51213543317621 -6.47920069883534 0
-145.472152642735 -8.64763118642463 -18.3853228334545 0
-209.320595605671 -8.27712488457632 14.1996324862532 0
-201.453095156305 15.3184142013232 -4.24360992811613 0
22.3321334821292 -9.41745938036056 4.00707790386023 0
104.365248215473 11.0794639262883 15.7768669770695 0
-167.724114955685 3.5439608956764 -21.2211215576789 0
-153.005361422409 4.06425552531705 7.6711753165078 0
-185.757684968012 2.81579280670857 -13.9001514054325 0
-206.757612404524 -48.2447491268548 8.08253422113578 0
66.3125223910264 1.98728703609817 19.241518471587 0
-204.807252115816 28.0549929169262 -17.7881349112357 0
100.854506291388 -13.846787566154 3.76680253895195 0
-113.273786982039 1.60301689082976 11.0490890576158 0
129.386260953838 -14.9584235517958 0.451613352560643 1
-99.6320940243388 17.2042465969807 -8.98971649348466 0
-121.529750620018 2.27919913990194 -11.660528003839 0
133.421877752322 -2.65807904931291 20.6192570863652 1
-127.228710218075 22.2304243260793 -7.03525275791476 0
-141.789435061382 -6.02029306191957 -7.09114447579721 0
-72.0913556061893 12.0069523769501 -7.14349563380483 0
-153.348556731608 -14.9697626270387 -14.3411530871241 0
99.5513056110128 -6.74606710204053 17.9422869284532 0
