88.0317009103368 -15.690391391278 18.0627182434423 0
47.0763210668458 -17.2611751304459 6.14875108592631 0
-197.477857915822 18.668608359736 -6.57906161990845 0
-106.444128871146 5.63497991259586 6.031034753494 0
-33.1494831696087 -12.7442677325198 21.3875304650432 0
-136.669820105455 -5.95096598310595 -15.5880605572659 0
-0.756198132507534 -12.6030644894731 21.6508804406244 0
-209.833256161273 25.7663144121024 -9.8917195767212 0
72.8949272887848 6.04583666731407 21.4281054777194 0
-198.067480529341 21.1559177306556 6.40396790898778 0
-155.570137456165 -4.46160075200947 9.58242770798654 0
-203.107102516386 -20.3013872364569 10.8644063269064 0
-230.286994386337 -19.5437725590172 -20.3915950924211 0
-46.7364336900606 3.35042735985293 16.6046706690614 0
15.2017158620385 -7.78388741249556 -2.8117413372857 0
-223.340998907003 21.4587474796178 -20.6657389017119 0
-33.6163051355817 7.19218352147422 11.1355213874339 0
-134.456081416376 -21.7665056259029 4.83680423187875 0
-20.8791790808758 6.20575229799185 15.2560023119572 0
-70.065255923325 -0.670614214326403 -4.27247683769513 0
-47.9937308074032 -11.5280532684024 21.4221138014311 0
130.461822433356 -10.9703909107387 -9.71085973349442 0
-200.388951609184 6.24116236701484 -12.7509858785995 0
-42.2588484769006 -17.8586580183599 16.9056074364515 0
-158.5090864402 2.95840262398044 -20.9976148699977 0
-33.0737914993418 -15.0363924963676 19.9881150907786 0
-234.04595146047 -14.1878381406159 -18.0109641801475 0
-205.096488938486 -29.3449259030193 7.30202232694437 0
109.999189493546 14.1492704828699 4.63422449527401 0
-222.605616879979 46.6993577489295 -9.20961171132618 0
-176.944758045582 5.62981655027578 12.0212420133563 0
-232.795935542025 37.6533444996522 23.1467276461053 0
-218.359698295443 -12.9072992226765 12.4189455079932 0
-16.5903806593942 -6.87627827197747 23.5286500258164 0
-166.323776816965 -22.1897229051574 -16.6936009692709 0
-178.928107184954 15.3044192858648 -16.0965811693219 0
-214.458850522412 -15.5505869753188 -10.707421033581 0
69.5688434719706 6.00910803556491 21.437088484724 0
-231.230938006201 8.81742352404816 -7.62214027484126 0
-233.113547804727 4.33940589647215 6.93382236835199 0
-174.560326839362 0.555646301419771 12.9788907977132 0
-234.503923803761 19.32132361158 25.1359291782308 0
-157.565974188251 -18.7844927185559 -16.9228283202709 0
8.00323244827067 -0.899131717955891 23.3985919711486 0
-74.8826949702311 -18.2285738714601 14.8874181864801 0
-244.752371565676 13.2405280067556 8.54722217856231 0
-221.419462139199 49.1501172772345 1.75800035686976 0
-11.1432634082062 -19.5500823029688 13.8088498684635 0
-100.330891621285 -10.5192573284601 -11.2801361932048 0
-205.662815555009 -39.2314065162736 -10.5466256865396 0
133.460925938685 -15.7232468915155 -9.44473365251561 0
-130.435775031503 -9.43211863558939 12.4797759406937 0
-55.0259272604635 -9.78070477660302 -6.32174824216851 0
-99.5084773126861 -0.0360879682536283 -6.10524641729716 0
-23.2525963329977 2.19853003903249 -1.68230761378208 0
-192.184367298839 -34.109098602255 -18.6906147898879 0
-33.4427769416772 -20.415055506932 12.3987832084457 0
-33.4586597101731 6.23047748677238 14.1328631242922 0
57.9562619343984 -5.7558613115691 24.3553407700628 0
141.914197355504 -1.05014160025907 -9.59179363894567 1
-185.214955321343 -35.525374945367 -4.88036865394933 0
-94.273331812878 -17.6436447339426 13.8253395641109 0
-185.831985103136 -9.55272464687245 -27.2055123889189 0
-152.980108003497 10.4433102896965 -9.58363140168065 0
-182.949271831929 -18.3214217092433 6.94544490046195 0
88.9938593165025 -0.184607552014663 -5.63632617049994 0
-30.9590122436585 6.00030485064195 3.30829986554624 0
-241.759602066626 18.6742550926563 -11.821360096419 0
-204.379509117543 4.29069051765527 15.5401231421809 0
-206.25176771902 37.5635170550854 -0.717108378540681 0
141.478680618364 17.533329947635 0.516011782476367 1
75.5999739132087 -13.8780330507356 19.9590595993754 0
-89.3844655764038 -22.8894103317858 5.77015641912766 0
-206.105206863692 -39.1687088934549 -3.25962508034418 0
-27.8319938707811 6.17830963064243 3.67522023151204 0
-198.962379294098 21.3819080557145 -4.13565854541427 0
-128.665160407177 -2.54553512953493 12.10857618784 0
133.692177776682 -1.94571789554793 -9.09240755749334 0
99.8876850465011 5.6777040348294 22.2014666890326 0
-137.804603076541 1.70089524968148 -12.9340505270295 0
95.5452417930082 -10.9107794867246 22.7532163105947 0
-54.7137306248409 -3.59126484438975 -5.40084287233233 0
130.93248383363 13.8053457702399 16.9350681412422 0
-109.678186823069 5.06354017705572 7.08736510509988 0
-71.610809207119 5.96231496021108 10.2319588932668 0
-182.777989319413 2.9070350577375 -24.9811395926254 0
-246.983378608668 24.862384418762 11.2374493543302 0
8.71409882914309 8.96040152370528 9.76710483882112 0
-68.6190770030443 -13.1693619497877 -6.22190044096409 0
-158.369600857837 18.683558995456 -20.1159923714774 0
-110.639271898449 -22.990472816434 4.92843186886336 0
97.0762773572965 -18.0141928210921 2.37485181366325 0
117.698452877905 14.2735283578885 2.90510271728068 0
-218.344957319644 -33.0294560363579 -19.3270385528482 0
-239.958116157696 12.7802585403858 -10.410921516246 0
135.59577937592 -15.9966145917807 -9.54697444437376 0
-207.119941975433 -19.618047270856 12.5382210417349 0
-235.201767290549 47.3345068543028 9.50340656428465 0
-106.88349593012 -22.3453039150493 6.31489334575601 0
-156.14256171405 6.65584106984634 8.4817146024959 0
-186.879278439645 -1.82888322901734 11.9582646280605 0
-211.537770331192 42.1326431618926 17.103137242358 0
111.63047884645 -8.91635529466241 23.9770671855572 0
55.2304717549464 3.1950210992982 -2.96989265699654 0
-15.7845605529867 1.31307079232498 20.6854217086051 0
-223.488185258923 -11.1584142982117 6.1707623962129 0
-223.251895920077 49.0669349551907 -3.26144683492494 0
-234.98951942881 46.9163485613904 -2.91709561434712 0
-221.606276374814 -33.7952343127916 -15.2779894653093 0
-7.68521243742681 -11.0595105368059 -0.799932659965724 0
2.03526334758202 7.43697832424805 15.2363196393272 0
84.151675162872 8.38480056293706 19.9968279603443 0
-117.001127757957 -8.15598649669817 -12.6275608512936 0
-38.0732637918529 -19.4301981433024 14.627687059382 0
-206.418554240929 -24.2867568317548 10.0664011180571 0
106.306155759553 7.92484950722894 -3.76238894144788 0
-18.2084017775348 5.10698198304423 1.58301292750671 0
83.5740282660244 -17.3650268902691 14.4193871120033 0
-222.783795711041 -35.0593626093028 -10.1989319539648 0
-114.565817820488 -12.4734412059976 -13.1520257651879 0
-101.06349590459 -1.90914702388061 -7.66813434825658 0
-151.761920050842 -16.2144337357423 -17.3446946025579 0
-164.035106945514 22.9039177889079 -14.8347392570449 0
-216.607521363051 -20.7875256269913 13.1089535075996 0
-141.207111732385 6.42165909477344 0.513337802260326 0
-68.2446952346144 6.60317042300602 5.17721266623985 0
137.012084365675 -14.7414173024021 -9.9864073816492 0
14.7867945729053 -5.73686061278989 24.0042822236846 0
-191.239639020684 -30.4373539224208 -22.0136471618704 0
78.9002565723143 3.50613834864164 -3.65050984598741 0
-236.881771130299 42.8706655795754 16.5959923452964 0
-242.93402179324 39.6154283019911 11.1465755520006 0
-37.9318410591222 -15.5749568556512 19.4106250534152 0
101.671746544863 13.839800245492 13.3065005414893 0
-219.852053655592 7.60218380214014 -12.5725776928377 0
-31.6227247388774 4.08728486290662 0.419414840185337 0
-162.196775769011 12.4835230113814 4.24441707535033 0
-205.459192619702 38.502730041694 9.37867867569637 0
-176.302301888598 -31.3759682492539 -4.90324178980488 0
-220.494723689834 30.8320704111046 -19.8193637431676 0
-5.00886912983583 -15.2753125124154 2.27349024646399 0
-2.50642605979614 -16.4466055594226 3.56592334152126 0
106.574679501493 -18.3167654484139 0.944739894074941 0
-6.72793326595306 5.10912254355559 18.0288017959445 0
27.791428789338 9.62151418317479 10.6120294569442 0
-73.758985465867 -5.89627509655831 20.08155046069 0
76.3749725358451 -6.30228018120886 -6.27790030123152 0
-137.673581646573 -15.4031938785865 -15.3524951746178 0
-171.126681480428 -23.3195422798543 -17.2131480046813 0
-125.446150989753 -25.054559949756 -5.36738632790367 0
-214.276858299087 -16.2699381194265 -27.5545233321233 0
-7.0664987198969 -0.523696766336384 22.6242291033537 0
-155.316373356095 7.63671693009808 -19.3530498556324 0
45.9556761463871 6.81848967673992 19.4369013550591 0
140.345842474618 -8.27456969521122 -10.6729304137806 1
91.2474538840995 -7.30834297158183 -7.08700571128733 0
58.3826823141484 0.317180331110101 23.7635845027653 0
13.017685403574 1.50972672404132 22.2694521504716 0
-216.398992843897 -16.9379055440865 13.543248868318 0
-8.63701339056302 6.57000473095377 3.87230828520061 0
-109.060542073615 -3.79638047129827 -9.64382804361697 0
91.8203547132986 12.8943916126242 14.1824212552529 0
86.2492108666437 -7.83093648263758 -6.74609106857069 0
-53.410453829333 -8.07181050318952 -6.73710415780918 0
-79.3851304785156 5.39604658443149 1.46443053203435 0
71.1626522504307 -4.98413077767148 24.4876044737909 0
33.1920093472601 -18.1258780982487 8.86491285998184 0
22.7777082803014 -7.60326881289636 23.7336800566334 0
-63.5564137059998 -4.38899770363136 20.6135410858697 0
-84.1627351330185 2.72730849135332 -2.22516329405874 0
63.3155257416128 -17.5247138414325 6.48736007054604 0
136.244358040999 16.8209369113015 11.9634900106752 0
-243.461237164063 23.4193845502919 18.0681895880493 0
-145.329079758343 -13.0536094092384 -17.4522678537181 0
120.752107738043 14.5204738091245 2.67777267392499 0
61.1878208822672 -9.67328081586984 -3.7009488344053 0
-185.403801033835 -24.5663943862832 5.63914810778529 0
-77.8439831990139 -7.09342932955385 -7.85270953699786 0
-109.720459013784 -19.3653504594358 9.95354650264016 0
-34.2200339470991 -20.7961886950568 10.286523027563 0
-242.85573885371 10.3055955786939 -2.84926011578473 0
36.6977818016565 -17.9583080164829 13.2827065655858 0
-172.6049432838 14.5841132551231 -3.60613189152628 0
-142.419005902065 -26.5618212427404 -4.92671086590118 0
-78.1330857038092 -21.8343237281584 0.279645741969665 0
76.6411971255311 9.22719844731021 0.77187356874879 0
68.3081433592891 4.24686590142691 22.4386866260168 0
-158.672520382044 -21.8984153574143 4.77339521796921 0
-161.165786243112 5.0523512713943 11.432864339698 0
-109.074190765464 -22.0855647137023 6.56389951704055 0
122.540029812986 -18.1587629859267 15.9276833776626 0
-167.312560665586 -3.371994811647 -23.4189357207238 0
-232.382765479776 6.48933123089418 -2.64378383566664 0
-223.015601907007 2.67869221026804 -7.23001974576534 0
-230.758938320162 23.8731785456952 -19.7690797068976 0
-81.6332776623999 -6.18206486758994 -7.68090492687653 0
10.6520651646534 6.48999234051246 2.44527609097464 0
-232.851618958081 -20.0458768751791 -12.0719648045656 0
-156.522875619089 18.4854577255024 -18.5271691197029 0
-211.617338615908 46.2496232187745 -1.861332444741 0
-216.759536911176 22.8207646571198 26.950258852247 0
-154.605947467781 -14.4669852351727 8.03588519152779 0
7.97277545955536 -15.7968450702497 18.868841240466 0
-183.421716934452 -10.754928320063 9.45825345140785 0
-183.529821385092 -12.1162222168023 -26.2344576373441 0
-179.672039498996 -10.9572040616279 -25.3279074601228 0
-217.814014294904 -25.0005411827636 -25.7543294500282 0
-78.8713558950137 -20.6703089250947 -2.16000366332394 0
-187.680976254253 10.0878013357705 -14.6015496262596 0
-200.189300414983 -16.1061234036859 -29.3433719218834 0
-22.1884855385407 -0.0345878817976048 -3.95037219959817 0
-210.900929835075 -7.40927086033275 14.6838199669765 0
91.7779400750733 -11.0770162072299 -5.58789962163187 0
-154.866491439048 8.41390957211653 -0.297029203726122 0
-164.4302863029 13.2317935459359 7.42536742518729 0
46.6628393091852 -3.0697301759648 -4.83817877050816 0
-113.458152741809 -3.29312399634614 14.042119928883 0
-123.062531605479 -5.28574888656641 13.380889944517 0
-156.759397384345 -12.8795684072349 -19.7070850190982 0
-195.744023318575 20.0763392478276 4.61485637160709 0
109.031283600681 -7.99413688762112 24.3122599588212 0
27.6102444572816 -8.62223954170426 23.4598546718373 0
140.463875470231 -5.73703899325151 24.2825272318725 1
-38.4967650193021 1.5373721274719 -2.0151238550295 0
-225.291813051963 -28.6023708779157 3.13441427550942 0
77.4337781216785 0.746295049595102 23.8738118288684 0
-151.293839363 8.29128997485471 -6.11315190541112 0
105.907665863802 11.6356125589321 0.0971073652923085 0
-192.279661706611 7.42128511706832 11.2134253713246 0
75.9533189828181 12.4049826215202 12.0186459946411 0
-18.2786957570848 7.6884291609026 8.01207132229629 0
-200.960571111599 -40.6676807956377 -7.12124818754322 0
-109.925034607496 -7.67404396528065 15.4433674632375 0
-200.88274480597 -34.0528003257479 -18.6239376332634 0
-195.134971485397 -27.84961612469 -24.6892566289481 0
-201.472291144184 -10.983181088688 -29.4005237081016 0
60.0918405138521 -3.89997823543122 24.4488395550894 0
-97.6119790660952 -6.14750484834117 17.1395986777411 0
-171.182779416115 21.1070756952364 -22.3216447972035 0
-206.268903456544 -32.0494921226878 -21.320425954084 0
138.674409875216 6.07240421547559 -7.26697158730105 1
-168.929152707409 -0.573936208567643 -24.0398295500156 0
-11.8020727044132 -11.5518323221258 22.2369296372755 0
133.24013389025 -4.83515909485293 -9.65560114557186 0
26.897879859986 -17.9712562364154 14.3310883722475 0
-207.4452605647 14.8247422873197 -11.629161706816 0
-218.526587407047 -34.5381667163225 -16.657642722338 0
-111.810280441761 -5.17966887538022 14.8529867040285 0
-183.98886465739 1.88906075527459 12.3965694509221 0
-136.508671805458 6.33730262718536 -0.0811095729460053 0
-185.622991891694 -27.5621672447427 5.45045814514865 0
-60.9102744817455 -11.8902815170911 -5.80579490277687 0
-147.188382499977 6.9751310559803 -4.38742659946068 0
-223.650156846019 50.2130123727676 7.56705485687747 0
-224.816765096481 15.9172720769239 26.3247709562683 0
-208.148725777163 39.2667256477109 -3.18488242752625 0
-86.9165821021647 5.16702747921846 9.46027537625179 0
111.505655011187 -19.2530442834554 10.9413144077639 0
93.4235573738312 -16.5673180804436 16.7887155545928 0
-186.264412341585 15.2479308930415 2.53457048252911 0
-228.538173336044 30.7149944166408 27.504443106893 0
-217.152751099474 -35.8390614308038 -15.2575936575886 0
-163.94180831481 9.14737137678014 -23.6419190083493 0
-175.861012214139 -30.0230143223614 1.06016632673862 0
-206.279451952599 24.5953554820362 -6.25494370360561 0
79.9378323274124 -1.99781064838266 -5.83496220362498 0
-174.122016195565 -24.7046980293427 -17.2633544305416 0
-192.826418600101 -3.01052021180173 -26.983288912536 0
-161.505339904823 17.0487639768223 -22.4263482353013 0
-214.066633756586 47.6091505782185 -1.61194840707913 0
-7.04090079011086 -4.6834840441813 23.7514526474433 0
-113.231076709032 -9.62642404832852 14.8588366297138 0
-228.014205327011 -29.1064294729822 -14.4127472993648 0
-44.8283980619084 6.66854158768001 11.8833416904023 0
-179.605028449143 -28.5459335807745 -16.2026636201432 0
-155.756343971961 0.379439470183583 10.3436589242591 0
68.6844130303227 7.80793243051377 19.9547208054425 0
-69.1693116673033 -21.9770667998501 8.40072211194391 0
-121.202447732597 -12.7527695120508 12.874056391841 0
-92.2999573972511 -18.5276524584973 -7.50201482425634 0
89.0261088823464 -16.977105689091 15.7598063484086 0
-226.013078952002 -33.212480837021 -8.70188739434311 0
110.316443495624 7.76789944340187 -4.03463758353144 0
-202.28684429302 -21.6247206272188 -27.9283845990724 0
-58.6706925193591 4.87764587158812 13.6740182740337 0
-73.3776898690311 -4.37311209401884 -6.64326993103429 0
-168.241085066204 -28.731147156981 -8.51521981857712 0
-205.457268242312 -35.1167471289271 -17.7483656155475 0
-197.414451530673 -9.36107914694773 12.4766330138879 0
-170.578895078799 -22.1145657761022 4.98990075092062 0
-240.242179009202 18.1542522633172 20.6918437032462 0
-245.517887672773 28.1319005605312 -8.30731071340931 0
-219.698947866039 45.1318663289908 18.68178868011 0
86.6666882459339 5.69239942500478 21.9505726301003 0
120.93063745651 13.2244669606304 16.8750570220195 0
-164.73273319658 -8.53627270130271 -22.0279724021986 0
-231.987787830419 -13.819710980636 -13.9897592806231 0
-176.040138599647 17.2657820207986 -19.2335507242573 0
-89.1807964653188 -10.2263715014023 -10.2218495026135 0
-193.921076227746 -0.556101114819954 -25.0614189791231 0
-157.376351055417 19.4054972029692 -12.4726089934963 0
126.428763615332 -6.75790863064909 -9.30488674178102 0
104.274951049367 14.6279446532892 8.43207301011786 0
100.299319862692 -13.9874814257422 -4.38423743209059 0
-199.882480557505 -22.0809816683906 9.13152934837612 0
100.5025161479 1.62113670067818 23.8427249003345 0
-54.9014937177396 6.93841894158371 9.28607576260482 0
53.4618062263696 4.62359445673868 -2.16921484005552 0
-176.884711331512 18.7810680044017 -14.2704569573037 0
-144.787117267836 -26.6530881691726 -2.69718731554232 0
-173.384822159006 -2.57114075208545 -24.9464037251094 0
54.9087165994268 -4.53891903796298 24.409705869939 0
-226.661867665846 -26.4555412826018 3.64592583843992 0
-240.045282566884 30.3875612176468 -14.2412581707637 0
-228.739169719461 48.2937398194024 13.8623900137803 0
-19.3857866394182 6.33507971829516 3.86600131055234 0
-167.776769408323 -29.2456288027305 -6.03262724719681 0
-40.2080245647085 7.10686411845447 10.8163341208898 0
-213.055576202246 -13.9425506342818 14.7896083461253 0
132.013804596159 -15.0625313823314 -9.44879517977875 0
-104.640796077591 0.0358258505567975 13.309579754641 0
-209.631523900855 32.8462368529132 -6.43654438554645 0
-174.08781515267 18.0261379399276 -21.5027576834114 0
109.561212112593 -3.4128861065746 24.9343984727422 0
-169.972085527335 -15.9773415997092 6.73292448215868 0
139.547999929687 -0.681859746058386 23.8459364730991 1
-185.326386169379 -12.3737006851227 8.85487539189597 0
-215.338451011268 -14.8175154105907 14.2358797219199 0
-184.191365720976 3.14311363053032 -22.2204385199152 0
72.815721822525 8.93203521245896 0.875081930122468 0
-127.916174300546 -0.428228991738374 -11.4260256414263 0
105.155023073094 10.8256133904086 -1.43028244419314 0
-136.281250784126 -2.27875000906031 11.352924601607 0
-124.378828555636 2.18518153639322 9.91172953897558 0
-247.000026493838 16.9105919875195 2.42551980961498 0
-28.1197246794207 7.58517382357555 9.86518095467869 0
-91.3448105574891 5.49974497354896 1.00296000781922 0
-181.328245511912 -15.1561566133021 7.36164033329 0
-75.7591475504369 0.194178287031632 16.2883099786455 0
-11.8705826912557 -0.252254460951078 -3.92931391707188 0
-211.947106929266 -1.3878194125309 -12.2784029079934 0
-176.298304777797 5.02855411153861 -24.9991324982091 0
-143.199578971867 -16.9523081555296 8.36644793400235 0
-56.5349475042233 6.17785993263848 3.84628988667257 0
102.223052481478 -16.2095967552284 -2.12369564050338 0
-233.475278452744 -20.182985704336 -14.5148044013683 0
-153.359765969243 13.4832908435914 -12.6773579068686 0
-163.489849638288 13.1851648401805 5.82714919842149 0
-9.22523459395489 -13.0728017056949 0.364679554041193 0
-30.652011067687 -13.4433930763297 21.027169799739 0
-245.178696003324 36.2221433888114 -3.39736746504108 0
-188.519133092014 -11.5636175630862 8.84788943268998 0
135.317756359685 -10.6833276466373 23.3534962419725 0
10.5230848302527 -9.05529738565433 -1.91211513547316 0
-225.388469454349 -33.4089683194259 -10.9800951086586 0
0.633100683884818 -6.96280650941121 -3.85309031507014 0
139.332834088622 -1.17107652811484 -9.36888395689779 1
-154.510468407559 7.56751463930819 2.88427847465085 0
42.7099829227096 -9.56748043974138 -2.89466471052409 0
-173.911020766764 13.2359854026097 -23.8848798083497 0
141.229128686063 -21.6139505575233 -0.955675598129546 1
-221.753207454128 -7.6178534719509 -21.9813688963594 0
-99.6793659813238 -13.8709232321987 -10.4353639651839 0
-224.497216648842 47.33592796226 -8.24870807047381 0
-136.30462399692 -21.0471067048485 5.48950748988736 0
112.043971446184 -19.6193845457624 6.84112799312157 0
-183.296139979033 9.76608313358141 -17.7291663505613 0
85.0477489485199 12.5234483091475 14.0833661276238 0
-229.998189375317 -16.0490195938312 -10.4792875838261 0
97.2267357935878 -6.01910815085781 -7.39814658687778 0
-176.514887563422 -3.65166955149084 10.7349193640934 0
-178.775758448454 4.91389436221847 12.1920760995001 0
5.33015906535696 -6.11855290880887 23.9044250646728 0
-191.181531661042 18.5122289770782 0.0539785807199794 0
-7.01208492421824 7.38012120104678 14.1799674127784 0
38.652475314564 9.25095935551434 5.25517721364604 0
-88.3595200496039 5.82088515820035 1.87948014254137 0
-75.9760442776858 -20.848584398356 -1.07409706445684 0
-196.965341735014 -20.3712998674924 8.96210339694342 0
-64.0399284527514 -11.6361301506891 20.4634061704519 0
-188.788476131306 1.99395335759614 -23.8310464825802 0
-4.41659204943354 -6.15747558321735 23.7428917580767 0
-225.623074929147 -14.6577625797191 -12.5047985788883 0
70.9220594099093 0.277722562022427 -4.59719132928284 0
-186.767004641711 -14.0450355029211 8.45083240551217 0
-3.77535168095577 -15.0984967398611 19.8237277764634 0
-182.5803433956 -17.2157658675874 -24.7194293800966 0
-177.952129007308 -24.2175385235136 -19.2807500380593 0
82.0459930808764 5.51704096660607 21.9308235895322 0
82.6746439219571 -18.1384058096615 11.2048009335622 0
-133.126945054464 -18.8068713295493 7.76545613882491 0
66.5907179330527 -8.44114047509563 -4.69469009619682 0
123.53631616417 9.14577390706257 20.3980023995287 0
117.39109289281 6.14036304196665 21.9928387191036 0
128.102646077542 -10.3590450708961 -9.51159378033366 0
-209.775026427383 42.0858230299187 -7.65243220280943 0
-244.763440360878 19.1163494256659 -8.04040414143649 0
-233.213810576197 5.28890811784969 0.997147545236861 0
-225.08263532456 -18.1315680589937 -4.94836996350527 0
-220.333807355636 50.0660824775378 4.13720457856317 0
61.8771695730596 -2.79467033106159 24.4167410860707 0
10.8228991168902 -0.656321588120552 23.3587445161601 0
-164.629795120919 19.3617188517238 -23.2025524444861 0
-195.544859367944 -36.0759137301636 2.01324822460265 0
-124.985964255286 -14.3179209485533 -13.7702574891789 0
-234.700540602768 18.3314585859924 -17.7355381628699 0
-63.9441537305966 6.51316164319252 9.71065621244721 0
-227.565539555334 20.2811002809027 27.4833240473851 0
-198.778356302995 -37.0523312705146 -14.5748323535903 0
-98.3073589344279 -23.7041874594875 -0.407109777189119 0
-175.530592220871 20.0852964312345 -13.1757116697122 0
81.0181143610282 8.63659748817111 19.6394732587627 0
-115.936773894469 4.06967460041312 8.21277291455765 0
-168.353548146612 15.4344462790791 -3.53529205722332 0
-67.0655340569725 -5.3576104529632 -6.66110664754257 0
-72.3730160301618 6.5863406819093 7.9149268035578 0
97.386321670043 -14.1336114612046 -3.87551984732466 0
50.184555760765 3.47489994964496 -2.79824756063956 0
-201.84724007985 23.9269233536498 9.75746898363983 0
-169.897036337771 16.8759722620167 4.00782718288868 0
-239.733984015738 6.33823846518865 3.28955663941099 0
-167.275929163562 10.8583687564793 -24.7397039268464 0
-123.504201741238 -13.2159576627957 12.3043671014911 0
-230.04172671105 4.77408780193783 -0.799234720577934 0
44.2333364418188 -15.0582655022356 18.796145098679 0
-118.056737547863 2.28480208745356 10.2489323653421 0
106.222023010641 9.6909484130938 19.869451917236 0
-177.758295721409 -17.6607894635132 -23.1517720523285 0
2.79358561187589 5.50345381732829 18.0874333447325 0
-233.207373532407 38.6860143281064 -14.9426143029475 0
-149.324514068895 -10.8498141489775 -18.4704743074031 0
-83.7445917862365 -20.634589301871 10.9694383877433 0
-102.311849718431 1.49902445891555 -5.1155101849525 0
16.0889088337626 9.09802998548431 9.0026384057615 0
83.5217879309114 9.75677116306569 0.71771439317216 0
-82.7058574354711 3.98467228941044 11.9370993401144 0
-52.8328223881853 -10.4876079309163 -5.55768690746635 0
-49.9863048429256 -10.7579457056403 -4.73804117887378 0
37.0843314053396 -16.5375215061798 16.8623456941982 0
-230.607703828494 46.8593811153766 15.7329546122655 0
-233.248687523529 21.4866405861518 26.1619032567908 0
-209.044932332593 22.3820248596049 21.9734318037275 0
-185.493559800438 -14.8431207914351 -26.209827672705 0
-208.510311535964 29.2248020065093 22.24455373502 0
-138.273190884417 -11.379959873505 11.0347019813775 0
-131.208896491473 -22.3468575323971 4.31797570441088 0
-103.24916663908 5.89744570545412 5.61226775866018 0
-222.686730442631 48.6300935064626 0.615389917495394 0
87.1291881175663 -9.68003100032937 -6.05227821616452 0
-194.108602164763 1.20673978333455 -19.5171691456511 0
22.8172814141531 -10.4459230812016 -1.28420975379653 0
-157.885094864326 8.14664069407981 2.61800632278903 0
-58.7464787598953 -21.7524900917463 8.68759922214278 0
109.984172453793 14.6248627889111 11.7677471611568 0
-233.228043985954 -17.490600408766 -17.1195819432238 0
132.966276945555 15.2828246729123 14.817198103998 0
-183.914481287761 -23.3646462898834 -23.3948007649127 0
-26.7082660624693 -19.8409371308336 13.7391078471314 0
-28.0166190795281 5.32249938401013 2.07798477648072 0
-153.442306678343 -11.5698999044871 -19.1403382864722 0
-99.1573107362971 -21.7448290660634 7.92531747729607 0
-161.498698305335 12.9558780138501 -1.4993841235213 0
-222.712735150754 -15.4117478671797 6.98281363675655 0
-134.964765962676 0.788673319290134 -12.7594740340017 0
-158.961166848217 16.3083421816786 -21.2163379274513 0
-231.478058025501 -20.8303573190729 -17.1360199002032 0
112.808389252015 7.10330399997926 -4.46227318268176 0
-205.01535274229 -5.69439228322356 -25.1462274806431 0
-7.65579016636618 -7.90992375810075 23.4773229241696 0
-224.539366465518 1.86153344112438 -4.72643517975561 0
-106.235816592515 -6.99052182244265 -10.5781530236274 0
-199.486582916815 -23.8911845515165 8.62253482836251 0
84.3342452566394 4.09905181175963 22.6772836562259 0
-232.333761302043 -23.3189130193145 -13.9465948654717 0
-130.592534724841 -14.6663052098491 -14.494541035616 0
-235.983229694312 23.6072965206701 -17.5651465604259 0
55.8290639170946 -17.1892947811213 14.8072165678319 0
138.938313180206 17.0618958668809 0.96344493207367 1
44.2695684458293 -7.96655178163368 -4.00223446476825 0
-40.503613089555 4.34953167717001 16.1113100179954 0
-193.576639767066 -37.982105931614 0.904433637625405 0
31.598031786379 -14.952103742471 19.1644343043738 0
-205.627105221155 19.9389240421878 -9.04637100603461 0
-46.9864032185844 -8.60942550296705 -5.88612929904224 0
-71.4617686535594 -22.2242261307134 3.55372690805363 0
-186.813171950236 -35.3260846125329 -10.8991428137356 0
-156.225138979544 -24.3898849800902 -12.280857406569 0
-82.696008853836 4.63730655023107 0.0436783528599207 0
49.4712501907415 -17.5077886340538 14.0944377932174 0
-225.418678762576 -2.65397452081187 5.93637339713491 0
34.5755370463109 -13.10497634134 0.448750621733628 0
140.077484226511 7.76214337979372 21.1399933316763 1
23.5902383188485 -17.6726492255409 6.78648002779524 0
-83.2202765436433 -22.2832169465347 8.00560851413436 0
-247.626748023965 29.190136660654 8.4708059794095 0
38.2525455980973 5.93859236637123 0.181461334840237 0
-206.320357870648 6.65932827401764 -12.3305625564896 0
48.5583440869886 5.18063832331903 -1.98274495764513 0
-208.481911328929 0.892404835423304 17.1174903000293 0
-223.592218278954 9.0457387717623 -13.1467386227735 0
-9.84459524732494 -9.70900814165599 -1.70832122729531 0
-79.281679294031 -22.7934149298971 5.32185960382608 0
-61.67421892398 6.25060478931337 10.7890126400353 0
-209.908451261651 -31.7261481964112 3.24972226807078 0
-106.666479676568 -3.10451308899351 14.9244388085046 0
104.42079051777 -9.00186289099054 23.9268962090239 0
105.686929245575 -5.35441026086988 24.8219298303524 0
-231.092769075143 14.0480249938608 -15.4451168005302 0
-112.030113732608 4.30961901569305 -3.20097651064421 0
-246.117931906977 20.0939801507842 -5.95933890090662 0
-227.747821966941 15.9912806489754 25.9774468934074 0
-226.328620425544 43.3929865276807 21.6121338788291 0
-108.212095158602 -0.429018633763499 13.2827054217543 0
124.715229586922 -5.91818299618896 24.5569830259807 0
-153.346523885225 -4.69087566895477 -19.0515007892176 0
59.1162884922525 -17.7094487555729 12.9069982991188 0
-222.209155252335 -4.34974895889026 -3.58288406274647 0
-130.55031804827 5.86968543003902 3.32998110946054 0
-41.2280899307917 -16.2459360374279 18.7271991729172 0
80.5374920816519 2.23501762508543 23.4100285741935 0
40.8835580406792 -17.9306309552716 13.1396698348601 0
-197.224800840916 -29.4023642059103 -23.7002671018761 0
-187.806357476843 -37.715757302155 -0.960219351552929 0
-182.383939737259 -23.2455165793235 5.57242376888517 0
84.5514588418399 2.27397939598279 -4.42599640114357 0
-171.001098165001 -7.45882759220956 -23.5718412427643 0
138.842359567514 -18.7011971691809 16.6517413782699 1
-133.049204893043 3.47999173074561 -8.75999025980421 0
-223.961760194245 -15.3838895598041 -27.3633952632189 0
-173.909573561409 13.3371995558275 -1.56636384581507 0
-240.75319808419 38.2722398968819 16.4484577056729 0
142.218969085087 -22.051906165426 7.15462802835614 1
119.160868977782 -6.1434726066441 24.6389487859307 0
-223.027536941245 48.7342246145007 13.8824135556464 0
-80.576720679485 -22.7469247042512 2.63327403470168 0
116.058489993531 12.6783768570923 -0.0120022869876407 0
-70.6664308875049 -19.942735363427 -1.02787544011244 0
-245.29612207843 37.3907085218392 7.07759137383083 0
61.4410855690195 -16.3167397151175 3.42564004924801 0
-141.425561900145 6.34499124357867 -5.27800602032593 0
-106.007674485113 -7.85832964956733 16.042741110698 0
-200.386209214494 -2.22778152762688 -19.5734010068829 0
-137.901015973301 -20.1982284285042 6.31654802328245 0
-218.286844037126 49.8499217486334 1.79565675339733 0
-219.618564959521 -35.4130030022674 2.02563304765066 0
63.8123222553303 10.9819738377958 5.69127406336641 0
-163.749974411459 2.60641664633165 -23.1038931484938 0
89.7882170777301 6.23496818046527 21.7292093816333 0
-62.8120020804175 -3.44376326629988 -5.77275184796075 0
-141.75706647523 6.36907980504099 -3.1424789730134 0
-187.031434169405 0.552981253738865 -25.6239647842606 0
-212.459600983917 23.364242808943 25.0617046195713 0
-148.693620476987 -23.7837138639903 -11.4784213942539 0
-103.696765539705 -23.2780892221851 -3.90633516544086 0
-227.74510897208 7.6282516870454 -7.74824836372987 0
-207.258273542948 -11.2093786538676 -27.7088287131036 0
-73.3547293299369 1.96844586797653 -2.36752828256992 0
-245.330475479582 24.528827548073 -8.95630264763485 0
-43.9482232861855 -20.8341521453665 11.6130780629013 0
-92.0040426567965 -6.41658901676156 -8.94738077638808 0
-75.8905254633476 -22.4235758484839 2.68820775276074 0
-188.504035600183 15.0061703601208 -9.7975761002294 0
-162.679844666426 2.86817886708275 12.1288197220181 0
-210.882188738335 32.7617068606519 -9.9023638171439 0
-14.4816093744115 -2.10039520660406 -4.38569324072425 0
79.4008759556017 -18.1809350592308 10.1228647610475 0
130.146376351671 -17.5883806615975 17.5612006809101 0
-193.899080851945 -5.97558733192503 12.5309578377908 0
-232.556552339953 18.6219775979755 -18.6604226867931 0
-102.581464103112 -10.7119505087127 -11.6748610122142 0
-223.296127153353 -10.4891216471872 -1.55235751400592 0
35.6425753596047 -2.0220580948515 -4.75100222793538 0
-122.72525293077 0.500095596890954 11.2171900535683 0
-190.243690813192 1.77255878024758 -22.4985855983701 0
137.318022200727 -21.2852460931877 9.12369669181375 0
-89.989449851447 -2.68066671945628 -7.01130598994276 0
51.0552081446084 -9.61773732286723 23.1178060915566 0
-173.321880038257 8.44144742798 9.46397968810702 0
0.856699253901725 -16.5506143377817 18.3723726489285 0
-219.523267581181 -12.0831220502384 -17.3749631840637 0
-70.9488971847255 -2.82994212431488 -6.00406409036071 0
117.592843854711 -14.17247129532 -7.61646228475219 0
-159.596852585185 8.1463538999595 8.15906255323562 0
-117.889764943037 -14.8571209484305 -12.4873510105093 0
58.0902965140583 -14.2064396770676 19.5109609145404 0
78.604953420554 -12.3347086867739 -2.90141438835255 0
-220.891355170796 33.2356464781336 27.0717462648853 0
89.8651224612202 -9.03117168072446 -6.7033798097838 0
-222.294508790106 -12.1740432033138 -2.83661991596636 0
-192.311388138732 -24.1168877049323 -26.1278958465136 0
73.1984326325173 -0.872389907933739 -5.16450022530691 0
-165.695184294503 23.3179829017166 -16.7419798701543 0
68.7312259194197 -16.9060191749282 15.2597347207728 0
78.5328928054289 11.8444181785866 4.51137421262388 0
-192.509279601427 14.2213617222116 -9.99883322116758 0
-230.209853547305 37.0398063779346 24.7749055129334 0
-244.544082687564 37.7114653571996 9.61857111493492 0
-222.611600393834 -1.89915257471468 -4.07324787894387 0
-230.284371106821 23.282554848133 27.4064269039183 0
-155.284610280201 16.8998512873922 -13.446418270018 0
-133.179440958938 1.64707606280773 -11.1578872415098 0
-76.8544430658128 -22.2613945598963 7.9934395033139 0
-125.837261126501 5.15981487361205 -3.98305090210537 0
-232.621836889432 -22.7636318000582 -11.0185396151015 0
-202.938139657232 29.971683855203 13.2436777964347 0
-210.672098074827 -34.1858011935723 -19.6586306722511 0
-231.014087910373 -12.735830683999 -24.1447452609688 0
140.163659478364 -10.4469625151109 -10.759347504374 1
-238.516935768746 42.153553573535 15.5177555328891 0
-5.84261665705489 -18.7617401979257 6.53254787284614 0
-8.1990674753036 -19.4692425725609 7.85875977165247 0
-44.3145539504778 2.71416171041938 17.3233445259913 0
-201.003108753618 -8.3036706828216 13.4778948687092 0
-22.3525485940867 -18.7000691201093 4.66092314877737 0
-221.412736712028 20.4395524537593 -20.1472896549931 0
-184.607326028537 -0.0222378904303831 12.1233749510335 0
135.527208711163 -4.27784822199219 -9.73404138152917 0
-208.604146015526 42.6063224567926 -1.4915610564678 0
-80.2457366826918 3.25627696481752 13.1025213913495 0
130.02970737796 10.5816615364186 19.7486158483511 0
-207.119604387629 43.2796924337238 3.63115912574199 0
-175.963223395979 4.10983429099886 12.9847984747899 0
-150.249574863364 6.70106103422438 3.96153242998569 0
-210.064350274853 -23.3081859450897 11.3593089030018 0
-91.9147558842066 -23.3316058465107 1.06848585350825 0
-217.013977687207 -14.2805383920595 13.305815428274 0
43.2061746452751 1.67181605118669 23.1343905092403 0
-209.085541471205 41.5606796324236 -3.90925028322125 0
42.1270132417985 -12.9235997944514 20.9396840040782 0
29.0997833462552 -14.6749851071038 19.5600518972718 0
-193.376274394992 -12.8428793129112 10.4850813313781 0
-31.5984641736391 7.44982316012121 9.66512736443097 0
91.8508537114869 3.37652529953107 23.1543351956363 0
27.6178006848117 8.21275302989523 16.1273597773235 0
127.627318952748 7.53031540294051 21.2594255807185 0
-226.29692348323 -16.9191949174724 -9.01935653976555 0
140.146525622415 8.51650368628881 -6.57782160740759 1
102.875939835977 -7.36465409012966 -7.78939776838987 0
119.492074061725 1.97379271824857 23.7025675790476 0
-34.3355698782224 6.53501391242576 4.45267404913847 0
-62.2056366260516 -6.97926942401084 21.3641895867968 0
-239.12597350235 21.2490485373037 22.5827071050398 0
-35.1057277207781 -3.25433719234565 -4.82471534572888 0
68.9813367536368 9.1012676108258 1.3697186966267 0
12.664576055774 -13.1063050875732 21.2464986138224 0
-228.815038517407 47.2729586179844 15.8780269437674 0
94.7864119468944 12.5294109499835 3.87327970147025 0
118.84957823886 -11.0471258351573 23.03153932304 0
34.6237474811819 -18.3008541055562 11.366907575175 0
-166.740226978465 6.85007312228474 11.3294494465809 0
-135.430571767036 -6.50304661015754 12.0542756968186 0
-56.6481994657805 -13.6714319549451 19.9436120252593 0
-84.2590359450982 -22.9140734931043 5.48174871352729 0
-128.717495578973 3.9391756588283 7.84340296164915 0
75.9980828437967 11.3259334561876 15.4058920677686 0
114.746416169934 -19.4550566269178 2.91945359335483 0
-71.2770881204482 -5.23895658157401 -6.93557353452829 0
-36.8866451542552 2.06604469134178 18.3803925899461 0
-221.209557866382 -18.9627114060481 8.99672821090651 0
-106.162967196885 2.40063638536017 -4.7493667858583 0
87.0953325193658 -7.48703572364078 24.1796611390266 0
-145.202395047118 6.4750024205236 2.18513337733119 0
79.440453868885 -12.9790318395636 20.8997798162551 0
66.5524319747643 -14.1281590639109 19.5763239340407 0
-229.409932392971 1.5291399781398 9.2884766985423 0
-231.987340170282 3.330647635159 13.4109747338634 0
-234.05675317108 46.3738104578988 14.1748155904025 0
-77.3359863519601 -1.87657441009765 17.7050123431223 0
-243.716274114391 38.3311888310936 -4.22268221012859 0
-170.920499463733 -18.5040785766729 6.20448531674534 0
-169.643329900852 14.2857283695894 -4.32655215054308 0
65.1151726306097 -9.27380133124913 23.3069246273754 0
-209.768913241497 -38.1166689024342 -1.98495940510138 0
-87.4482827986099 -8.19553165177504 -9.15380866439991 0
-172.346012839615 1.43385547427138 -25.0350222083358 0
-215.055659789092 27.4738481654319 -18.6127958618632 0
-155.486795059706 7.20348009405587 6.40088318766947 0
46.2314787134924 -5.62360395530273 24.262462908148 0
81.9034930662911 12.2674151333369 14.1885612050934 0
-240.365758021765 36.2985017912026 18.2330809423449 0
-190.478177992384 2.51478288170849 -20.7506248807281 0
-215.791988152651 -18.8762823478483 -27.4274097308486 0
18.8015089619522 0.024772944232962 -4.27698191302427 0
-212.031461708889 -32.9021703659546 -20.9845242156379 0
-233.993037885153 4.13210772497999 10.8962285894703 0
-180.015776690585 15.8452179423895 -13.8560976996842 0
-231.091903014274 -9.38592415619937 -16.3400955091703 0
-164.042212532903 11.6818927586289 5.87667853704054 0
-93.0533180287069 -20.4790161534815 -5.78816238639662 0
-206.089796832406 34.0089023790153 17.7398972496869 0
-219.549244340787 48.7991673533127 -4.51391292847214 0
-138.692047035983 -4.60851449171836 11.6588008980811 0
-158.70228273265 20.2922486937733 -12.352538980537 0
-99.4963429343672 -23.5180565610782 3.66214977348127 0
-230.944624534477 34.8474740063011 -17.8324690398485 0
-127.926528888988 -18.7776732753552 8.20937569952984 0
-28.1173288770889 0.501927449933618 20.4179761840092 0
9.60608518465032 -2.81451119998553 23.8900224471416 0
-79.4249953987886 6.53866628078041 5.75763568958298 0
-38.3018507174415 7.33881412982697 9.01670368805273 0
-80.2434868206437 -7.77730984645691 19.6433245921204 0
-213.636346483606 -8.02036348247581 -9.18045023523828 0
122.184821244662 -0.144438678266266 -7.54613282096027 0
-11.05552094684 8.00372132082516 8.7228721428088 0
-61.912509081984 2.354306337535 -1.6072084058917 0
-166.970375774187 16.0774712838726 -8.66696905861417 0
-193.385136364789 -31.9877407939182 -21.0157126672072 0
-224.982968454797 48.5326810544368 -5.08949079352986 0
-244.545286998431 30.0443374846897 -9.3215601922569 0
39.7286741158507 1.7291291707135 -3.64882884467662 0
-166.662032165214 19.3315566702376 -10.2136627502846 0
-194.107135470279 -29.8108139913806 -23.1118093064593 0
-22.8027102661876 -18.4492286652999 16.3178761157158 0
0.483419042494248 4.70131897042648 18.7860867177745 0
-79.4087959196319 6.34749052240194 3.82453827499261 0
-144.509973365161 6.5338505321916 -0.152235778277613 0
-190.153413623666 -38.1807345003585 -10.8592960051213 0
-158.468042453805 0.668763750121578 10.615735342592 0
-215.259864698639 3.64185882629586 -12.0559633467377 0
-226.384054968756 23.3331529397886 -20.6297672366556 0
133.017845322169 -13.5136119201967 21.7668030512171 0
-197.987636814765 12.8667302517689 -10.2500556537513 0
-224.211636306575 16.1726117475517 -18.7186521527662 0
-112.941330977929 -22.4517441928553 -7.71784273627026 0
-108.402028473167 -23.1767346535935 4.59314425967863 0
-176.688025596342 -1.61760392900482 11.5957583007288 0
-215.267412158053 45.3825254726462 -8.14189731457062 0
-228.769985374246 -27.7468721635621 -1.34581520673975 0
88.6263711491755 13.6058143330346 7.68833843676795 0
-203.002787633234 29.4225548446309 8.16823193134577 0
-89.8199817831666 -7.44654908018102 -9.11329820536525 0
-189.139983202142 -38.2957521647109 -6.05049395670038 0
-220.771667871145 -1.29826174464707 15.170166538435 0
-164.571839217721 -2.01362571375698 -22.8669800082941 0
-161.96270310188 12.8055540995341 -6.83084636698433 0
132.400081904955 -21.032821396788 7.04544721584799 0
-214.613551946146 -5.7772877148116 -9.23899881730781 0
47.5127446180487 -15.3048893910682 18.435585932449 0
85.0306562980997 -18.3052688653187 10.3135610860943 0
-231.772301210831 4.53706719401561 16.1786562730544 0
-35.1344315400173 0.127796797977797 -3.25275433834689 0
-199.401061817495 4.91452528643386 -13.8851108488742 0
-180.196660875378 -24.5933340961566 -20.4188949028797 0
27.7567353567853 -16.3622668261712 17.5385018912663 0
-173.979524870777 -11.1619402885778 -23.7031592370952 0
-154.848416061994 -18.2270036555646 -16.7246881368446 0
4.72320687822194 7.53331903378606 4.71378317860587 0
-46.5352950448932 7.15432659675039 7.45203918882363 0
125.87340263989 13.2685192034893 -1.25470163654395 0
-21.1388714006018 -5.2366039727667 -5.26981595640706 0
-80.904177977313 -2.22570407069977 -5.78966914922556 0
-16.3961629862496 -3.92078882233242 -5.16848394816829 0
-222.202744401731 17.0699738958264 -18.2928420743224 0
103.462918652383 -17.2495384733241 16.0083156603494 0
-10.7685117727708 -14.2643875021427 1.13267343270467 0
-143.868269306552 -22.0533538604792 4.51968137402028 0
-205.91919038577 -5.70579848582983 -18.465458319411 0
-83.0347087663174 -0.0339358428784581 15.6484637543776 0
-207.22252142403 37.8714757050548 -3.16437924126093 0
14.4366062991632 -8.80806607878253 23.3779567290772 0
-177.28050748716 -26.8551557186425 3.82905113362643 0
-102.432802567704 -20.0253094872033 -8.18590650855889 0
-236.654624198379 45.5640227670507 12.6898604070358 0
-221.49467658268 49.3290064319653 3.30891080316882 0
-242.30120503106 36.6243843151825 15.5536326941552 0
-216.925255672506 -6.29110750306387 -6.27166065222954 0
130.954785038342 6.17425141606574 -6.38322295684659 0
-186.671213141615 -19.5920523333867 -25.3914973008952 0
-11.1652540678722 7.90476502501971 11.5077712833554 0
-179.901977856885 17.0518727202183 -11.0877266922994 0
-209.728596070285 30.1091277969436 -7.17124196464796 0
-219.685482945794 12.7147186413874 -15.9604774755721 0
-132.084308377598 6.17854749135216 -2.20855862882716 0
-204.574373688615 -38.6842810630447 -2.08218323283173 0
-170.121714539766 -24.8782880116589 3.57192110319063 0
-165.209480405846 17.2280079690506 -9.82916275178587 0
-227.07853881165 -19.2889793830317 -4.85440473356944 0
-217.438173624469 -18.541096711755 12.9822439675692 0
-51.0899787159353 -21.4964843516864 8.09832820656003 0
-119.752023955861 -22.5752108892693 -8.7941462394277 0
-189.574542948741 -37.8739777002874 1.1112438681942 0
-88.3572592389917 -17.2315517912012 14.7978150703988 0
-218.719312701019 -8.72989612142039 -23.4875563650121 0
18.4932027959821 1.02632395012701 22.8516338894456 0
76.5552857106135 -18.0692403110189 8.1597252810149 0
-109.908487009528 5.00489810114879 -1.76888610361206 0
73.147114376986 3.55378535225192 22.7390979765095 0
-57.915473715464 -15.8597837819397 18.2940506307826 0
123.826026486901 -20.3641895001848 4.29903737800301 0
-209.487816772987 -6.72676457894047 -21.8962905796126 0
-189.919022685837 3.98373216214851 -19.2489586763315 0
-206.280425778213 41.8125597183542 4.55206878342255 0
-198.376972036892 -2.03103245149513 -21.1407326939564 0
-216.95410737707 -36.8711388291173 0.609449179519073 0
-15.6954527027031 6.74143543983366 14.8482516837096 0
-224.451044453978 -16.782040605653 0.426989042410857 0
-222.225871789039 -14.002156775353 8.01453011542114 0
-204.082404810477 20.8715251043186 13.4676431618386 0
27.4151880697541 -6.22911210078662 23.9972083762532 0
-173.774373458314 11.4609912316167 1.68656211769032 0
-94.5476576653741 -5.41406705020409 17.3737073923604 0
-166.275905573881 10.9996395234363 2.87666836840698 0
-6.54401008095823 -6.76458058436973 -4.32867746640078 0
-208.024524682048 26.9721021873426 -6.29716768633107 0
56.2387931226602 -10.6853474913949 -2.8823863258686 0
-239.16089473955 40.0889324719115 16.8514447859722 0
-138.988148797868 -21.7085137472245 4.76553787069751 0
-206.502567764005 37.6185489648468 0.536290746077021 0
-198.072075074034 -1.50771240799433 -19.3906869271728 0
-189.384634714553 -38.4035853191868 -2.91279472811205 0
37.4371462725492 -18.1546304810864 9.43344358144023 0
-236.399400117947 26.185903569287 -17.3878211061986 0
-136.632600685767 2.87599565253461 9.1408161792588 0
46.1214605876239 -17.3562691394613 14.6855702931631 0
-76.4312755797904 6.49773953406712 4.69366667355183 0
-207.135063481665 -5.87717671015073 -20.2294953662 0
-208.230661342127 -34.1766809555575 1.00311412240609 0
-11.8226250574577 -11.5406177941016 -0.664710933422291 0
90.9532464079418 -3.73722514976 -6.77482883427119 0
70.8653823104167 -12.5340073649222 21.1779154828875 0
105.957678336953 12.0130132684801 17.2781293459581 0
-117.692976435366 -11.1818607004218 -13.8806844737126 0
-81.3944732760081 5.46188197775575 9.7847811474283 0
-122.980286490641 -25.2658264358446 -2.17088489597039 0
-183.076173718133 8.40073486082488 -19.8996567709379 0
-216.253704471621 -9.02538709848841 -21.4491777017156 0
-142.617478399952 6.39061183331349 -1.01341266027085 0
-29.6530852834004 7.28693161106249 11.3903770556651 0
-135.60554862784 4.03140372426444 7.62183154677065 0
-198.743208102111 -15.4192017441342 11.3068674482907 0
-136.940169570502 -22.5581353991009 3.90354942413059 0
-201.402400335701 -31.2890896449605 -21.6519161016578 0
98.3330715368645 -17.2894936518868 0.130131409922085 0
-28.521181423404 5.21094098027251 16.1236334783966 0
-219.808741561572 -4.04510901693164 13.6366951862461 0
110.938592122724 11.8879240243492 17.884341588271 0
13.5954464152361 8.05610185131329 5.22987234826116 0
-212.035874619073 30.972931797592 -13.4846711402394 0
-81.6600421450543 2.63867299643555 -2.13320759179945 0
127.927896459933 15.4658353028134 2.38767243027122 0
43.4539385490615 10.111585284028 12.3117139429868 0
-68.5848749822935 -17.6428490949336 16.1451526786618 0
-163.212189225096 -17.5558593871613 6.49462429028286 0
-100.066084013393 -19.4241865205574 -8.22644410901469 0
-73.226217476627 -20.0259671474327 -1.56299810820203 0
-243.733113476196 34.2522182915472 14.9493621466014 0
-219.226272663792 16.8947162136957 -17.629585392039 0
-198.547764787415 -31.7308472704119 -21.0088548895119 0
-81.489796226585 -22.803708217056 5.87008228429015 0
-230.803047041824 6.01966131478268 -1.86225387421739 0
125.531914544254 8.27296738620988 20.9029115407647 0
9.34994290013749 -13.6488422766964 20.8672715185032 0
140.713048275343 16.5092168664989 13.6108726240912 1
-145.970449062339 -19.8043744144984 -14.1700341004232 0
-237.679132400419 17.0863511019398 22.452541358991 0
-216.576353683185 -5.31802059896304 -7.64252243314211 0
-187.364118392777 2.03787105898824 -21.407768842122 0
132.157744419479 -19.9972933358871 -1.77945116263415 0
-248.448506033496 27.2750437084814 3.44919536858707 0
-178.127853542884 7.07063080304786 10.6526257306607 0
-57.3530172126909 6.48957693067816 10.6507555445835 0
137.14464630611 -16.9079327143429 -9.25014098303926 0
-219.289090073406 19.7183795980045 -19.293852469609 0
132.057520340801 0.214279284537289 -8.32203369561255 0
-231.959982526904 9.48968306146097 -6.28611905635325 0
-20.9434117917174 7.7312870865416 10.3693988003363 0
-183.300261759561 15.7928464141846 -1.76356115162368 0
101.102949738054 -18.6264616068666 11.4569184988515 0
-17.4909589661261 3.10060131828138 -0.911375374524617 0
-154.902161877307 -6.70647121094818 9.37839552992012 0
-222.601530582809 21.4975838741974 27.8400439074108 0
105.0543067798 1.87685378988731 -5.61848453928524 0
73.120344724432 0.890660402188752 23.8232065459595 0
50.8877626129617 0.82504390134789 23.5210691969959 0
-168.711896017252 2.10078230454116 13.0869378545745 0
77.107043190795 7.59177236659324 -1.03285515423602 0
-216.345012914791 48.8736199868784 -0.412073539651013 0
-226.73773759479 -0.183807768332004 0.237072226595289 0
-231.189795645063 -25.9040446600471 -12.1907916638943 0
66.5964475616783 -0.0116300334157364 -4.56113896072149 0
-242.515822883055 8.83337569008627 5.43519002215105 0
