189.225904369858 -32.1353755251705 -30.0561040613686 0
17.6949814553187 13.0298569105624 -0.15477476638182 0
88.3335709786061 6.46132232956191 20.3628353841344 0
182.401357044624 -19.1673365749971 17.7340682433662 0
-82.0512726159602 0.31683789866639 8.42274932691225 0
169.968396495184 30.4112486657478 3.10882184981695 0
180.316389537052 -32.606944843099 5.97489782266493 0
171.9661215544 22.2868618203114 -21.6206506212846 0
178.542726493798 -20.6721689308276 -37.5747623695389 0
15.6930940212197 1.06342000476387 19.5647039733409 0
190.750913337687 -26.7972186845197 12.0725606439966 0
190.741442406512 30.7246347910431 6.56084261294378 0
183.267694188942 18.1935572357375 28.4785936111068 0
40.5624278290054 9.19405956888316 19.2299926582386 0
79.5698744673828 11.4723167363686 17.5748909099767 0
80.931041952772 10.0563793466741 18.7435494799557 0
87.2156269901644 14.7957314930921 10.0012136213698 0
178.423597864934 -6.01424645550092 -28.3472529079622 0
190.328891791011 -3.54815983200635 18.9370149949919 0
33.5496522068733 11.257725133632 18.1450060733382 0
48.4789990310311 10.8583641758479 -1.31613159231999 0
175.717322126666 14.4548950339188 -22.3873973170173 0
-67.7722860259759 -0.314652172019921 -6.18731113428367 0
138.095554575389 -14.0174208614868 -7.62773128207966 0
161.09344457878 -4.77358318209111 17.9216038122653 0
167.827393007663 2.65641138009388 -12.0156113233327 0
-83.9139416519371 14.7980778459058 11.6132382693046 1
91.5392371909625 -14.4495708778502 15.2926145353704 0
201.660353776272 -7.51638526940926 -21.2786778786443 0
152.202541589776 -26.1773356320766 2.88578265235773 0
101.69138372762 -18.7334053257584 3.3583719620276 0
0.45772253240648 -4.93868281860866 0.182601528850974 0
-79.3730784169685 0.0601768464141032 8.51104058432467 0
94.3418617856519 3.9369628952401 -5.23121579301295 0
-80.1342658730144 14.0041008159903 -12.975893266752 0
201.146301749891 -22.7573568812094 12.3796662526223 0
165.024538880113 12.1846878838465 -11.6806382597532 0
103.655713674834 7.75873041591943 19.9626825403292 0
144.010953089582 12.5454741664257 19.1217337403494 0
-51.566832039701 18.8382397366962 11.793388711514 0
206.958088472371 -17.3176992289981 3.96459125535598 0
174.900066412698 27.1701819839413 16.0140228485797 0
2.32096282321169 18.659875543922 6.03931831550466 0
193.680594752515 -34.2483902147159 -1.9661963336393 0
187.582602889915 -33.7641271192821 4.04233185249412 0
-42.7160970565274 16.9842636354411 -3.82844481170669 0
188.091121349831 34.6132137123727 -22.7884882152451 0
9.63742627569071 -9.6522345611883 9.08432331424017 0
140.756148876305 17.1315343616091 10.6293529453023 0
19.2007658032128 3.21982203477608 19.8274344564712 0
93.9112997258704 -18.6881513389417 7.36198834973914 0
-49.0280805002353 21.4744804753065 0.709509586556202 0
-69.0809847968223 -1.30368672800259 -4.4101128147774 0
182.98690607501 -7.10385575419761 -27.4198543687226 0
172.34375184156 -5.14070098728955 -16.8595776818666 0
191.690191151127 28.5232503487821 -25.1928435541552 0
154.191637109095 22.2384104471876 0.275887782322526 0
90.0596608188294 -11.3089819722109 17.2896218149748 0
158.554096408819 -8.99415639514425 16.5843883703499 0
177.736582856116 33.3443747805455 4.95674224284124 0
175.182241094616 26.2280303448652 -23.5301534129892 0
150.123392986605 21.1068343286036 1.73199282421155 0
-4.73015617781739 18.5895406754728 4.21993618013332 0
-48.7805900374001 -0.889336572187694 -5.09479880925932 0
-15.6652199299364 19.8850499796544 5.39368890436023 0
-52.0194474939507 -2.96978003693752 9.40080492517524 0
192.187073611117 23.0752235170756 19.6794269929361 0
96.7690654709092 1.09229457100548 -5.26873889977338 0
158.096783286504 -19.0059804827505 -12.9271676067069 0
168.03458507163 -33.005394958008 -8.16914539119756 0
-27.7258926859841 20.7514973605903 8.10094058664252 0
176.064601875167 -22.7259020215133 15.3517341106349 0
169.625501828329 9.39217076915564 -13.0849350629082 0
-21.9466847648464 2.99950748201071 17.5412968013766 0
177.26772235512 34.9007410810207 0.650675927098347 0
11.2116899192554 -6.30729593637925 1.08189408433791 0
58.4126112526595 7.05257331352888 -4.27380918106856 0
39.9699223615711 -12.3778228182135 5.0912170530188 0
142.924904407789 -16.8570204332433 -8.04639611256942 0
-73.3489124565509 -3.06981583551806 1.60652322596488 0
197.052298758461 32.6169360301639 -20.9808137013306 0
127.452825511045 -15.3114610021995 14.8491488251158 0
211.652443655635 -22.6443957688185 -7.93124779187728 0
27.6610568095154 2.8949129378241 -5.31691151998005 0
-39.2078042912223 15.6033739001321 14.5861387797842 0
-39.3599938789207 10.1072402708585 -7.46918400964343 0
142.710786935374 9.03471100717792 -7.21777273245684 0
208.316544980288 -24.0172302588502 -28.6564929883669 0
24.2353036244582 13.5488364285817 0.562016296465616 0
196.269087470002 -10.7226768024994 15.6895068165115 0
-86.8368119675867 -2.21243105317307 3.71343030598553 1
180.512414615835 31.1123654573049 -24.7488347934493 0
122.212966246235 7.35797113089663 -5.92855596870135 0
-9.01280036718099 15.1736175320295 15.6709018140264 0
172.231212895422 11.4846476378471 31.501783475938 0
123.887037239076 9.24547969067218 -5.65159124023004 0
-38.8378234584993 8.69318850063454 -8.2784071606375 0
181.121087827679 -38.5885350644833 -15.29226179542 0
-50.5737978694259 -3.66943688232652 0.279059049216947 0
3.19498219694169 -5.58413166965162 0.809324230745399 0
183.417959795306 -16.6338728089061 19.800514148479 0
14.6385382332767 18.0936062820195 8.53671403430827 0
179.272344688667 -23.4672851245241 15.4168697528869 0
159.436259133939 -17.9317642369424 -13.9244407479652 0
-20.1012458754928 -2.87082841307875 -1.85298411931193 0
154.911079607343 -16.5079453107003 -12.0516732565038 0
202.43652935674 27.8695020812553 -12.6553077591484 0
167.386775409337 27.4286421861787 -9.4973046757561 0
152.303674535036 5.42452995281936 22.9614109493649 0
161.821651649064 -19.2184982201454 14.1321867251361 0
-49.5119421956885 8.54246999466045 -9.58517550125796 0
191.091724215442 -4.76281895219426 -10.8074644422913 0
123.902588837997 15.5853749015276 9.2458394864721 0
18.7095043029365 14.7490327941768 1.32223142410174 0
87.7081153155543 9.27088878188271 -4.17929696455404 0
202.205112365679 32.8045636726662 -10.9177126273421 0
32.6284954360398 13.1486966232092 16.9169314482158 0
168.903957677355 -27.8808662766751 -20.1956848990993 0
41.9213576447101 13.0043769908556 16.9672869928704 0
203.421040783759 27.1107418448839 0.353356667026582 0
174.212910524483 -33.9567443765121 -22.5704568800657 0
64.0842094086298 12.6954632026968 0.0658764336815787 0
196.341209164559 -0.403833160770901 9.8592656425211 0
28.3860336994272 13.5653471251141 0.70061069108807 0
194.982494206191 22.0176065199016 20.4975053924467 0
24.8777517166691 -8.3717272138436 15.4718706775317 0
194.840202095284 -4.24590732651966 -5.64626058374493 0
111.645646749122 -16.7050045565152 13.756677552203 0
187.806580590726 -39.2638575284272 -14.9846698295863 0
-41.9948925067726 21.1611414285888 8.90448964723157 0
133.926022962006 -11.393376058386 -7.19726778491048 0
-51.0424771119807 6.83845830551392 15.6702029689663 0
135.667267809955 18.1813610109589 1.42151614115279 0
156.308929755105 -26.95306227872 4.26537113669985 0
30.3303443271396 10.6071527541992 -1.4614342160889 0
166.419485127538 -31.470978432805 2.46631961097826 0
-74.4589113327836 -0.447598239899688 8.63010977895991 0
180.721607665621 -21.5029469317628 16.374581476588 0
149.634347834475 2.64640386348256 22.1384877434673 0
173.664023264185 -20.5619291678414 -25.1396890560707 0
37.9452881716248 11.6313971988969 -0.660850895814705 0
126.733459912453 -18.5800350344748 12.1740471834417 0
125.798929425397 -9.08994992983967 -6.38030048927165 0
208.997767863693 -10.8160321918746 -6.74254027108574 0
69.3074904526475 -13.2460458857472 1.59095631773531 0
176.252187035343 -33.921751504722 -25.4365556927 0
-35.2199875755174 -2.62795804150951 -2.31923158436283 0
143.208549260037 19.3739730036505 4.1094639826711 0
210.200143279742 -13.7976402653818 -4.66509583147868 0
106.941425663842 -19.5899617763043 8.600523189772 0
74.5678431191448 -5.12165969011552 19.7648041729427 0
200.49050025885 -30.8199003569825 0.969427435632581 0
200.919991040367 12.376994232431 17.5414015743732 0
154.698401113408 -11.843287694391 15.9788522908316 0
175.405970239614 7.48004012781931 -16.161804965829 0
-68.362091352057 1.21087312474945 -8.09249737974022 0
106.69355171276 0.0157094650622857 20.8324266605904 0
184.454934514677 -38.5800220850878 -8.73570553410668 0
169.669362776592 -3.00529543413404 -14.4790201730615 0
166.7789170031 -20.0003575105589 -18.588144530439 0
178.964696396218 35.3833970153021 -0.500491621716427 0
2.84255639895789 12.6038303620706 -1.49047247757826 0
-38.083407978286 3.15714159967117 16.0896520421228 0
193.314577002624 8.07057584321194 -8.03858274695673 0
8.23501043334094 16.4082181327482 14.3287221931608 0
-14.2952640471751 19.5274453896312 9.99654424693554 0
7.50363612693429 15.276694508996 15.5466482096679 0
-31.4076040687673 21.1040072330753 7.33676692551583 0
26.6338565627139 15.8888319750743 3.36937712231261 0
194.276957018329 -4.97080880699263 15.0673869403373 0
202.230731086296 -18.9950313788218 12.7936200275581 0
176.631428134346 21.4479791937519 -24.3468233206241 0
-54.9280664161906 4.0689766389243 14.5685853136579 0
41.5101257477518 -6.52108798921059 -0.397965796112372 0
-76.6720042929242 -1.58647286160233 -3.9302955364935 0
115.902702187655 13.0400376237608 -3.20408604171513 0
-82.2298503811503 -2.5605978297425 -0.790646367141077 0
-30.9262019527877 -5.51480457021696 8.98555174472678 0
193.570219127879 34.1334911792024 -8.76837653235005 0
202.556963576725 13.0041752687044 9.27500552168867 0
203.965363158829 -31.2436093089739 -8.35690796415012 0
202.799055603608 30.0100766184028 -10.7169712218374 0
-69.1638650539375 16.703523435026 -9.1471012141845 0
85.6088591313551 2.7952529632097 20.9166138981633 0
159.213796367732 21.0266587550426 15.2184191781178 0
181.384406139754 -6.88534400503385 -19.0778766007268 0
73.0248979414987 13.5002696002989 0.806083658572904 0
171.265207255372 32.2976693214791 0.243910333766554 0
190.179015171496 -7.65924408099876 18.2462173391525 0
11.5341495490194 12.251906423361 17.6814142113108 0
181.315466555423 16.5512642355629 -24.6416218570945 0
195.847080460076 -33.7118881451482 -1.13091036782555 0
37.9612449731072 -11.8907971104462 12.7038237016016 0
113.367051393123 -0.759703538970285 -5.97795984289345 0
200.848411060726 30.981256660744 -16.4051132033962 0
-45.8692977465437 12.0777821698993 -7.30536776361764 0
-68.4237683526892 -2.11827184680774 7.52711240322042 0
201.084751960495 -30.8298009224183 -24.4845267131795 0
-31.4047923405577 8.47650083914955 -7.50563333533248 0
194.038310471761 -36.5928484255138 -8.75393919935152 0
127.738075636903 -10.5216761431118 17.0188702627922 0
199.381459928115 12.0653237814654 -7.07306058960546 0
191.454428936137 -20.9135687763452 18.1638628916323 0
-64.7775329640188 2.7428947872179 -9.20335791250274 0
-75.6839541649635 -2.40812307530787 5.2610081268103 0
192.131061099259 -37.1970509712915 -8.56966099124006 0
165.226630804168 -0.283756164745412 21.6033425119 0
156.876113741129 -9.19346357222262 -11.967992656492 0
204.115629245662 -30.6853824092082 -2.46876117828032 0
4.93857261191591 1.86827772273173 -5.41954433735279 0
43.8187877862885 0.913906065473786 20.4414305612849 0
71.0851776169608 -1.16524792516294 -4.12816321492367 0
42.7296280851223 -1.49954803854248 20.1706216134961 0
-27.2349837299245 19.8380380412646 2.34381147353247 0
-64.8442727761829 -2.48982563929164 7.60977326003031 0
177.885174671247 15.1988985764509 30.7765672605658 0
54.4268842999768 -6.36119752734033 -1.30873158398851 0
100.896706747197 -19.2772766557752 7.13293728934449 0
207.25442418554 -13.4718919670917 -27.3065987645438 0
187.529384005573 34.8631022616865 -4.64212579152432 0
11.8190110300461 -9.50447506469938 11.4497789231114 0
-42.5391327273051 2.52527752749503 15.3428618641935 0
199.027913679982 -28.3911185940935 7.23951759467211 0
12.101316633134 10.3287978633772 -2.44586319357448 0
47.1790762738775 7.74456259106611 -3.81415931308981 0
-35.6036474831647 12.3543551725031 -5.66453319313705 0
79.1235529468454 -15.0184753522116 1.83524811905563 0
176.245341138264 11.3089282887412 -19.7577052446111 0
3.81154653290965 4.66567411185128 -6.38794167968166 0
-75.2076268601091 21.9853877336304 6.33755244973266 0
19.1253121201602 10.7159904833813 -1.74622876155479 0
190.597873019177 -38.742014762049 -12.8627241078922 0
-28.6268755069246 1.57124609823415 16.4262410466986 0
48.6090201486795 15.8507567416465 5.60757725049006 0
178.138788330795 19.3344435120947 27.8654743261292 0
-79.4980241521023 14.0034793043401 12.3524815186023 0
160.492603012987 22.5170098594798 13.2095528243818 0
170.907832232566 -16.587719809083 -20.572306577934 0
-39.2116445507115 16.2596451114148 -3.7846370681755 0
52.6622035752233 -13.727077577638 12.2752955935145 0
-87.6501370056181 10.9627811549016 11.8751821484997 1
207.942740152675 -26.8063443539141 -27.1248098869046 0
-38.3037258343393 20.9667252329184 8.91415423084307 0
194.732634711258 -20.9665853353267 17.0194273351567 0
16.7735477406284 -10.4549076027426 9.50591153154674 0
-24.8499143210023 -0.0917683803761649 -5.34980742121435 0
2.12731760880155 18.8367206460442 8.75370457558106 0
125.562859809046 14.6319728005973 12.0380731450533 0
175.132889298998 -4.58308399887022 20.7346643702433 0
184.402621515737 24.369614988964 20.154180649721 0
-12.1522155462695 19.0933141963166 3.96148712410204 0
22.7349423174854 17.0229758528703 5.16542496433302 0
197.338490101076 35.3092009715041 -6.73357300187704 0
179.746815667015 34.0513476314956 3.3544244876215 0
201.682685463413 12.8742643072137 0.255750244541303 0
169.108272557543 12.2931213527164 -13.962331279384 0
5.05780013506725 9.55978504534947 -3.55641850597611 0
50.8635487697118 3.34335395772834 20.58820816604 0
209.033104702267 -28.3366898146337 -12.2825323366809 0
185.851029934273 10.7434936316855 -19.6006839519952 0
22.6993614874107 4.09556545334119 20.0023269986026 0
186.81265637583 -38.9566783840643 -10.7232778209579 0
158.708262560688 22.547399064098 -4.29837518536051 0
175.833045323878 -36.5822543215386 -19.4351986132562 0
73.007060185481 -16.0892987690618 11.3686675639672 0
71.8621185955877 -2.36162897525772 20.4242706705802 0
196.513836446653 31.4681760690009 1.79657172391297 0
-79.7202792225975 8.46767220751199 12.8193295213744 0
208.498476241203 -28.7100288447749 -13.1415622041667 0
81.1667919799246 1.07725848803645 -4.71660258700408 0
32.8914213857436 15.955461206826 4.06465888011305 0
124.74891721083 12.8015259373082 15.5323950436269 0
114.41253997276 15.7745080706664 6.85308403274074 0
154.171291374275 0.200412980019965 21.1309741861016 0
-38.7670845479542 14.3295441700263 -4.9273261729805 0
177.018659221074 -36.4308822991639 -3.43603313618959 0
155.527162617276 4.17702594492139 23.1781744335452 0
42.9440131823836 -13.5725265237217 8.15308543309591 0
129.254405580437 -20.6016918630984 9.03260215726213 0
4.85418469271177 14.5530296864063 0.149721747489584 0
-10.9552625468953 5.8121663169621 18.7237954901423 0
-27.3668460652973 15.29462383158 -2.73682103428421 0
60.112748915897 -15.0102253420216 5.88270297748961 0
85.6424213927586 -17.9157631053766 7.03043175203145 0
157.294901373893 22.7833730290587 7.10151299924483 0
195.861439029995 -32.1199915784378 2.73895209053878 0
54.1499223888975 8.83814678166644 19.5180285681138 0
-13.4238670700622 5.8241666325693 18.5729268029398 0
57.4752723437745 13.5253361882559 1.47460388731848 0
-45.6021633469867 21.4463101943831 8.48368779025137 0
-83.5008576636071 -2.3904058019804 3.70778112264322 1
197.333210785475 28.2290703304458 6.34355993453495 0
-61.309566000393 11.1241480646635 14.7533302215569 0
-53.3612847873449 -1.77437756962298 10.7946076566437 0
-61.4814189715112 20.2813012862224 9.78728558816144 0
-70.6218641650629 -0.128690679541923 9.63158839804904 0
148.551039389389 2.99850519882445 -8.27299362809531 0
-31.821979605611 4.66177834292798 17.0907527678708 0
133.579742090434 17.3981907927522 6.12645633145957 0
66.8633234017652 -8.09714321942611 -1.53748461798159 0
173.169072353145 -2.2320007236674 22.1697807302584 0
66.0840372862052 -14.000999653521 13.9915761517986 0
6.76449791688662 2.78895877074677 19.4750791925113 0
166.489858375344 -32.7833238515137 -2.066840805519 0
-86.0205932369111 0.0791849799517313 -7.75373788810866 1
178.686432327069 7.04331555391382 33.4876422738051 0
60.0282502222661 15.7502193275104 9.47339516908192 0
15.6678673608375 11.5002197494539 -1.38843674362419 0
203.763888334428 -6.85161675271371 -7.64951873659778 0
-32.4982130744232 9.69939584993234 17.1287634295723 0
8.83282650293892 -5.28930165664464 16.3543176205624 0
-38.0330838667977 -3.69939617750887 11.0814781226702 0
40.7719822943113 -10.8464421496237 14.8195900710359 0
59.806343502389 11.2159729613634 -1.34856775245447 0
44.2168605246447 16.4643760520612 8.01243801835806 0
-42.500062000627 18.3730445781429 -2.5275631934472 0
71.3135037334732 -10.8293360220699 17.3383249104559 0
157.993556398306 14.6435931886713 -9.31626803422373 0
20.3849005079646 4.54975915276963 -5.69771109186926 0
132.582815642436 -14.6262037008083 15.1752722532456 0
153.646040034338 16.226009793075 -7.65974633737133 0
142.838251935146 -19.1419821716874 12.1728341568514 0
128.407220054396 -4.205069143836 -6.88591781752324 0
-24.1198127013112 20.6515806306192 7.08613799513243 0
79.1906591128809 -3.85316655916887 -3.83626865116534 0
182.534080629452 -39.1133795570835 -12.9071175253325 0
181.171357725655 -15.5247516467396 18.8171993528412 0
35.4814298782078 -1.3607603132997 -4.0268664677385 0
185.804141963736 -7.57859244143354 -17.9647079487503 0
-85.0114721468001 8.99988301632771 -13.017449904108 1
210.359454004613 -19.0327766406931 -23.8997889485967 0
156.063105757895 3.10934493756722 -9.50900488816428 0
173.423081963342 -33.264870118384 2.7763912094434 0
144.157459295723 14.6604439689461 16.8034413802445 0
143.008406989947 -5.844753473272 18.2240715283182 0
198.326543215579 15.9013043838308 24.0839958480897 0
-13.0941705974037 19.8598424680733 7.26895878249157 0
0.992353632342189 6.12533580806077 19.2682278402397 0
19.6428606405872 7.3878862405731 -4.66744676877189 0
10.8731767368851 -7.24752376450964 2.1055762894172 0
183.083349510584 32.0643425509154 -25.0355326167431 0
-63.6426768412208 -3.42522810198983 5.29400844529167 0
18.9582791595244 -10.7190451056274 9.01455415062175 0
114.564561602039 -17.4967111170883 13.0330494936579 0
-19.8050898625379 10.4293468465828 -5.03344428382557 0
122.745383614674 14.7781716083994 -2.3562591044418 0
11.3271895718244 9.5949772850001 18.8240619628012 0
16.2546927273078 -3.83058231728337 -1.31516258277605 0
198.058850649823 13.7193068355364 -12.7607884345601 0
111.861647079461 -20.0891781957785 7.32124335693274 0
49.7574829354688 -10.6278098346636 16.1034216732494 0
209.057774261925 -11.5782561363247 -3.71502490961572 0
-13.3029406297444 12.0931104231198 17.3611134457147 0
97.9443301351059 -14.9160194628183 -1.03036874469109 0
-50.7930889376235 11.1835384195925 15.6230120248025 0
209.086657106216 -28.2005988692465 -11.1957743753805 0
200.403476866038 -29.5813051660573 -33.3143663376246 0
192.173979266474 -16.7336930959654 19.7384656107431 0
189.463037316208 33.915379097131 -12.1875481536775 0
35.9620670816025 8.81530521397407 -2.77979876205185 0
99.2960954674588 10.7893220687082 17.8355763615788 0
63.5371558146606 -13.9887226171995 3.32434300928693 0
145.10298902491 15.1658971576492 -6.15153661961131 0
168.142974796534 -0.460060917170244 -12.8728211133912 0
-7.86658202813932 0.101289367222923 -4.80638989782017 0
180.495362942438 6.5931976041671 33.0461424629527 0
14.5838024088935 7.31373539932913 19.4987820346966 0
105.167983159576 -5.29102024584922 19.401819667503 0
188.857817562203 -6.14218719706797 -34.1803436712961 0
-87.628240600835 17.9017806852802 9.55298912537107 1
86.5203953912899 -3.51695524038465 20.177994105748 0
190.599209965977 35.5963904259623 -21.1623252338677 0
190.800210258973 35.936016971729 -16.5236465744379 0
187.82688679074 -27.8059636011665 12.0563543674986 0
176.82021358008 -22.6390832034783 -35.318696911694 0
-57.8532216863579 16.0950491783535 -7.17849344938232 0
49.7822800365605 -9.92260189509398 1.10483976296713 0
196.740568720918 2.51692346422314 10.4623311831566 0
199.580114166653 -32.4557592644318 -19.1231367298168 0
196.08972283452 -36.0889420678018 -11.1125897748997 0
-15.1796930238474 8.21066915276404 18.3185071560355 0
194.600903552722 -4.79940053668801 -28.2998929000309 0
42.1323052134493 7.80040943220419 -3.78529651673009 0
187.174978096322 -35.0767766279435 0.924750269327487 0
-10.2740330835187 -7.58985177341097 9.16189947673471 0
47.0784714243442 -8.19014618389553 17.8235411118588 0
172.872296268239 30.8821057006063 -14.1230453150423 0
106.871245333694 -9.46463258451969 -4.35077272284693 0
91.6819057540801 8.26785057242268 -4.61745577572548 0
212.223743825128 -22.2868163127725 -14.6083310612682 0
-73.9735461025759 13.242888455328 -12.1620282464706 0
200.318798653302 -4.16446022817601 1.56293435802269 0
26.2810794748353 17.2906384864755 6.99325113962753 0
192.59301728197 34.1084635273701 -7.26396222864302 0
-0.539123305604627 -3.03569290155196 -1.7830359797133 0
-60.0850560108151 21.9498491205536 7.24748779399489 0
46.4229179802581 13.6586447546353 16.1735865446552 0
53.3531789393283 2.37399060048075 -4.54699372599136 0
190.274407829646 12.4263965784687 -21.4491817860531 0
-73.1082084396056 14.913918874295 -11.1468264125743 0
-77.5538806245593 12.5226206247341 12.9466496391298 0
179.722307342062 13.5581947110722 -23.4698067177701 0
200.215776762262 16.8948376564557 20.967069473614 0
189.732278805459 1.11995784477824 -4.56872368567932 0
3.60846330202415 2.64741707618216 -5.87953612259575 0
170.374414073292 -2.18782695640928 21.3706912927708 0
-78.519835107294 -1.40851378318234 -4.41615091132045 0
49.6060327226591 0.639495935075901 -4.37122657823348 0
169.195756436953 -4.59634895323953 -14.3857015826934 0
158.839116481986 16.1836848334521 -9.27532476207722 0
179.606407717421 -6.82260428279398 -31.0580565833581 0
-77.9742974842662 22.0908067224338 5.90585681505649 0
166.794941594922 -24.0859835083284 -18.956661917137 0
192.006889243603 22.2630609957959 -25.0654148169342 0
5.06484132022861 0.779659524975439 19.0253733308511 0
114.692151233696 -20.0598132458853 8.52048428579626 0
169.630661457516 -17.7672548212017 -19.8400539908407 0
-76.2919559818157 1.44733807284226 10.2065679670706 0
98.8495275930762 12.6232201630461 15.1872886768104 0
-31.1112510398747 19.6688039296885 1.24173859264162 0
123.944307045794 10.188728365646 18.7906768379424 0
23.1365143986704 -7.21266829480247 1.13489153024213 0
178.532742925759 -37.8844043759932 -17.4524358317936 0
85.2859417001387 15.1528589528987 8.2652394866682 0
189.90666058112 -8.51006770254365 -18.028439878033 0
209.196865619198 -14.0806882426906 -23.6435635895091 0
-47.2518097588008 -1.90130433263658 -3.55135729196371 0
12.3759298499863 12.9255338352601 -0.539488604246182 0
200.902363444347 -10.3235968451553 -33.4917399424543 0
39.3336048363328 -13.0147764270408 9.8073503493817 0
169.401159666116 26.6892680386437 14.2260118255411 0
171.412919929129 -31.9957260489678 -21.3701146044321 0
167.189478631196 -7.63089045469904 -13.8904394125488 0
-47.2647489001743 13.8022561593315 -6.56869354208717 0
80.9483900983969 14.9645088076118 3.6733594157777 0
-34.3864054654689 18.591982798942 12.4196042957393 0
197.150481581688 1.70893305282905 -1.81441278622477 0
160.475356889555 -23.5935922562453 10.8124518914312 0
183.091209464615 -34.8396075648986 -26.3557704136587 0
21.2947570625956 -4.78756753282725 -0.687516567768137 0
1.25236076429502 16.2526292875321 1.41012307877775 0
168.902400184072 -2.22357674442662 20.6662597467249 0
-48.6407203460802 11.1482692841049 -8.31409055694992 0
-81.2069359193684 23.2057591680036 -1.37174229665123 0
-43.0210060563672 -2.25504211825979 -2.94293297728252 0
62.8109407301843 -11.5651643953669 1.02222605604133 0
199.43646879982 -22.0661677729204 13.7601114033412 0
6.9535786635435 17.9778798610171 4.96724525039648 0
56.328701451485 -14.7078440188677 10.6344941935038 0
175.843715862366 -17.2688103763967 -34.4360452082704 0
138.062958230976 12.217643655731 18.1888000949279 0
135.777727271078 15.9534629432205 11.6235199317739 0
158.820771623247 23.8913028351984 -1.12579199456754 0
180.22913634254 1.92569085298302 -15.522960340225 0
43.3172505843467 12.2793946999183 -0.0695016903499346 0
195.70602049169 -8.06253928799263 -23.8303268090827 0
13.4541803327299 9.88771320596883 18.7122233013334 0
191.352975880929 36.6403682389633 -18.8037516553878 0
11.1049140781485 -4.13618730274079 17.3873797466876 0
-63.9516773508627 -2.05787840611708 -3.00186182051681 0
200.034369794719 6.69421316256078 7.55966707053326 0
190.375860546453 33.0122966274445 -24.3641558530269 0
186.440889992443 20.9143527038329 -26.1697238497396 0
153.122431895613 21.1688025101776 7.6918432343547 0
33.7922021255005 -11.7157669705599 12.033262477694 0
127.080512162857 -3.71738497105873 19.5745760739875 0
-57.9799736947402 21.5972783683536 -0.989044408679669 0
182.213331449519 -38.1641828304722 -6.9939310026558 0
169.331059094405 -32.1689774767578 -20.1102318035557 0
-85.8813196053663 3.67353139241869 10.4607505798125 1
161.087961383537 -13.4690417439479 -14.4089452448928 0
169.113034639747 16.2468745616219 -15.1721451399299 0
174.507206982279 25.2934708921058 19.4600041721515 0
186.360988435494 0.292542645568412 26.1984357442073 0
-6.8931613755043 2.06592416790136 -5.65663811352372 0
36.7230362021922 10.265849913724 -1.62138008272497 0
-74.3686038824475 21.2850185762083 -5.23681936323204 0
163.660028329516 -6.03320100031545 17.4868101682729 0
94.2296708417896 3.64495015481228 20.9430954184752 0
155.636344961499 15.1165735754875 -8.5590968294191 0
-20.8276217304025 12.1174134329987 -4.0665862252724 0
-58.5907317972261 1.23485077562973 -7.80569876626669 0
7.38536620629267 11.8755687006642 -1.65862277248407 0
-51.1579659903118 21.8104049783207 7.52578324687295 0
161.229281363386 -24.0698718897963 -13.2006939094199 0
43.6591014891657 -8.80974081438638 0.78378061158542 0
210.859666728113 -16.0959245779847 -19.4059914080795 0
174.43082832993 21.8957869019039 -23.2053805401863 0
198.767238331508 19.8841841596371 -18.9789291339319 0
-32.8612887443686 21.186682962737 7.09463512383613 0
20.3846048698366 -10.8305444056884 8.051879695388 0
198.126946005078 3.98882507409529 -1.55280168144441 0
65.9298287616224 1.43766761307141 20.8195490190163 0
203.44984138868 29.2084377758249 -3.02333993831033 0
193.316537247755 -5.97695810818782 -32.82876337819 0
-32.1635002129379 17.1479660636222 13.7779244346841 0
186.286242030773 -13.8910343489883 19.9580265616554 0
-44.7120746881474 6.93878321477454 16.27215358892 0
161.304575907964 14.8988462220575 24.3329595122797 0
46.4760488903437 12.6992203753087 0.40573881819179 0
129.690041353054 -17.101253188387 -4.46665491373274 0
92.7715073663523 -18.1052718303671 4.46078350664932 0
-12.2606640160107 16.2736475634428 -0.061241294007122 0
131.568080266274 16.1758280507096 -2.14476069094405 0
64.6967966233352 14.3426621280794 14.0523811088311 0
-13.0476972517625 14.4148286538581 16.1370671066887 0
9.31685138058044 -2.50459644155764 -2.42853410552812 0
109.348479805997 -11.6083523021646 16.9659686361746 0
175.92416286084 32.2497472016317 -12.0689969320751 0
-51.5575977193248 22.4202599102791 4.39170373581049 0
96.2639631167146 -14.6507131853623 15.2668805767122 0
206.914760031082 -28.4426015300367 -26.4352632049093 0
162.155677835887 17.5744977584049 22.831502869173 0
206.637444270661 -27.0937508217437 -29.8783578734484 0
148.285037080812 -21.0077973747602 -7.53408167100981 0
56.1793622311154 14.6910228903206 3.38639992956848 0
126.758754613975 5.06330311076577 21.2317391401601 0
169.762385834338 -30.1285052330674 -20.9308486727301 0
-1.96755312011782 11.3947111582581 -2.74482460306206 0
138.869738971822 -20.3086571265855 10.3818109237844 0
-0.778649720628968 -8.02500969458378 11.520117927275 0
172.143614845674 -26.8914456088484 -23.549185588807 0
175.320147078964 -16.1040684698739 16.3290273190612 0
-5.27470407675294 -8.15321295163972 8.88578765079458 0
-15.6334443483881 7.06418112361635 -6.961284296537 0
23.3283824066466 11.8171738734799 17.8590645251544 0
-80.0105413895709 -0.53188457289313 -6.23493207281586 0
119.728718787318 -10.8722511232955 17.0755760417094 0
11.3786513301335 7.34575703031562 19.3372839623269 0
122.21233592189 -12.5846615271615 16.3090489786374 0
54.9793169582157 4.3855634085347 -4.70337579086751 0
161.239438526607 17.6280189671572 -10.0096656329471 0
188.283349971389 -37.9623081750809 -8.03974031396761 0
40.7813271651135 16.2566392044799 5.76699770051829 0
179.326653806951 4.62483904845075 -16.3755704992593 0
-56.9377470737727 22.5878661692827 2.88689128011912 0
145.773605713433 -22.764328709599 7.47503326742559 0
-42.9654587874557 -4.51415349326776 8.15733923694241 0
65.3120274632728 6.75538643913338 -4.43131257006906 0
199.690510979642 -8.17952920078613 -32.2698709288717 0
-49.6241824219637 15.1127828302055 -6.22179779873274 0
161.653867140171 -26.5011685511679 -11.6115448608134 0
95.6987378151876 11.6736722773503 16.8905916708285 0
-3.89590440935807 2.59139260575026 18.8500427820104 0
203.49031927003 -30.7140382308565 -16.9972312583975 0
72.0593736884076 11.5192442553022 -1.72074888417585 0
99.3543907949659 -13.5457619087759 16.0581853473689 0
180.984577836126 -29.7254078276406 10.8145359895275 0
183.561062869369 27.0891136849416 15.902162362243 0
153.272896734225 -20.6046825341366 -10.1432100869036 0
6.25898264121108 -4.1715759160929 16.8949692142593 0
198.582332920075 -19.0730111807717 16.4450503620512 0
147.446459210232 11.0915462269287 21.1138016972558 0
0.384615039483571 -2.29647179160885 -2.59865654386021 0
14.9038177277278 -7.71813552420709 2.47019462089875 0
177.772902649874 33.5822863130757 -10.7275604421392 0
130.501827130513 17.6240150505401 2.62978046475033 0
142.315966899491 -13.9013705626151 -8.62329170132455 0
154.114686145505 4.67574002439975 22.9923854536636 0
207.941004903401 -27.4747518761554 -25.9877965836884 0
175.369612576912 20.6089181946204 25.9377304450735 0
132.43922639396 10.3630239187062 19.148303550758 0
-22.560647898339 -5.44574921191896 11.407412945185 0
202.636058434497 15.741337044567 1.08345601174901 0
-4.97221040694445 4.72155458634142 19.0013867581395 0
113.733855374909 11.6849585512357 -3.91607243812426 0
160.120477831496 7.27571605129384 -9.91255989386196 0
40.8681571846641 13.3414809933115 0.969128057415758 0
174.753309814215 -36.2292438699467 -17.5795558310285 0
154.67316883334 -27.363812883969 -2.01590424566669 0
146.37270298637 13.2723746942796 19.1092088708656 0
174.321802127726 17.7196233896269 28.7543751042586 0
-45.1298583863668 19.494933160469 11.3215716625905 0
200.948512021368 -31.783678994351 -2.12625567173261 0
39.5807120292638 4.64001192128909 -4.92716246897061 0
186.779726353067 -38.4116048708268 -9.01592150594712 0
-29.4762599390114 20.439087460711 3.24390611783874 0
164.488605139819 23.2398669902677 -9.97414595818646 0
81.1056208046854 -10.9940355229907 17.4395842203729 0
171.61070625337 -3.33038848206801 -15.9696487868117 0
-52.2157272158214 20.6356833295293 9.7600133697624 0
-43.8091316266367 21.5850854046074 8.06679888811846 0
187.049979232692 -37.1761865037614 -5.80020356378265 0
25.8798190522147 2.01964675269922 19.9938349880282 0
68.6034332735222 -14.6083974336213 13.4250958092947 0
174.295513382339 -36.232688883983 -11.7309316395631 0
-75.5073113369646 22.8575565293728 4.03255686786649 0
-41.9562677822256 -0.77814301798614 13.4918583433897 0
192.990168904936 -8.48894686309565 -23.9755503789933 0
194.90089157525 9.27616726661275 -11.1307341013911 0
198.585643747324 36.2333569014575 -7.72257479077924 0
-14.5747363850868 -4.3668040563574 14.3326114840169 0
-9.33561522058714 19.5466995979802 6.40627919904479 0
164.437722501918 -31.4526003738142 -6.01382430357807 0
208.313337178889 -17.105347547455 1.89861050098725 0
194.375929016023 6.45384580331764 -6.56638129222488 0
210.183050744112 -12.2522337342369 -9.09660777291075 0
199.51407372277 -13.5750450894318 -36.5522359025738 0
194.15695305273 30.2189927219572 4.34595955764571 0
-50.8882412318893 13.3504183885718 15.0773920497053 0
167.248500792249 0.130851793711401 23.0206800042347 0
-43.3766437115128 12.3968878137132 -6.73096856001169 0
50.1826781681744 3.94878594870068 -4.74503140928396 0
-12.8654649447619 -0.808861872655766 16.9663225506026 0
13.8873669258961 5.90536495039418 -5.81232792701579 0
150.466254741795 -5.36227061352448 -9.59326212293276 0
-61.2206664319798 7.16554160090486 -10.5551415859084 0
107.498373824956 0.491211579800818 -5.70575268787087 0
-3.65305702183705 -4.47916912919452 -0.119868901888605 0
169.503190138595 -32.4124477701302 -14.1427905115522 0
24.609363268785 16.6252270764077 4.55056495776748 0
147.772330989149 -24.5135936606543 -2.49047071108027 0
-80.639536670043 -0.229650906471238 8.02245809816261 0
185.885663587792 -3.07743608918268 -12.5196245931825 0
190.56327269395 -32.8394824674248 4.90239255045939 0
78.1970289580406 8.64350843813406 19.6102571665886 0
4.34051689948502 18.6631751059117 6.89360779691538 0
184.242493841506 -35.7579488172232 -0.206549591887361 0
147.318649080235 -12.5176688587862 -9.92075790591627 0
194.742243462115 -31.901613200073 -28.0159308389376 0
199.051556890171 -2.91692327028895 -1.79914329942553 0
180.360990116687 10.5633331127785 -20.8160358129459 0
19.7318591439243 5.2141234061101 19.728659840871 0
22.1517136193136 10.709848440009 18.4016058030877 0
-8.80061862794165 9.85352459679611 18.3329214577502 0
73.2605139750622 1.38098293804956 20.8795930677671 0
203.156966384921 -31.1818165856631 -4.82199373938449 0
179.112185794615 -37.9204337245571 -6.78709102354819 0
194.22320491154 20.5521769711335 -23.5806648892231 0
-20.087668069031 -5.07067096048531 12.5807927482891 0
29.7975672217446 12.2947145352741 17.5641932340955 0
155.742532354909 15.4613493416064 20.7531679506566 0
44.8773197758921 -13.3897619173247 6.02850191021997 0
83.8351193406525 0.178723361396995 20.8641291177115 0
-45.5500099898025 21.0351950909242 0.649008609568828 0
136.5992318701 -10.516640852669 -7.71447163726047 0
168.679717399545 -8.40121624526136 -14.9616674643684 0
-13.4651687158808 10.0406420458445 18.0726947822898 0
-64.6787049667938 17.058476550171 12.2823808191828 0
166.002236362359 -24.969293639045 -17.0819338783176 0
52.8628653269296 -9.9395869445843 0.864027629740287 0
152.206909259522 -10.3507652061702 16.3678786764237 0
-69.8897222360564 20.0548106518219 -5.98900638245202 0
40.4793156199515 -11.5336535151254 3.59450621372802 0
-10.1394806942357 18.7700187747947 11.4352592402745 0
171.260260016264 30.3021144189667 -11.4745828738448 0
192.315305558817 20.9811550836512 24.3183800999848 0
78.7500560395299 11.3711482801287 -2.34773221359358 0
179.833339756742 -38.7585420242524 -11.441478966125 0
199.873485247991 -6.58159580231252 -28.3944273490278 0
35.4211773431843 16.1979388912788 12.5772914758574 0
161.461334345404 3.04587776041007 23.7043654002094 0
171.591674692917 -4.03495143469033 18.9795202482369 0
2.74969051822505 18.3683915914281 11.0021199194822 0
197.750559423642 -8.59778115970984 -21.6825622089527 0
-46.8688355966634 19.2272415714201 -2.33620239418601 0
166.057292512393 -15.5960198821374 15.5172346628389 0
-66.8646086464447 16.364180248102 -8.90182705109203 0
33.7044438250833 -8.29227206611016 16.5797904081341 0
184.273612832269 -22.1891552869702 16.5242377498687 0
34.5521562968035 3.68793960997756 20.2555507863195 0
208.901815437396 -27.8737923628952 -15.5585213104291 0
211.213958345032 -21.8361496223557 -21.5022081709157 0
187.929719832284 2.46732107043463 -9.30058501483383 0
32.8562347240797 0.0612944604269702 -4.61147315317436 0
168.787926950735 -33.7814393129025 -5.80341526521298 0
110.792981668809 -0.71299625007281 20.6896068922666 0
170.712361780267 29.7801690333538 5.92420376663774 0
94.5679164469939 -10.3722495235669 17.6925313021852 0
180.885772588909 -5.6591253692874 -29.2284546768088 0
17.9747575835728 5.58322186436933 -5.67179681544582 0
-83.3064867138143 15.8465155873254 -12.4678549862952 0
143.378870029121 -2.68564843518644 19.6044483907729 0
14.6126894608209 9.91802950481787 -2.60395602369418 0
169.843494923185 -10.6171490389687 -17.1667432118277 0
90.9763564491965 -0.70046961102406 -4.90916710115632 0
96.1423679463767 3.82908350836943 20.9190525304043 0
43.0426990530614 16.5273885622064 9.34364157046427 0
-22.901302216277 12.1838742408119 16.9130542345397 0
189.960744332342 -34.2115575962869 2.42231164787693 0
-57.8646352615799 3.50227777128162 13.9637677717079 0
166.454756028573 -1.41215559583209 -12.5708134086407 0
-33.8826240486819 21.2068554268205 4.64579447638685 0
20.7871487898494 9.07832790075724 -2.96415969160208 0
183.540549082361 -12.1674345809269 -38.2429491543747 0
173.899834761938 32.0823700702264 5.49521259192699 0
143.812645829497 -22.3402902431854 -3.92705263367477 0
87.701229604809 9.29542783756802 19.1473571137277 0
109.061549359615 -15.8521781023407 -1.81843902725154 0
199.531922802824 -8.28598544955728 -12.6280222000881 0
-63.2916066101166 22.0713035184726 -0.972828560478428 0
-29.9878170633581 0.647294140755864 -6.10845311248218 0
-23.6921286887924 -1.71589760916436 15.2470845137408 0
171.249118393242 28.5846938954231 -17.8434695526 0
-75.1574511998781 5.47886392045152 12.6830644369616 0
69.4700527897023 1.9512542678338 20.8698472446432 0
-11.8206616243636 8.43846679255617 -5.81661126376239 0
206.452998288807 -12.8481121162816 3.95924937049538 0
-40.3797770962134 -2.76478540353332 11.8792311926788 0
159.500886493094 1.64043523719928 22.4285179357773 0
14.6257356029634 16.2324594115942 14.2791302275939 0
211.858380334403 -23.7112807262365 -10.2722693022494 0
5.69710381891031 15.5740072968627 1.08464035561702 0
207.140686985347 -28.3180251402074 -16.516149339103 0
-32.4086137346513 7.09512122879484 17.330930147599 0
23.8417938307277 2.08786454740766 -5.24865477334079 0
102.310028714771 11.192135303658 17.3445178088214 0
174.514312640976 32.1080552314008 -7.96104027710482 0
132.182881070995 -18.258587259573 12.6623491682352 0
94.598897695116 -18.03867092175 3.69042632957158 0
-60.2027738102108 22.5150483466424 5.58845535112207 0
21.0482657289038 6.51736606212896 19.7573340493308 0
14.1011156464456 13.2117332646274 17.2353127226417 0
172.452552231453 1.75217739272435 -14.5583682061785 0
28.2674948465167 10.9739789236441 18.320606307467 0
-84.2894580940331 4.348192453071 -11.5117013900222 1
119.287964995081 15.6488984202975 8.24384966137937 0
63.8083379148076 -15.1630348274899 5.22106690113208 0
161.774137478941 -11.9175368411912 -13.9932267074774 0
208.219191454971 -14.3839276742775 1.66702279457936 0
202.359538899959 -8.810217593266 6.97513849363959 0
40.0596130503244 -3.48845361282961 -2.65739455923382 0
73.7432986869004 -15.3442795815991 3.28623396067057 0
173.514358514101 -35.8852593845266 -10.017469350167 0
-87.0384866267114 4.6682617146754 -11.8633367342958 1
68.6187063924849 -16.214742691676 8.35784437126254 0
155.418223278283 21.6292253233715 8.88695759233366 0
-19.8583205813624 18.6116780565381 1.57218036140083 0
202.376737866838 29.6396572175849 1.22393883317204 0
180.48830363885 12.3624284870617 32.8884899877436 0
176.156549184587 30.260820145927 -22.7961553870176 0
41.8998688481797 16.548085831597 7.5093288165561 0
168.729139127793 7.54452424593598 30.0121868549781 0
106.456588049635 8.33860148762333 19.7203226825176 0
-43.4560190046199 15.8173991283581 14.2864839065425 0
186.567450777648 -8.3866353098525 -36.7714413418164 0
108.293662503708 11.7126290879481 -3.61908259193042 0
208.441578350917 -14.9857847215726 -26.1189731836252 0
193.296201607319 -35.2349695128886 -4.08083405887211 0
208.819419807924 -26.450824486436 -25.5823566630052 0
135.27709109627 -22.4669348812856 2.60403670772541 0
-68.5798377244989 22.7514516545619 0.0975763923725303 0
176.339363922994 -35.5292407010178 -23.137274277445 0
168.468119607716 -29.6717902242954 -19.289763080775 0
6.26901567282679 3.36268962571525 -6.02639926278363 0
42.9203333927794 -10.5431786254608 2.27536738858038 0
185.78322333577 33.38083487593 -24.484228225033 0
53.1800692452948 -14.3239457615403 6.00017663912121 0
9.36203737592885 7.42870761070181 -5.1632174527058 0
156.909917001705 -24.5006880628422 -9.63251162750856 0
119.535333475504 -2.46848793296676 -6.27810539243994 0
-49.0151700830328 18.4412907061664 12.2600545617312 0
153.649640666896 -15.7009247737751 14.9122690635607 0
89.6865579405478 -18.0035371712021 5.20090590637948 0
106.353464327986 -2.68477796084867 -5.46268695733287 0
177.765268881634 19.3636763105335 -24.5215419285916 0
113.057899049118 -4.08570221436641 -5.79223291493128 0
197.896585824819 -21.0226332641154 15.3891828998137 0
165.889129467642 -2.32487514036531 19.4941416770481 0
167.453764327461 24.329214473616 17.590041128445 0
-44.4307639740359 22.047497020222 5.97992182278979 0
202.718281943313 -6.06782975155864 -4.40830583451145 0
190.778172049613 34.208329458481 -5.30549000441414 0
-67.5590972892855 0.926229303746095 11.0687318490764 0
-42.0064737484843 21.6417097440234 7.57446002884986 0
148.769849747063 -6.406312505945 -9.56025290900414 0
192.464011225579 -4.69170444528163 -29.1352900045331 0
165.944673580125 -22.7404833669763 -18.1175536144478 0
134.989772408087 5.08902449187066 -6.97554246631742 0
42.6061862537208 14.9681620056818 3.11474728033607 0
151.912813505792 17.8394008354515 -6.248409846049 0
186.063190643748 34.4999589222436 -7.54696129766283 0
206.954385437178 -28.8718717544324 -24.9206379539555 0
-74.648272934 2.44008827084287 -9.65097605695719 0
0.0081344545067929 14.3145606165815 16.3824251961143 0
-57.881763335062 7.36651303316311 15.0142589343687 0
174.97556232416 1.2022061399856 28.1458931160825 0
117.717017118537 -15.553440252538 14.7494628048459 0
-59.4311406851289 22.4852966473989 1.20815066175412 0
196.129192919379 4.71350315311982 19.1659024606903 0
166.304912793487 12.3249494496103 28.3661686068953 0
192.899606543887 34.0889930214175 -22.8168525873174 0
-66.3545996323384 22.7720839526049 4.60999420583764 0
201.559437628042 -16.9731893807619 13.6155124610957 0
-53.6160663491772 2.50743780671444 14.0185055091374 0
42.0150443099206 6.00415501362547 -4.69712534675685 0
153.930596593488 -26.210390191906 4.29422765509259 0
199.129155094319 -32.1388989049303 -22.7874554743842 0
79.7464484234243 -17.3657592694106 7.90735302565775 0
18.9927464027508 -1.32429799028661 19.233264010125 0
1.87753422215137 -4.72388747894261 -0.0662096461659396 0
188.495850090642 -24.2945649543323 15.0746298823747 0
202.137301425828 26.871779664059 4.55641820751099 0
110.749818731619 13.1446464287057 13.9580132129314 0
120.437342288956 6.21729703805312 20.8601536146162 0
121.593505016737 0.364324223565836 20.86212610077 0
182.507115688588 -5.74906655807652 -17.3733417685236 0
195.033891886535 -8.24705085109095 15.4358532279358 0
-0.793879413872696 5.34338477604645 19.2204712762898 0
158.114264362262 14.8456221203719 22.6911235926118 0
183.646689122669 -14.7370081360791 -39.3200286218153 0
-0.48469130680723 7.18061878915251 19.125780738506 0
172.79966298599 -35.3281346483847 -3.22594244849311 0
148.614215150662 17.7808144892945 13.5899878450898 0
111.647444572914 -8.53482743996246 18.1323938117984 0
50.983375159037 13.1210381092889 16.6641576211413 0
165.893820136215 24.0976292418485 -10.9332992858389 0
-47.5696987432287 21.8714888469739 7.29021578014712 0
84.8732881608096 13.2631381504256 -0.666775508521154 0
159.53212021845 -8.58522415983342 -12.2376919442565 0
14.6203437240219 17.855517561666 6.41192859322456 0
161.575758606855 0.443364251900094 -10.9255491686693 0
82.2661290312248 -12.9953827030339 16.1812030596544 0
-24.0749708146418 18.6451682200136 12.2507968225848 0
175.984091252776 -22.8517635011503 -27.8476572104202 0
97.6969451943615 -15.5587121135178 14.5094317885289 0
203.106067059428 -7.53888570819028 -25.7380042937397 0
126.786722525443 15.965796383651 -1.5775381020809 0
183.573845300631 4.10359458199361 -14.0654091047118 0
171.432228163247 5.03444529533978 -12.7832238968158 0
157.992251811507 -23.0850934735386 -11.5067458878339 0
19.4856090488359 -6.93754891598786 16.1981265788738 0
-54.3898812158148 -3.53530567506564 7.7398154593897 0
169.786480419442 -33.2132481140816 -18.7346438924901 0
70.5633273931707 11.0173495219398 18.1900069168256 0
44.067335495284 6.48964514997238 -4.50414413975795 0
117.635742314225 6.06986749357158 -5.87969914278443 0
203.516447492263 -15.464690388428 10.341498479599 0
197.928060308023 26.0111761530916 -21.2849828829281 0
23.3097901780584 0.575195675511802 19.8169944091693 0
187.13258677855 0.524583249390823 -10.0387432699293 0
158.988545711432 8.77350206163996 24.9913467465665 0
6.73103444954191 0.469594939732072 -4.77688678325879 0
-46.6138975941399 4.26056333699463 15.5264060445692 0
-42.4622259505408 14.5087828641705 -5.34735329582817 0
-38.8489488585894 10.9616236401504 16.4934510545118 0
140.786040871792 7.71352283954506 21.5256391161158 0
41.2231457364233 14.2080946167461 2.04549386474397 0
200.791309804138 -6.32417950713863 -8.59299700922624 0
166.339693552661 8.0817184398504 -11.6741091043761 0
84.3186164931627 8.63644620200234 -4.30607060916278 0
208.389463746658 -29.4726478825363 -11.4991716479133 0
192.59433040516 30.5587132080875 5.52990712461829 0
-69.626108823214 -2.87985756372985 5.41084523293566 0
203.337454849272 28.8888894464341 -7.74511710581116 0
109.132471652772 15.9104354188921 1.36618276454237 0
-46.0142938725089 15.7530055615452 -5.21283932658861 0
-16.145460692405 15.2026255960229 -1.44874040625371 0
103.674670112425 -18.8077046509084 2.97449927131624 0
22.4860225649891 14.6075101365199 15.7903402919958 0
160.868809272876 -4.2556322085013 -11.4654276844244 0
179.705326483244 -34.9896711533014 0.80361207995762 0
98.6576776752713 15.1810826988302 1.6297468707049 0
-36.5530130889575 7.31527731154665 17.007135503495 0
207.14515205933 -21.8747078648518 2.94255153529911 0
203.745271978067 -20.5413957232191 -35.0396153834942 0
203.110871512531 30.9065192346356 -3.79923958878386 0
60.184823053719 5.92101666226743 20.4407428276913 0
-77.8434921688761 0.69276931955855 9.3267255968437 0
174.567401324623 -18.8523316523172 15.8882284001927 0
166.122826742809 28.2171100646827 -0.350160162195047 0
-71.7909350044107 19.9470514057083 9.35598462286429 0
-33.7067510242308 -1.08123964440474 -4.56462497056186 0
169.057616191273 27.7256299153209 10.8139497639681 0
181.61896340851 31.8172690016543 7.79675000084132 0
167.746498865413 22.6325595651969 -13.1901326317801 0
-63.1654357261495 10.0161410855939 14.6582315624648 0
116.922751767391 -20.4277097479949 7.2754544766444 0
188.213223087439 -0.8865220585002 23.4035348164774 0
-0.00819429904615438 -1.1254199300294 -3.76735482716896 0
100.165659852474 14.0548356875072 -1.41089809182229 0
-88.0144874540164 2.32347268679713 -10.5008856307713 1
79.7237250381954 15.3013298574545 7.28355272999767 0
177.872332268066 25.8563526143266 -24.9186039321135 0
26.6812861949866 15.799963490578 14.2164114236165 0
204.787701728984 -30.0827179274612 -19.1359633754319 0
174.882205979547 28.337320507045 -22.8847081016576 0
177.456399932825 -21.0564716529508 -36.3552267861653 0
-73.1589212539562 16.4641622602975 11.8875210000429 0
176.588778061468 -5.24742444596328 21.0546933528854 0
-37.4955053169017 20.853026723826 2.27989530701918 0
110.904453699771 15.833582168115 5.97293499162771 0
208.296391668739 -27.865855319247 -18.1931837936844 0
68.7365947957425 12.8110679242353 -0.00113417915200582 0
206.694767412394 -29.9010050461538 -2.81497396539219 0
-46.4357846008841 16.5470413540229 13.745573783658 0
184.716764832943 -29.0956658991475 -37.5390680643387 0
-72.0589189539138 17.5407313971702 -9.08588262303971 0
189.886779903712 19.1916245765535 -25.0287450891704 0
27.9708485198106 1.44360171394714 20.0623229863586 0
