-65.9125364834667 -10.6219051085854 24.6257464807729 0
10.4407932050185 -19.6844662081292 19.8463602275892 0
-234.797815467544 -20.7146420284512 13.3226783579756 0
-164.099205629135 2.87339157776261 -3.43142514556985 0
-226.142081477086 43.7784688448674 4.35181167426994 0
-66.553673399391 -21.8242346523787 3.39823135107728 0
93.4968650023634 14.2084997598367 9.19018167848575 0
41.6408363659154 9.21511452229443 18.728304160484 0
-200.121930737506 -1.00906231388531 10.4705711617988 0
-198.584976236673 -16.52578774436 7.84254943983969 0
-232.939483631571 -33.3130558624526 1.35821034724136 0
-181.611434440498 -30.6414509169129 -6.09197829364711 0
-6.40086323048127 -20.7453813491494 19.3562877809846 0
-253.840764150653 22.3025114799064 -19.7427853366066 0
-186.760839236419 -24.0218302062774 -23.2182602512412 0
-163.145486391741 -3.03706737951945 10.1732742915988 0
-234.657374081747 -35.5170548908007 -19.5550839551045 0
54.9013043128631 -0.797842628652804 25.7685179587778 0
-111.514486717697 -22.2404389521612 14.4339886411646 0
-247.823722903038 -12.9578199058236 -15.7676053149646 0
-161.689242586513 -20.1831542083441 -17.8896787295306 0
-111.074981071838 -24.2064862327361 11.5227792570874 0
-176.98170456241 -30.3466338066699 -6.97458091934039 0
37.1047478095082 -15.6204242400322 4.34835588432009 0
-247.335846001813 -14.7463322361015 -13.5562180129608 0
-268.251855634727 46.1436053458596 3.19867078440658 0
-98.4736869907526 -0.390666524991067 18.3379292724494 0
67.7270802384795 10.2358064889759 6.41922981313827 0
-214.341089784129 -39.211865490613 -17.5347921260281 0
84.8468767397119 -1.94207268291064 -4.17723643539749 0
-242.818877832631 32.7068785711371 -21.6818530903098 0
-244.702122678106 1.80230088426405 12.8074119202959 0
-199.767191003164 8.77784045231374 3.4570900001349 0
-61.5326401467398 2.1920777187591 4.35555203394975 0
58.5593007432993 10.9301041660363 12.9839090962357 0
-200.692228943215 -31.7786684177805 3.20244329900113 0
-225.938306932884 41.245470121109 5.43775473154435 0
46.4905586258826 -18.3070266882384 9.37659709320265 0
-45.2483799067952 5.81287984326466 14.7004291964335 0
-258.803307381737 52.0522164820461 8.15183810013491 0
-221.721045110025 13.2593459517816 10.2799093153685 0
78.7295954428322 8.27674555384905 21.0639234409256 0
-204.155846330349 -22.6620660289352 6.79986166767227 0
-270.898305709105 38.5732374684817 -3.37461868807086 0
-242.208537238566 -32.4796879231127 -12.3741329403593 0
-229.765253204017 -40.7225133656499 -7.82222978355045 0
-128.265431593407 -23.488123838075 10.445898275198 0
37.3371686681405 -17.1811124429216 21.0654166269442 0
34.1787194596064 -18.0755175430145 8.23903243346366 0
-13.4258240517216 -1.83657351042182 -1.30727143563285 0
-267.701278007459 44.1025734670269 -4.97542947835101 0
49.4992502801464 -8.57107059061945 -0.766240847406337 0
-238.561861134977 18.5484913462078 24.6787289124312 0
-99.2161436030002 -21.2733496634649 -3.88751865319149 0
-242.807201067596 17.4141611399655 25.1374784572225 0
-245.881313362784 -15.7206292369863 -9.76454531473113 0
-201.422479931411 13.1566027095255 -7.61245257812639 0
-219.773207090296 13.4931227722159 9.35707952564152 0
-262.152219095776 26.4143158548323 24.2840121178587 0
-121.499015853876 -16.0535399041436 -10.3309936898865 0
-204.929793040271 -0.655508545953273 -20.655783607337 0
-252.286102690919 5.58398096673975 5.67352417874627 0
-63.7694386251815 3.36077374913269 6.33924246489969 0
-245.580550604651 -12.1178547591182 -32.8547675451647 0
-205.257029105972 -12.6961431825225 8.68965313378613 0
86.7084385341272 9.76851462853745 3.30022974039039 0
-164.48600248714 3.03622392105665 -5.9270966858597 0
-164.14156896356 -24.7958686858072 5.90582602841951 0
-188.145186033055 -29.8298909605369 -13.2776750492329 0
45.0283690388085 -12.3794078319522 1.35526087911593 0
-242.574904251563 -8.6743556187232 5.7485450347401 0
-216.633900768602 -28.7970722284839 -30.8697579627229 0
-271.390356022666 39.849728925604 0.701910081734411 0
-243.156820689649 -4.37858559630504 8.27445030180803 0
-271.286308923902 27.683298289586 12.8308266688248 0
-260.758921634955 47.9856255808165 15.9566659462486 0
-124.897837584927 -25.3526039185153 8.3952664264994 0
-115.572928755336 -21.0714160350632 15.0988045098351 0
-208.32750157067 -18.119027492134 8.00517365236081 0
56.3524161243463 9.88988524030991 19.0996581401712 0
36.8588412669939 -10.8323576050129 26.1490452563539 0
56.6841910780663 -5.34747326874198 26.2748217630904 0
-96.8278223499737 -25.2797467916732 0.598925607816557 0
25.5647692370875 8.00039672194811 10.5609036410406 0
56.1018632519537 4.48304408469329 23.893276365925 0
-165.158498767573 -26.8826370389517 3.60651395723327 0
-77.5237710617404 -0.281521027524094 -0.204534585816497 0
70.7286986513069 -11.6829348866054 23.2261352858554 0
-252.166195910136 52.2841919867064 -3.69601517777721 0
7.16907468213045 -10.2468654877406 27.5636568730889 0
-175.74947696445 -1.87215630778713 7.01686901199334 0
87.7496384087058 -10.5150756774756 22.8169338809901 0
-266.715756870835 47.0646458372579 8.43187945108491 0
-228.617664510067 -9.4101441122887 -11.9471132367563 0
-122.717610140606 -4.20921459689938 16.4793613182868 0
-188.179776538776 -4.85921387355398 -23.0608356356596 0
-177.595411710702 -14.1480705947546 -21.2408705734609 0
-145.092450126024 -28.7907103380508 2.34886903055969 0
48.6541298831081 -6.58777573024488 26.5808653572276 0
94.4943337188994 -2.83621074225229 24.5627810439039 0
-251.233731726649 4.5980743817469 8.96856618629098 0
-243.721573871114 43.6156178499001 25.0497253980131 0
-28.413936116151 0.0707921762634317 24.7702397232255 0
-231.137016010627 49.7567115264396 7.1434925273003 0
-81.402678381917 -3.19220450298541 -4.12501947276739 0
-138.665474564914 0.830570370888761 -2.46752408714557 0
-238.58588705522 -13.7531598633213 -17.4980777768413 0
78.9655905056083 -5.57295792685026 -3.6005911215255 0
-147.377235819722 -14.481925556481 -15.8614898051944 0
-247.44952613024 8.02458588783655 -5.95865231971926 0
85.1876648632939 5.96506795219235 -1.09095707141123 0
91.4130254859901 -13.8378883118409 19.5246560234246 0
-250.558912536567 24.6001884824784 -21.0526352034382 0
50.656899805517 -4.01363123871668 26.4947401124793 0
-247.052582861525 -20.6873032870055 -1.84838687550197 0
-31.5898773482778 -18.6835737819008 22.6467877167675 0
-74.7239301251616 2.27353561162409 4.02522601156473 0
-57.3479047907889 -0.885993917498189 0.231835563681976 0
-260.283221526478 31.1979219704838 -18.8057222820939 0
-268.189361730688 45.4955164775437 -1.07159436050922 0
-126.011229690815 -11.7651887149083 17.3697739430292 0
-76.8146831938141 -3.10174369263026 -3.9816537794106 0
-271.918937257875 36.9095845518663 9.24932627903659 0
47.3022374560679 1.00723424054186 -0.0599678524195629 0
-261.132210836567 10.9386927137037 -1.95976483573062 0
15.308775103409 5.44430968139419 6.49409250501961 0
-218.22303656941 -34.0145788114311 -25.9419315482025 0
-211.03993924542 17.3803562893134 0.0112644769928951 0
-227.900481328821 39.3741449199709 17.0504117517708 0
-178.507072363744 14.0321033141134 -14.7040743926297 0
75.4012253065538 -4.33137016407986 -3.63524960025553 0
-224.890586163971 30.4729191916399 8.94816727522075 0
-139.802841488794 -28.5827274980333 -6.37312397908377 0
-25.9755721879023 -12.9205446199783 26.4062979453619 0
98.3458208908867 11.469078860528 18.2228724344904 1
-236.694074994989 5.73463463373537 15.0349232458293 0
84.0261915405489 -17.5713814371977 11.5301877686206 0
-19.9488844830183 -3.9091088421891 -1.93009399433032 0
-208.781794938004 -39.2116091388916 -1.99130405484893 0
36.6170181290554 -19.4148971676868 13.1346102840919 0
90.3348585948843 -10.5929821522043 -3.13189417244818 0
-258.861757861682 12.0702415052389 17.7280438698547 0
-57.1285579696899 -9.20326690522566 25.4167529404762 0
-253.114139187601 -8.5106450797784 -26.1256955487557 0
-218.370665177369 19.6622648965283 6.69122208856687 0
-258.084199545744 13.615149715508 19.9687470788856 0
-195.589562887581 -30.5278752548189 1.82069274108345 0
-246.139885716203 -19.7334920652363 4.45618599377589 0
-99.5256515208867 -25.3179566885363 -0.277892056615865 0
-147.20637589118 -20.3080712264695 -13.780672203071 0
-186.594893858768 -25.0603829780488 5.60183025246341 0
-185.047262109987 -8.94460059235591 -22.6401511420095 0
-161.265709985858 -14.5708267407477 11.431776388156 0
-235.216300315169 11.3849975087435 16.2082378477808 0
-222.18224910372 -27.383078374635 7.59304785144362 0
5.19411290632541 -0.790557234458095 -0.396512594490991 0
-223.15474141314 -6.17803470929834 -21.500258363245 0
-192.083331700735 -23.8370284765425 -25.102312072607 0
90.8700016867804 12.4815648860228 16.6187869419486 0
100.422599994351 -3.35617212075711 -5.591202414782 1
-29.5924065992882 -20.8140365642703 6.92230298305241 0
-227.130951576376 14.6454343173227 -13.6038136990942 0
-95.120922488821 3.48644906715245 13.2372725047835 0
-44.2042610664237 3.83357458656909 19.9705626329548 0
-204.703051328257 4.886046076644 -15.6286866024927 0
46.7260009239793 -4.790313480868 26.7165282947717 0
-50.6660611092185 -0.057286538193188 1.71529569334416 0
-213.371181249268 -20.9508876419477 -33.9346883037234 0
-205.673022101601 -16.5526564943569 8.13755466633454 0
-190.07925446812 -1.79576394149951 8.5049261051435 0
-229.507960954961 46.3461292839149 -5.0782057088877 0
-208.298017064353 -1.52454744253331 -21.0589992485055 0
-201.069188993466 -29.2929246010814 4.9358350910204 0
-192.866223194671 8.02604996430031 -14.9052287862902 0
-198.367877472517 -30.2105006694076 -20.8840574776255 0
-147.157865545065 -21.8760389820331 10.1187478489731 0
-140.924004375359 1.93107251573093 7.62373385712228 0
-141.496293848565 1.62970874666674 0.707006190914521 0
-249.50193807698 11.6411719949476 21.0750372932095 0
-124.344555334336 2.64732789339877 4.03964135421855 0
-113.140322607386 -16.6446611212756 -8.69406711891755 0
-148.482493171486 -16.0919172174149 12.984799796334 0
1.18770682592326 0.792492371014407 2.1461425169594 0
-247.944013116177 4.80992232559306 4.46562702812016 0
-126.742283549286 -2.60904198700975 -7.52742908408799 0
-211.467628296729 -37.0270783505072 -21.3431756588207 0
-270.059666985195 18.4930095926035 2.51909738793588 0
-118.522275560219 -1.1817599712652 -3.74769967666717 0
-228.393777583 31.6567049394497 17.1790500710102 0
-93.3676876755393 0.384957829627699 18.5101116035554 0
-231.529630832676 48.7657596329826 11.5014344773025 0
-216.846322101422 -30.714948069404 -29.5549689559502 0
62.9115925900809 8.00184837579249 21.460087065737 0
3.4235195291147 1.86502024452184 25.0720538455106 0
-170.439558052026 -30.2911540999761 -2.47218712265653 0
-266.205161276256 13.073754037822 4.68846120846937 0
-39.0490064926109 -16.5615641180049 24.0979004599515 0
-121.066902986281 -27.6178203898907 -3.38818406954665 0
-97.6268440351686 -11.3668643492769 21.3613849854962 0
-104.650038947723 -24.7315654721309 11.585603718978 0
-207.791439868205 -17.9408625160541 -32.6491458202283 0
-234.38427358579 26.6621493923629 -16.7283735542741 0
-140.405731371274 -0.537411845673526 -7.26866130026818 0
67.6005450119132 11.145496867463 9.47689685017679 0
-242.961300560038 40.2129096530876 -20.0976529312584 0
-162.191250165594 -26.5460055591822 4.07800301804165 0
-214.63384306714 -32.4920530998235 5.85204006995259 0
-48.1269962682213 -21.0108035034173 20.0000337301338 0
-204.794445494661 12.2517854637026 2.00443224907832 0
93.6125705962256 8.51448333155383 0.173298908083938 0
-235.170324176389 21.3686359338738 -15.9378281327955 0
38.3130863188514 -0.480865931021737 -0.418028766758861 0
-120.341565822843 -26.9786967005947 6.78766019601754 0
-213.383065120098 6.36996725029002 9.06943290855532 0
-251.662227597489 -23.4844729400092 -9.08238577388268 0
57.8953400044031 -16.6558150652431 19.4837276388565 0
2.21866523056027 -16.2038890150169 24.9476617222784 0
-227.770455371197 29.5125732873676 -4.54279041685948 0
19.4568233998725 -16.8934800952413 23.4308411513206 0
-243.590884664302 -3.67108722733335 -0.0509148216891663 0
-206.320945653577 -9.76599472751029 -28.8778083252609 0
-195.643288359125 6.33460837450347 -15.3063249689437 0
-248.697464018166 3.60338368017263 4.75087271934457 0
-100.341576889359 -25.6334043001563 10.889916421132 0
78.5920970747798 11.4095917260534 6.7917191977446 0
-102.63709535583 -2.54051018561452 -4.84043975311827 0
-225.349929100842 -9.66529375744231 -18.6456292143271 0
-228.875135363651 21.7076071771422 16.2768487814901 0
-237.161331315516 52.6735730606979 -2.60222530357458 0
26.1060132712901 -19.5653978356179 11.8787857163464 0
-269.011548396227 38.9808267308566 -7.50651538172145 0
92.1122830721289 6.91103903202101 -1.37759805835226 0
-14.9084451442503 0.0925210785400985 1.15788930167331 0
-244.722118271574 -2.24610011491222 7.14615556747376 0
35.8000568041564 -18.8781411498117 10.1336534902895 0
-26.2167500643244 5.62637221520749 18.8400083104972 0
21.5943034490129 -20.1233357483493 14.7498666249225 0
-247.069472864057 37.0107628983337 -21.4676162882751 0
-267.140712156938 27.1877378997227 19.8459502405366 0
-40.3693771553026 5.35660304788207 10.4691465029652 0
10.5943763481857 8.03998230697606 14.8092220170338 0
-195.911726075426 -28.4208854967582 -22.3639554262808 0
-266.746080586321 20.4372600227026 -10.0007075115133 0
-210.09410599111 13.4352490698982 -9.26053973817529 0
-236.950567491309 53.2676797037188 6.25042887864784 0
-76.5618439725323 -1.79596712363553 -2.04147433103129 0
-137.784552535142 -29.2073957022688 2.35599406368437 0
-201.657299357799 -1.82591705954679 -22.2603132071391 0
-177.193323349535 9.33016899265372 -19.3860329610451 0
6.20111655637824 4.72008727676315 6.03872746158323 0
-91.5429713642225 0.166277904716756 -0.702514855590236 0
-250.917576181739 18.6547294975514 26.1944909929749 0
7.24318712982703 7.55892555635698 12.5113458852287 0
-272.01689378739 26.8500574363309 -3.35374965762239 0
100.157113110677 12.8215602360928 16.5431486342222 1
-37.655641863697 -1.82957097329115 -1.46430262646648 0
43.4325593417515 -7.39234672744749 -0.769628155527964 0
-151.334518085411 -9.6050758013978 13.5827995762716 0
-172.970672385866 3.61976598254908 -2.6041119076982 0
66.4900839635236 -15.9895444752499 19.238276745618 0
-159.173249715007 2.21060022406724 -5.72397150377102 0
-199.401770485793 -5.75261031810143 8.71478825195512 0
-221.994676859379 -0.960443729440023 11.638702317391 0
-159.755873216945 -25.7681304465974 5.09282184603024 0
-231.098915184845 6.67498195052878 -15.1055298359863 0
-139.303650140138 -22.6354406546749 10.2731366401841 0
-11.9764035098544 -12.1923468343727 26.978496385798 0
27.4665248395468 2.03954065588038 25.2423334249544 0
-64.0580762095782 -25.5139956111427 8.0061184427527 0
-193.651926046719 -31.5790681799367 -1.24011220345978 0
-230.86871387302 9.25998478283415 -15.1279874396503 0
-148.712703562792 -30.344339469655 -4.23455025814374 0
-124.161199039316 -7.62310351860837 -10.5031091411198 0
-171.700931364719 4.34540577428295 -17.0466637757598 0
-107.759755475981 -7.44398788504759 -8.47118487137487 0
73.7604764894362 12.3188492688514 15.3086352298943 0
-226.953082895287 -11.3449132416255 15.3363171033997 0
-251.029665224583 7.5062014350436 -2.00411347554518 0
32.1913622707356 6.92470952190534 6.99711774763393 0
-240.98556897864 -9.74242681600867 -2.9158797671694 0
-251.193888893179 47.6410878890904 21.2720707003652 0
-209.034645176705 8.33025467413843 -13.0081090403011 0
-266.486793702418 46.3588624685253 -4.36830881206193 0
-121.667404868567 -3.81935762114551 -7.89723960903534 0
-40.9097684924084 -3.92790686716691 -2.43007113171974 0
-118.063035783701 -28.3992307671027 3.99323797409589 0
-121.266493658344 -25.6631448950492 -5.63956298751539 0
-57.5331946351963 -3.27931550939539 -2.87359780501159 0
-238.838048961819 -11.4999681636286 -24.0089268157562 0
-220.385475245622 -10.8470899163081 12.9906727172642 0
-229.441867705805 45.6040284394124 13.1845226866894 0
84.3810472755496 -9.21290108120294 -3.07677257084372 0
-156.949180933458 -7.20357675441036 12.4980408046035 0
-122.950283190192 2.05809937465299 1.7048687930825 0
-240.520787474107 42.7030374392969 -18.3809152674606 0
-218.530917257426 -12.3828507671591 12.1686858037362 0
-128.169267248495 -14.6975227974094 -12.2860236317977 0
-239.129060643877 -8.63143515558505 11.0793570315433 0
-134.910914505641 -16.4722120307339 -12.8956802270955 0
-235.601372236285 -26.2042823197441 6.64866207583904 0
10.725843798877 -13.9389785478497 26.2499410932985 0
-195.909012819555 11.6373160228841 -3.21477212295961 0
-3.56056997636987 7.38190076459466 15.4667714971647 0
-50.3180610948138 -20.176533188659 4.15221899421515 0
-43.3334647388867 -11.3310126124582 26.0427648218347 0
-225.253030574378 27.2081663471791 11.1000650954247 0
63.4231251808026 -8.30801790088338 25.3956754816529 0
-264.159733273526 19.613189425745 19.8901946428771 0
47.1855038183167 6.66241751596853 4.38580534407861 0
-11.0318069592199 4.36621641595784 6.57764610578772 0
-179.476259076811 -6.66284170582682 -20.8113451257278 0
-50.4390208844375 2.93418785590946 20.4999769458537 0
95.2050798821892 -10.4948658021481 -3.67486721101404 0
-254.371881761453 7.86453700264 9.28558919979774 0
-93.2578594531737 -23.7774783887824 14.3435636374674 0
-201.042146709454 7.71828969323154 -13.2370967213354 0
-214.648899907236 -0.122404921913427 10.1823824211331 0
-226.935519605553 44.7126482477927 -0.327089370756631 0
-174.719210802506 -12.0765102606112 -20.0745772544012 0
-221.863067722653 -10.7427573400635 -31.1657930791982 0
89.5166036116793 -17.4622921666242 11.0227814868448 0
-28.3318097563454 1.35321958117331 3.22780197327706 0
5.83886920603747 -17.4256092786658 6.32831470542789 0
-247.975881927363 51.5075516102763 -1.15463133767834 0
23.1722127373764 -16.3810237640028 5.50757405897369 0
40.0657188856466 3.74539165095255 2.61774035903235 0
-86.2749177405118 -3.94232029664434 21.4349523102403 0
-69.1793223534624 -1.72842906743575 22.4358401118066 0
-74.0594699720328 -14.0943233407007 -2.23864280480041 0
86.3407489814034 2.69565536970972 -2.99458809619077 0
64.7930045642638 -18.1301681541841 13.7568933279395 0
-104.665843202612 -26.0041418342392 -0.945399221976366 0
80.1292651612834 12.372040820824 16.2569416469898 0
-227.226725297896 9.00942593087632 12.5060635773407 0
-144.723010341449 -18.1127865069404 -14.2818338389038 0
23.439469210414 -18.6266177392525 9.0632044822796 0
-266.099737356081 36.5114894370342 -13.0887494899056 0
-270.001042527491 37.8669365296323 14.0820959446407 0
-23.7517903722452 -21.6739422703605 19.2758947285054 0
49.3126428623037 2.0176651903136 25.0875716102357 0
70.3439944521053 9.29284492667613 4.72813340909506 0
-223.455824085389 -12.3611046690915 -32.073919775347 0
-193.218698089905 3.35723588740274 -19.2223969810382 0
-238.460779124923 37.5306936636122 26.3617598979181 0
-216.160813168941 -27.4899047868688 7.54081944418858 0
36.7940501038186 5.85094100785065 22.9073639109294 0
-163.53789865845 2.25149859127706 -0.78230798309883 0
-135.309502572694 -28.8912191417871 3.06618882582166 0
-199.447454114218 -13.4363825232754 8.05959815066469 0
-167.920618426683 -30.1555277333076 -7.85717957855569 0
-240.585103297307 -8.8963616627545 -28.296928915608 0
82.328717308198 -15.8540789185908 2.43853505022997 0
-97.2869015076315 -1.46880268635018 -2.80190766559902 0
-243.445748444555 -16.0245127227206 -2.37571771514206 0
-22.0143785015337 -23.2484175676149 13.5752619570085 0
-236.408253967012 13.5481848002446 18.4321691177068 0
-36.763549196223 1.99050534063323 3.95650415786882 0
-223.923110632482 27.689064288311 1.31767745758546 0
-201.730857350348 -10.8003072552268 -27.8899234475741 0
-228.076675308608 -40.1566338733201 -14.3711465979386 0
-243.76381761595 54.3019083248491 7.00289912761415 0
-233.877469606504 -14.3460270799393 -25.4157097582733 0
-82.6325315814641 1.16129889142699 1.38720084800622 0
-266.756678997299 47.997618769248 2.35909843413289 0
-169.872854450696 -9.72883840944309 11.1829181943545 0
-99.2468831368722 -24.6792318768711 12.6396176621658 0
-266.900658085911 44.8250960452376 12.8019707792437 0
-215.859909751116 20.1338124086522 1.60181469005696 0
-239.906379427426 51.994875289451 14.5407825303777 0
-263.779691329115 21.5195505960118 21.3725211931097 0
-58.8801720861454 -18.2192291546585 22.1360978575732 0
-218.280825135713 -20.3949518952333 9.209933815557 0
-45.2994316664071 -16.3210093493292 23.985056129309 0
17.5542168728204 4.71529306276672 5.49018719621511 0
102.524279962377 2.56898080905518 -4.6377888912147 1
-242.240617823955 0.317324389427246 -5.33189219667711 0
-95.0102330302031 -25.7547770241566 1.88007063199177 0
-245.223365001399 52.8814722118974 -3.18471460189361 0
-60.8231564314178 -24.7764764727121 7.24162369896454 0
-8.17475672298246 -15.0673643878219 25.752091618252 0
-72.2222066631553 -25.5034418008603 6.11348665978278 0
-272.551147563841 34.6445312624795 -0.775883547528524 0
-247.463430458895 -24.2784398745013 0.632195992884829 0
63.6924058912047 -15.7392121941203 20.0907349979221 0
-256.263667117676 42.6782482413497 23.8592033499248 0
-215.81644909667 -16.4205667907885 10.1362785369559 0
-169.877929221536 6.64885982416645 -12.7986816781558 0
-238.325748542592 -32.9212030381598 -20.2288979635214 0
47.1348336292802 -16.1406590307757 4.74556087919002 0
-118.80569825901 3.03448171646554 5.78755467150872 0
-201.498218831115 -31.5730590049949 -20.9684844692322 0
73.8294616415156 -2.0704717282969 25.3029826012666 0
93.9896066237108 -16.1231356902144 15.3066762131793 0
-260.883831805348 50.7830145737509 7.94288263496743 0
-225.401114221044 -11.5942214973035 -22.4968386794938 0
-247.726752946903 -10.9835599213324 -17.8756804736675 0
-188.758448801924 -30.1175421209816 0.225968610582792 0
-1.82135332674177 -11.2875930182574 1.10713532369078 0
71.5903789390381 11.3038268481309 8.57715163662722 0
-162.282191983901 -6.42267780802145 -16.6279335545429 0
49.1786110713883 -14.9447345279693 3.18193640072913 0
46.9155145992285 4.08556002052187 24.1427583016271 0
79.4254244667411 -13.5092884317335 -0.239384701293295 0
-262.771235384859 51.2733315796263 -1.38587885337413 0
-243.587434146223 53.3923055071045 2.24453004214266 0
-236.209940791696 -2.7501074924124 -8.11424275208972 0
-233.739848152591 -14.7405014380831 -21.5747302133785 0
-21.9873893078265 -18.5250052082068 5.51653809515697 0
90.460613130161 4.53104563438839 -2.57534754711134 0
-10.1319661527474 6.6224611799183 18.1759078478571 0
-213.383908675665 18.5656620639201 0.943678941213874 0
-84.0679584006241 -9.55169850133094 -6.45049374005742 0
-267.775270078537 15.5784757507509 -0.464719119220098 0
-238.233686326582 -36.079056333437 -10.6458241708888 0
-246.283342633296 48.2033221701596 -15.7362626261143 0
16.1249692214216 -6.29336297892469 -1.07311600526196 0
-237.142754383519 0.694259661505434 -9.45053562939383 0
-250.411222220161 -12.5346194306196 -29.989604079989 0
-239.839548371619 -34.5160752060905 -7.2210145172105 0
-159.60106117895 -0.127671836329793 6.58489379939034 0
-269.731316138149 33.8229958332708 -8.83130288542373 0
-51.0579608125533 -22.648457975954 5.98917712412518 0
-112.838441401943 1.05842529518812 -0.229521060124435 0
-201.242086383583 -33.0986882350005 -17.0470960324175 0
45.7603551228794 -4.20511666775918 -1.99570512385321 0
-198.28697295917 5.8801896752027 -15.1857343551573 0
-255.739250252869 21.4590931272236 26.2656008173156 0
-236.704753512683 -12.1716357535142 -25.3856472957809 0
-176.014276460147 -8.43189619097762 -19.9529934170968 0
20.5824772255222 -8.51934038039317 0.326473055033595 0
-88.2444476621948 3.84595117784418 7.57893779128734 0
-28.4936417830456 -6.28148195663483 26.9176782874491 0
-22.3940522954163 2.65012768316631 22.8669619338332 0
-136.726331556287 -25.4158499216734 -8.9985851311227 0
39.1268626101889 -19.2062297662259 14.2083868506478 0
-134.649375057186 -15.092655101376 15.4327293967465 0
-148.828545827142 -3.08902153981554 12.69198159989 0
-216.438293753342 -37.4061616333608 -21.5806521838431 0
79.2322174461146 11.347683036684 18.0794972559266 0
-163.574705217564 1.35036369254753 3.15737785250737 0
-254.045515032964 -13.6654670457171 -21.7547202065377 0
-208.823027361441 -25.715653195027 6.49915157999249 0
38.0992325430799 8.7960270800066 10.4569930219722 0
-246.532520877365 2.5340849122682 12.0003333383719 0
-267.607811191297 35.7469668517318 -11.4561718389678 0
-186.428516835718 11.4897437582269 -17.5428553047074 0
-223.278257041623 -37.0928287020235 -0.536482860114317 0
-238.476954398199 20.99489249784 -17.7025438407744 0
-70.3719630515597 -11.8178186819022 -2.91746690252111 0
-240.386775360058 54.597126596619 2.95210206916823 0
-243.226790586673 -13.2277801058165 4.15732805628637 0
-154.682496464011 -23.0939287250342 8.13730051777567 0
-271.325117847374 39.5017087033116 8.6768148740568 0
-251.586131364531 17.0334249632732 -13.0610867962077 0
-227.299481731908 -29.799040678435 5.92342748841645 0
-236.980512493867 -36.9789947670835 -14.4362856487746 0
-169.470138215169 -25.9524959055637 4.54243493915672 0
-36.5145739339432 -16.0564600255446 2.82017126356923 0
-175.871822627407 11.1903662297863 -17.6634452764806 0
-110.779831362403 -2.9749957530676 -5.85205683685656 0
-40.9518744870925 0.931219812210304 23.0663694639131 0
-167.594151370577 -27.9122753895689 -11.8919691632061 0
-239.587375093957 50.5740182708905 16.8772662499954 0
-228.626008634607 41.961655693367 -5.87551829292239 0
102.437055708574 -5.66556025684365 23.9546216414388 1
68.0955246378837 -10.1286990325115 24.3335478971703 0
-215.967174206047 -14.7614138826068 10.9646010364945 0
-232.237253206871 2.49069993808854 -14.1832619758426 0
-241.756008974786 -32.3514009830982 -14.2430876025624 0
-229.196644760792 -21.3202273642385 -34.0883364557781 0
64.9468927642148 5.97165821404902 1.31889316971972 0
-226.637055916621 -33.699062795063 -26.7769197818905 0
-222.315676231797 -38.0807113683628 -19.8530370930727 0
-240.589730218148 24.3990742988672 -19.2453055489736 0
-119.160914818285 -16.9450193914151 -9.57992508078465 0
-262.136276370304 47.9848152902485 14.5813341996231 0
-185.864728874897 5.20114909833237 0.727278974390131 0
-255.620683323543 49.9378433142191 7.28282747729305 0
-228.371259826425 34.514643384454 -1.82059498897445 0
4.63156057164311 -19.6805272201467 20.4901960749759 0
-203.94202010659 10.6196772830035 -10.9039097632933 0
-75.2346205185287 -17.5851489455883 21.5111712189345 0
-96.2203858214338 -18.0671673042765 -4.58814189053357 0
-52.016138035366 -12.7948437884282 25.2202958471242 0
15.4632532515437 -20.0879452742836 17.5024187013837 0
37.4361730593304 1.79356633957761 1.02185357012025 0
-258.212347241811 11.5328340071008 0.408727383740381 0
-238.42620752468 -31.5013740867555 2.39455963199232 0
-222.951334451678 -5.42400824181759 12.8114594666145 0
-197.304101529106 -10.5641243498889 8.15410319001772 0
63.5061369201408 -13.025578828599 0.711136349811297 0
-246.424706692596 -10.0156251251965 -32.1470049547763 0
-245.547972962092 -18.1959565241626 1.46227367173072 0
-239.594196673486 -11.8555869444896 10.196661404028 0
-138.84740463334 2.3417572808849 4.68826211497376 0
-124.510607137995 -27.8964593033827 5.09851838271877 0
-76.5985426136333 -21.0721356482425 18.8381280047275 0
-260.886115098407 9.31700049479968 1.75398139092924 0
-262.723069559612 43.5040769537256 19.4032470687912 0
-257.037887786694 16.3858104495081 -12.4563277722851 0
-215.342006860935 18.8013275466513 -4.71214333236499 0
-182.796812827624 5.88638650872418 -21.4409341811515 0
-54.7728396325757 -7.33308191290986 25.572764410825 0
-190.247047027071 -31.361259240606 -2.6715433899441 0
-242.680051911315 -5.49797964064543 -1.1372262908797 0
-181.405156439068 13.3410361266892 -17.1099265428036 0
-253.86850703202 48.3334069388414 9.33558127220092 0
64.7227138228851 -17.1776460677301 17.2294356157395 0
-93.1947687154483 -6.83273920156803 -6.76063000121547 0
-150.256109041595 2.0328602216028 1.0428345951023 0
87.071680995017 -16.9695053090173 4.6101434140698 0
-258.185056969341 31.7337071522536 -19.8320344447191 0
77.8638136777758 -16.9422797605914 15.3647345872863 0
-50.1396015869552 -7.48402327128964 25.8826221779323 0
-256.725549420949 49.8814304331677 -11.281338551698 0
-38.7742068230346 -12.9579079738767 0.529117311913708 0
85.326490845308 13.3824401145447 10.6129258129173 0
86.2361260891519 -15.9332785663089 16.6724070855049 0
25.8233224285065 -18.19505686732 21.0575552862022 0
-17.642145046455 -10.6948870842497 27.2389823982665 0
-215.7907132298 8.84124378212712 -13.3914169786093 0
-211.13467634575 6.9903326659051 8.47458063790367 0
-18.9119941163383 6.71285364794869 13.8714298745287 0
-271.666849504116 32.2789544558219 12.1380007071241 0
-214.635064959852 -31.1137939679211 -29.5152735615204 0
-88.6917636795492 -21.1418325684622 -1.16186409864918 0
-170.181019739438 1.59665477839023 -16.8060982892368 0
13.2775419399827 -14.6907861457559 25.6915368233596 0
-244.7695715605 7.70724629493679 15.5228482167281 0
-186.36544757359 -7.05518360105227 -22.8925509270037 0
-149.77945534706 -23.7748004401196 -12.5626163547329 0
-273.129919847056 33.2970756002743 4.65377756737233 0
-217.619743728504 -35.12813237741 -24.054144952046 0
99.9467677450265 -10.0631891394655 22.3090830425994 1
-55.1971596726453 -3.58815178556689 -3.1449214171409 0
-243.405066395362 51.1966928139627 -11.5888201404972 0
-70.4316627896543 4.54986544700096 11.0649772686314 0
74.4357103759531 5.64208131288827 0.0287498099305188 0
39.0390326284305 -18.1044308427166 8.39435047394516 0
97.7598600069513 -2.27700764330059 -5.30778638024523 0
-257.621981363876 45.6003965551411 -14.9140501460675 0
61.7881971621608 -5.14051360718284 -2.58339135681695 0
-80.3248180356915 -22.3133023208749 17.2376959344775 0
-131.05657719319 -9.65515101834229 -12.3946595883537 0
9.82646969152003 3.19105255208591 24.3223781858423 0
-80.2063655538417 4.10115722627215 13.2882743448926 0
-226.531939930122 -10.5973923615285 -16.644317594619 0
-98.8858026653431 -13.0157276763869 -7.962258482963 0
-86.2960792006063 -23.4396804988544 1.4083640574301 0
-227.082136481205 45.3132638871285 5.87424559749612 0
-248.270280078973 52.7249532241468 13.6478263693073 0
-149.477288370783 -16.2096507028337 -16.2528493962349 0
-203.632129160824 -2.71425791245999 10.4706004068876 0
-223.565141272516 -41.9440704578179 -10.2440713258734 0
-242.836488026153 13.1748618990731 21.5184400408662 0
-30.3667592437276 -3.47027662318637 26.2400232965707 0
-67.9115591617681 4.71656718254387 12.6902503828994 0
-130.84332499928 1.61066999930056 0.600643378032143 0
86.8969851789579 -2.1828305264996 -4.39609324713984 0
-148.136240715033 -0.768434278647245 11.3298994375347 0
-231.932363358238 38.2340782436531 22.0918723826391 0
-0.322318671474623 -20.6255106027983 11.0330551451783 0
25.6550233894039 -14.0914861717445 3.17461375150967 0
-167.12759070438 4.49175191935188 -12.9093870407128 0
-171.216266437746 -27.1829847668356 -13.372798401813 0
-163.98427665946 3.28785299220499 -7.93191703467455 0
-240.233325525558 -13.1117772894509 -19.1356995148302 0
-133.359014923093 -2.37461272668625 -7.81079125653233 0
67.8716676990047 0.384867610522212 25.0406617229285 0
-233.822754093315 -6.28490859478964 -8.08087260019436 0
46.3076002078722 -16.2150808083256 21.653240109677 0
-130.056247226892 -21.1510903679047 -9.94977270815767 0
-40.2316782979692 -19.5134742237085 4.99108848383981 0
-204.30141826158 -33.9855787301335 3.63891453908965 0
-85.6387264492269 -13.592863079495 22.3458032109463 0
-252.522444567621 -9.47043479956055 -27.9430515036039 0
-263.997664700413 50.5012123238308 0.0183827102450929 0
-253.398777851282 53.9487980154824 -6.1801210178475 0
-13.460282814719 -9.99275590944105 0.153975618280422 0
-256.074689966305 7.44684134911428 11.1525357948098 0
-19.2696498338372 -21.4477084661276 18.9374297128149 0
-91.8116430698245 -19.8038584537327 -2.80951366948761 0
-226.951907024141 42.3433805516146 -0.834628115392413 0
-163.043227071532 -27.2583277767585 -12.013664146542 0
-270.981728944014 38.3672458337662 11.3216183249921 0
-272.016407791683 33.1636230501266 -3.81970945672114 0
-207.155160001667 6.22689916546804 -14.5124430688946 0
10.7335046535718 -18.74038851268 8.66926090279697 0
-243.134397335575 8.51749705197299 15.9773246165409 0
-156.288528014974 -19.0001073967119 -16.8614749087345 0
-257.590468748329 42.0151142642367 -17.1322811300038 0
-197.401286799446 12.7683790993439 -5.8300346828332 0
-44.0034204074034 -24.2084638837669 9.16476017677805 0
93.8406509101851 -13.0577490268905 20.2251424737407 0
-52.9128055311117 -19.2189077760749 3.26689544345854 0
-240.417509880687 0.0572753913212975 14.1445684377758 0
82.9646161541232 -14.2995835528883 0.214365412270656 0
87.3328355017529 13.1450898340275 8.07286974208106 0
-242.043218392383 1.98768875847985 -5.85791330880527 0
-85.5865956080893 -11.1477159714558 -5.94133396926103 0
-159.518175044826 2.00524531196139 1.59337131838226 0
-250.529439970245 4.97380644206402 3.35103290732873 0
56.7484795517911 2.95808959770206 0.194634688385792 0
-266.942276284289 45.9119733062441 10.5973887134508 0
89.4183419423842 5.79265689632517 -1.74946556649167 0
67.2160333838014 -15.0482017829619 2.40766682556186 0
-240.08417624519 -31.1068250152199 -21.5600545472297 0
-180.094575785781 -12.7163381442238 -21.9651178515588 0
-265.754660148375 13.6455639343204 10.2083408164264 0
-192.721961162358 -20.9554415412894 -25.882189476918 0
-117.02411059316 -22.0531811552324 -7.07852018998059 0
100.582448901303 -3.54027677994627 24.3201968705774 1
-249.967053456613 34.748628034608 -21.7885775162905 0
-95.8143717135504 -8.29732893736653 21.4886887938771 0
-108.104619260459 -2.00536852710111 17.7349565515901 0
-13.1338042337037 -0.400345573521752 -0.126711542691824 0
-154.502892689928 -28.8958673048893 -8.90861475943321 0
-209.467176336696 -30.7027685813644 6.71180159828025 0
-119.244313786911 -14.0387904715373 -10.9691262163931 0
-121.230147119907 2.77132300164237 4.37822635657744 0
-48.6893215532597 -4.86231537915851 -3.12846879670473 0
-151.417422269991 -19.1892152504127 11.3980971763371 0
-226.958550776781 45.2913507625707 1.90783699296263 0
-14.4665728471738 6.68514209339838 17.4767603544875 0
-240.927830877512 8.26403566146156 -11.3013268846888 0
-256.592504559321 21.4924749719483 -18.499633558478 0
-112.622702592088 -9.85679780483048 19.3324346867812 0
-230.499441635764 34.2804083528334 -7.41413188166403 0
-173.324546644607 -23.4728678450561 6.8297719779855 0
99.3926748389967 10.2193000473082 1.26002328321406 1
-238.357827140157 53.7300883343074 4.27304930608872 0
-208.829432821378 10.2797411974107 6.48787258243178 0
68.4336464580108 -11.5185941140948 -0.599008256446601 0
-118.410813929395 0.479228051163712 -1.40378847255806 0
-239.483994411651 -9.2503135918297 -5.50021547923645 0
-24.6118950192248 -20.2187863283251 6.79185244430581 0
-238.221017586133 2.97614251139539 -9.72463215551768 0
-106.921326774036 -21.3941083495816 -5.43188809179504 0
-247.05365289544 26.3386910743237 -21.8709140328659 0
-233.497092573972 -6.85580994193881 -9.52580240308854 0
-77.7793843998576 -26.5335959421328 10.3425866399295 0
-135.97378872712 -18.9665395772453 -11.984664920904 0
-144.977414296218 -27.0041317318864 4.7146247138799 0
-205.099969982248 -23.7641411125869 -29.9443625187328 0
-42.314679074238 5.34955429950995 17.5486897244873 0
-249.350025861199 48.0926863703034 -15.6897432110933 0
-133.758824584005 -11.4263344137759 -13.3301386925741 0
-219.324911916605 -36.1993664315488 -22.9798842905247 0
-232.06857289787 25.6971469467788 -14.0621641979983 0
95.5360347417074 -9.0545851537682 23.1356478273353 0
-240.046603218139 -30.0858550309144 -23.5481788098735 0
-236.892028635281 50.4700214975299 15.1471170634124 0
-229.292892157545 -37.7479242334513 -19.4754805514394 0
-175.811799624286 4.87584755718075 -5.21316722699937 0
-235.828786459636 46.2428036706686 -13.4642304595456 0
-242.867925273687 -32.1765744937361 -10.4112300597554 0
-252.875712730668 15.0086676270795 -9.39775436177172 0
-51.8665283914077 -25.2627544050423 11.8069710110829 0
-193.910818278171 10.6297029090226 -3.09505795909465 0
-147.570517483697 -30.2237951105166 -1.02985108691004 0
-241.280400667452 -25.4563296188155 -28.3622928345697 0
-216.958272550477 1.71209137993034 -18.0752252450643 0
25.7394644391493 -8.52382073535095 0.231871938088506 0
18.3488549110427 6.84762842576024 20.8349055179285 0
-246.43192252273 28.5820299072155 29.4198809270527 0
-245.006986909389 -29.4047045749754 -11.5389654022441 0
-56.0724148496424 4.28803658158362 18.5235244961826 0
-21.4075450701185 -1.98719707463724 26.2459913905205 0
-137.488816886079 -2.62872837538653 13.9037388721161 0
-239.361322045417 22.7059913265693 -18.6755218220755 0
-244.688353158092 9.49518210005855 17.081377095625 0
-184.725759099716 -17.4648421152542 -23.626911756776 0
-17.4509913405602 -0.293041733272533 0.0634297114998596 0
-252.244404231159 -14.5244989268133 -26.7780086576263 0
-156.005646199642 -0.691197601945369 9.10041774780644 0
32.3217454112182 -11.1576250429613 1.16163003519435 0
-239.456255808331 -15.9303004415855 11.7666533104154 0
-184.859947482198 -29.060347633825 -13.537779953684 0
-238.87603264575 -5.84233704639766 -6.55485924143388 0
-217.413780991477 20.5486704743305 4.30555241400611 0
45.2524195153944 7.85688977088394 6.6674693491149 0
-202.394388341096 -23.794801650959 -28.4944625404264 0
95.9606659575698 -4.71738209631282 -5.04372030026535 0
88.4209868920175 -13.3082855353459 20.407983583026 0
-265.144325093268 14.5607446241593 -5.29972290387552 0
-149.849584483692 0.0644132813591694 -8.86658855252992 0
-228.756455231263 -10.2335657131805 -28.6359912552103 0
-195.173816693477 -15.2031726515628 -26.6898734909887 0
59.4824494827105 5.13612095962905 1.33528410652395 0
100.821044357149 -15.104345060777 16.6958886008576 1
40.3349688202054 7.6723225905881 21.244355741025 0
-144.044877914515 -17.6515384207577 13.1292231260145 0
-229.129844389408 6.26390732241739 13.1001175266034 0
-232.243842379946 17.9821207365282 18.5082565663995 0
-130.552477285902 -3.15640537866713 15.0267532003935 0
-205.004569293688 -33.4958376381609 -21.4921399164949 0
-96.1199338816566 0.203014143813622 -0.856712571698954 0
-240.480109063578 -32.522629522342 -1.45936841907242 0
-224.808347069208 -21.5955576869062 10.6929576137013 0
14.5526511803089 4.92241762306992 22.984012863883 0
-72.072463295222 4.52412017729852 12.6571884315537 0
-245.936612326009 -19.2438799593101 -0.299411437013891 0
-264.337101893736 18.1377318131282 -11.2013620024786 0
5.39772099472164 -8.16300415078347 -0.244216593158158 0
-255.537424419223 8.45244950663245 2.81228173528456 0
-87.5044941715885 -21.7700018004304 17.2688332659278 0
-101.951189923192 -25.8991647996974 -0.268166236761299 0
-76.1144690977889 -10.4861375495406 23.7718334371161 0
-197.727668558598 -1.16258602432778 10.1695933154163 0
47.4312147599651 9.85911749140817 12.2023592984666 0
56.0494149584417 -9.54479584500772 25.5975774721143 0
-161.185765697064 2.55709913824284 -3.36304107876657 0
-238.416094462871 -5.83188412335598 12.9212239990341 0
-240.508075822134 39.4765752029344 -19.7886212420052 0
84.7840637397131 13.2346155208835 13.9416357077136 0
-226.979807057537 38.3082329659316 2.67957777956728 0
-198.203979708875 -0.973027711708888 -21.809501663215 0
-150.483746697482 0.589475874896522 -7.1593726196355 0
94.1243400078403 -8.28297316647343 -4.17334517654546 0
-263.327302584429 13.9235435889812 15.2715341258891 0
-166.246271894235 -22.5788390671546 -17.5113128949279 0
-212.502716523327 -11.2214259892956 -32.4249281713537 0
-239.325022051265 -11.9082616115601 -7.32265064151172 0
-269.908171809483 41.9378134329392 -2.14061337524971 0
-213.073039687331 18.2835921668489 -2.63617798643604 0
-190.175340563848 -5.25264762214475 8.00672726553936 0
75.060742593149 9.03925316887289 4.19650232529326 0
-160.846782943347 -26.6468461115616 -12.2829293601817 0
82.63844428119 -7.95111423177676 24.3264251119647 0
-178.646369682691 -23.1245776212525 -20.8365282050729 0
-162.114612668858 -18.8043627265013 10.087399826957 0
-156.268506159418 -22.8310135138488 -14.5515960386588 0
-60.5573221774264 1.72145344790015 21.005587009385 0
-101.647109129246 -7.235027092456 -7.7032565236138 0
-218.497048183302 2.82985002463046 10.5651898350978 0
-127.649866537008 -27.0430587582307 6.10841274334193 0
-162.32549728922 -25.6008347899629 -13.5569896490183 0
-261.863926616529 41.823959680198 21.3623344617639 0
-191.784296244536 -19.2664167613322 7.4821296943219 0
34.8884068745616 -18.5277793724462 18.858002182768 0
-213.651221078795 -24.255052924791 -33.1206867712968 0
-240.437465721621 26.2718594069514 -20.8382552052572 0
-52.2729030663764 5.13621812880845 16.8188021396565 0
-252.759310058328 15.613882789647 -11.03406419789 0
5.67725969432679 0.631742986294261 1.52947944121596 0
-267.353129149018 14.9482566876427 8.34753641738609 0
-167.500489011022 -27.8619534584579 2.32449617216369 0
-103.313882995798 -4.89739921081872 19.4378650581659 0
13.4713329994375 -17.8944438535366 7.44469932738485 0
-192.801868279447 -32.0141042840895 -8.59058073943062 0
85.9232698452551 1.87835672503585 24.1072856052043 0
-226.727759013919 -11.8715412912492 -14.2807081282407 0
-241.010693083045 10.0273684588171 -12.3646678178448 0
93.9222487671434 14.3167911169822 11.501499989245 0
-11.6401465043966 2.16004931569561 3.93219128697678 0
-254.056079641854 -10.4415666134818 -25.9408959824441 0
-246.766412938295 47.8776543651552 21.9560198580779 0
-118.422288033916 -28.4067687909872 -1.32172787724988 0
-102.476154386102 -24.3487157925557 12.7944526275047 0
-186.967524014545 10.7657436160748 -5.96458116545175 0
91.5991909335781 10.2917276178719 2.89134086667124 0
-191.055477361475 -5.46221743927552 -23.9587226050067 0
-240.825844827814 -25.5743939816349 5.1679231099212 0
-96.3876102200619 -23.8411612716576 14.0407055605618 0
-248.454027077513 46.8422548958628 5.78034868804435 0
-3.78413678816573 -21.3571087799378 11.7277333039295 0
-183.813416977466 11.995202175701 -18.3732170997712 0
-270.40021912531 37.7975839942586 -5.52320021456493 0
-78.660488622481 1.52596278819311 2.44400556439246 0
-128.02796749722 -0.636512623177115 14.2906402619037 0
-186.393336126005 4.09541444939374 5.26062232385502 0
-157.920220088472 0.875928939716844 5.15765810867814 0
-124.584863514262 -2.0569714834556 -6.44540886550561 0
-249.352575644015 9.7424051654267 -6.53323247431187 0
-237.768598550315 1.36682898672453 14.6402606988498 0
31.9675906392377 8.88591226407677 17.6272430724367 0
-148.089464771811 -27.6182715131655 -9.18641477401949 0
46.640302156547 8.81803361027136 20.0596116349128 0
-250.098247949316 37.4334298112088 28.037856861226 0
95.213406120686 13.292989719235 15.3439511192583 0
-96.692912808036 -19.3656077974591 18.5806385273107 0
-241.469503133316 -8.95792045523096 7.81840147660053 0
-9.48270036583688 -6.08697092228252 27.5928808299481 0
-245.902020591943 -27.0275312074219 -0.235697442020504 0
82.4245398052521 -16.3085953084006 16.3743221468654 0
-152.238589470443 -0.308057204353639 9.42076472520051 0
-227.551483304515 33.8650307230815 16.0615785124171 0
-269.563575642768 33.1777083669423 16.5516488034047 0
-31.3425954313258 5.69596682227545 10.4754341516722 0
-248.398115964444 -25.7125696387358 -18.3560589829472 0
-247.097559560452 -7.66745564563865 -22.9900589469583 0
-103.456895861276 2.72716815896862 3.44060928213118 0
-31.5538403244777 6.3237912011852 14.2186098222592 0
-226.150678470841 33.9839868832675 12.4273041191907 0
-27.2043657972917 -2.59285693164751 -1.79384852236876 0
-115.52452271205 -2.66974740406579 -6.21791114108737 0
100.182122103143 -17.4060201131468 10.111150702245 1
18.4595266026205 -20.2723401939715 15.4911374147627 0
-237.783897411263 -16.3677868820511 13.7078351443607 0
-238.902671975513 24.2997675615298 -18.3808494392137 0
89.1608917856887 5.35964622377558 22.6404823951312 0
-202.985910395425 -34.7194456299106 -14.7454544897567 0
-245.526499605443 -12.0539926762564 -17.7392896463427 0
8.71022043123388 0.164920277490599 0.718624142257476 0
-225.947747563456 24.5515144693308 12.4386381700263 0
-268.423134588546 32.0349959945868 18.5033660067292 0
-231.338614000211 9.40655389845891 14.5172232193319 0
-145.442741893113 -2.42716599835902 -11.4560345046521 0
-156.371387836368 -30.2395027879693 -6.41257900085508 0
-227.895631064386 -31.5290635580122 -28.7738776210808 0
59.3783089951806 9.29651012540567 20.1354261741488 0
-9.89297427173025 -6.52205429041442 -1.5789400887142 0
-30.4974329584887 6.22639358169326 16.5815674796748 0
-180.200919355734 6.17801363968603 -20.957548136694 0
-229.841540818801 27.0774494925809 -10.5040339492121 0
-199.485322984278 -17.2590224489101 -28.4619683544371 0
-256.057546056257 32.4612992667286 -20.6497251554714 0
-260.989878519983 24.4995394873117 24.5785769904308 0
-219.476800049855 -37.3723925796954 -21.3621573406064 0
-247.64819360913 3.60170182622443 0.371355651374173 0
-220.450172729142 23.4205062018642 5.28304395605262 0
68.7687982229923 5.46003605100022 23.0831967178886 0
-110.417963907395 -28.1864675185116 4.34199125991077 0
-167.546095463739 2.61611921134447 -15.0930279932756 0
-234.05678988647 -37.2153087232413 -17.3372570538226 0
-69.4948734287245 -2.66224790943935 -2.69726240752151 0
56.2348184621274 -17.8185791525177 17.2695329309512 0
-68.4059669537752 -7.01756146426863 24.4496344976992 0
-125.079512659181 -6.63561589330431 16.8858653395301 0
77.2878153000674 -4.51834927240399 -3.73477747783109 0
-173.311522262895 0.195058539561186 -18.3958832027824 0
-98.5488975488921 3.83293478323568 8.16055331486798 0
-231.490036909067 -21.8691764578783 -33.554187396301 0
-96.4925777247675 -16.5527964973602 20.1979109181652 0
-236.210549172437 8.14122804452892 15.4209853826244 0
-147.549533267482 -17.7114145653755 -15.2116187064961 0
-201.774890744446 11.8154039069677 -0.203202343773428 0
-135.945902562048 -22.8054580084032 10.4634138845257 0
-144.303348971043 2.2318984866681 4.37251827598753 0
-89.3198984307348 -7.04207238465762 22.0776186420668 0
-256.534290385226 31.4982932183322 27.6766722158992 0
39.5644973603508 9.44950945332517 13.1014360808219 0
70.0058140991952 10.7739861869792 7.21874720299596 0
-41.1342851444211 3.27995053666272 5.92146283398473 0
-236.57252789421 -35.2014506515549 -1.61643595637015 0
-245.373985638262 -0.925298192945244 3.71741296988387 0
89.2790834484516 10.9391913269085 4.08780661946347 0
84.5717257442963 -17.6854883975154 9.25464929825351 0
-147.809530658902 -19.8617724215833 11.5387382686529 0
-210.234144057412 -3.30642455016014 10.4857580813736 0
-181.260137102531 6.37789319164732 -4.83952176778615 0
-16.0342399424533 -13.7542652801708 26.3191822229322 0
-206.168971279909 -35.430494202594 3.0364076289296 0
-197.671108029994 -12.0311588182025 -26.8930235684684 0
-243.100034489496 -10.4370122616936 -21.9417896348125 0
-111.977085782859 -27.3903782171861 -1.03342366923462 0
-253.229492928146 22.2421261670833 27.3239819797183 0
-250.944519639344 22.8714754798754 -20.2572570422118 0
-235.222672103625 -8.9380385210951 -8.53659653880127 0
-94.0471795517436 3.77985102436792 7.08333317316951 0
-117.191427276958 -26.9347909698937 -3.19810538125824 0
-85.425289182586 -1.51495779346348 -2.32527349195017 0
-268.364652398713 45.7965193892415 5.6486095664557 0
-61.733376694515 -3.58855303829078 24.1709536791214 0
-235.42656908474 19.3456782538136 23.3656040884581 0
-176.110795211213 2.13207904719713 -19.4993809150248 0
-42.057066443505 5.71729604432241 12.0657882282839 0
53.4491660144644 5.47336352569658 23.3598949132654 0
-101.108279582515 -14.3210887869401 -7.64553808581738 0
28.4508864733613 -4.81444288140225 27.1219970011694 0
59.8799133943134 -6.90236772673126 -1.99317093280003 0
-248.470393532959 11.05404686686 -8.5836481332782 0
78.5550060784884 -17.4025444459824 6.95521877185585 0
-230.265764092153 -37.3795814592607 -2.67330738207672 0
-13.400412582776 -22.077641516448 17.2774484157168 0
-154.417788685077 -8.13748872933794 -15.497527884742 0
-234.127847304675 -38.7678143979212 -12.5108905142361 0
72.8158745825058 10.3353611450046 5.73248822594788 0
71.9275697849015 -14.0490727000323 21.0504564293145 0
