179.288581721677 -19.6080971838789 -25.4533701409122 0
195.389778780393 44.7602309279345 14.4589551182773 0
146.426113687955 -12.1349509532995 -24.8993213870763 0
203.226431917724 -0.709329089747696 -21.7754806368466 0
125.447743721432 -16.2641750136809 -20.7854275480397 0
21.8000093498054 -12.0975527099064 -0.274162811429104 0
181.807221225671 -6.82535204801228 -24.8114497844664 0
218.939377911293 -20.7313510811607 21.5058556351072 0
221.299675878086 -17.7016301951886 -6.04060508078893 0
220.432466381376 8.00865073034477 0.67534780790077 0
110.085473668888 13.5160798945525 -11.263973504442 0
192.22156147274 15.4366114686801 22.0321445791946 0
219.948239650029 -13.1446087947036 1.33256294292273 0
217.628606541943 40.5529988625927 11.6154039755982 0
214.492222746153 -26.1757303138881 29.5343307432733 0
199.341802245525 -12.3809265431745 -29.5300491108497 0
206.025781513529 8.53597361483169 11.6346718163942 0
220.492561685535 -36.8805299595957 17.7824200257436 0
30.5405535988467 4.14753893941184 -1.59121482368259 0
117.497829760597 -5.68742699171314 -26.4804313167673 0
80.7625619747843 -7.25791853282858 -26.3841188658743 0
213.286774842407 12.5653285145674 10.2137819578357 0
-41.1512149561901 -8.61184188313681 -24.3190473869644 0
120.687079501957 2.95897289340174 4.40195325377355 0
178.664462279453 12.0717749667253 10.8720718516235 0
188.097638118438 33.2193600570505 21.6952307579489 0
76.0277942818148 2.38437700722481 -25.610948704022 0
119.018631993272 -11.0797461825814 -25.216328120699 0
210.914137035934 -11.0147862770586 23.1368315296298 0
178.604779018813 14.5559694575395 10.9883213982263 0
198.945370706557 38.882414055846 -6.05203407573876 0
215.570500742548 -27.2102581549332 -20.2860995328836 0
219.742839672854 -28.9150363603567 22.7268165293863 0
215.860350666953 -38.2423879559427 11.2118752224064 0
134.350164884734 0.570500263497167 -25.1124130840582 0
105.644321311037 6.68036504306739 1.43214200610054 0
181.846755195501 28.5458360517518 13.9022263493234 0
150.836508360812 -19.6052792241368 -1.47863908812565 0
178.045416967588 30.1253468521613 7.08833711136565 0
28.6608701169425 7.89553833657569 -13.3856479904745 0
211.928029584234 -31.2016552166963 -17.1879405636918 0
96.0325467640681 -17.0873357857397 -5.73720973564993 0
221.812623242482 39.9804774052356 12.0624432879828 0
102.25871708231 -18.1456392061961 -14.8788636965561 0
211.351338300674 0.135955142840106 -15.7983288925378 0
212.304747663048 42.7001881802611 29.6246379982915 0
82.4398982496759 -18.1025720262733 -14.8478632843488 0
-10.0344098841052 -0.0337696130607847 -24.6330570362049 0
-22.4624105656621 -13.5170141689132 -24.2134403558184 0
94.5491450779366 -14.5304498073908 -1.35958082281631 0
206.080162832139 -36.8606744256773 4.27784714734169 0
11.2958179421821 -20.5808001255782 -16.8318208285386 0
178.199346268448 11.8994039416741 -20.543636318442 0
193.685297307552 17.1845640330755 -22.7035161353404 0
194.543705055039 -39.7140654668419 12.7678565949334 0
174.837016498592 10.4332684723836 9.67328821517363 0
205.616716544053 40.0937007284709 35.3966666699206 0
194.111330368318 -19.27220665656 -32.0472604566627 0
180.46135671299 -15.3486945605118 15.0636097716562 0
-5.65189790308871 -15.9249989739927 -1.79835304597558 0
202.900274813709 -28.4039148765872 -26.9558517494269 0
140.801306649047 -4.42848682889021 -25.941856800163 0
68.3195874627198 9.19539349032156 -20.4550925896042 0
160.91186659977 -8.78752379795841 8.68533662408215 0
226.772833388399 37.3659175584947 19.6747411970997 0
206.157076736443 10.1391029387706 -23.6326650698604 0
68.77979121867 -1.84184442901754 5.18273254933902 0
189.761621303698 9.01537739316199 18.0203625438326 0
175.698838527002 0.10163160182416 -21.5246253713348 0
41.3258367709249 -15.2778779337624 -3.34323673186323 0
200.703333579513 -34.7291748710651 -5.88856189481809 0
183.377909582263 15.3148895693532 -20.5035234842821 0
216.803238547806 -5.50084735267654 -2.84324683752259 0
168.181338095071 22.8048311434553 6.54313360109317 0
126.108372716836 6.55218589697763 -22.9381195518255 0
194.542360475024 -36.499166434402 19.5510423624017 0
182.781886145724 18.5263324495545 14.4338160295923 0
88.8448591795691 -1.15809387291949 -26.4250871899767 0
75.0282358294032 5.80895695898823 -0.178466663702633 0
214.844222538866 -20.361250156179 -22.9136940929488 0
17.9513186393186 6.86605056596472 -18.2562802703935 0
206.773161118119 -1.96099404396611 6.54568887508562 0
179.285346368104 -1.75349936830445 -21.7699223367523 0
3.15601060904087 -0.167652864813464 4.10121560602298 0
185.716584287501 -20.5216960449636 28.1707685219969 0
170.686236430126 -21.5728629160079 -17.2258032249382 0
102.595909583875 -5.28785445657827 -26.636803105664 0
7.52958417816414 -20.9733129172673 -13.1184957590899 0
187.714308095138 43.7019801639346 9.54720297326807 0
105.47381707643 1.77227057833831 -25.5073703535781 0
88.1216457528632 -13.8747048420516 -23.4412701357603 0
63.5828884008157 -3.97299661551205 4.84094748298026 0
202.933715371042 43.1077009034855 0.0568691213145884 0
209.519555272267 -4.04227115503971 5.98484544128384 0
-4.73472825695028 -21.3257121936512 -17.494698916964 0
155.330427961398 5.09733631629136 -22.503497123491 0
87.3632469603968 -17.8745438706378 -16.0761866404575 0
140.673120149169 -19.4364498361605 -13.8389057225068 0
219.524567199778 -36.1734130036688 22.2293151820095 0
222.270450814491 11.5117494365191 4.00295279223552 0
134.032482868726 -13.8030648836579 2.49195396028498 0
209.677139077388 41.1770374715322 32.7071708630213 0
167.118969319319 24.5438857559731 1.08080564454805 0
209.846181350494 -21.1411892769896 -28.1344924361412 0
173.199538848536 -26.4122219925204 1.10721972747561 0
94.5165377795725 11.4540307108343 -17.4223651595304 0
200.578790704939 9.02669664303834 -22.7733272091316 0
206.756676721074 6.20083049351744 8.98909678045775 0
-29.9226704562816 -3.01688778822715 6.27201455649191 0
12.9195458249945 7.02122524642442 -11.2410705628421 0
37.9165281591641 8.06468093661514 -10.2682152368537 0
20.0795068391868 -1.72923770045023 -26.1163299749349 0
192.364109338667 37.5574856763763 32.2757840037587 0
-5.81736773574708 5.50370345851367 -10.2727466299706 0
19.9163255527874 -1.31132523319475 4.81648239625702 0
181.29596674441 20.6718927432683 13.4278385650217 0
200.800318245581 34.4792524822664 36.8413887136523 0
20.86553506139 -8.05502893424825 -25.7900773735033 0
199.196255284368 14.5383350511469 19.7601055702487 0
27.0602568245164 -10.0614262266541 0.849054516210982 0
200.534196424665 -14.0372782621496 -30.3191520746116 0
-22.8346130970356 4.40395605500073 -11.2071498821171 0
204.946613346901 -36.0555237179763 18.4484213178601 0
205.0920395564 -31.5475360296011 -19.3481771303554 0
-27.0193124298833 -13.7744049514923 -24.0520197466449 0
205.230618048559 38.7234984875644 -5.76486819615353 0
182.719676771209 36.1234235134248 12.0413172707268 0
185.575556011104 36.8328372538337 16.3680706766519 0
94.3564542989722 12.0600944361062 -13.3316980661631 0
207.660217677191 0.478076637133169 -19.4150135387929 0
199.826069779175 -7.72240065737304 17.540571756956 0
46.0116020899599 -14.589276579018 -23.4045674965462 0
218.416843890384 4.8286899295736 -2.84939453880649 0
176.141440918021 -24.8151815165222 12.2764813013065 0
203.667714566185 23.7973562997312 36.2113507975886 0
211.76033894494 10.0418530873716 -21.7378539762684 0
122.041699005804 -11.6656699999556 -24.9517313206361 0
218.953298298994 37.4916467531201 2.50393968725351 0
164.653829044121 4.50241022509124 -22.0368063186475 0
148.093557154078 -13.5218291647531 5.73791279764814 0
168.516053212312 -20.9074842915452 -17.6783956654954 0
128.333357458769 -19.0172875341156 -8.67163779442565 0
106.202936542791 -8.48175361583258 3.91247565485707 0
99.1620809710691 12.2255858249213 -9.94330866323361 0
216.668622067828 -38.4389953338833 22.218286900769 0
202.858859504991 32.529969630062 -12.6743986326039 0
201.545024159846 -30.9379204372825 -19.8616315099246 0
90.50313424397 -18.1312899856645 -10.8926829839363 0
1.71879143986104 1.22138750569867 2.44683010694914 0
-40.4751526076301 3.31183258269729 -13.0820689756496 0
191.972547030759 -32.8787138716606 -9.76071864539356 0
102.912709541513 4.2541759064937 -24.6226002708095 0
193.345360001822 -20.9749877502298 -30.4236156027477 0
196.166344969642 12.6476210746988 18.8182732271383 0
188.549026343439 4.16155321076307 17.0609358614413 0
90.2196296638638 -10.1669758883733 2.29413223853624 0
184.172050525191 22.0512804561722 18.1212859789521 0
219.051673957746 39.8286054472283 10.4999630851874 0
211.84297195201 -18.2602511782095 29.0744645814997 0
189.321277394853 -7.32645928433655 17.0045584745033 0
151.483602925438 16.0596295880979 -15.1881659410023 0
102.598763986952 3.60078263556187 3.26603610267155 0
208.224837438471 -36.852145059977 7.99484570293982 0
201.2214364385 6.11208859923064 13.6664550395681 0
54.6068578173107 -7.83433100472174 2.05994628383909 0
11.6338814232804 6.87953191888599 -16.1208072797663 0
212.804581719743 20.0303893137997 32.5860967540126 0
195.877457439044 25.5236414084499 -18.9638338711364 0
213.441181167196 41.6093690312328 5.36440195260476 0
96.6592601906258 -0.728966097768447 -26.3225200614984 0
214.432092059347 -35.4156364860218 3.8604138041828 0
87.8846990370194 2.02554611363147 3.85100026155753 0
198.645024047829 -23.6523003653147 -30.4877316289891 0
185.313830968173 -15.2245865880892 21.4892496772918 0
162.053572171651 -2.10616786242299 -23.8537585836976 0
184.935485583233 -31.8279017237622 19.8919436648718 0
182.167039506768 -17.901323518996 -28.2375662075995 0
207.093505248306 35.1564977557244 -9.42079623447115 0
226.296181015173 35.6843224593057 1.57581382233763 0
21.2064926899827 7.56969874706777 -13.4902188459884 0
200.489839492451 42.5981638801299 28.0538691202618 0
63.0616837797892 6.48551354788647 -2.87437569788835 0
184.624632565043 4.62579759902767 14.4348706580374 0
184.852811674513 18.6311830356576 17.81501939414 0
182.416644732935 -35.3859329735108 8.65610338441731 0
199.858002106614 16.4308990196763 24.6227676148689 0
179.166507687425 -25.5661718726485 14.6590231290834 0
164.92626004436 8.88850789148405 7.0531663674697 0
75.9347501990704 -6.96672806280798 -26.4187921164376 0
211.017992767804 -28.8217321243781 32.0998940842671 0
20.536917394303 -19.192899701053 -8.7639310220877 0
142.922982544601 -5.39813985893559 -25.9552421666844 0
203.309889642873 -35.1725740111467 -2.25843147773064 0
176.893590890967 -4.24720957728231 11.1675524333649 0
-34.373422963624 -9.19643874946108 -24.5671394247324 0
207.470969568145 42.8407999937606 19.8521244481461 0
92.7264620325552 0.400894899868972 4.63232646759943 0
178.158483576974 1.42873337691423 -21.0495666812084 0
214.794255571502 20.35031739602 31.8739950646564 0
188.523153122028 -37.0241673204438 3.85394344494025 0
209.268664275951 9.58047050038588 9.50868958409268 0
70.1117565121386 1.39909136199292 3.98387798793452 0
215.96496745685 -36.1201122282481 6.1984314602084 0
96.8404037902457 5.36013645754527 1.88627937047439 0
-42.5876300410872 -15.1421722021712 -23.0419385937148 0
180.75178463356 -29.0089917356709 -3.97632917276977 0
213.083416602217 13.8908320141373 12.4865497093573 0
146.504229731336 1.79318147440093 -24.1944568659696 0
-21.6159125746675 -17.146308774727 -23.0128615587165 0
198.217754377166 -38.6701855449895 3.2305845815315 0
201.001591647116 0.0117752460327516 13.2793693434976 0
14.9188113520621 -17.2277506132224 -22.1073378173562 0
46.5116150276996 -0.464045922028581 -26.1688198629843 0
174.400479601151 7.56859497123407 -20.8814339730447 0
206.383084798638 28.1790355669708 -15.7504431290134 0
138.601703528756 9.2760378578038 2.77469705604271 0
144.061976326598 10.32932824806 3.08010521659818 0
200.334353933074 13.8920817789865 -22.4477955070789 0
212.330854671678 6.34145224282315 6.23251572086514 0
152.759781922654 -21.0930124844227 -6.45804820026678 0
213.626971898002 -9.14699537080043 14.8699793035474 0
176.488814673105 -19.8607210120702 -23.3969436103316 0
76.9649809878478 -11.7827886659236 -24.8014519383821 0
12.0132246408876 7.07245188009223 -13.0852050242621 0
216.622566996091 29.5842118521403 -12.7732950207673 0
205.093547029652 -8.49773888511727 -24.7967434530404 0
167.178739995531 12.3981589744758 7.71849874505856 0
205.754439547811 15.9794718310471 26.342185391508 0
192.300936851797 43.8717411924838 18.1111978966444 0
190.420692689758 10.9313986003113 18.7839138717241 0
216.511297199825 43.3034989203056 25.1964375183822 0
-16.109536680597 3.40902823043513 -20.8414930286224 0
73.4020844464614 -4.37535981777576 -26.6313160707387 0
136.437220629727 1.05029032857555 5.84611387941767 0
208.498078565312 -35.2845260883028 0.573457666536678 0
129.040723040075 -5.45731187627834 6.75623579369827 0
186.712126018 -14.3479409835398 25.6479932036353 0
48.8064644324343 -18.1954554730517 -8.88326704418892 0
-47.3214159959051 -0.977352450165694 5.52518085328522 1
192.717080511306 -39.0285619088608 5.15758334517036 0
175.370429595932 6.10733614823322 10.135690829865 0
189.404498905853 32.2566419948539 -9.94678383442656 0
67.5544323483422 9.67815135627577 -11.0094417766137 0
198.770011714122 1.99515009621195 15.0743578480179 0
195.355037544366 -16.0046720488773 30.9032685126167 0
141.063369718043 15.774168804178 -13.4406778634999 0
228.54500978487 21.1471880638181 6.85494863087064 0
180.329267086111 -30.9396916335443 3.91073924098971 0
149.253992124929 -20.655127768362 -9.69242613824598 0
228.71138999202 33.050597284904 3.06525243346448 0
216.7909379412 15.2945744391595 16.965009219153 0
189.779019039488 -28.7196948188593 -20.9161605795527 0
194.445175727934 0.301703735993817 -21.4383042257748 0
-41.2389905454439 -8.11865672812512 7.30720467006509 0
192.396087465908 36.6189742331603 -7.54691077913928 0
197.426777361258 -39.543090690315 6.8988179351442 0
171.425417826641 27.1002327866884 1.18475715722823 0
210.833676373295 5.36717271969377 5.80888018281766 0
216.908855885457 -16.8266757732964 21.1617891146391 0
158.99083933253 -21.7959717810981 -10.1684831721156 0
-24.092411791813 3.84418066478951 -6.8805553967671 0
210.559843546838 -32.5952297005223 -5.57127946983065 0
40.5701220441957 8.4601085863769 -13.4432473242305 0
187.205069500803 -20.2295154206678 -29.0840208488256 0
188.464239911218 -0.386526484844102 16.7083236300556 0
45.1575449117856 8.72120698514203 -14.0284717913509 0
94.6967472813454 -8.07978774142241 -26.2517072412066 0
215.846706921126 13.6050175305259 10.4247370974942 0
206.994584448679 -35.7789905733749 17.9039686528459 0
183.974689750238 30.5860646526716 18.0736050845581 0
201.423218680815 36.4136728456094 36.6252142341477 0
178.396219597274 -9.00517115327361 12.4357195033181 0
43.7925947441432 2.68451896961139 2.11111664171988 0
161.594368843717 -22.33222018459 -8.79751005941733 0
195.032055554797 -21.1493011918309 -31.5214751728457 0
211.006472077425 35.4273963722591 36.3282411803599 0
203.875269075614 39.8518437941052 35.4735429584283 0
222.349206370112 -25.1268109891656 14.1772065664158 0
206.834161788397 42.9147431993068 29.1328376476808 0
57.1224499481123 -2.63828664418529 5.37226328917676 0
212.030418299674 -7.53720643563566 -17.7982483979893 0
199.519936653132 -33.2665431873989 -10.8035238449112 0
103.802672238013 -2.14127725076589 5.27082954588191 0
216.399472468531 41.9137655946183 28.7522524569542 0
131.347176132845 2.29280700648619 5.24651954969715 0
183.641005470331 -32.6565322988539 1.75029729074434 0
82.300922343996 -13.1186580458817 -0.550754492228401 0
223.699187926689 11.4716484762375 -3.56742137012841 0
210.651291537256 43.2770653875102 26.1739753419738 0
202.06940735905 43.2320887599623 10.4461671248605 0
187.998679318085 31.3042180758348 29.090632549052 0
167.119865151329 13.7242302280472 -18.9689057579106 0
23.917950251568 -5.29820607307021 4.62512650285647 0
151.960690915538 -10.9950062179829 -25.4032445404828 0
194.22550650812 -31.6175276645307 -15.5877586141194 0
204.298240978727 15.2721114968402 27.7102873508359 0
215.87283851343 -19.1278160775627 25.4336970915024 0
36.8931424354541 -6.55963365941564 2.88035006187223 0
190.953119353263 0.89298710837986 -19.5978853616693 0
-21.8439429563276 -0.703502888557674 4.41367089005708 0
92.95552217395 0.00573809942918604 -26.1878508559385 0
197.264404356849 3.88125999891744 15.8082200750394 0
156.140102166905 13.5447586473914 -18.5213577088079 0
191.154240737367 -22.0548241452579 -28.1408623580772 0
14.9750985879965 7.21998101586342 -13.851728184944 0
201.84250308323 -30.0029141752493 34.1362431137502 0
50.2713833333554 -4.2611483503903 -26.463826004383 0
-4.64779672835755 -19.0426204085749 -5.65963783875251 0
213.595622138842 2.55683048429533 3.3874315615675 0
182.043693244366 -9.15504068072827 14.0019491498473 0
168.222614413433 -21.8829279090987 -15.1061774101638 0
58.8815498551224 -12.9272128667825 -1.14539191924337 0
-38.4201372165911 -23.1772667927203 -9.09685418488371 0
-31.7804088440294 -20.5791983882422 -4.24846201416416 0
216.619134473788 -7.25743719771681 2.7682373438805 0
182.070046261065 26.1279920329435 14.3264147672004 0
81.9452817625137 4.71895940816017 1.3335667436193 0
202.129458056252 13.9000754642394 -23.3649325805037 0
208.759800553804 -32.0690848577872 -10.0473074410125 0
204.204985239437 -17.5207661706883 32.1811713995528 0
193.263636003244 43.1126338555882 20.5552798056354 0
190.386760433334 34.0343727953677 -8.93481727377535 0
196.218374056931 6.31923217475541 16.4825943580069 0
222.260017589849 -32.1923300053412 12.6118941381891 0
135.783986497738 15.8641884451264 -11.495181989407 0
197.823749450331 7.45823201689891 16.021828695962 0
197.170944229489 42.1389873615775 30.413067606569 0
164.537621511059 -18.756912089478 8.25510571188664 0
207.592213933504 -32.8339866873908 -7.3475316447688 0
207.159557160495 23.8238965197764 36.2718059787797 0
134.019582584772 -12.4607895325239 -24.5448366766046 0
228.749633017017 33.6243601556954 5.93249107543543 0
161.97660159309 5.25190286207012 -22.021756218542 0
218.186221810063 -38.6832251791599 19.4559891904577 0
178.627942144974 -26.309472670031 -11.5132329848785 0
-12.9288545566743 -21.9597348375082 -12.7929959982647 0
190.633389694434 -38.0952653620949 3.75816734115633 0
214.666141308348 35.2824382753717 34.7863588884749 0
194.373456402271 38.9646418452648 -5.71327996445835 0
163.319434119329 -22.9917442809757 -2.81235032701859 0
-3.14946781833838 -5.64536888021164 -25.9438108826582 0
-28.9976640941233 -19.1135945122304 -2.50901618352367 0
224.312271124993 39.4366439900127 10.4997140374996 0
-37.6316077127172 3.45014999976266 -11.5856658749013 0
7.55144940627201 6.53492055717306 -16.6651272207756 0
198.858038160374 -34.0642516451783 -8.27680499204466 0
11.7208046637657 6.19780582344001 -18.7997998947117 0
211.162933858518 29.6245191802011 -14.2532689466677 0
202.945824681013 -30.9992142643284 -20.6897224712651 0
203.971351075502 -22.6411248048789 -31.3001899287466 0
206.209304871228 -24.2058835492972 -30.3056086095516 0
189.738461090276 18.258760408492 -21.393456007335 0
220.063879114608 13.850203859995 11.8606724130527 0
-34.1208012859737 -1.27761925333194 5.2984772585349 0
215.693339727288 31.4192243342799 34.6638033238279 0
214.655243698834 43.0007560152385 13.2932661053957 0
188.155089190382 -20.8066732776106 29.8058135435116 0
223.766323754719 20.1345685449 -11.6247356403168 0
-7.00192971456309 -11.9763514594538 -24.8148064792158 0
35.5286115807423 -12.7736420005896 -1.00504680586667 0
217.211278788658 -18.9461021666248 23.1262019706104 0
221.99876348884 -22.6134424430555 -5.08284912409136 0
175.345929099793 2.60107066664396 -21.3370315300831 0
194.145863677721 5.22784389098771 -20.5755339250923 0
202.246368744967 -23.4319898408768 -30.7298481696289 0
199.965820760714 37.9621445626938 35.9678798252181 0
59.7918273895814 9.18277661616199 -19.1356148548645 0
219.242644209827 20.1051119091364 -18.1669972941433 0
103.973542795309 -6.4289595023301 4.5542333978414 0
187.455988234069 -37.583456089714 5.64160826868435 0
146.439339311339 16.8762859758485 -2.42269340821675 0
19.369543694398 -11.2628204640696 -25.1733610552222 0
51.2723689918561 -1.41423268893935 5.21240322263373 0
204.217519614707 -37.7398967390871 3.32426327524862 0
203.051650248186 42.3563239583654 25.8926001159281 0
19.3539196100406 3.75102960156374 -1.46449014034111 0
97.2114485578046 11.9830758371607 -15.7900391557026 0
12.6500649881578 5.98659572315808 -6.51761152001557 0
180.361747359605 -12.9363088138191 13.3528048453348 0
224.277024546922 36.8426731689369 0.789845348657313 0
218.592649997102 -15.1828769624355 -13.0450868988984 0
184.792111894243 40.572564266341 11.9214195580982 0
175.16380345646 -26.6006852267521 -3.8645928540105 0
91.9364087933389 -15.9499048304582 -3.69250900715841 0
201.229016010287 -11.0381718922475 23.2687511440426 0
16.4342640726856 -7.10271937407086 3.27856387185638 0
119.185603235424 -16.2325695831085 -20.6021649261845 0
157.308441919982 5.58602076449606 6.24154983499856 0
127.656084779633 3.3567062789574 -24.4116785498467 0
204.328964089205 32.9334153418314 -12.0992507692629 0
-41.5833032482521 -23.5102811744604 -9.63203343590191 0
-31.95483875417 -1.85840510765824 5.61969240829188 0
170.264045841005 -14.1615180554965 -25.6060101237268 0
225.743976146909 26.2073556593463 -8.30888962583367 0
183.6134793307 -18.6995350351522 -28.6676858312732 0
202.919053218997 -11.5264422316158 -28.1615061514049 0
214.243593282919 -6.88229232261727 6.49956924625375 0
210.9572556511 18.9636879527995 32.2639344472839 0
12.9805120176272 5.21164996370006 -4.56488524989572 0
212.189690957421 -27.4099043826217 -24.5749116465696 0
211.771646908971 -0.493211622992715 3.15129616778396 0
215.639105348989 36.9499248078331 34.1862054839374 0
190.201404867648 -21.4169182641291 31.0270584742266 0
229.397528075379 31.4514482652628 5.18109008864023 0
192.752106424877 16.4162774019562 24.31156676067 0
199.493394736484 -36.4156008137904 20.9770657324944 0
188.174429844699 42.6246061025222 4.22193253742249 0
211.498628624214 -18.8909476596293 -26.0559789105356 0
173.037628060132 -13.8532314824841 -26.1871515323851 0
205.81295881522 -5.34343843713831 10.0188360526522 0
181.671162525891 -20.5592533062769 18.092311917948 0
177.508644843326 -19.9557409239498 14.5252455802318 0
216.662013543453 -33.2301301233392 0.0628189407328331 0
182.224230342615 22.1255206898221 14.5689205109134 0
191.155755196038 -20.6192409316075 -29.3171683857545 0
17.6737565885755 2.63684141640347 -24.5285866547715 0
96.8212653228692 12.193741656802 -11.8805017796333 0
162.775223146108 22.1889523954216 0.0482183656366765 0
210.490169286966 25.2677745146776 -18.8934838003005 0
214.592533560953 34.4154023029768 -7.24934210784877 0
108.824533750058 7.91649593839939 0.743364072159174 0
215.337099616996 -16.2512357686527 23.1341963765737 0
-8.67462441771464 -21.3635116821232 -10.5274874639675 0
153.097806347815 17.3672255200147 1.1408627797059 0
127.087360904144 11.774235844809 -18.9017728242621 0
209.506228787848 43.2009942961085 11.5374485628029 0
154.530345030169 18.9341487994157 -1.06722539622976 0
204.95294413009 -3.39981915870848 9.37090981306721 0
206.534959826306 2.1889303496536 -20.6004762690757 0
192.546870858248 -18.8666151637938 -31.5517673395954 0
180.36992072634 -13.4008465753644 -27.7347527340765 0
112.391346424342 -3.81831651875457 -26.559401922398 0
216.476052030843 -22.5818201834331 26.4967937496776 0
205.605277957874 41.7918925155036 -0.679822903321653 0
196.107458916442 8.68992492977997 17.0293661783203 0
133.851391076021 0.153468232183939 6.01694732342122 0
211.378901809 -13.5149317416072 25.7423588558198 0
208.594854764961 15.9247651019936 21.7564608793347 0
215.545804132552 -6.83525811401798 -11.1699983997433 0
191.407538232385 -24.1746383504942 -28.1269392771365 0
200.365646491096 9.48652497549994 15.4501706877488 0
225.798667257055 37.8000369543422 9.78603513041768 0
213.500297890194 18.2907462160019 30.2493338307497 0
47.290952369996 6.22842194113721 -3.81416706354156 0
179.410346508547 -31.9277210022047 7.89753088987627 0
201.211063965778 15.8627639218742 27.4074136384105 0
163.860420913 -22.5550549047797 1.2313147225349 0
207.838717697443 4.48480231956527 -20.7636221932217 0
204.801024839137 42.6187901879259 23.2331722551478 0
214.027962076218 42.8161005122226 9.51222327529872 0
193.460906199927 19.4475552525762 -22.3090368388423 0
137.877243495519 8.94654953359362 -21.4197795049017 0
219.417674297948 30.6169034896458 -10.4018826571419 0
180.904655004419 -18.9688125287794 16.6463320399268 0
222.243181297084 -21.6034229671308 5.03771490155038 0
164.949793401686 -3.15053969467222 8.46559207824083 0
210.27246644416 -11.0430469095332 19.7015846707169 0
184.293393942658 40.0819326592655 5.04650662603124 0
-36.2331242588962 -7.75711760975425 -24.6991923077299 0
161.271570012725 1.85811555833143 -22.9621497018909 0
184.991425855774 -4.35127616885823 14.759373975132 0
209.823897996353 40.2494409235697 34.4951124529715 0
195.698562517545 16.0921097820683 21.7611635424209 0
186.478180810962 -8.44718664012879 -26.9711533459121 0
-28.1619089218723 3.65090614908802 -18.6562631099506 0
195.50001730412 -25.5735549802996 -28.1778208537579 0
179.081071192773 29.2880495004832 -7.02815482214572 0
212.870657043584 -13.7850559621039 -21.9056180625628 0
194.357703228161 -24.4901709909984 33.3114597430359 0
202.907736572635 42.8607916563792 8.60044476732864 0
169.952629895676 -24.8095839370021 4.7949891373135 0
178.178759138614 25.310792603993 10.5305067970797 0
226.809521763001 31.2106352510254 20.1887190376084 0
79.3419473093665 0.275809954961594 4.66770949746768 0
205.009396510602 22.006663581068 -21.7678563204334 0
4.42444338463794 1.38382784328411 2.32703235727754 0
220.413414706409 41.1460498060332 27.0915600620978 0
173.055196771389 11.9371251557939 8.71806220301711 0
172.837334756793 6.33863486848858 -20.9854078919781 0
215.978172528787 6.25406893087383 4.73894227446641 0
186.743001446934 10.5339348312812 16.9220415054095 0
-13.2176179569163 -0.923216015323593 4.58763877055465 0
83.6121999686433 -14.367999705601 -22.9482681480389 0
188.91987774509 35.4550967072146 23.1243596998864 0
184.324911862525 11.3909408554158 -20.5516662609574 0
187.054958752141 -36.1051156693491 4.02206482162457 0
207.532794076745 8.15553809474584 9.69999508764901 0
188.79191784244 38.0374149288586 -5.42192759979393 0
-35.007216919542 3.48621805795101 -9.54004933224848 0
188.465373832475 34.0140115046264 28.0997936663822 0
177.164755063172 -29.336249421254 7.46112738103005 0
-14.8540389188654 -15.5153275136602 -23.7568875982113 0
124.898363881076 13.2424451953812 -16.6849216686028 0
195.413777269703 -34.1378327582281 25.0582597543505 0
136.885631470105 11.6891569715597 1.01412002204612 0
68.8783993784272 -14.2032986728325 -2.14196902041841 0
184.37934290086 17.1771541015514 16.2821772607357 0
196.978591959778 40.4535075714815 33.7153625862211 0
77.2120101052645 -7.12418690952603 3.13104753513678 0
173.379033336086 8.74143000572722 9.29546711010629 0
163.75203195615 -10.3918938137187 9.24810287568817 0
192.42571124006 -35.460450016446 -2.45442186930477 0
183.175428257976 28.5387454948317 -10.6505050246013 0
217.853469391792 -39.3012910891645 17.3579046125009 0
202.771351958585 8.48915118139874 13.6364395807281 0
190.761323697206 -21.0876703771502 -28.591280712112 0
118.730714078856 -8.17933499154901 -26.1459839211539 0
112.435668442645 -15.8786338809716 -1.80506276631074 0
172.964289196687 -1.6067965100334 9.76974797488473 0
124.715656849502 13.9126008914868 -4.29969500060986 0
227.836943427465 19.1741094112913 0.488046149046887 0
60.1455918868419 -3.59474296024172 5.15256298217651 0
133.628707830473 15.3877220348372 -12.6209954556998 0
200.765967401909 -1.82118399917344 13.6997403443748 0
18.4774789352849 7.38261083650429 -15.4815557903557 0
198.394470219918 -17.8528682423449 -32.0144755853109 0
198.784327398843 -10.692053237737 23.4046883318082 0
158.445816050291 -13.2056586037328 -24.8683646024837 0
175.817882875829 8.84182229475369 10.0839093716694 0
209.236566704833 -14.4214160215094 -25.9828202583223 0
31.2499778762394 -17.5088148837933 -6.15309578677415 0
216.006485102939 -37.8662389970548 9.72140778357996 0
121.159130899844 5.91781076501759 3.02807513781384 0
195.565389046101 -38.0947681599358 17.5803426712626 0
188.536477404519 -12.2093053819307 -29.6612236688345 0
187.650284506692 -32.4491918380803 -5.82299108050653 0
-31.7331375459716 -22.9835807825442 -10.5256660705013 0
192.390593005105 -37.5873780561327 2.04830430464884 0
182.139228916318 6.73416486885054 13.1529831103694 0
197.962465576858 -37.9046668969011 1.58147393626887 0
197.26913506139 0.434334333814327 15.8293394361732 0
217.272825888657 -14.7133801990776 16.7897488708904 0
165.178915379383 -3.00796277565036 -23.8640834216135 0
193.178214245198 39.993433993854 -4.38510599018816 0
0.393350518842714 -4.38218141864424 -26.079223428583 0
114.48149053674 2.4959600837154 4.23844752765589 0
207.274314897457 20.3578130922968 34.3741740771824 0
219.268502901302 -34.3843737061363 23.5275709637605 0
205.341678038286 43.501435088505 1.31135401674507 0
185.786377634674 23.3574091703874 -16.8420153836037 0
221.033300477208 25.2852421079468 29.3413637924284 0
204.426003745299 -36.5802852608496 0.616548678504294 0
143.699721229861 -12.514286065331 -24.637419989697 0
174.214730102216 7.56244360561503 9.57848962749778 0
150.707635520773 -11.8831764301049 7.20068995258566 0
147.590533352155 -18.0330110022002 -19.358141298749 0
80.061526570825 -2.40419184148448 -26.5951110361195 0
214.495914974963 42.9183158023971 27.5113383183424 0
185.935875729842 39.7165428233154 1.09309355230229 0
-23.5507284758735 -22.338191483753 -9.91245113951036 0
190.422439549253 42.194426792565 18.8007342951077 0
181.879395301619 12.8614041613091 -20.6346706260804 0
-42.051132111063 2.22401251628118 -18.6665319323979 0
200.305697142703 36.2713810573721 -9.08358769559529 0
216.142505256649 -31.1220409641433 -5.26784991964331 0
145.748091459241 14.8897752442961 -15.9536101611489 0
210.728070701608 -31.6291183669092 -14.5445619150932 0
-19.1014032146499 4.76664705818038 -12.6955452873722 0
183.44931598852 22.737324607576 16.302015680208 0
226.753815296628 37.5634705491678 11.1826242524866 0
202.293756779837 29.4231215542741 -15.3138401659607 0
199.822122656998 -39.2225516731699 11.6898347579146 0
48.979229750891 -18.9236757723443 -12.6585346967087 0
3.92319563766518 6.48994667266555 -13.956081830046 0
9.51406879720516 -20.3097911696728 -10.3836268654615 0
209.931642207155 33.064848447556 36.9795384215738 0
137.761181578602 3.85249763127084 4.96729286489826 0
195.644113585267 44.5888959594584 7.01181604829379 0
211.111595202648 38.0665018589657 -4.48700604921551 0
227.526313193215 35.1331135152026 6.25576798422295 0
176.888243188338 15.766164348584 -19.2102765152494 0
219.220238982983 -14.625952503397 -10.6816354095087 0
150.185985104724 10.0410440222082 4.25606559861772 0
85.1770401056641 2.70145927256802 -25.5373286125753 0
187.590707972349 20.5278947883979 -19.7474742875956 0
10.1263929843481 3.86185658673083 -2.10035921405677 0
214.659309157472 -9.79560626034662 -15.9649171779097 0
-4.58469454005599 -0.300777350229323 4.14909020001525 0
17.6355370567546 7.14911621216332 -10.1762222928109 0
171.203347662298 11.2017848477559 8.49929836360635 0
220.725541258213 42.2249938758949 24.3101530119318 0
38.1011090757663 -19.1470531773967 -12.0906525861311 0
182.230904136315 -23.6425630760742 20.0714545894908 0
196.390352840935 -25.7807739948356 -27.8199067783786 0
101.898550859664 -10.0162481587901 -25.6718702102721 0
214.011092168348 40.9054744919971 32.2784807867174 0
-28.833125376994 -14.317321738678 1.88909080316123 0
161.186608853914 -22.5549763146998 -6.62048434371823 0
223.627792997231 20.8656995535611 23.1173702178776 0
-28.5690444044027 -20.7853428508385 -5.07129167734849 0
13.0441778624571 -19.9601248893721 -9.91180912020666 0
221.114994873476 -28.6088986170045 19.4985682352793 0
111.229107497863 -17.8825120076832 -16.4805455661295 0
168.111763793831 -24.3142883399719 -1.38456532901779 0
206.417651342465 31.4989622751413 -12.4329217252494 0
196.170852810743 43.0976181986865 0.597823853648207 0
195.856048154735 2.28651222771181 16.2547567873341 0
24.2942294724465 -8.39141313447832 -25.7725599469222 0
153.942361850789 -9.07036660331882 -25.7256855647418 0
228.630767168002 34.6802008846123 7.39747596057513 0
-5.46327274416366 -17.3912692061994 -22.7992379520208 0
169.729067092436 -21.9477138230262 9.45778756956003 0
202.93971395512 -1.79409728587799 11.2348422984128 0
177.869697438357 -13.0608514704779 -27.1195002932278 0
135.404099650209 13.6796752705785 -1.07512182629507 0
180.078113323876 21.2038148014792 12.4748379763344 0
186.94010415076 -27.6045813671017 -20.1561957458507 0
157.240517889431 1.19536642850536 7.11807308902491 0
-35.0066526638473 -23.1844814830078 -15.0046786477 0
226.364581445327 15.9356079833203 -2.99978754389965 0
186.636357811572 34.7400430336947 -6.75190625551158 0
-20.5684159287744 -7.46285082983566 -25.3824251080038 0
198.243069530439 -23.8391651752603 -29.670468641386 0
113.663632716185 13.7545874885208 -12.7291679160349 0
-34.1359644353605 -21.7312892516799 -5.99559525026178 0
184.685234678717 -8.49072221649052 -26.6320564318681 0
209.83772985735 41.0167115077827 -0.580390016125204 0
206.666457538317 -35.6654380442007 14.7754109794566 0
75.2544669740936 10.513988359886 -11.9151650081107 0
206.628806780573 33.9810645493889 -10.5716363556192 0
218.123850826936 -9.54412255274669 -6.2161233405537 0
208.886193619253 15.3092617113917 26.9583128344442 0
219.414180610051 22.9399497462062 30.1492250952993 0
179.461824788762 -8.67107394075774 -25.7381286411207 0
201.894378169658 -27.6722197180501 -27.3382961390411 0
58.3191582121634 9.51490521291213 -14.8537836375691 0
170.224006323889 -5.11455171683883 -24.1452787593788 0
14.5389282420248 1.58537003999565 -25.0519417270139 0
195.857971001882 27.5935612227893 34.924319087349 0
216.940390867769 -36.6377326113454 25.7736263128823 0
203.951845001298 -27.5986746284497 -27.6055734079254 0
57.2808051390986 -18.3476425464731 -16.0429103526319 0
205.05239021936 28.0595986810731 37.3957700111165 0
118.198816242258 10.7030949991571 -0.779189561684606 0
180.079682794637 30.9936493224217 -5.44507710575738 0
7.90865706756198 3.7783178866804 -2.07819322340834 0
214.604791354565 -10.5603577916027 16.616175604723 0
71.4308184276385 -2.40453364080313 5.11978982956989 0
198.648997791351 -2.19399678503404 15.6027199574838 0
197.652752839056 22.2533641938396 -21.5625709174626 0
213.440448433001 38.5615765254813 -1.70338947921943 0
57.6553009394692 -15.8920513798558 -4.38510706096693 0
228.858365645986 30.8830706162831 13.2939640727736 0
20.188004335286 -14.9604538763632 -23.5697052423232 0
192.344494610139 -33.6532201422385 -7.17505662866747 0
202.514197162418 -15.4593316393149 31.1009661931888 0
216.583555359559 26.7232316839042 33.7071095777892 0
215.769373647354 22.1813826819229 32.7657841636479 0
210.073038497039 1.35386496413491 -17.6617005053585 0
11.6293963241751 0.515167954376761 -25.4422599335143 0
205.355375375928 -6.61948460583348 12.0790984797434 0
141.348383776285 7.79741550411495 3.79793193321667 0
-7.17974331435156 5.7434651679263 -16.1345322814448 0
185.176973051942 4.61267332859936 -20.2323878063058 0
91.4118062849231 -16.6393828087394 -19.8002696511547 0
132.500091733274 8.64882723775754 -21.6222962571061 0
64.1004683705346 2.75005800036777 2.58709816723184 0
170.801636448631 -2.01593208694919 9.27343619145691 0
208.456310184532 -36.120239478101 6.31621491204696 0
181.180208008739 1.81974293740321 -20.6771524773756 0
212.188015359481 40.1425742981727 34.0581514919182 0
215.474368785633 34.4778054180149 -6.31890879604998 0
61.0913323139524 -8.86308254876141 1.72359406512874 0
197.681937706188 44.7032598843703 9.97609963394674 0
8.61973442820122 -6.70978223430582 4.07602477047557 0
-34.1658672905139 -21.1730540183998 -19.7345181122294 0
137.298078518657 -9.13908823027051 6.58673478541719 0
227.351682259266 37.1704737785454 17.4359613713144 0
173.751894814702 4.20488433370427 9.63567644982273 0
193.811140437363 13.8084508638509 20.0522936860563 0
218.109753768687 -36.7423882302342 24.0364480494756 0
206.807006441366 0.618906252707593 6.29638005921535 0
35.9082416664381 1.75829672421415 2.8151334264227 0
135.955717765324 -19.5277740953348 -10.3068462933128 0
211.351503167467 43.2604745731583 29.1946490846703 0
73.0995377358597 -8.82931312213169 -26.0242928506627 0
198.148070201738 42.0677250657745 27.0142371577219 0
190.086918782179 -9.86931654945475 24.2626767614334 0
114.390129234944 -17.8219672892884 -5.95641917677356 0
33.5345559474655 -0.829845083824559 -26.0988548819351 0
173.265203454601 -11.360960140092 -26.1681373896572 0
206.160893279558 -10.2305827699565 18.5619775549046 0
179.243181822316 13.8802031209803 -20.2239746590805 0
166.255788826586 -1.51283432727034 8.43275111256563 0
122.331942969737 -16.0479442955242 -20.9851150591107 0
203.510248533706 26.3222184636902 36.9382254869528 0
205.649715172691 -25.7228974607948 -29.2546266160431 0
42.7290647738424 -14.3201239691664 -23.6212169285795 0
144.978251474739 -14.0844121909572 4.374012306577 0
213.237478593688 33.9957917179763 35.673951221021 0
209.355459571804 -36.5751725091951 9.97970618192487 0
188.983226348093 36.8339602784619 -6.68643383679592 0
21.1972736930781 -5.36204117227812 4.71026593363104 0
93.4839880835265 -11.785227600267 -24.8499105184265 0
211.098747007906 43.1114196641741 22.8052004326016 0
165.489035095879 -23.5269697446323 -4.02167075672152 0
184.165781865634 28.7654274683687 18.9936948103339 0
195.234415476931 -21.7204020839787 -30.7428134164518 0
187.590169669366 -22.2306932235453 -27.7447192346474 0
6.5538980324417 6.6803769911301 -13.16274244859 0
184.402214324518 26.9619497573991 20.0863154169615 0
195.864101144734 35.5577945846126 -9.1921231948757 0
183.199014664414 -35.2751880906927 15.2289677225969 0
91.6738087119221 -17.9219037608121 -15.8004152956053 0
121.968244286593 13.2637902114998 -16.3355149461959 0
84.2960860880491 11.1554620273393 -11.0441783112803 0
176.599945139961 22.133768761478 11.088354656902 0
187.340370856142 5.81155327235071 16.5627094617852 0
115.957528042077 -3.44634465603095 5.95244697566274 0
195.209589965241 39.3185383497459 33.4759010016508 0
211.248330684228 -8.17124117129422 10.3479000839812 0
61.6522680417946 -7.48479809549442 -26.3055857999678 0
25.5526520280495 2.22624300968545 1.30578038253349 0
204.537775235687 -5.32776683942094 11.2176502501428 0
-44.1956901882524 -22.8746669917964 -6.67208936684766 1
151.961824414495 -5.39609385473946 -25.6144060080457 0
192.085568000249 -17.4365890674529 -31.8628695726698 0
53.5786044341342 2.84069179648144 2.4341091068039 0
56.5353695444818 4.17866627330182 0.517652529687444 0
13.2544457599039 -20.7003985426053 -13.6937559009749 0
48.1313079198708 -5.62452221897767 3.30564246044404 0
13.8317329664019 -10.6816732507181 0.835359672747021 0
186.003794531872 41.6831789775683 4.98800296905941 0
96.0878260503973 10.2345720303414 -20.0530220870585 0
90.3839099512438 -18.1693217968498 -13.7648643966163 0
194.831745659479 0.851132846706333 16.5717287622953 0
154.231995374743 18.7100071340907 -10.8278245035261 0
148.324622314523 -19.77700765545 -14.6786281054761 0
-13.1726289015735 0.918433258591495 2.68394479318996 0
5.36421787035382 -6.53785285441913 4.38032987381271 0
46.8035465578705 -12.0091538171993 -0.529045150420982 0
205.238593595207 -10.5956114780747 -26.3512613446763 0
168.068379804054 -13.7485458536703 10.5005610328457 0
122.381722310248 -17.3731655436629 -18.5773922900033 0
186.025740699322 -30.8560691388148 -9.10529951597525 0
192.307447973023 -24.5639263847839 -28.1871215965873 0
186.319232595907 42.6451736320804 7.29424740875528 0
199.274284949268 41.1999050917019 -3.1320942691205 0
19.6758088042819 -20.2608612254918 -14.9260471991787 0
77.2906374572102 -16.0501094643991 -4.50213787032128 0
218.756019318632 -30.3756631082217 -4.207683026407 0
168.835905330906 -1.61979449678952 8.77263425039023 0
142.644542265396 -8.16078541113675 7.28212853075573 0
16.2964143763543 4.91496849373812 -3.60251635679611 0
182.711004691653 -22.0280725634533 -25.358451862741 0
212.998373064539 -37.5107249139966 27.9289524926469 0
209.139459585376 -9.34113431867601 15.0124220152616 0
174.447215150915 -20.3598857200526 -21.7164713137202 0
184.53538570322 10.9263498522178 14.9256947048918 0
186.851208181473 -28.5841200860365 -17.0601291791175 0
180.368935442449 25.5251803038272 12.5713837944654 0
-13.5694546707545 2.13964488134706 -22.5045024978014 0
118.856375894363 -1.59197118188537 -26.1597582742014 0
229.154615744056 25.8355141497311 9.77159418975798 0
183.630938595573 41.5396010068808 8.87661107366802 0
190.331429772281 -1.11258282592517 17.0939686380717 0
186.302830038184 30.0333053187539 22.9924554961556 0
210.178223885216 15.7072139132506 20.9102698819455 0
226.257524575736 37.3425946226991 8.16653961580899 0
149.137302716385 12.3136571059746 3.28265357979456 0
167.563046810434 -23.1007139913107 -9.98340852628854 0
160.414056356945 -22.3004441006791 -3.06582829194924 0
203.772114273501 -10.2996061379504 19.2718936357693 0
0.250995889791866 -21.4040255082007 -13.6010676116874 0
65.2370398167248 -8.97133694797312 -25.9523674764422 0
16.0000160906544 -20.5291549166733 -15.2884563212397 0
17.8703806020616 0.174617876101142 3.88863633143107 0
185.483263155293 -36.3402743400165 5.58754066462721 0
196.252509146905 41.2683186641577 32.4118974955264 0
205.177366477073 41.7559200731584 29.9946640593997 0
86.927639638777 11.0260322394245 -8.9203616608828 0
140.562541465879 14.1943342009281 -16.3796285518904 0
197.860696613581 42.1967912882561 28.8822283292771 0
206.855551700787 -4.98411305945877 8.74356039471643 0
89.6914112988165 -13.0629815869185 0.0121078667279413 0
187.442189845943 37.3628193489877 18.0992513705837 0
203.026363992191 -11.8351719841495 25.7258991256957 0
43.0750207837814 -10.9921650091285 0.14022698585726 0
184.600204114657 2.36152264590694 -20.4114324387128 0
166.856776053807 -10.0828430560006 9.67287745808322 0
138.529213953203 -14.6575839557664 -23.1068650789711 0
178.182113865145 -2.10308419445427 11.068385944724 0
29.4677746697661 -1.72813948656921 5.0423830613107 0
214.707383221329 -30.2337721821511 -16.4314729120867 0
215.758535471282 -38.8518654260377 15.3465022643958 0
-46.0514996144338 2.36335626183363 -4.50235073686257 1
150.789311137968 -14.3598236991252 5.91188466215429 0
15.6412082420225 7.11715825836323 -10.7882375838589 0
8.53420014878154 -4.06582901974603 5.63662937113595 0
184.094693904622 -11.6685317209473 16.1444176808503 0
95.3206652279437 -17.6170952291761 -17.0731349573882 0
226.726730892764 38.7332483026581 16.1582728761815 0
50.6032037886596 -14.8528803887725 -23.0763181248279 0
-25.9001582686937 -17.912942477325 -22.581331975329 0
-16.753485855948 -13.7716601300441 0.966314674781296 0
11.3159966207799 2.59669655285704 0.0873609667804063 0
202.138827731333 -24.4919940202312 -30.2540686487791 0
217.468221228157 -16.1468294738783 18.7810743797305 0
-37.6271851518821 2.87766162104416 -18.0216462093252 0
211.994716846318 -15.884175610947 27.1042664715302 0
196.941847588485 24.6577409446618 34.5990879840087 0
201.16719925 41.2623534501988 -3.07418137927024 0
158.863363008148 -7.67654533093839 -25.6131592709475 0
193.723610168124 41.8405880817454 23.4048182355935 0
192.055160967631 -27.4592469129376 -24.5952630229622 0
209.503280489855 -31.54801714911 33.1389180196047 0
10.3903005924738 5.8274688356092 -6.39545960339766 0
165.793323627742 -20.7901180781799 -16.8028650091088 0
40.1894852984686 -15.5305323669041 -22.7454586213743 0
120.096460682646 6.78005142521548 -22.9666598210802 0
-40.3361201937221 -3.67749564325341 7.17110200951253 0
171.313575320878 -1.14628975332303 -22.4682036968898 0
17.6031379280077 -10.3114048136117 0.94246630259579 0
222.793896207233 -23.9178430476884 3.42539648572596 0
216.593445115255 -31.7638827192997 27.7125594720822 0
98.5620490617629 3.71294475250099 3.07364394336087 0
221.741418104103 -25.0911117366045 -3.9038104938961 0
-27.6493357653431 -21.9455903679807 -17.9996479104296 0
188.599598391531 -35.7379167738619 2.29416225493768 0
193.669175640205 35.8448341099629 -8.49548934670944 0
196.67734392704 -25.2522656409288 -28.4241590483739 0
114.798917445687 -13.8672830894466 0.892051164808111 0
195.427937445822 3.63348815749371 -20.3871737327383 0
133.417861247908 -7.12057358201225 6.89021726004514 0
-30.9175074868594 -13.2410845383785 -24.0360421256491 0
-21.5765705585677 2.68763797412536 -21.1663164264844 0
226.544705568425 35.438666896218 3.0679418077354 0
52.3965980319451 4.47043914707407 -24.6496002342608 0
38.2949078522798 7.03154878194769 -6.02879879670686 0
148.79337795271 -2.61196833714743 -25.2365737586299 0
198.190962822913 16.0981524997454 21.9335059114995 0
198.200256578757 -8.19186044886754 18.9538315818998 0
183.094484158359 -25.4931686130441 21.8560072893289 0
209.528434227839 -38.652477763903 27.1969695421013 0
175.243467360077 -12.8289788592824 12.3147431669789 0
225.948613051902 38.8032918240813 11.2390584848544 0
214.660565185539 -24.6259700999558 -23.1664432538473 0
32.2273011904521 -15.2006346579174 -23.1563854085294 0
-1.3066502196316 3.41923970385157 -22.1546445733294 0
-47.2657303125897 -8.17557135174396 8.06916579367982 1
176.21179606087 3.65422377588297 9.87558650228739 0
181.054278172467 -11.986629401103 12.594652728425 0
184.078172766848 -28.835980236659 23.3101107668023 0
197.214136904856 22.3530981131036 33.7311651232228 0
215.128868897193 -38.7965714281315 14.0158156800633 0
182.696752451058 -3.9692667280695 13.5347374726005 0
59.3001944088958 -1.30688801109689 5.2728896505556 0
-43.301216157976 3.15927783820847 -12.5085172030991 0
191.410076166248 -30.6872388091591 31.4969651401919 0
-45.8623452553875 -21.1911039143541 -2.54330794038234 1
220.812200844055 -15.3092581419282 -3.22498690536842 0
200.630355556905 34.6068036734043 -10.865523293317 0
221.842882956078 13.0756181918328 -11.36618778993 0
81.6889821903955 7.57037730816462 -22.8941911977273 0
16.9840380439022 -13.4505774949983 -24.4140554197669 0
217.508357791496 -38.1275317528862 9.15095216501551 0
190.583440643691 -37.4610021150967 16.0300975818123 0
175.707447365554 9.04555557057032 -20.598452980274 0
197.293483153336 -35.5983493123326 23.4894139233589 0
134.661694120169 15.1326217978955 -3.79484366138592 0
177.386829868121 29.536406407248 -4.4476989402924 0
181.300386764652 38.1978189662216 8.37972263780927 0
87.963772380993 11.5453617836113 -11.9179223858198 0
204.755183591818 -35.2722634928391 -1.46411468884185 0
45.8002607546928 7.87368377052932 -20.8006716923461 0
220.570483466068 16.4051660193732 -14.8677110577001 0
217.186703811248 -26.7822209665077 -18.7260446202516 0
175.749608676175 27.6388086720796 -6.49478660712346 0
137.31446583901 -2.21621067175913 6.66424791948418 0
203.896271317614 -2.06973061142258 9.73544100704669 0
194.69541096071 16.5596228210758 24.4629016258695 0
228.000715654224 22.1682032864281 12.9730194584559 0
220.295136751881 -37.1209539346119 8.67645574883518 0
12.5722856282295 -18.3709128992765 -21.0918145769942 0
130.734599525088 15.3550166831048 -11.5573924632194 0
196.803596739865 -24.6874202201004 33.8438716025672 0
204.650715585892 2.58222836840413 9.43220054465366 0
58.3671064934181 -17.3205428092109 -19.4787909374378 0
218.44348942027 -37.7992946677519 21.5438911205822 0
182.168818784563 -29.8749830941162 18.1549704645847 0
173.664617212815 22.574739970792 9.31264578703126 0
196.213759245936 -36.8460111158056 -0.886478716249544 0
207.437693763526 10.3077677875198 11.1329876357324 0
202.481432992441 -36.5235258754362 17.3148105462406 0
191.944940845952 34.8514322078085 -8.74816732036894 0
181.608090904731 14.8246435965845 -20.1807891897962 0
84.8499293385351 -16.1787511140548 -20.7180114659355 0
182.203159882701 -26.2148333899853 19.4328003466154 0
220.649416327063 -37.5983100899695 13.9169336055576 0
180.503376014013 -32.2060971949657 14.1079950299225 0
174.510300053525 -19.4333781310624 13.0184044078458 0
