136.37766358273 -12.3018307518275 -8.56344889998213 0
42.2920202303736 -4.53979436570884 -6.74971705793631 0
187.918311579353 24.3416255048923 0.1746548698716 0
153.80836394645 8.63113413456368 -17.0378679310904 0
88.7407874746325 -0.217798075758568 17.6067348546755 0
153.949129545273 23.1383957889317 -18.4382007784549 0
148.918230619577 23.0437827806734 6.74027813710264 0
127.817478555015 17.1014782663157 -0.0690491380856391 0
-97.0171531152978 -12.9766557559938 9.38753457397259 0
120.436668415392 2.61983987155359 18.0419639962128 0
64.5091991370398 3.93083973961356 16.7700246594502 0
170.852226204482 21.7502624635672 -31.9531758721559 0
-7.58452038683078 8.42254093806459 13.2908555948665 0
140.932884910793 18.0110840217878 9.54775006576072 0
146.386551315396 7.33700096489473 -12.2698601432849 0
148.846740226777 6.44809469991394 18.5750313288601 0
41.7688932919115 -10.9283254506498 9.89910803258196 0
167.176707714134 19.8321536522502 18.4105164003666 0
18.079662833001 -10.3592029411891 10.1838854582432 0
-96.384986885505 -4.97004245387112 -9.44263855496425 0
4.01477334610083 -10.8877909546786 4.53895721590517 0
180.780860239099 15.1629442213433 14.0339179753623 0
62.7993244802944 -10.9612832130621 -3.93946702999964 0
31.6741800797962 -11.5805514013662 1.37653092641384 0
-37.9538497978636 7.14350325848112 6.3049000077171 0
180.397703175391 29.504062173207 -4.28121815792804 0
180.649780180649 25.4631911359175 6.67234501910881 0
-122.240720697299 -1.88807790253406 -10.867706167575 1
-4.35672310637445 3.64946137521224 16.8293104994092 0
129.893186091137 12.8468557441202 -7.43457037720119 0
128.989655040294 16.7913589306742 5.94403016707268 0
176.488010822866 6.0513890512253 -7.10393356107913 0
180.694326133952 -28.7279381948739 -15.6400710326251 0
125.395688116521 -14.5725520615718 -7.04090146073958 0
159.517965211153 6.92572928020673 -24.3812172290272 0
159.98312738411 23.4946161352343 13.8854661322262 0
-29.3020922271178 7.52981126092383 13.1902488976646 0
152.66728078323 22.2615710232206 -17.1884822351684 0
139.708891142466 16.3691617580373 11.3518115831653 0
-52.9639241096982 -10.1393222398665 -1.38852287570739 0
-74.8641970773691 -4.86364193913037 -8.31065623660248 0
145.1660016709 16.2087055270487 -12.5680268423606 0
126.20999639268 9.67116254435405 15.0180071034327 0
179.483044030184 5.97144730203184 -5.74381422169246 0
71.8798787168199 10.1017821969383 13.3740643519605 0
78.8991846250917 -8.92014874629766 -6.65392933893949 0
21.5956425531459 10.2757175544332 9.40967899211066 0
149.848686860113 26.9952486484117 -13.5825554866483 0
55.2249210996746 -11.2009925525421 10.3966234354668 0
152.739132971862 23.6130488281427 -17.437048856443 0
-58.9255952552481 6.30397758607259 9.77509485250295 0
-17.7866110302454 -4.06358521322709 16.8955385846238 0
85.9275031613383 9.48990973491034 14.1475889549262 0
155.830190116955 -11.822420536439 32.1557417206085 0
181.071596641084 16.7162309123807 13.7472470661746 0
82.4463008150026 -0.625614874613105 -6.97755680082091 0
130.110706507506 9.5062213262974 -8.22191013419205 0
178.874831200017 26.3022363332281 -27.5097376270922 0
56.9509950442129 -13.2907381533316 1.86625423458684 0
-0.449290251587113 -7.54454616208031 14.5259202295923 0
158.85536918076 -34.5218579305871 -7.60435174017471 0
61.3153534430435 11.1445558144729 3.68373865673316 0
178.671651439777 -0.787326713539301 4.11727062450715 0
54.0400312474414 -8.60141310659886 13.4859380116251 0
158.714814697377 21.3972065891694 -23.6210779937619 0
187.528879020139 19.1090869073596 1.83000567267285 0
159.224107632249 15.9312053930271 19.5627422752684 0
-114.903615412569 -12.6839325013536 -9.82726779154532 0
155.759622536545 26.2428601636968 -20.0342356681547 0
141.418844716106 7.88591734820195 17.3584393809941 0
27.9437157721842 6.18256552481864 -1.2804891742529 0
149.848424482011 -17.602938913558 -12.6010751631221 0
104.541962783962 1.70639792557256 -6.97609866565828 0
154.835331729421 9.80511645734345 -18.2737308460649 0
-44.7215881201785 1.49826116002967 -6.34176679371427 0
-15.7319261041651 -10.2506266154898 2.03199661287175 0
-120.500443795586 -16.6618711637154 -5.36254402869582 1
178.49805957901 10.0667716645225 13.8750684248913 0
138.093194189636 1.22176125877824 -8.99279911254895 0
155.907676941886 29.187656636003 -19.0562223054724 0
-121.852909812578 -12.5545405575933 -11.5136308341497 1
-77.2451798952526 -11.9337693933077 -1.6231543727809 0
50.133543739879 4.8564318918198 16.4917637410431 0
82.8554516056863 -13.7240763906549 -2.9099682511515 0
179.249336145673 27.9696992833064 -22.3873399546379 0
138.631976358607 -19.8580335698056 -6.55977588090627 0
185.036343991149 19.6817578835442 6.7559040443169 0
-47.3924628544981 -11.0325887518542 1.73367138600681 0
45.3473382481538 5.77823580513821 16.1775228485962 0
145.558782628752 -1.28086251856323 -9.61133357748629 0
161.147389048673 -30.2020477543658 10.3537771363606 0
-76.5549754424021 5.07788266904121 10.3966831563022 0
-1.18054148933676 2.67605348031213 -5.6192965670204 0
175.855709181996 30.0497362167258 -18.0750590576506 0
166.38424891002 -30.28624067985 11.0327556286291 0
159.362043448152 -10.7218874741278 -17.4124069277603 0
-122.651904055702 3.11995050111961 -7.11189760829705 1
11.4007248490366 -7.28055167355319 -3.89874782635045 0
155.065394399138 31.0227719856081 -10.3547394818708 0
-98.6507996452181 4.31575464875013 8.18541483019972 0
62.9295881207282 3.86734963576914 -5.57739725095419 0
167.442335617767 -34.6745242108542 -8.36718905149637 0
134.720926756965 -0.0717973062098917 -8.34760198292065 0
-22.1128771848699 -4.99090254425017 16.5900725740163 0
85.4128440588616 -1.70982701069275 17.4673681833143 0
145.309221313269 -21.7778290712131 -9.21397424513394 0
32.7378135682501 -4.28637694863834 -6.53894393103095 0
150.199513503713 -0.778732139551062 18.9780479386053 0
148.969969627123 -0.109681414547821 20.293450233103 0
119.864654959011 -10.8165647395128 16.7226709933416 0
-0.800031682423785 6.78365327104925 1.59234837651716 0
178.107498575225 -16.338417906594 21.1859776388461 0
98.307134307381 12.3956046801378 0.0741655382313789 0
180.658871101065 4.73771230224477 -3.1435349263782 0
-4.17734019908322 6.73738511631089 1.65171939343919 0
137.328247751723 18.3764189912446 6.59860413772961 0
96.9745294775152 8.23616203944057 -4.49242261525649 0
-9.40962494390732 -7.78056600481069 -3.11414099868707 0
173.997090378053 7.93455965896781 -14.7592379442578 0
-50.1366947591283 -10.6312867164593 0.254480765195222 0
157.198810511086 6.5530000671977 -21.1289210601639 0
164.896925225657 31.4142260653856 -21.923868503269 0
188.707006582566 24.2694958639399 -16.9112374576583 0
177.909685402043 -12.7644630984859 19.5453564000893 0
-50.7334191519541 -0.144952952279548 -7.27582748922704 0
181.045610387272 29.1871010113122 -12.3592246813895 0
142.40777010132 4.22788592616555 16.8212012770827 0
154.580376480818 14.6297702978252 -17.0434859778083 0
68.9797031939979 -2.43870749240331 17.0398099840307 0
157.899164189042 -11.0809072031277 32.2566095627923 0
44.0039192491267 5.37812525586045 -3.56582207704803 0
125.020886780457 -17.7993202370266 -2.60637314867478 0
173.783542359194 -22.8519417293085 21.6574233460541 0
160.255609747779 18.2140290369729 -27.7583769414034 0
-91.9911986638397 4.41477341109223 9.09730799476519 0
179.671657920446 -35.149041243385 -13.7867439153401 0
-32.8670315332951 -3.29193088467198 -7.22402349215537 0
177.05899362899 -13.0512198169319 -14.1908411484378 0
162.056588564348 31.7932490358324 -21.030837142438 0
171.609602762742 -9.96997774633245 -8.69083381792083 0
30.327466531729 -5.00717163540686 -6.09878756448269 0
181.44246147769 10.255955362517 9.46495965010431 0
171.90384859458 -34.519950347149 -4.73793868199161 0
-3.06207130704691 6.31518530094644 15.633039296316 0
112.667219668829 8.53369986695271 -6.02247595225094 0
185.849357730046 10.52931038642 2.99517351923773 0
179.694395341445 -13.4993545827332 15.5078504903733 0
182.207034287751 6.61266614067175 -11.9255234321086 0
135.465769601366 -7.32337459722921 -8.10712502031839 0
150.492537175923 25.6553730906676 2.00733525137775 0
178.534416466135 -17.6051384619601 20.4778585511519 0
188.198206305721 23.190273555916 -19.8616267844042 0
180.827019012793 -12.2090350317592 9.82430153416047 0
174.391913312709 -34.6234608127121 -1.50056071716862 0
175.041169149382 13.2127697485033 18.9984514332513 0
190.076828097262 20.8015214343338 -11.9036122014058 0
151.591602398642 0.0824298623288398 19.2005456248734 0
-106.96378564214 -15.1397256930686 -2.44042862864064 0
171.435253979688 -12.4757850981449 -13.9855485227942 0
175.796623455938 -13.7779560910059 -15.8743937467905 0
-38.9335331207487 -9.45838535928773 -1.21097571319041 0
165.317763788895 -34.7596279622231 2.7711139871596 0
144.162446345285 -6.29738684638117 23.6599763840525 0
167.581194874936 28.9589312886082 5.94822239347368 0
-47.087618879898 1.28440641652341 -6.50274489493905 0
185.335620707969 16.6405240967164 -24.9356619309478 0
174.047792403991 24.7926806129555 10.1811542234757 0
53.3601101839941 -11.7376925438211 -1.86305183804297 0
81.9464276848797 -8.4869488491809 14.7825075398144 0
119.036847863364 -8.23622362775124 -7.52600666133159 0
-118.349841891414 4.27882214464479 5.60545964536831 1
165.021644881363 5.44555352897957 -14.6152503594408 0
158.868658968201 31.8594174812878 -7.38525110097768 0
74.6292029217132 10.5153717529544 12.9715590708066 0
90.6728800639653 -12.0375539634888 -5.88168479774838 0
12.1889816091188 1.57229494612003 -6.50891044626965 0
180.346890960017 -32.9080426524491 0.385089990613816 0
-69.6270635674611 -10.4832988712014 -3.6559970987471 0
104.700160902256 13.4436899156819 9.57262635158971 0
-111.738178093135 -11.2930891447684 -10.2927761503703 0
-55.9993726387422 6.43546070437594 10.3809585601607 0
152.306657010974 -27.2370422392273 6.51342468015367 0
81.6784348396013 -5.92566314776893 16.251057124325 0
167.612746492324 5.66547685074813 -26.3146527857695 0
182.149963439172 -15.9796788034744 2.96572631248554 0
160.157123256067 -30.7166931106078 -19.4597107203442 0
-108.309344381264 5.65230142883197 0.842420736670971 0
178.554713845642 15.2646626128216 17.0298086440616 0
48.1540406759556 -8.75111764253554 13.0825078297583 0
100.337448268616 12.0841791311391 -0.820274279560332 0
124.366657583837 13.9136329363959 10.9010049511947 0
140.63218710737 21.0076465173847 2.47129999986847 0
153.532247686439 -22.38433473019 -14.6585608217007 0
184.776185902176 23.7043429708194 -24.642280790688 0
77.5669902162767 10.6552979091103 12.8630616937811 0
39.4510070891256 -9.40147813919199 12.1457369821738 0
187.776972721047 13.1916840738845 -0.0776290984428714 0
-86.7826438434378 5.39472528178604 3.14219679812147 0
151.787062877533 -7.8519087652344 -10.716982578757 0
-68.6132926771392 -3.72233724382626 15.7618945161929 0
-30.0710411477654 -8.05256746836855 -3.09776376932055 0
121.018987270365 -1.61903377221476 -7.54164539405296 0
162.171033917494 9.09146991577615 -26.9846054068639 0
-93.4911884290478 -4.01984602278065 -9.11990901230818 0
150.335213005838 9.89185755615853 -14.5751335103766 0
158.800999136221 24.4043530651455 -23.1402902831382 0
-51.0444914115771 -4.94768035787879 -7.16731657089149 0
187.759206221237 25.1946475454934 -14.9989748468337 0
148.980673778174 18.7117270730843 -14.8289483687957 0
168.176387117249 2.01415112502837 -7.68840729621933 0
121.349697117163 -9.06485361814949 18.0260709275523 0
168.346919519566 -23.5695053420254 21.8446868823291 0
147.852525617436 -24.3186439616455 -9.46322832298782 0
187.623817731647 26.6400588057045 -11.3229423888674 0
153.866069238429 -20.9015605228736 -15.6808426551102 0
60.4723723669775 -10.2895675776349 -4.38308761099668 0
-56.8601950046443 -11.160960820897 11.9962036114277 0
107.03260293363 -5.54397444290686 17.7959879440126 0
138.414219806058 -20.3137068810657 5.79683433622483 0
-95.4060389499316 -7.17149796338161 13.0054339990417 0
141.692947310203 4.16645234188476 -10.1016146155015 0
-80.1111937548702 -13.3424384122511 7.42018500674007 0
167.280060298926 -31.6069029661645 9.1628880758291 0
152.534299902227 9.86370486159891 -15.5666561575493 0
67.6298262542691 10.6552581819615 12.5517459511152 0
184.197734448919 16.7120674101772 -26.3835233788268 0
79.0303442031916 12.1332919864403 2.79269607549702 0
187.087734964214 24.7035791408538 -19.1928887285576 0
97.8196407711946 -13.5333597774849 -5.23855301638251 0
49.4209113432806 8.72271327806195 0.582962142529269 0
-50.266318805199 -9.50577672234434 -2.35115216738463 0
-21.5487471200406 0.323304570575583 -6.70774871387862 0
-32.1582841864535 -5.29768031900368 16.541078402926 0
65.8188851279549 -13.9658905705139 2.25417812976242 0
144.296976754144 9.48154725185516 17.2483068493839 0
163.372986290145 5.18192175986334 22.0091793074995 0
115.219952240423 -7.12669629062054 -7.39048008888404 0
-106.729657566002 -11.4959537908537 -9.18680261669814 0
-21.1269571281862 8.46904327470373 10.382722694721 0
-31.4665868118536 0.781303405425448 -6.87292566348932 0
60.9688487761718 -13.590152590491 1.98340006960941 0
24.3094850538169 0.235107222492225 -7.02768791707323 0
13.1527467573189 -8.55461104429131 13.2214114597696 0
185.404456139329 12.0302838589998 4.46522637876474 0
111.003743122033 -4.97844109997348 -7.33751647915033 0
167.586242285398 31.7503998952629 -0.997195159626751 0
6.79827093890289 -10.1074519534631 0.447266514704573 0
181.427205961438 -16.7401838145313 12.2737438042259 0
184.090748515366 14.1621769499908 7.40454753065434 0
-17.3757065159998 -7.83890545233238 14.7571361912583 0
155.806839780208 28.5841000021515 0.938590614055393 0
187.789834547864 24.045913079531 -18.9852844736736 0
159.201156657554 -18.7362672479234 30.1509917812765 0
149.847339172431 -21.5786641565318 -12.54394816547 0
147.468377987648 -26.3567505917938 -5.49063750874713 0
157.82526041643 -25.984156304108 15.8288919032961 0
175.840729685154 5.27396311065775 -5.5893533107835 0
29.5278554801764 8.34379788955169 2.18275749343464 0
181.854898593574 -15.3281486706715 9.11093779303644 0
170.85979176249 28.9558115512343 -24.1093233217094 0
184.241533674141 8.85499080291617 -21.413431023894 0
154.717804577868 19.5831779098167 -18.0203145406977 0
176.143756622546 21.5827134691527 14.4505681563419 0
-90.3267743229588 1.72632810245763 -6.73094699852187 0
155.287833744742 -9.40036105144587 30.2639758633017 0
153.360203032428 6.03520173279732 19.4069648457119 0
159.116630438826 -17.5845707683776 31.7936046127977 0
152.246410722673 7.35723549518716 -15.2295523688549 0
170.458291753701 17.0098080161333 20.5452878638392 0
168.724181548836 14.0651895889708 21.9336001085166 0
95.8249555366609 4.21120131673567 -6.21526583277277 0
150.396651480559 9.39348558048112 17.592668833525 0
-87.0932285614231 0.844470755014534 13.5589989022079 0
158.59546018652 5.22576033731102 22.216463180344 0
-77.0881145714672 -12.4609171786855 -0.11719167205774 0
164.464771254305 -12.6772753053129 -18.8327846515575 0
-69.0629805686122 2.60079766033386 -5.04076447351602 0
111.242014429135 -12.6381355615888 13.5630513215075 0
178.408284564574 2.22662147574854 8.19383731842137 0
166.624673553463 15.6590752424482 22.1793178121049 0
182.909760123926 21.3647105260716 -28.2556833133683 0
126.213048109757 -17.5431493236502 -3.76903010814373 0
57.241768877697 -12.9304062411038 0.181934008089475 0
175.225025566203 -31.8695442147307 -19.8837485345295 0
-103.175716391013 5.33844886492192 -0.85051655108434 0
154.019450885673 -13.5835496673853 30.8676117206835 0
-54.7359345762268 -12.4011021771023 7.62976112551416 0
-5.9445610349081 7.64230536472296 3.9963806237762 0
178.269512869242 27.3610839664209 -24.6012436085894 0
-23.157658594164 1.57693566936465 -6.02060499207643 0
-55.2125783255791 2.91280927928752 -4.47732086945738 0
181.342680427853 7.34629855372639 7.70765710483727 0
23.6385669630179 9.6503660890211 12.3933212330853 0
87.2826637745258 2.25288707175755 17.328944683151 0
172.733112387853 4.78402861539538 -21.8177038956201 0
165.800876533634 -9.48231283230333 -12.5731884275819 0
-67.1336114411639 5.83488978490426 5.40209149130631 0
-109.729191791844 3.01173320133232 -6.3733076008018 0
-20.7007973535552 7.83585465673214 13.279108152028 0
79.3887779530091 1.46009604289195 17.3431721626633 0
135.181288953157 -18.6364770374204 -6.22895226761594 0
-99.7094827597566 -14.9784106171508 2.03350042266976 0
154.949319131718 -10.6714915902733 31.0424200899221 0
183.283604573257 26.5488825612808 -20.2409947346247 0
-67.7675323198311 -7.66382097042888 -6.37534863562258 0
149.477687000258 7.3253641083465 -13.4635815909756 0
-86.375698422787 -13.7185996003678 2.09733788832624 0
181.000075857009 22.5870053234381 10.0777614805161 0
87.7099696920687 12.0087951503997 0.930195790397091 0
170.148080176237 -1.44190824009831 19.2160010947628 0
58.064655620807 -12.4692188228711 -1.1381032915182 0
-80.9287623286705 -11.2433408646479 11.9771673552476 0
178.243616691725 -10.3064051969441 16.1048112013732 0
-100.588064692019 3.9183771016823 8.64454944731298 0
165.875701879626 -1.10984194907092 -8.92422842319513 0
-116.447667026253 -4.74156034155978 -10.966339498208 0
158.973327159339 -35.4496754090598 -3.59115919801927 0
126.120990361283 15.4167872868706 8.58250725323132 0
188.454815259797 12.4604649101086 -13.8137096981512 0
148.980265214087 11.2452698269083 17.6685732291012 0
18.3232113134313 9.13829709042041 13.1424767016858 0
145.571940272634 -19.072152881411 19.672968918632 0
113.084120107433 4.48897110779686 -7.00236379711749 0
-46.8214697442621 -8.86844041204784 -3.11864753619591 0
-98.6070166851881 -9.90963089022819 -8.9663287419239 0
-74.4225307532984 -2.08824320611632 15.4589391139368 0
-20.4232971033381 3.47238271989966 -3.73139819101366 0
104.432832000182 -8.999069307438 16.0316493986118 0
147.572749106887 12.932503187735 -14.1084373428304 0
143.542345709442 -0.173455450570832 -9.54336261998743 0
82.1906157847362 -14.8388569743586 0.344608715349716 0
-40.5717260434916 -3.92772765163379 -7.26775079676279 0
147.790421372106 -16.4709790711803 26.535839552394 0
143.716137435004 14.744963982753 14.7394110488314 0
156.536909500927 -10.1572341772599 31.3197344905175 0
66.0694643700395 8.21600586677169 -1.95949412264292 0
59.5429917123212 10.5040761076674 12.5367792617678 0
185.353481999164 27.4064753923207 -15.4219873972525 0
109.822973134861 -16.287522946971 4.90798681267922 0
134.49715383388 2.4283624014161 -8.63819299322215 0
46.5121784396673 1.85722700893833 -6.49738742143083 0
126.29308021143 11.5097616056752 13.6707961372605 0
55.0132697537206 10.2399608978652 2.73616029144588 0
-26.9868042930514 -7.24397893475978 15.4561802331707 0
63.4671949466789 -3.93144591247741 16.5898893011781 0
-42.7550275634582 0.500837851507032 -7.04892404257496 0
92.805560663835 -11.5659277971529 12.7729574645484 0
181.020613738677 -35.1730431158583 -6.5434286294695 0
112.509968414042 -10.1207691619855 -7.35743611249926 0
178.37375827913 -25.6424922857762 13.386482626077 0
6.62386226219557 9.64611465596017 10.379267022139 0
108.659673741648 4.57711799354806 17.0137611003951 0
150.917158976167 -29.7182632983358 -5.11357874387079 0
166.438358262061 -13.3599696549357 31.1722531138435 0
30.0197157765538 -8.9637020950366 -3.16282142183876 0
-65.4291490252963 4.08663999836539 -1.84352839453811 0
175.348094918562 -16.3806466989438 -18.3768858711695 0
171.577197990813 -35.8465914027753 -13.9275790428753 0
-34.2699168632833 -2.69121276282747 -7.53239225564124 0
43.2837767212441 7.83608862989178 15.0669340517842 0
100.039483721319 1.4001233160884 17.7065711985456 0
32.4831537927225 5.48299272278962 -2.61795832908335 0
47.9425129556029 5.77523321102562 16.1686055744543 0
139.442061115496 -17.2533299526406 16.4480899658069 0
40.7010889096015 9.94187825140103 4.23974608682363 0
108.483508020078 -4.81726306232276 -7.32275341243577 0
160.105887716555 12.2368952777471 -26.4950277355206 0
34.8317556889231 -9.51945086475689 11.9146068072258 0
25.2335665079381 -10.9333534348397 0.358910920871787 0
140.445350633533 -19.6124171061385 -7.72516792457257 0
167.685823261899 -18.9268650841324 -22.4863393062185 0
151.443268849169 1.84580295451539 -11.4738411054833 0
171.19078378585 11.7114336311154 20.2983206939908 0
157.079733754116 -14.4476868431786 32.3624680831735 0
-43.8937590554469 -8.64464700071957 -3.13173712922102 0
167.365213705578 -10.2212564428031 -12.1826692814669 0
-14.1969363335234 -8.86465196869858 13.4891041034207 0
106.962015455287 11.3192712657799 -3.02241876761451 0
187.535196837267 10.351760642051 -13.4839876551738 0
108.081942606025 -0.302041100378578 -7.15513792257688 0
-100.635563338104 -14.6909445931955 5.6432955986894 0
-49.7822808482785 2.17849682459265 -5.64524372104871 0
172.922677038947 -8.46561936332455 -6.14910221833402 0
-58.8151360833789 -0.499945908275663 16.404492808493 0
77.9254367886823 8.26857680228751 14.9811065226272 0
153.362398968296 29.6366214286119 -9.46089693664974 0
-84.6990254282039 -0.459062948523831 14.2607901337628 0
159.766875154197 8.85073614385362 22.0057904780422 0
-93.7780865385742 5.17978556082254 5.97870999018881 0
-2.53290231068578 -6.55236040092966 15.3124212317968 0
127.574346427443 5.44112113324043 -8.1070776381925 0
124.694769294489 -9.10311965383915 -7.67294116540662 0
173.889391375553 31.9443848834862 -13.8910729230631 0
131.4981587014 16.3589705711994 8.03682193883931 0
124.479800371943 3.47506341388371 -7.83076917922283 0
164.092033761466 3.12353354109488 -12.1866161029481 0
151.954709972931 -5.45306163597549 -10.4739152600808 0
167.970068705875 -24.8834862825028 19.5354992405601 0
156.309697669389 20.3956584488954 -20.966078992737 0
-19.9793008798458 -7.73338069536633 -3.2920703770429 0
-49.9775307993485 0.15753265367641 16.744306925317 0
161.438394371954 -9.02927403613347 31.0898187097575 0
-54.4932795025919 1.84390354653135 -6.02053579936158 0
-110.62290565902 -9.31768765263339 -11.0437849350193 0
-72.0770350821399 -9.95155350491798 -5.07673392662254 0
28.0514459640213 -4.65898443267118 -6.19576261506835 0
159.22676063717 -16.2008127624712 32.2928358604239 0
66.0224534779634 -7.65199481966637 -6.45170536119408 0
30.5427280917785 0.954372126396959 17.0863820150667 0
154.177985415635 12.9810853485504 -16.6813542955773 0
172.453507355748 -27.9272318712855 -21.7887327131662 0
118.710394498695 -0.168340254785949 -7.48747366181604 0
184.572436685878 23.5066897361852 6.11531435456285 0
-101.590326578394 -1.24677279521056 12.464036526437 0
-38.6444844956115 -4.90810315768515 -6.48282929409469 0
100.183202458551 -8.83573731881686 -7.35630947697875 0
17.8883602073588 10.0301945349656 10.8538541349086 0
-52.5088335586281 -11.7532894726396 10.4224451556578 0
72.2470862925229 11.3660485353564 11.630585684946 0
174.153469002451 26.3258973891421 8.04441855798259 0
-116.567160221542 -8.96427364120412 -11.7296804041193 0
179.145279432248 13.6612590775069 15.6729244660245 0
151.835756773964 20.1946302418777 14.245648827591 0
-1.02299799976235 9.04129290940179 7.85056342119511 0
-92.65937204364 -14.32429261317 2.59834242968474 0
189.677362293199 22.3180824161132 -15.1330861786341 0
143.630836031234 1.53396100639164 -9.91712540801833 0
167.858334106926 28.05059483637 7.18832975618856 0
151.309001233092 -16.8717541100955 -13.141700673875 0
165.904478378614 2.45371670046657 20.462621034794 0
153.748254589085 -20.0710531261718 26.2528311105476 0
140.097590200943 20.1342782551562 4.64607017215508 0
-111.691755914857 -5.35033113969522 11.6575041263424 0
183.968296180813 11.764163981736 6.81064933137576 0
132.256738789223 -3.86797598104944 -7.96888019446616 0
180.794734758182 26.3668649023217 -25.0944702084481 0
75.9845204931598 -9.04503866331169 14.0625631566758 0
-107.850977031781 3.85551892785335 -5.55564557651343 0
147.69928286085 9.69364743899701 -13.5407092881009 0
19.3064296159343 -11.0912058061913 7.93320256440064 0
38.8836064237541 -10.8753211918758 9.80740794081481 0
178.419564289603 -2.07394504874937 1.96060142027186 0
171.076166993654 -18.9791951863804 -21.7328202073601 0
155.561677888402 15.6018513019257 18.5848661292088 0
-114.824920294883 -4.85345884191211 11.2887846426577 0
152.525593274089 -4.49279616546113 25.5025129321484 0
116.130007650527 2.97139894241018 17.7960513203711 0
-8.5026274160287 -2.82810414865937 -6.68919884037435 0
159.547885072861 -16.9295780820299 31.9379625732493 0
188.198032368245 25.682389682371 -13.8632111598525 0
183.537619557017 17.8027075700273 -27.3706568215944 0
36.5110972536155 -4.20879894953554 16.1040891944367 0
183.176817612225 28.1271565031763 -8.06832567452437 0
176.015796235545 28.4508434967028 -22.9514974656628 0
-122.675809690505 -0.319390904722548 -10.1828666887828 1
187.219192762013 26.2528626521284 -2.08824394304093 0
-37.2262796753314 4.61638705104018 15.7192344864462 0
0.443584027583107 0.627685615945065 -6.78155918839858 0
172.181822545655 33.0671461836433 -5.79267799099434 0
-5.59461668254242 -10.8569529904385 5.50757955943868 0
113.20744094005 -4.73977964226922 -7.34397776329029 0
154.020605777084 29.6400110407298 -7.71274431251199 0
167.874839434788 6.10245100269699 -19.0528283484852 0
154.859407624054 20.9092886191946 -18.2806928995282 0
166.378263060538 -11.7025701897959 30.6178034314048 0
152.506644384034 -18.0076386595632 -13.5104515657222 0
182.18858808197 4.56505056146444 -1.46421349099571 0
13.7445657323968 9.67200516982436 11.8862400846229 0
120.967821644856 -14.2829985919814 12.9450612336165 0
-45.7097989725103 6.82329589339666 6.37736070861559 0
111.601556132447 1.62716260414016 -7.21050474041062 0
52.4824844850852 10.0110169001425 2.60231585934227 0
79.557671296351 -12.0731095907172 -4.741691433553 0
178.860493104686 -8.58308274344174 -2.36892615292552 0
177.219057849038 19.5707308825554 15.7271166820196 0
-102.727109592082 3.76147734570719 8.52402119009924 0
172.815425108012 16.5185273948262 20.6059799543348 0
173.422722868541 30.4572724302942 -19.4231818019436 0
146.249832071629 17.9866058780044 13.1253151550983 0
24.0061684267092 6.26179313917992 15.8708529147109 0
71.9555102290639 -7.45563742828936 15.0626033467972 0
161.404442150243 24.1335314408642 13.0676985090576 0
148.51617373845 6.67920731328599 -12.8258814786434 0
112.554243318269 13.6277248828553 -0.786712899556128 0
183.42548208986 -29.4400986736274 1.53260873529623 0
167.567023864201 -7.49300625618 -9.19182607949241 0
88.8453677368104 -9.79536334701512 -6.88370678254016 0
187.855552147848 25.5014983936727 -1.29793301406613 0
150.065718314155 -2.92544858184706 -10.2551556857141 0
131.702416287216 11.6737152308129 -8.16257434279725 0
97.6612007484354 1.09189187946851 -6.89594777089971 0
154.148946802402 28.6791790383328 -2.59857019943488 0
183.513993923649 24.2335856583165 -25.7623467027517 0
168.870765367054 -0.070294807573812 19.2923627404186 0
117.653102215545 15.3149441141908 1.98547548328233 0
156.079012912612 15.4223880122708 -23.3340566345813 0
183.84073649504 -27.9881092378282 -1.09862676418231 0
154.22425123912 7.68812719931475 19.555826494218 0
178.582973125516 -29.3114432558074 8.73801953013033 0
177.915895172903 -34.1399279507448 -0.82859492869843 0
61.2508420661997 -10.3701404644203 11.9366782119615 0
147.613668962707 1.36742403874544 19.5623741470492 0
159.087867810757 -35.2964864529217 -5.56532790071806 0
175.825591133902 17.1943353841202 18.6776732012077 0
153.908764125386 13.8079608040124 18.4584618962395 0
37.8268492886957 1.28017392994671 -6.6593637715476 0
155.277357083103 28.7761311913725 -0.733297991691345 0
142.699795364824 13.1394843671173 15.4473068380986 0
-21.5170476446221 -3.18679813809192 17.1481113018293 0
151.50211769361 -30.2306354697832 -3.38058284282036 0
162.989282338563 30.0017227249599 2.91802921576415 0
102.359546692095 0.508164542756087 17.9187908777232 0
147.658332589868 19.7016730044353 11.8878292449143 0
174.401369234787 14.4068711423243 19.7841483072033 0
164.240393884583 15.0563200744919 22.184138817447 0
136.581326005046 19.1472690169791 4.05941895015798 0
186.676003558782 8.7632225792753 -7.77533454667658 0
150.60847838217 -4.97200608293936 24.968855068122 0
123.848513309441 16.0542522155314 6.08082079553136 0
134.016595866793 15.0779708801301 10.9392480230157 0
-16.3621550952314 8.62946057200366 9.37136172420963 0
160.066088121823 -6.97977987231482 -14.0979959689687 0
101.253705754929 3.81552040847854 17.1074775455538 0
181.631272670948 28.7835890874045 -5.85510407537008 0
44.8729651454478 9.95703116406713 3.65513937838074 0
154.324974695732 -28.7199109893072 6.09495580758616 0
156.569476735382 24.2959749446179 -20.8617098550102 0
180.469758530638 12.4184049952842 12.4405505887659 0
161.915051264493 22.4271581621211 -28.2976540443029 0
123.406857432032 11.6698560691321 -6.26502584053927 0
122.117312288453 15.4790293318091 7.52401961417885 0
67.277490308121 9.24616743248163 14.153299054935 0
161.237306278786 25.9733184688488 9.6085709867289 0
157.37268843449 -0.414155181810892 24.0257327454163 0
-73.5266886458043 -5.42306670434886 15.1331165318736 0
79.4421805912177 -4.2285575179608 16.8174267675981 0
180.965000122649 18.7849454425208 -29.6055131782958 0
173.037884760979 7.50542657718281 -11.6457981065602 0
21.3214580213393 3.97526321953988 16.6958194160494 0
-63.7543894487898 4.70644245850005 -0.0532266462398793 0
169.67277195616 6.26964983183598 -11.7776709671286 0
88.2456180732708 12.7783138316849 9.46583728175904 0
180.486276668702 16.3823500107787 14.8430321516209 0
73.5754546028662 -6.54860274212563 -7.10672283567867 0
48.2683799568989 -12.4350086688611 6.74936238947758 0
-86.5721543157966 -1.10435859479541 14.2069290648475 0
116.826485444969 -8.35112793683417 -7.42793431771469 0
160.613633914277 -34.7086121491626 -9.61724113440267 0
179.997523927202 29.0674878707783 -16.6008943632451 0
154.46294197492 0.294367460857145 -12.4160717129159 0
19.6527249597895 1.78868822764095 -6.30051302656706 0
189.496588957183 23.9530523965017 -14.0362505562621 0
150.090344843156 25.7416822663107 -14.6830449078794 0
148.644325091735 25.2551102195175 -0.314344315236206 0
39.3176576899 1.36812197563195 17.0487932356183 0
35.5303865214938 10.8343788807715 9.46372459258912 0
177.315086943874 -18.1062077176763 22.402021635957 0
167.330276373678 -1.03979402538012 20.9893806658276 0
-79.1017354258652 -13.2965839700842 2.9575758633921 0
-97.1450702348987 5.36229561463169 3.65534899773741 0
85.6181353367377 12.4619734440106 2.35030286732803 0
-105.411863233246 -9.39421533403297 -10.3071130017878 0
168.196054198372 -11.0841578976772 -12.6120313505085 0
-67.1876164071154 -12.4135861502366 2.67999337074872 0
135.696018327074 18.4186982068795 5.38726010501681 0
118.929306398697 15.0372042687153 -0.150673279443271 0
161.098826017101 32.8677783010695 -6.85528425469369 0
-79.7664185029812 5.2413945861786 1.86827717476897 0
-63.6734651986759 -3.12508387179968 -8.33656655593957 0
110.998046134674 2.3911976100662 17.8018552878715 0
-102.594261821998 -0.737397072664221 -8.62194715375449 0
128.7108686213 14.2704727996211 -6.20941118579078 0
147.438939691325 3.89347678792909 -11.3706107855344 0
143.13585382306 7.7026152919206 17.6191936053732 0
161.685530551436 -17.1546087874766 -21.9425482676091 0
175.680494408024 -11.414999716603 -10.6031021300232 0
180.369411328645 -14.4139106104962 14.0502000985793 0
4.33479958754227 -6.28157113717041 15.3929603149052 0
115.914091269966 -12.7580994381749 14.122518829854 0
173.23291634602 -2.99236808597676 -1.23423571535887 0
179.367038221138 1.20587212220878 0.912790764330634 0
114.658283545017 8.03309459845318 15.5187609414514 0
152.314709061518 28.3436042701927 -17.0600426593419 0
170.69821065635 -21.5047554521664 -22.4768034972832 0
15.9770975253917 -11.1605737325147 3.7142896826764 0
-62.7168116355231 5.22502829042436 1.3977257530621 0
120.360929861449 -15.4264507221457 -5.55351789494268 0
135.280035955351 -17.2361705241796 -7.44224948593131 0
30.6293664351669 -11.8338861371998 3.84382839272337 0
94.8885018020962 -6.7289444374664 -7.44542257742331 0
25.8469786445792 -8.90907017504981 12.6622252399269 0
155.135615528158 -26.3186829276478 12.4163674667996 0
71.4076037332386 -6.48563167358446 -7.05100333073141 0
189.092740519153 18.740651443899 -17.9938917244129 0
107.39817824379 12.8984337723012 10.9472932747931 0
175.095634020738 -12.3225558572416 23.6258005634006 0
182.08580462742 -31.9887765064422 0.850911284419215 0
158.833960584359 -27.5983574510245 -20.6685377925517 0
186.826046722267 21.3974646900852 3.27178958099306 0
115.766628671022 -4.61482087646961 -7.38709346981272 0
187.158462026762 24.087221680634 -20.038279495463 0
150.375979853452 22.5833350935471 9.14409819113179 0
165.764289464385 27.0451521141786 8.61357314508436 0
5.78673382437839 9.40207612374127 8.13200207642841 0
105.418457137676 -0.575451872782897 18.1533507209989 0
152.287677526763 -21.0464184968391 23.9878308887348 0
53.7409870752989 -7.4382214867124 -5.87687393413349 0
-0.909911277206163 7.97532448242935 14.1882505629173 0
-108.787908831247 5.39931414426765 3.61515062904049 0
-36.5420082046476 -10.6202519740851 11.7601798643617 0
22.4428205435364 2.31489477539243 16.9498820616972 0
189.190791029137 15.7914667873472 -15.0450814798624 0
166.028647043028 -7.22701332557886 -10.5448117701507 0
175.477372869429 25.5676661761421 -28.5155174137027 0
140.185234891672 -20.8401056925342 -6.33525281801181 0
-10.1341728272053 -10.9336697427765 6.69333606216596 0
17.3035046785283 4.67105481487944 16.4669609160524 0
151.618657155207 8.88827430975001 16.9352964045813 0
-74.8892187781464 5.39594633299689 2.78283248191282 0
182.007931947875 28.564583935699 -4.04603779501215 0
124.601434123985 -17.9386032996452 1.55369843527676 0
171.1434308295 25.6852317622025 -28.7510425666348 0
151.595297318525 -11.1967632520057 29.856552911574 0
176.7504697241 4.8748886902505 -4.23005220186277 0
-29.976368539777 3.36387318183618 -3.72471960456857 0
120.088681578353 9.12833278810197 -6.71761450966969 0
-110.452392959714 -3.1359089758772 -9.92850395283784 0
180.09127639955 -16.0884355794101 16.1090175956364 0
165.599577461463 16.5070154504268 21.5293878250962 0
180.615149580549 -12.9526059305073 11.7160281734031 0
-71.5464593420156 -11.0579414484114 -2.58571732665464 0
78.6050411978018 -1.86496153251994 17.2979820926722 0
141.39653345314 -9.90408046971933 23.8144572229838 0
-105.5215070617 -0.110907575523313 11.5322876085012 0
142.422297337694 17.2021209869431 -10.638234082137 0
154.522007876629 6.69144972154519 -16.9852873116905 0
181.604520550347 13.9072153421605 -28.1573248606065 0
19.8571213737621 8.10969058619127 14.388288684624 0
188.316684760715 15.3982498715037 -0.976254461540141 0
137.240143304291 19.400187418528 -4.84147348337697 0
170.852980130343 -31.2262032382456 8.7145854296515 0
154.38329786383 -31.4637399088477 0.518901363534173 0
-121.880768135181 -9.45381740324241 9.84112574176756 1
42.6262415744641 -11.912052713782 7.63329639954356 0
131.529254949496 14.3225176541024 -7.28903370542624 0
98.0423835437217 8.08806031748875 15.1194921523825 0
167.042833397844 1.29928109820003 -8.75832622088216 0
102.998579473149 7.96837926076131 15.2468060325246 0
186.674241748834 26.8143798484664 -4.68065448103059 0
166.500901503737 4.85325664866315 -24.8803133922538 0
142.788482975683 12.6629885151855 -11.7243302415681 0
149.66540235946 -2.48146963630544 21.9486583252189 0
67.611705471217 9.87924814550451 0.146967073284881 0
154.625329470267 11.9532329915417 -17.1908504740106 0
189.709727093021 24.204313526653 -9.59723929536161 0
-7.47214902715277 3.8424639505004 -3.8321137491559 0
167.241846303243 13.4882513391767 -30.0824390828143 0
163.653275878449 -34.5939239513142 -11.4798159237049 0
-34.8202066250466 7.39664281963496 7.03728001985782 0
116.550143415776 13.8994613337977 -1.67034468243822 0
183.790760029263 25.1163460220651 -23.2513077560174 0
181.71166321293 -18.6728867501383 11.5809078985707 0
186.781499254944 26.9361020491379 -6.46357501600146 0
-84.2734248203001 -12.2612927552316 10.7301926781192 0
-87.4850318010172 -8.79642195971288 -8.1326989407706 0
29.8100059979681 0.128599127032386 -7.0318305060791 0
165.097771506396 -33.4468323758113 -16.4785811471682 0
113.625452265737 -12.3560235407697 14.2320125528495 0
-103.69114957175 4.72995652693416 6.44451523067357 0
-111.996217876609 -2.03457312861009 -9.72836954980255 0
172.726692116387 -23.6241245529895 20.075579638438 0
137.979132895904 8.96016807985708 -10.0092768071465 0
33.9802048626424 -6.48503304701726 14.9041877376805 0
133.010045073058 -18.8114045897242 -4.8554251720828 0
159.639062083928 25.4896872760241 10.3382432926976 0
143.726966652323 5.08624436796091 -10.7591374243417 0
77.1857515930586 -13.7882645495094 7.55726230083911 0
181.36354715291 -17.0702255875692 -10.4593859226283 0
28.0188204894088 -9.44819652427182 -2.50776774994304 0
158.033567451756 9.2198654621556 21.3614195923154 0
-40.422452785625 6.29417102972255 14.0638015114801 0
184.319826907053 15.2033112013891 -25.7792890759942 0
-16.4808941378682 -6.18930057010024 15.9375223155967 0
157.140544392483 8.55152418038276 -23.1024228870435 0
-61.3567620034998 -1.37451779601349 16.3126842928898 0
-117.91580419455 -4.28123037183757 -11.020075261291 1
184.297051415034 21.7359163434964 7.65054851332545 0
142.29251260104 -4.09800407574184 -8.8927706972004 0
-113.109831567375 -8.65976036462916 10.8840129577036 0
172.403990287405 -24.6032677728507 -22.2498331415226 0
170.975209321562 -5.6214190688919 -4.17539143683931 0
-86.0407885425929 -13.7905834906122 4.74071101458382 0
131.976712955387 14.805215187919 10.7767153172966 0
29.543679830161 -11.4444288751744 1.30554604868152 0
155.790557877018 1.85925209554739 -13.5817675123717 0
-112.455268227384 4.62662964091058 -4.81372126085515 0
167.779520746349 27.3978137511003 8.09835225201599 0
48.3528328285458 2.62935735575768 -6.15135173692632 0
172.333341344147 27.9733083087171 -25.2000061478948 0
-22.4405973934217 8.23197529719534 12.0099190615521 0
171.473261609422 -15.7075614547391 -19.7891990916152 0
-24.3200058657065 8.28934382972134 11.0827851014707 0
180.719700710715 -14.1982781901456 -6.473479872396 0
151.402047157168 22.2886995178535 10.8377477095201 0
56.9763050803199 9.93180042950976 13.2443764511564 0
4.50760321548932 -10.442196414077 1.81499142726569 0
122.731149828229 14.6454466033792 9.55182220684073 0
174.466968391705 -31.9372330491675 4.71185542046128 0
135.657301494389 19.5400205387377 -0.35997747505238 0
151.304619634852 -28.2771405010626 1.90600169774132 0
-37.5820355993246 -8.31521852205965 -3.14887043212317 0
167.82987528181 26.4172873692043 -28.7647111077091 0
150.780653333161 -26.8754540457966 4.92923250819297 0
163.267241294859 18.3954707153982 -29.4141380629528 0
166.482067118906 17.4204886317475 20.7470610652772 0
-93.3303753017706 -0.181653516117066 -8.03569226862002 0
79.5769995483852 -12.5203034034331 10.4076412621848 0
-92.3119513019908 -10.4477637511023 -7.6409166928078 0
119.720661019488 10.8285047211952 13.7765225153819 0
180.021670224199 -19.835263683114 16.7142914879889 0
27.2800873270263 -1.52394743096795 16.8743126262855 0
-59.6838971258851 -3.7089406875253 16.2136884364826 0
-89.7458918093152 -13.8712381942171 6.3378904402479 0
-103.653625563588 -13.4631013024669 -5.53919363774305 0
26.9469612291801 7.68625541950741 1.21724801919504 0
182.146264923375 5.84861362637879 -14.6841739568459 0
145.919889309275 19.6387142584168 10.5939649950872 0
51.9954053692045 7.32534833239345 -1.79479813056601 0
-120.378586909429 -17.3750746697748 -0.417460298412685 1
153.056429898864 28.3502729507268 -4.46679125265078 0
174.491118877341 -31.3697013826153 6.06448685883465 0
158.015465758696 -8.2639518389273 -14.596741526461 0
104.696202739333 12.0393204959796 -1.60538557856884 0
46.7267614756837 -6.67537180945081 14.8535238309391 0
-23.2328383213255 6.25513903695466 1.57439410321013 0
180.462571931294 5.56906024665652 -4.60804985468903 0
119.921442654552 -13.149454576634 -7.04102014933265 0
-23.7740012194532 -8.69573717148271 14.1666949593849 0
161.935811346822 -8.1452238875928 -14.7152857264618 0
33.2469645394813 8.45753688884537 2.015708764756 0
186.99043797354 16.5909897693391 -22.1341273421717 0
-98.8394499613819 5.03730409815195 -1.44695179242509 0
-12.9955228202426 -0.291940045157581 -6.83542202819227 0
127.148581084138 16.5270031708097 5.88370032763054 0
154.115115073948 -11.844370003536 31.4237925857478 0
169.669482939249 -34.307932967972 -9.126814731967 0
173.448070287497 27.8061016484131 6.47483787149211 0
6.32714862362294 -6.62303078001061 -4.3596443883842 0
93.4791511955065 13.299568759134 8.28621215272444 0
21.6719725705059 3.97363258508867 -4.14161335903205 0
159.204132941199 -24.7619053490096 19.739012285306 0
116.108304394756 -15.1886010313624 9.99772422135619 0
109.555269117776 -16.4843118159561 -1.06838041055747 0
186.845244918586 19.6758754516262 3.22031905474402 0
-30.9576902531086 4.09831228958285 16.3039991620708 0
153.479000828673 -16.2291634839345 -14.7414607801774 0
164.351227172157 -1.1209562504575 23.4769923490302 0
145.958756216915 -24.3431082515627 -7.00214814168732 0
-14.7080143025467 -7.29625508020184 -3.67263482575606 0
127.466515995826 12.6363407181444 -6.83972599483524 0
-82.3720792557106 5.39724152530353 7.27909388122108 0
172.32825260644 23.9905809857181 11.9606616481899 0
164.652166660187 -19.1914724874328 -22.7068179416402 0
170.249766380657 5.46010220400481 -26.2921330030244 0
52.0876788629038 -3.80905745094274 16.4068683751314 0
-107.712983287806 -11.7199126016765 9.91937194881424 0
148.683432699087 -23.9729713354769 9.49354251267461 0
146.002565154244 -4.56966841023682 -9.3454141390394 0
168.750374274078 4.68510246942933 18.6284851030268 0
-41.3979813716116 -11.8502291595823 6.86456451017098 0
93.3004836775539 2.83442029922233 -6.4513022318211 0
150.643069006255 0.167415026867767 18.2757996787148 0
165.860545957545 -35.2941431648954 -7.17063825968299 0
54.1194628699809 11.0097424216841 4.65432544201455 0
74.0357933278432 -11.1475885348453 -4.99425653973192 0
160.357325961269 4.89756539271277 -19.3493972928799 0
-100.47133813849 5.10828380808886 -1.4530589634349 0
36.0249379725506 -11.7896049771303 1.21065587663087 0
157.752121546337 -9.85654649416266 -15.7304629213958 0
-119.46167071294 -14.5607458256062 6.85225767540345 1
99.2486752163285 -0.494137911145203 -7.08615946296646 0
23.1406507020438 6.24092145113826 -0.82236594083669 0
-37.0750200646967 2.72014535082016 16.689126081753 0
112.199351698168 -9.6260728257643 16.4893351396812 0
161.800756515735 30.5137890990486 1.03440464472015 0
156.791766381344 13.8369831905016 -24.081126299211 0
-97.0544312013629 -10.3367645535685 -8.43692271443853 0
-37.6773529233205 -11.2880373054704 10.0213157312441 0
-65.3266840902947 -11.0916512322636 12.3721196596059 0
-114.74671377413 5.96434734523679 0.671110607480682 0
-86.6657274826446 -3.59894591830784 -8.83408852160776 0
-111.392241197847 -7.73637601027323 11.3213446418389 0
183.970593112778 26.731480140928 -19.102939748112 0
-15.2088122515036 -1.94879553673213 -7.07695900471552 0
-85.4527017708256 -13.1567167644453 8.93859375303073 0
135.812284081105 14.1719350205018 12.6568864522984 0
186.888512813293 25.5525610663852 0.830674072371953 0
-121.633859968815 -17.4934958930473 0.374200263174677 1
178.581246685638 -0.958779278883986 5.90179716209373 0
-66.6073907313974 -11.952621594855 10.9693825887715 0
173.969753848358 -0.965365979036773 -0.989546265104492 0
27.9367658060239 -10.8229462287842 -0.295057962727225 0
-29.4082017300602 2.3998036102133 16.9713577225781 0
-65.1239943555112 0.165002751181242 -7.36642289453483 0
-42.3668123045776 -3.03622725238985 -7.74630270522604 0
158.173431719314 5.43782408513651 -21.6240377635952 0
150.802111012584 -22.8303208880809 -12.717411374796 0
156.113836709317 25.4340556450429 8.66210928943799 0
-119.210331609395 -16.0489816941675 -6.21778262617334 1
170.436367745747 13.5422537996599 21.2978409247326 0
-113.554642401633 5.68582745708688 2.36983074461293 0
-84.9455066636897 -13.5933619061775 6.79322968664695 0
20.4608026180911 -4.17378859176793 16.0900325610354 0
49.7992928187341 7.3025336216786 -1.62662294119405 0
-28.2735350464925 2.41565512603196 -5.32162876179628 0
145.632585100874 -13.0939390698782 -10.3105389996601 0
-99.7590781513715 -8.48589916814876 -9.84198873000023 0
176.286503698761 22.6726069906794 12.887008508058 0
-121.788768275585 5.18878812379847 -4.10411726147992 1
180.502681754324 21.4506250222992 11.7347570452893 0
137.355298819137 17.475133917849 8.31424508889008 0
177.930367088213 26.9899242347356 5.51479653289261 0
146.676956353697 11.350944598034 -13.5356075371514 0
157.948847230708 -6.97105577493631 -13.7636494954299 0
171.358311149351 -34.1465725556663 -6.72382423629481 0
143.474265910477 -4.43946493110052 22.3321124693973 0
160.153537588055 -30.6305479244738 9.04934111214349 0
172.063611438102 2.35335331893388 -3.59023213723374 0
183.376189055587 -21.3875420673278 0.0646271283423667 0
172.366398122594 -34.3283941348276 -19.7996476356185 0
163.512363331541 31.7186728692556 -21.522807087525 0
142.714825197509 -14.9018272061284 -9.81310682943481 0
-92.9873554119276 -14.0474001989921 6.44501387862588 0
145.132362744232 -23.1449983403907 -7.65103983693077 0
10.0531803285144 9.67556058036166 11.2821206105635 0
181.067056725918 -32.1298950201566 2.76658055907733 0
174.075065803743 6.44522626135354 -19.2333774033001 0
172.74653405392 32.0340399844591 -2.6419957347139 0
-91.4010442104994 -3.90182989982828 -9.03716184741376 0
-96.0663502367027 5.14495297240441 5.76655533576743 0
173.252297135114 18.1489995267032 -32.0699661685269 0
150.748833593826 27.5140945122893 -10.0798544561779 0
98.5613025223339 4.49149032120011 16.8315726061442 0
-44.2527545096202 -4.62810592544387 -6.99031794010345 0
-94.9511058135313 -10.0485475650904 -8.35895395859941 0
27.6419374160168 10.5011684154477 8.8606089720591 0
-57.5626478401999 -7.65420195395855 -5.41476864378773 0
184.786188230328 24.1250031475115 -23.5604366733223 0
183.619621832788 -31.4793955419995 -5.37795766271862 0
-67.0557599038894 5.9507551591472 8.56227362493063 0
141.553475952901 3.748297657117 16.4205921052325 0
172.372478478221 20.8601911087052 16.5970235476796 0
-57.4449573972251 -11.6362013330082 1.90022912808534 0
169.13050092564 3.1672621376861 -7.5263564959963 0
171.903503305763 -2.03779296320558 18.1119455458759 0
47.9670302048873 8.03492208364441 14.9138146304415 0
170.775718286972 28.5627198702646 6.11460071730058 0
-28.831800586449 0.97424613493137 -6.70816054541153 0
146.822092605074 -22.6114256420485 10.7050710736977 0
162.854406564315 18.065264500239 19.5522081233908 0
169.455513517238 32.2698553355477 -14.6701262125062 0
118.731075321399 -17.3079831282411 1.57697301890059 0
139.063503405905 -18.1091434629165 13.9023385519842 0
-85.838612479767 -8.8613239240904 -7.84650508967619 0
-35.4352519711683 -1.27745511705209 -7.68967598477616 0
-37.5359390588857 6.60455925368658 3.63146807608419 0
156.028267733082 -31.2707305910957 -12.4806418091961 0
41.5086271234455 -8.3378295040905 -4.47283763291372 0
157.243177411249 30.9773764640521 -3.77302463347434 0
-47.5069782310274 6.24650906594924 3.71418692004744 0
-92.1725450527205 -9.04390116937632 -8.60118052092392 0
-85.5805122148647 -8.83776502155638 13.2434446444177 0
183.887956256711 7.4759333534657 3.41128044570277 0
-106.786543928862 2.41985642782678 -6.77762007828825 0
60.5613756736024 9.49477412853695 13.7959045230276 0
-20.4147772961155 -1.16195297258046 17.3489472160109 0
111.82598453323 7.89487648457166 15.5024144834269 0
172.010151115698 6.31186659924029 -19.4684501552592 0
-0.172010168499044 -5.93232307816144 15.6491417723586 0
-107.699907295231 -14.2466254476017 7.21747805094898 0
166.588558532369 -25.6032513527052 -23.0180236729437 0
143.514048172549 -19.2989625820059 -9.65167472059951 0
171.302162250892 32.2113676067816 -13.5470823505861 0
169.361328261666 -11.7531225814965 -13.0749298112926 0
163.924188837393 3.87845113737129 -13.4879122654101 0
174.524936964854 22.7414786970206 -31.529035529468 0
150.319775423599 16.1716927658295 -15.0749583212743 0
173.731353018991 21.1657616661242 15.807347794779 0
186.920785088682 24.1720095607925 2.63360484268296 0
