-40.1170116966661 6.44049670669178 -5.73757074879794 0
49.9256690490582 3.45368674159325 3.74389606208255 0
101.9374477072 13.5628755270286 -19.6868820190589 0
183.574117740804 28.7923804011707 1.35550373601565 0
156.27154997434 14.9984411130109 16.6694908391435 0
45.8365142848546 1.593136574616 -25.6409348689903 0
-48.4287826193885 -3.99963024691944 8.07259693838579 0
185.951600689882 26.7398545172939 34.1119919796222 0
-9.25770517665267 5.39139786765953 0.44663500231723 0
-65.4481950019257 -2.24857053117566 9.11083366098338 0
7.9208765546046 -2.31322058307231 4.48185514056966 0
152.568324228853 24.7653208916522 -3.65640332826973 0
179.101687674413 7.52384428350611 35.1472838533019 0
195.057132551012 25.9923712978137 13.3927975932529 0
-35.4299099070672 -3.58919181966718 7.4643136637621 0
187.836256891305 3.16348436105078 12.7270215885788 0
170.621136092312 28.450207885291 -3.79679237233571 0
3.05623667416947 -14.4455139022126 -11.4855640246856 0
146.101912991208 22.7461359293495 -5.50844230066543 0
14.9257745904038 -11.6790063520213 -19.9869210672545 0
129.796166478408 -6.82401262766495 -24.7331036950152 0
162.238722158092 -30.808257731519 9.34372008422123 0
60.2504674693665 13.9279004267358 -12.1382343983621 0
-92.8639533881287 5.49047616835148 -1.8232819423435 0
-76.6962018415599 2.80458449984372 5.19057547683997 0
103.183010040931 10.1809699722828 1.31134581663644 0
51.6705106790886 -9.88783458333486 -22.5077964869499 0
89.6031127924405 4.11078863611789 3.06842891313296 0
197.24859817701 19.3013293270139 11.5296430332705 0
164.604509113901 2.32425779547838 17.0999537962928 0
54.4311804801256 9.89901440893669 -21.5215809019929 0
80.1423726840216 12.5367256259999 -4.11257740175268 0
126.017081060497 -17.869370709244 -3.0935445871262 0
176.989360677154 -18.4841771955004 -24.2445439926911 0
-107.995480525999 -19.0806161363295 -3.29636337168502 0
49.7960997555722 10.2731039652967 -20.7234951038466 0
118.106140782805 4.41610994540619 5.01399753182591 0
-66.9683762260738 -6.92746797092232 10.3607825147921 0
172.831944766294 -30.0394036880963 23.6539242626779 0
-44.9601420428681 -2.57659434877104 7.94953665215275 0
132.964394322177 19.1050625843388 -11.3817604423612 0
-95.6652536523811 -14.4473300278408 -11.3556094629145 0
153.944193991578 13.3564346243231 14.9325658745823 0
129.40185334235 -16.2769860446489 -17.2027588945692 0
157.297478631305 -27.9133609681433 11.7656223669638 0
-21.3264544710651 -14.788431535729 -8.08732694748912 0
159.370519174834 -0.0822026773867052 14.4503184310971 0
32.2387194833643 5.53073073542927 -23.5468790281016 0
178.758515890382 19.7789521651119 -15.6126615788854 0
142.326444944644 -20.8448530406894 1.64459184616213 0
182.832048580196 7.48562524227598 33.8221807380666 0
156.806347966831 -1.36695744553251 12.4794313896867 0
163.260125402054 -1.85527868374591 -22.2610070902778 0
176.295343037449 -28.1593509425692 -5.15785697849713 0
-113.380036398459 -19.6879290251672 8.11378100135091 0
66.3383075949365 7.47345343639232 -24.1489764465213 0
167.770157260064 -2.50359571993333 -23.0508206148609 0
-80.4594479891447 -5.55065884066533 -17.0991160623941 0
193.474726194032 26.8872424748707 18.2365547087252 0
50.1050028221474 -13.8050950108518 -14.1964740274368 0
187.727141934514 15.2075663284812 -7.1459876825324 0
111.116317697598 -6.9394471675134 4.98548496637142 0
-113.405040498667 -20.4675141363593 0.805901563327431 0
118.035307463677 -15.936560662603 -15.8040502600386 0
182.118834399767 28.7624926912762 -0.112553465802887 0
173.643475779431 -8.70646796126298 16.3141031706413 0
195.64714433697 11.7478420522824 19.3545898761762 0
169.886325648283 -23.7461574113492 28.6526850636854 0
80.5298053819673 -14.6867239368429 -8.27951451539023 0
-21.6996064856915 1.90349577506046 5.94614579484126 0
134.600358629748 1.43421003042122 6.47837305967954 0
-55.4270589179514 -7.51050587895623 6.89583305069529 0
157.895176838867 -18.8248671436429 21.3956885547626 0
151.276712588247 10.4603194525025 -18.1999778006022 0
180.83849549441 -29.6421515353506 24.9439790120303 0
189.844069835925 -23.2039238233584 12.0362065411993 0
166.128005092108 -28.2506620734181 22.8303255223574 0
115.972067955315 -15.1079317815242 -17.5262368451147 0
-104.202896483628 -7.94518812873703 15.370446735169 0
43.0090382683889 1.53753833882312 5.5888588476606 0
-75.2151916085838 -15.606728765997 4.03217274653492 0
192.067321526661 5.59755959255062 13.1150684722809 0
155.390686408799 -27.4939380652813 5.41611516571658 0
182.204642078217 -28.5956638376229 24.6407215792653 0
179.394271450823 13.3453376259247 -18.1926004266213 0
-103.976226985432 -8.61599781695726 -12.9150907162011 0
149.371993517768 -1.17791600327797 9.23511175699755 0
-108.799020936044 -5.94002849834238 15.021868979089 0
159.939895663259 -16.6558006770801 24.2409874179511 0
5.91714369601713 -3.7784007340909 -24.0205210397989 0
175.706635984058 -19.965010836506 28.7071611418407 0
110.284794427612 12.2895643078405 -20.8122227344637 0
84.3021844851904 -14.8772528053758 -12.5929158175424 0
152.375037245955 -23.6187175260762 -4.64406205058832 0
189.90641048987 -21.1474407994711 10.8737999824596 0
-73.0022202116305 -12.4823582998439 -15.5489502638589 0
141.848402977457 18.9954403005292 -12.2659349872971 0
162.742691741826 25.7984065895426 -7.80158521629925 0
131.242994082356 -2.0698638119002 6.01347702186953 0
168.335443216906 -28.5250959926131 22.618160731947 0
189.479420455937 -25.0593513053701 13.5611961636695 0
178.815492288124 -25.3268937991552 -10.48084454933 0
177.738091339394 25.7894165449942 37.8132232903488 0
-34.965201131496 -4.54075342814693 -21.7664689113604 0
174.273507912861 -27.497044146697 -7.96182643902924 0
-65.9979466334498 0.555667085214147 7.52837634529976 0
-40.1655671237847 -12.8376818502466 -1.30393024954349 0
159.989785851813 -27.563273079665 -6.10668593726655 0
-114.361281593723 -14.70549185567 15.1391488936724 0
-30.0369787173899 -2.02409980419226 -21.9736891402175 0
163.319289813906 -18.7880826076667 -24.6512796331792 0
-101.345679875342 5.56818758064377 -1.15100509280511 0
185.350089518434 0.794693608561186 4.36201134208671 0
178.96467862497 28.46185975184 32.0014177911787 0
-6.52042985107948 7.71142297294507 -7.14585703875442 0
-108.149151408557 -16.7501426506293 -7.63467602355851 0
185.690479689091 -7.96605010376713 -6.67855622207134 0
-115.296974383247 -16.7142542795506 13.788149804874 0
148.042667548226 -4.59709959997571 8.89284207029899 0
178.261512102156 -29.5463950216295 11.5872945421612 0
173.871931042858 -3.75001955705091 9.54242283585051 0
45.1106759929011 4.66103198193627 1.43829363337593 0
87.010723615492 -6.37469221380616 -25.7828911888734 0
164.658153085028 -12.5684084825343 25.4556071674033 0
-70.4455578532759 -5.6247634343732 -18.5117054151813 0
-43.1419190328922 -5.53383224418846 6.28911330594881 0
176.597008384524 -29.7581510760988 13.11097710787 0
105.587804973346 -16.4139333422108 -6.51980024941391 0
55.4511245356368 -13.1236722073724 -17.4610708768054 0
194.750836148848 8.43895461528484 16.2055743620476 0
57.6813484589629 13.1054203045089 -8.93977766261137 0
-104.294193214654 -16.8437803461044 -7.82328177218117 0
160.537482632089 -1.18715662099483 15.0450365693429 0
4.0843118954649 -2.75670321557849 4.30788336433593 0
186.127045925947 -30.8147232896427 15.7396596921667 0
-19.2466282425727 -2.28088977588559 -22.7141132132916 0
179.145815049345 0.477871667366883 -14.0944282834037 0
139.644087658847 9.52089328216931 8.52302121989646 0
164.879416751589 31.4226762371907 23.2272322971311 0
189.079748261425 28.3320594062575 11.3030152186189 0
141.505309319965 -16.5617071172126 8.51297289674746 0
68.7208238442306 -5.9695759943765 -25.518270818011 0
82.3619739944939 -11.4850888586106 -21.6180215977562 0
70.993013285755 13.8270617700185 -17.2097536980691 0
25.1379272499921 -13.8042261821143 -10.3291363167134 0
-49.8188469678766 -3.90959825331185 -20.6726012178937 0
14.1617753378849 5.45152728196059 0.197492606660079 0
144.164084287063 -14.9707703936232 -21.9617544466612 0
150.363417125443 -14.056596167195 11.9776734531869 0
195.896286486424 24.0045989856009 9.85316344105739 0
42.3064199181959 3.10790090348835 4.55928519696353 0
166.390554051202 32.6005845186273 14.3142230213167 0
-11.3656401412716 3.36434982838622 4.4265048930692 0
-39.3264794605745 4.12317873503987 2.34032090448196 0
113.692935878748 6.75014848762559 -23.7675316064032 0
59.4780523955061 8.30215170651879 -23.2406928558688 0
136.52719559797 -9.36234498779523 7.17138940153677 0
179.686643578381 -9.42883098071791 14.992511826294 0
115.926709582145 -9.10011956454352 -24.413249832108 0
128.904931695519 -2.83003591733016 5.78965321887555 0
157.144150732461 0.477269684017646 -19.8865838592748 0
51.1805702932879 4.47859846255582 2.22414700702923 0
126.847093161335 18.4696046219519 -0.764256521692799 0
153.482744569992 -25.7701392990952 4.61152473819725 0
178.833175127036 9.9839238431935 36.9295061230659 0
80.5275398619802 -9.57118562665586 2.12762107685071 0
66.8449661842618 -13.1469686666805 -5.42280995032058 0
45.0352232105235 -8.34914244698605 -23.7792785020725 0
-36.0841997433415 -7.97184963473427 2.82074778694017 0
130.703968993979 20.1794036483949 -6.69618043002879 0
185.139359873016 8.36099966225842 33.3998719689165 0
173.603377035484 26.116501651305 -8.25789148347525 0
52.9546899413628 4.5554512429047 -25.1188827141285 0
12.6274330313404 -6.91044351164081 0.355738534457206 0
74.2042613787373 15.0582463566476 -9.55045610593298 0
-67.630624823638 -9.14468809035801 9.33903047474178 0
109.411778619378 -8.23966104979287 5.02759862788267 0
170.008692187664 16.8843174313609 -18.0342646306174 0
176.927744551486 29.3962571140358 26.9040817140188 0
172.854485314973 -29.9834080502882 -4.20877562611437 0
183.489492205732 -6.67966858588855 -13.0076310039701 0
-33.4572547096757 -15.5470834192421 -9.07544206851794 0
-10.4148419396638 7.9814243317765 -14.1368759233084 0
139.263233611318 -6.82105315028006 7.2609699364389 0
178.807692618989 33.1354814876582 10.6858421232256 0
25.2430318607512 -10.0706636887584 -21.9550032897937 0
133.919640603407 -1.7952180586555 6.28248598298091 0
-108.202690261066 1.50213460970853 11.2555542149807 0
121.31309571888 3.53564480256394 -24.0773106822402 0
-26.2232653903494 -3.77319911343112 6.34301638630425 0
54.096958846166 11.4630463589023 -19.3849856758152 0
177.089199763266 -27.8648968821314 -6.74460735116133 0
26.2815815739057 -13.734465487903 -15.4363606551478 0
171.082934193721 4.07159105309677 16.6407235698494 0
22.5172444980224 4.70302423340868 1.83104298237081 0
136.653293837569 14.9299210277185 -16.9202086563119 0
149.56246307101 -2.52272735698117 -21.197686839974 0
-101.953514286486 -12.597061786327 13.8314641759336 0
-121.247725786194 0.396672341017299 14.4668769816484 1
181.639780416739 31.1965054007945 19.200917471786 0
29.3549559895893 -6.37035202195003 0.810931165573463 0
159.048937616605 -27.438079749677 -4.00231035970904 0
175.995934133126 7.28594927824254 -17.0854042367085 0
104.250925458209 -11.6272503198134 -22.1606688212682 0
110.683402499527 1.11203107671141 4.67757193921245 0
181.668543790452 -24.5303432828729 -9.97366671419373 0
166.075301295082 15.563302480317 35.1920624090942 0
-57.2545184548259 -14.6499470988142 0.0349354760691588 0
174.35418793212 -10.3391336024874 19.9123188499194 0
188.823373917383 11.1891379964311 32.5380364902896 0
-33.0805961760576 6.91621095104596 -7.89324290946308 0
148.11448397029 -15.7261149801756 11.7401145619014 0
171.954954691039 24.1684098903849 -11.7756099014826 0
-11.5655201621003 -0.332995977254405 -22.9844000595337 0
158.303750050373 -17.7051715105755 -25.0581471623681 0
-51.7486956344665 -15.8008068110387 -11.4853230694793 0
90.0155408812247 -14.897325976539 -14.5716510417568 0
100.118419991218 -16.0957430738354 -8.72272598556317 0
180.588852351198 6.42537373495864 21.760521169978 0
158.401857805413 29.9294003851089 17.2403983506111 0
103.054358999306 -5.49111830682259 4.7654722835755 0
129.327205202658 -3.70960025670654 -24.7955348452533 0
-43.6833217871093 2.16608126505639 5.75243072453309 0
-20.5247230433654 3.77393192590141 -19.9559808908486 0
174.614715298406 27.7996423099807 32.7810497341454 0
-114.499566566935 -5.88323993182878 -11.296698239109 0
40.1439322293542 4.36968499385797 1.57686643046521 0
-40.5368651296776 6.75362106203947 -9.03190698374922 0
189.372804224007 -19.6978797611451 13.4273182627593 0
80.5004735348121 15.1763777420633 -15.5670276695535 0
101.817839401664 -15.688777708607 -13.318538322987 0
42.3185863374329 7.54269613136667 -22.8715858047872 0
-78.908646866014 -16.6099300167227 -9.52913765388674 0
-20.7431474060971 -15.101243202285 -12.6186039606526 0
-115.213940152997 5.76057646578637 8.06742072978971 0
170.203995072127 -9.86660105447098 20.122852140135 0
173.991474030702 20.0817990694857 -16.207411513417 0
131.092987449556 -0.93391257909503 -23.9116257101274 0
-113.736385047721 2.09933962611792 11.8559513364694 0
16.88370744071 5.03806274357193 1.39239154923092 0
-22.8583745397148 -9.01614756882185 0.157315877608406 0
63.9712437689978 6.94686538625585 -0.086347475281744 0
174.141138504433 7.53072881018806 35.362278832746 0
93.4971246518134 -2.66402584941026 4.47302882362967 0
110.468643811479 15.7496490874082 -1.64318886965528 0
-121.156151822803 -16.4846801845632 -6.74238421443699 1
161.039909631928 -2.52547981089446 -22.1829056635852 0
185.555708202813 4.37582133145632 13.0755743848704 0
148.324844544293 -22.02967098114 6.54913620356259 0
192.732727137407 7.20290223405246 5.12022018481827 0
141.65470940166 21.665465044985 -6.63802320871766 0
-9.10040304906685 1.59451808821859 -22.5746488695249 0
180.212940989625 -7.57246578323755 8.89722308529622 0
-3.43741946288723 -14.3302477434416 -14.6407254754937 0
153.702964407141 20.7416598846348 15.0898809812573 0
-113.543070417111 5.97913281582341 2.82190715354488 0
13.5390621331251 -0.459342293509808 6.20352814148138 0
158.591767325919 -3.05238166765202 -22.0133784154752 0
18.5278445039661 -5.66511142900897 -24.2581295525358 0
160.114963677302 29.3041469219342 10.7430206319174 0
-44.120290853129 6.23505149421853 -12.3650776607141 0
56.2254761298423 11.2331231635916 -5.93606574681129 0
159.664643819031 -19.9037093544971 24.0654514474324 0
160.671518272929 23.7201557138287 -10.6586655630076 0
135.415943386386 3.58562424296672 6.76986416131945 0
189.508840808887 5.03083409120097 19.73411554006 0
160.695528236131 -29.1694762297717 -0.959980526438558 0
164.37707729704 -30.1694086774042 -3.76868295317319 0
151.807895667828 -1.00462868468213 10.090550704828 0
180.295887876852 30.45503181682 21.3694286086295 0
176.840326876947 31.3052867918626 21.5920192494735 0
141.931745586187 -20.1672851044633 3.69850550185061 0
83.0009687411303 15.9646062800611 -10.2248408001666 0
192.623082529608 12.889784543819 28.5976599191522 0
178.465857179807 2.37896658004957 -14.4335365788516 0
38.3183254042384 3.51380804409099 -24.8485266672599 0
119.170387251466 13.1901346153974 2.2273425803165 0
-23.4781054920288 3.49963096278475 -19.8466720824516 0
81.6154801606644 14.1286873474785 -18.0410713069474 0
102.990766066729 -2.86874386963339 4.5364963374773 0
-102.099891129822 -10.2686711554085 -12.8031211576647 0
162.066742212907 -0.681480896128388 -21.1592317035896 0
190.130997400311 4.33080583293545 12.3944611015705 0
169.639871991965 3.17501733868435 16.792769007336 0
166.10296949947 13.2487160848352 -18.3185174327284 0
114.892702463731 2.97722560718984 -24.880747216235 0
82.5102240418497 -14.4789712275282 -14.7825238568281 0
182.206208605734 19.1924290434116 -14.8557676558159 0
-9.36434950666275 0.58635367107268 6.84353528629295 0
160.182770963607 30.0332652114535 15.1051712235307 0
-56.0626445420934 -14.7558238128033 -14.2065102300425 0
1.18804622752647 -0.288059086132347 6.65051130219245 0
149.463389458274 10.5150176269331 -18.2864672926777 0
154.505960179575 -6.58714203147302 11.5149464278578 0
195.104162982582 17.7207151687929 25.3395770858023 0
72.7747848377426 -14.3663061500864 -12.8049023413865 0
193.664353692054 20.7494908447999 28.1430587203254 0
179.796072489586 -28.2659952197363 -3.5995424023922 0
141.136118648644 9.44620734360831 -19.3582879818125 0
144.316193033901 -6.38520208503394 8.18323410946176 0
-77.8468085825661 -5.72491733393006 -17.4864990920579 0
36.3653977789934 1.75076710508966 -25.1740632272513 0
25.6245939005382 9.16587347011005 -19.3272353174726 0
160.532909385471 15.6369983080599 -17.2004298194245 0
67.0739093079204 6.58322396811696 0.488249442681835 0
96.37605568813 -15.5279348599266 -12.7300660585459 0
37.219187032877 -3.13965531967039 -25.5225097202576 0
164.872508232129 33.1922991065786 18.2838751017782 0
-1.11285656565819 -11.4574695742168 -20.1338048032701 0
39.8310841137886 -13.7407756759267 -14.437288531633 0
-24.378821986789 5.26912637148425 -0.338059898600361 0
-42.5576525333312 -12.8249666872453 -0.815281912518109 0
102.108912448722 -10.6120831117579 4.03514686239644 0
-95.0701617024873 -8.13504309769955 -14.5275803652542 0
164.054416762378 -5.9842199576145 -25.3274540138066 0
-89.5347996754655 4.80954566376631 -6.90260917659091 0
151.765417934429 8.93349139362205 -18.5695042719019 0
-64.7684853442092 4.82275820415831 -12.0145317947464 0
159.329962679551 23.156228666663 -10.6538534891606 0
170.406216643472 4.41721061266006 18.249086611498 0
-81.6318295267755 -11.2675319540264 11.6729231615583 0
158.507549090293 21.2175931835072 -12.8685300776403 0
194.600907764194 25.7399921907005 18.5406581316091 0
-106.588407095882 3.38093455706328 9.21235913687144 0
97.8117076900329 -11.0526379972981 -22.604453507287 0
124.265495970602 19.4218786831181 -8.34612217254238 0
169.72776345157 -14.0956972596547 27.0910657256984 0
-44.1306825862755 0.205866597587766 7.03345928014737 0
105.661931533186 16.8187523886675 -15.0087341496875 0
150.234838610805 17.8755629667053 -14.3980267981865 0
112.560857910393 17.8804375241207 -5.18929750648537 0
168.370963421925 20.3178878800114 -16.0562858305861 0
47.1804305544045 -13.4917301549119 -9.43659223736346 0
-107.149226518822 -2.63677102947482 13.5302884605455 0
86.2349639549162 -12.3173937316217 -20.6529578320537 0
-118.878812581794 4.66486234771093 -3.43677753835516 1
155.637233960847 -5.64565462975162 11.8757054961153 0
16.3685837067512 -14.1607150247839 -12.9635135369364 0
112.822781356275 -3.04134250538492 -26.0813655594753 0
-96.632990467643 5.15638645800529 -4.16613165654163 0
28.249744301779 -12.7782415612005 -7.09526159717083 0
-38.1024036216842 -15.2328212881117 -13.3469494764054 0
-100.496270851577 5.29335657890538 -3.07514986687848 0
-121.837399601652 -21.2779734340007 1.12173768022052 1
-104.278487226537 -10.812646823996 15.1948119890721 0
59.8454984676773 9.06986863400947 -2.72162351350537 0
45.2074181624911 6.98626547025147 -23.4668512142951 0
-21.6992498865039 0.352665187250462 7.01453071640836 0
26.9401588456622 -9.91990819683142 -2.64175399936155 0
-58.2718066682345 4.93822617334752 -13.3401277276635 0
-19.9649576679773 6.9411240204148 -6.01286445452793 0
176.424567499474 -29.7577806421988 25.9727522432392 0
124.954006842112 -6.48563860163198 5.67197137567331 0
144.320634650566 -15.0659891953209 9.96211995537212 0
140.694349725556 -17.5388150942921 -17.4522485082361 0
146.023241336381 16.4096034949883 11.4945105349766 0
-118.809054332237 -20.9874812111658 6.14305755171854 1
-77.9143406591361 5.0142865958372 -8.09646205885365 0
140.546380153868 -19.8484738973861 3.61753980083079 0
59.4742355881723 -13.1124579972706 -17.6371393232018 0
62.041119505171 11.0633047481426 -4.86972430890894 0
130.07897035264 19.0783472666502 -0.412013724994942 0
33.7283282778589 -11.0109897962322 -3.95439749151975 0
174.796442995077 0.0364438329183992 9.4104629706052 0
178.680438363808 -30.9940163363128 2.55615569331136 0
163.143512924764 32.0955218053372 20.0365398168464 0
178.448972522091 -10.0805322601847 19.8696726215241 0
143.373287061556 -11.350759091871 -23.6744624201873 0
124.117220123745 19.2444958778692 -4.5782299252469 0
-111.187844218947 -19.0130611738322 9.08531441713426 0
153.641400516291 22.9309647011716 -8.50404821358959 0
104.87301441375 -15.3711800094239 -15.2206737864938 0
158.244918833856 -16.8680075328142 22.2772386999875 0
95.7724629211004 11.009876620076 -22.0393045117987 0
57.7050289147047 -10.1110377600408 -22.4072365484698 0
187.720943792282 -17.1677675783598 -9.31735818776125 0
128.169978948145 3.29588520851113 6.01740894279184 0
105.443558571267 12.9201967022959 -0.129136767647268 0
-46.2665188536774 5.70881128297678 -2.70699736641976 0
-8.07904976757661 -2.6305312379173 -23.4092451093235 0
172.623377251251 -20.5104277835637 -22.3127407548908 0
-58.2586309978004 1.83038959918277 -17.3709169030302 0
29.1882692310699 10.7975430906261 -15.7737285690013 0
185.260354965124 26.0535207462794 34.8411375031524 0
8.26774868167523 -6.92191498656017 0.445842668193508 0
-46.2434235354707 6.51581442127281 -8.43306511071233 0
147.40333863203 -2.43872286935095 -21.4330338333018 0
37.695443956911 -13.8311870900505 -12.9628578801709 0
34.257098980135 -4.82620446600541 2.15988628894024 0
-5.88987929922055 -14.6818980518329 -11.3355904715848 0
66.6287365585008 4.4988165637645 -25.6077201667843 0
188.316417090558 6.12999042305752 27.9429564400723 0
172.728292833079 33.3428596204805 16.8135571862749 0
118.090584566059 12.1820526101952 2.60531794217812 0
137.819856732268 21.5585844629173 -2.44879876099542 0
7.01693871714421 -10.869610073522 -3.62424028178736 0
159.920028431684 -13.6912024225907 -27.3397454943115 0
194.005310522266 13.2524537291072 26.1617378961471 0
-1.74799098791302 -13.5239923529562 -7.31293948913648 0
144.850459815932 -13.4322884397067 -23.1142430195706 0
165.806523499942 -0.701639242905594 -22.080814427906 0
181.296458284717 25.5119703638967 37.2809231397243 0
50.3339502975435 5.5598196010528 -24.5328150118946 0
188.696647538616 -13.4235170350052 -1.04934213075387 0
78.1423798286471 13.8976635316169 -6.03073700659877 0
-83.936951973211 -18.0327381460102 -1.70168742816371 0
145.59437744163 3.99155275712558 8.71230445006117 0
187.583187560842 -11.0356650929512 -1.71153617569236 0
23.7053487037597 3.9767659932836 4.29647411520018 0
194.717144199517 17.1823883771981 3.02857846613736 0
169.524747025084 27.7819848822435 -5.03712619728897 0
156.575787326502 10.483209361597 15.2871930946814 0
129.675158437194 13.4800142054246 5.1403840922318 0
109.424944146717 17.9562118386121 -12.0590027353732 0
113.814832344071 1.39873628958803 -25.4099135735154 0
160.929561703498 17.5902857858228 -16.464465101091 0
-38.3964669173311 -15.718524607662 -10.4646703729545 0
122.715000772203 -8.0831050399936 -24.8058691393137 0
-16.8918561673707 -7.30970978449213 -22.2295994836189 0
-99.8916189525745 -16.9316639589671 -8.06941946972583 0
-85.08281675524 1.30523344650358 8.98349002478292 0
-122.185228573447 -20.5463011652577 9.56855951488677 1
184.195498242285 24.620644965171 -4.99066233288107 0
192.499594739781 26.1555573340802 4.24810540692235 0
70.4993339873966 12.0317388900238 -4.90213314289379 0
158.650252842886 17.5657618962905 19.7351548526754 0
160.960548901402 12.6907830151937 23.3510236671529 0
-3.20345849676663 1.84593108016632 -22.9012298280364 0
183.671469482771 -24.6372288796686 -6.39059521896989 0
184.641840230149 30.8909980645372 8.76924631899902 0
148.61793575238 -7.47229094496497 -23.5041769097655 0
-30.5414041303608 -8.96604369000413 -20.9203836258794 0
-40.2294716830338 0.186601007454986 -20.5184579052644 0
-2.11340100043303 -14.5543257414119 -12.9632435422764 0
76.2716485433039 -11.5007080815145 -21.2946929742717 0
22.6042562688434 5.34127513004857 0.0861700447673886 0
167.983763221555 15.595630958216 36.4880012973384 0
27.2592600510244 -12.3632306020187 -18.9283630794208 0
-60.0406672894163 -8.664401152255 7.29523838979449 0
146.819028107782 -12.0787150967756 -23.9286216290837 0
150.743673368615 23.7198153823598 -5.40285551996048 0
129.834123661705 10.2657349831415 6.03536072275789 0
44.5385385978952 12.2857552414176 -14.8003446696283 0
-19.9888164528155 7.28966475855952 -13.9479970250741 0
150.578348724184 -15.8653043812948 -23.3381634998259 0
172.111808330877 30.31158332899 0.836978732328722 0
-12.3613095572047 2.33990243512151 5.89245387350522 0
169.892223538372 33.394973605417 15.2761632063797 0
120.966030877106 18.287130603864 -12.5756055631916 0
49.5740304924833 -1.44684164523864 5.0973530864317 0
185.674319181767 -19.0125457815099 -14.5799733790705 0
47.7503951316901 -1.29034877818915 5.18858814701172 0
54.1067471073425 10.9381318793291 -5.84039759908912 0
157.260357988352 -22.7473718415592 18.6205999437009 0
177.566926409865 18.5640567698671 39.1932542601052 0
150.637158560019 24.1415553371371 7.25949767815185 0
63.1646321137683 -12.5628051154609 -4.58602237046968 0
111.354038094316 16.5807820963006 -15.8081953719736 0
195.12838769233 25.12109439366 20.8191093725296 0
134.306270869777 -18.8043094725852 -8.27581114079472 0
72.8226484734606 -11.8431006897088 -20.6983765866838 0
107.055721895394 -10.9170240720186 4.66664213091992 0
134.752179140705 -4.05578373358606 6.4472343017143 0
-41.2610885879623 -11.2713120679962 0.655921188719943 0
-52.7322248838722 -6.39375706987509 7.22554766883643 0
38.1151078833175 11.5273798917812 -10.4920207965056 0
123.658110519078 -17.6220936184571 -9.88091441922513 0
75.0023269088665 -8.83730042393999 2.05919791942033 0
145.075933298842 5.81677199659547 8.81826838300366 0
105.937260643914 8.80820804044703 -23.260951817682 0
183.579541509567 1.61321241670732 6.50318730474557 0
86.5152638685817 8.01619207132493 -24.2163058607985 0
65.1838481572642 -6.90894944327096 -24.9596287658511 0
181.725799205263 17.310645334011 -17.3662160010293 0
-20.3766435121407 7.52051239160647 -9.01025575116701 0
-4.03319269370412 -11.9957753032892 -4.46199096442181 0
79.2004105180278 -14.6118409647502 -12.6426162117549 0
5.49493071874443 7.81075734569284 -18.2567182799363 0
71.6422275221879 -13.0089365925225 -4.35062359797291 0
132.600075794836 20.466722314806 -6.17483415592159 0
-77.325406275046 3.66497208802706 3.47852116855012 0
187.405634183117 22.6211571981495 -4.13511404700284 0
86.9494313307478 -1.41568885622296 -26.9887262936326 0
100.449900731808 5.76936506639664 -25.0848913058021 0
-26.4526211072509 -5.91417616718416 3.60308103160961 0
-74.5305002538632 1.66346320186925 5.8563532720952 0
-6.10295145608704 -8.80203401241016 -22.0054813269184 0
158.020727601133 3.39954987240734 14.1948687425229 0
-15.1277563551234 -5.11504331530415 3.50044487796358 0
176.482034971039 28.7657674955356 -2.88588873019892 0
-4.22509657635708 -1.99908429519592 -23.5960904575452 0
-66.9485759191112 5.75919134663883 -5.57276910758891 0
154.475429571928 -5.14086330245762 -22.5771885683679 0
-50.3547541342559 -12.0428724808127 -17.8128863075374 0
151.666864603112 -11.5593619727503 -24.7229244048309 0
-65.5172085482084 -16.5784222772886 -2.63887062834686 0
154.630276710378 11.1485118554486 -17.7618509333206 0
55.4345773307268 -11.8693231518748 -4.15426867654208 0
104.42047724728 1.81237199500833 -26.056356930284 0
176.811572588727 15.4818986563748 -19.1895450402595 0
123.28381759055 16.6958069204702 0.50410156108107 0
150.04826636593 -3.76929519724505 9.44791945884277 0
172.995789236104 -19.9467231123338 28.8556936248627 0
-117.780812780863 -18.3445665344414 12.2674879316904 0
99.7039402096193 17.435918348191 -9.16620293525462 0
63.4251144936856 -5.52281031971324 -25.6005822303523 0
186.954981595192 20.9869119751051 35.719454233828 0
56.0966689411344 5.29923359118296 -24.9205342150642 0
130.183244723123 8.11168803406976 6.28334580731948 0
-79.3950180072875 4.75875256968722 1.21968933557818 0
13.6467061302912 8.92661182589562 -17.5869217191417 0
35.9357220202997 -3.68923657298687 3.06442873210136 0
62.1240649259593 9.67949294212477 -22.2233923045999 0
-44.3192786779955 6.41564435644537 -6.23537480461584 0
7.26388263357237 -1.17310678960372 5.94201223882516 0
15.6325348697837 1.47528186255926 -24.1431403499344 0
-56.837380737978 -9.10073802479486 5.98272835215176 0
-6.21198169655175 8.39056593912857 -9.80280657673686 0
184.775524670988 -9.14149061250241 12.8463486392897 0
-64.4399425180294 0.533917979003209 -17.5360205340028 0
144.061963031406 0.16460710663402 7.80247940320776 0
-4.60461761258211 -14.6487259995847 -12.5929037608653 0
14.6139254112947 -14.1923496955561 -12.6381675417563 0
185.108549493402 29.137624941992 3.85628466284783 0
69.5337898035591 4.3169427727638 -25.7367119044152 0
183.301564610799 6.21902509508035 21.8132297927491 0
47.0287669978795 12.6340513283012 -12.1235376009837 0
-59.8966703422625 2.06673280945233 -16.9773482816803 0
-27.9507677079198 -2.83418438059548 -22.2104423781022 0
182.630358425285 -6.5088019714356 4.6568343620426 0
174.988641857796 19.8471365344895 39.1696671740396 0
-112.861531567247 -20.2109174258224 5.7163409129231 0
-37.4839686691775 6.8538195754313 -10.4647798396817 0
185.230863001874 15.569480668608 36.5829826146803 0
131.022148306972 -17.857216269058 -12.5946822181892 0
-109.134490597712 -2.91447083266204 13.8712513794239 0
171.936355469549 -16.8070770193428 -27.6099579061947 0
-122.422632770009 6.78444636472346 3.7322473628005 1
2.98079496353106 7.96354895567086 -6.75962950039459 0
187.63277792139 -13.2944736233475 9.23217419209801 0
141.105412865292 17.8551778827704 -13.8732328687856 0
188.674971771513 27.734008644607 7.97159153172053 0
24.9722403280534 5.11076946668015 -23.29835042284 0
144.978900453523 16.150562433831 -15.6300619962457 0
169.587194045386 26.3661977289474 -8.2482447790549 0
163.460468003531 7.33126045235567 20.8660545010601 0
126.442865045434 -17.605361651455 -0.487910545491549 0
91.3156348450238 14.3285379300611 -4.18781914910092 0
-14.2046063771194 5.59311209382667 -18.6371647769149 0
24.9949813879513 -4.5695272032565 2.13682432947589 0
112.365711443892 -1.45339513098462 -26.0273588731602 0
-95.7269694620448 -17.9114401718682 -6.33780109762316 0
71.5042463378876 -3.71962280524193 -26.4168945862859 0
158.680062209223 0.307885173274651 -19.7194549765974 0
69.8539593122144 14.8325873013579 -10.5753011823713 0
84.9606022985149 9.77208381845232 -22.9666847242383 0
179.790115657918 -8.71128704062747 11.7946384453262 0
139.351572853474 19.8944127686123 4.18196252479338 0
183.301107286917 -30.0167889364109 22.5743924488877 0
21.0115175515667 -2.32660881904771 3.91539391485161 0
33.747969912298 -13.3330760795899 -8.89623902648346 0
-12.1932629147495 -12.8967284482069 -18.0132370283896 0
-92.6909489707661 -18.563118939219 -3.15406633295321 0
66.8173277159642 14.5410803107148 -13.4240087332638 0
-117.165227903783 -1.18396775196036 14.4962523864089 0
144.899989691757 1.79832580976561 -20.2197474207169 0
135.794956758273 10.0088243284791 -19.8347081210379 0
118.486886161678 -15.6570719433056 2.79554538400211 0
194.280556467813 24.9947912275403 25.0438838428147 0
142.83818266915 11.7495044854872 10.3391041234554 0
193.943322077109 14.5865034459589 2.05326108103176 0
156.40739019945 27.1015965531919 13.835968664962 0
176.007516125833 10.5836802156511 -18.40385676254 0
-20.2289891661139 6.11987472245462 -2.93097914381783 0
11.913941421669 5.50314189652492 0.177819319452538 0
184.959253651267 28.0038669469188 31.2643873483213 0
95.7515829738565 -5.21779051504897 4.76556262442038 0
180.138686633406 -30.7046585037107 16.9097365635893 0
-47.9682438591473 -15.0674167145381 -3.57254069720906 0
-75.8551715410489 -17.5074684684418 -3.24598518091723 0
133.319496593725 15.2334654014262 5.68056241981538 0
188.729480496068 5.36936006077583 -0.988668860133754 0
166.740759525539 -32.6633554971656 8.31157329136046 0
168.097434042771 -13.2719526646451 26.4783427911597 0
-121.804352523044 0.0098907783091951 -8.65352627723906 1
157.637866501923 27.6768493066745 11.3983687982968 0
-28.1974964430221 -5.45443767035852 -22.0988026857636 0
93.2107429908867 16.9582283186265 -10.0745767763698 0
-84.1281885850463 -11.1364372341588 -15.1471389813734 0
20.7598176725262 -13.1953094605618 -7.92052301689768 0
-59.8847221865282 -6.6140777702749 8.91594938195207 0
64.2758238789696 5.20195195030124 1.76666250775332 0
186.032865041175 31.1082254994896 15.9823468350748 0
-44.6974672704837 4.12956558892088 2.17516836276736 0
148.962911028035 1.31979801494972 9.16523938729003 0
-85.603113973358 5.43058613103627 -3.33654831692988 0
123.659756100547 7.82061966063297 5.38694423829214 0
47.1208336651533 11.8192222321836 -8.5767423147684 0
171.533778172555 25.3166156144879 -9.98097771827384 0
-14.2155210294719 -1.96851777003868 -23.0213232693478 0
123.819602495106 -14.4088721333416 -19.7824617316415 0
141.170408653288 -0.228156213507581 7.1994132621668 0
30.6703585006044 3.64802705499559 4.44683829738486 0
148.798988784638 24.5326314533854 1.65096939301236 0
158.351482784689 -12.505639530551 19.0472748758219 0
182.007561131604 -9.74845666540318 -18.8372741359497 0
128.187704198092 -17.8651223570245 -0.383671295769093 0
-90.5792177943402 -18.1569403515721 -5.19180028670806 0
178.140405698136 -8.74597042202889 -22.392975872008 0
94.5398174258437 -11.5486048848823 -21.9600633731959 0
121.378956172142 -11.7460786764147 -22.6192833197189 0
-74.4999177398292 -9.74275394460235 -17.0230687382743 0
-106.407511626445 0.0310134140430093 12.0251359641346 0
7.83594585667296 9.39334139838366 -10.7898386520716 0
171.989805823997 11.1993732145133 36.9562959583451 0
-119.210645930294 3.85711359410222 -5.63697970503226 1
160.927262932829 12.1624447442002 -18.1107669259038 0
180.331639678909 31.8260350583725 7.52946776481918 0
149.167028508848 -20.3008212661713 -16.3083407852706 0
187.907387009945 -14.1619843458548 -8.38661924615313 0
102.193799651567 2.58842371460488 -26.0179804293152 0
146.647764676141 -21.674425134541 5.19806138298255 0
150.827567579987 -16.0141312259021 12.6235256877705 0
-74.4150191490402 -12.1890902782777 8.91238814423751 0
167.317657444772 -19.7676324543853 -23.62895705354 0
146.818244096757 12.0866264481235 12.0387660364714 0
-86.3014560257291 2.82151743347453 6.34311579935324 0
108.281059772519 -2.76234703326984 4.68724515260556 0
126.744009488273 18.6062229883596 -12.1602184954307 0
165.188838308278 26.6567380865112 -6.56154113695861 0
133.558125119687 8.61293469659446 6.91195303033984 0
159.48961020544 10.0642362593933 18.1418391615571 0
154.2137026958 -5.26675976400261 11.056145695222 0
182.691227948119 31.5690481402988 18.0362862143717 0
74.8246147256612 -7.08153457220381 3.32737992183141 0
-37.4210947596898 -5.5194171056285 5.42979878525594 0
-54.3129014750434 0.642755495623444 -18.8144974514732 0
135.47442446305 21.0455560860308 -2.9689105282082 0
181.488970425175 6.37510575316484 23.0951063457277 0
4.57531210071586 -12.8312607163343 -6.3659216943941 0
-43.9624803872149 -13.4598268881436 -16.7096065117562 0
-35.9633604671094 -15.6817905117971 -9.73137117560423 0
11.0319425544311 2.17631093419135 -23.6709994168693 0
-7.41355320081245 -2.3793847340405 5.93517383713171 0
-51.6177676195456 6.07406147106923 -4.83623769409007 0
188.506395890341 8.54916028473174 -5.50911176363171 0
-96.8274012543078 -18.9135521318363 0.700284699549321 0
167.061082989635 18.111167203072 36.2054804827738 0
174.090513296183 27.5160204009617 35.2478939640276 0
-28.4797193889692 -9.19032243942721 0.646082267239334 0
-85.5749965720682 -1.55070421944229 -15.4782661088062 0
168.312732790249 12.2803997713885 -18.8587973879962 0
-17.7271532809984 7.60835792102572 -13.3013778735186 0
-69.1325796208576 5.55172543849482 -3.18756345829663 0
156.872002852592 -6.52288098139748 12.9129767670338 0
-30.75189687607 -2.01256559915763 7.66816660128972 0
164.671367713733 6.36069107044201 20.7758781178647 0
177.627177824846 -20.4575964915858 -21.4813469347613 0
-95.1115400161288 1.05915859715275 10.1113443116544 0
-33.4441207732992 3.85408344411144 -18.3862529453373 0
167.963781851792 -15.1994246638997 -29.2619388642659 0
168.937118462937 31.7367555339488 24.4460447874829 0
185.496927420962 29.9650792521115 7.57219660265393 0
68.6536888187685 13.2526256845733 -18.0532723861714 0
-76.7858403033455 -16.959405705374 -8.44571054803892 0
97.3509628862087 -7.65755030304211 4.64680976866762 0
112.322765939992 7.88404693194624 3.68633346666266 0
95.0466943541502 -14.9845480784514 -15.1791190493195 0
-96.9508587916845 -6.59923493860146 13.8666966288183 0
111.691467507572 17.5635401236552 -13.6659082680513 0
172.000804571648 -10.0692937999126 19.9953745824837 0
134.596450925799 20.8300134062777 -5.47216534952578 0
181.245309568937 6.90055871438219 -13.9645492679259 0
159.759213081117 5.74207846704218 -18.4211868715017 0
176.07475735982 -23.2854356237949 -16.353755174408 0
104.334503843847 12.1886781181247 -21.0403026483328 0
5.65214439071149 -13.6533876553264 -8.20295223739472 0
21.7523543049415 10.2930049554205 -10.7834228686601 0
141.989525782283 21.5631627573701 2.82821243926722 0
146.829561224048 23.6436170958909 -3.05082701009754 0
-23.8506997111796 -14.9986576321005 -8.3680216055087 0
134.645154112817 -6.22375928838327 6.55285418577693 0
-84.4008388094922 5.32974243954491 -0.739246677630799 0
155.704945746638 -13.8928712849027 -26.0269269095011 0
43.6988637592859 -6.19017188696217 -25.0077235423387 0
148.983637065264 4.43530202766096 -19.1776995352104 0
-9.50725226907324 -3.9584444067759 4.08839477697697 0
160.691309745454 15.2313204007873 23.2846977246762 0
150.326076515374 -9.95087450325971 -24.2347205695072 0
-42.4090752969633 -7.45900916582054 -20.7973906335966 0
-19.2387999336304 6.6706713583939 -16.0249843353979 0
144.717491870597 -0.701983015075744 -21.3284154799293 0
180.040427324864 6.1436800155534 33.4186269457391 0
83.3896763393169 -6.4300420695794 -25.7103936454739 0
-119.548450825315 -5.17831627283667 -10.429642209873 1
158.802960523171 25.9696481333612 -4.71625579729776 0
176.593143037078 8.99135803153483 36.5710793177078 0
30.0039867737196 -10.4855286927719 -21.553233120859 0
25.1214432615616 10.4814264933119 -10.6038895973254 0
-86.5672116779899 -5.74190318995498 12.4291005805489 0
169.076568533456 -32.6562433074512 4.68591748936622 0
160.868888459888 -18.4475157217295 -24.8868284335122 0
-39.5875179680924 5.55290269990605 -15.0112456781695 0
-10.6654187689449 4.29015564550401 -20.5877979087727 0
-102.072699029287 -2.86803200882166 -13.0096446730382 0
100.076884420111 0.0582185723533256 4.27715263954272 0
161.258009127393 -28.6685179036139 14.6204052792093 0
134.118107859897 4.88779456633831 6.70443269918119 0
159.70298065227 7.93144361722177 16.6348896199267 0
156.641791010547 -26.6590597701051 0.00817719759195274 0
144.670874393189 11.7629874043037 -18.2445050719309 0
-100.393419651111 2.66532409016813 8.55018350848609 0
154.230333958812 -15.3754982454343 14.0837547390325 0
97.3905400792977 -15.7585593091124 -6.5945226599978 0
139.376650261439 -15.7570194302571 -20.0191943507166 0
167.224064863156 6.5899113760297 26.7564102903818 0
-105.291717741376 -17.0309431412833 11.3471035538451 0
44.0945586364413 3.33442927117205 4.0510092776115 0
101.057571115609 2.07218433987019 4.17619106067338 0
-62.5755968080401 -1.58987050926907 8.55662449646922 0
177.463965628182 6.87316610879598 19.9068913439355 0
121.569156586218 14.9924766563024 -17.8357199684567 0
14.8507922124668 4.8107120873848 2.03168697346734 0
-119.895088497613 -19.139492026775 -3.61596090276638 1
132.39418508934 1.43571338436947 6.28508441596634 0
169.250045249136 28.4309233509622 29.0017155184379 0
174.550701730242 33.373205539011 16.6174347411249 0
1.89870450877084 -13.6576155055197 -7.94047411188113 0
109.218057393911 -16.7100778296135 -8.85815802481705 0
124.030785744224 13.5578304048192 -19.0093979384447 0
-16.238349830647 -14.6319519819908 -14.325172563522 0
139.895398031167 21.3259265585236 1.48042650357974 0
124.488787819519 -17.4229908476553 -0.881216000052186 0
174.074454163669 22.0368982111673 38.8469823389976 0
-75.55760652579 -1.08398352214848 9.56984915512177 0
127.771068061007 9.44854578794403 5.78989536365683 0
58.0017248648193 9.7034589005687 -3.71308162038131 0
188.945821571909 29.0434241990059 14.6984293845486 0
153.519779024126 13.4357869888509 -17.4804482533871 0
-41.5136848233552 -13.9734389298422 -16.0947251927392 0
-112.567622750379 -14.1287821503357 -9.41370421176681 0
165.746801507363 -6.17673581863045 16.0738247126067 0
163.878108510424 6.84140019200967 27.087090863647 0
169.611212764321 33.1338599219987 20.7923079074534 0
-59.3768211918841 5.39909400867319 -2.08517606267191 0
-73.5427386008233 -16.1328337774616 2.30343568087424 0
-63.034919803311 -7.5764041737527 -19.0636722854723 0
-53.4663535721521 5.0791755376237 -0.795425130371589 0
20.8477172609134 5.99696885689294 -1.3240373180804 0
-102.710289819434 2.57926214728187 9.30582350696875 0
166.191011052499 -8.75085823076248 -27.518901841775 0
-48.324037990186 5.99922220719261 -12.2997885789825 0
34.6243622016578 -12.7580158133262 -7.12660447803597 0
-25.3123517161537 -1.43110571923722 -22.2212228555653 0
171.099763304165 5.50156621372707 -18.5216190805631 0
149.092824689085 22.6637381870801 10.4414259647044 0
-77.2600163698166 0.544895450506857 8.93803511785282 0
-100.923493738445 4.46292915642837 5.62455129817198 0
99.5199279684827 -14.3608096017562 -17.5863730448464 0
148.341240863438 23.4334483634439 -4.7959364797625 0
76.5877315452573 -14.0093696763264 -6.0970439379001 0
-62.5710161172683 -13.1763499563844 -15.8398849394669 0
170.684449768639 -27.9230469492333 -9.32204176586628 0
-98.549705174616 4.21675114029913 -7.41167018365484 0
123.964582682066 15.4762695918522 1.88393985072636 0
49.0398969098908 -11.4178658419342 -20.632760576779 0
66.033606045001 0.864920444421311 4.57153408821329 0
-63.6012220147367 -5.23122402849593 -19.3418472407567 0
161.354744003463 18.094965097808 24.617887834995 0
-42.4687829530801 -9.58244778709546 -19.9799638182045 0
77.3394028908503 -11.7626282083536 -0.926691561897205 0
160.131383164721 18.3781771774936 22.1325010102805 0
153.228549824156 20.4947238717078 -11.8965246565011 0
173.635327105932 2.65834985241244 14.0386396867546 0
162.854903285576 -16.1405276025384 -27.2636360541264 0
-107.428039319186 -4.50644847529262 14.2492549961028 0
24.3582696228066 6.28740119311092 -1.75875700352216 0
163.392567393292 15.8873679770594 32.675912477842 0
186.357417580511 28.6492118152146 6.44779859356448 0
169.505164509445 16.9798870328484 37.4963510406311 0
-55.4573200953487 -16.2296278595916 -9.5678784204508 0
107.85687637763 9.88875018585346 -22.553014616042 0
196.082730749085 21.5127715422417 22.1304645566547 0
86.6870412876362 -12.8126526918771 -0.800878447778908 0
181.760895698018 -8.31386956734306 10.340074439493 0
185.011521933632 28.5007855029186 25.7542147745094 0
156.855962827208 -26.7612597102331 13.1480428564355 0
-88.3754685380909 -2.32909464029373 -15.2330213950797 0
112.10672565445 15.0194661800151 -0.590613097612687 0
184.356355214655 -12.7830086231534 20.1555659691063 0
-76.8607866658548 -17.4093050022728 -1.18786245733589 0
193.741131016705 25.853176685572 5.62375228441235 0
-116.389495725459 -12.123128541472 -9.83504752225136 0
-92.6814762940403 2.49593209172725 8.45315426068226 0
170.773468740231 22.8786285153302 -13.5882216849507 0
156.71021667296 20.5257837235088 18.1796688960776 0
143.262661942257 -9.28932566355777 8.40755414116586 0
-99.7304341223519 -17.2774223910573 9.17972251415483 0
153.917485314645 25.3747446450763 11.9759638063741 0
79.6568412619066 -14.2375438504107 -15.3337325579633 0
157.732298845097 8.69609376848576 14.7647554454897 0
146.499545045054 9.23397214987038 10.5299557402126 0
122.264962955191 0.350707022317826 -24.8168392169681 0
-96.5964071487126 -15.3285121280133 11.4210192724862 0
186.339282325285 28.7550303954103 23.4245277354759 0
164.556318060643 -22.3730021086506 -20.3284023083217 0
154.788004373812 25.3942884529259 -3.44951924243782 0
-61.6193853737557 5.53544361329796 -2.78914813621166 0
-92.4480363012849 0.18001314741857 -13.4825045782954 0
196.02999074247 15.2140266298172 21.2928665035708 0
173.951351515647 -23.8387876677854 28.8474418200678 0
156.497778256061 27.2871578837833 15.3364899874765 0
17.2918654863801 2.54491816758673 5.80830257602598 0
109.550617583157 13.1514948810585 0.378203680931603 0
34.6092823527465 -1.94167410554094 4.60087872546972 0
-48.8853038237685 -11.3816022970987 2.10172935759498 0
-90.9123590168624 2.82430620779962 7.32881117535158 0
-106.39958366496 -17.5321952972028 -6.66449094835806 0
195.898049974477 17.8890947627504 23.038202449716 0
170.537304391089 -29.0334711261618 -6.99053457507238 0
54.0283929132529 -12.6872811293801 -18.5966388860761 0
154.441268266971 10.0234970822806 13.7848872042572 0
194.711169563988 23.3468814420123 25.2583231781235 0
147.626524700757 0.0104888789713265 8.6889535013144 0
69.0860656692672 13.2437345924166 -6.65002171431995 0
166.758021538226 -5.9183211085372 -25.5941898339447 0
0.334748858069437 -2.09215626017592 -23.8217223342359 0
157.859034497898 -22.2272963637759 20.4042011168368 0
126.154425355139 -17.9676263563813 -7.91567668558806 0
-4.59604040465423 6.65234232705574 -18.5102835108722 0
191.548354758888 5.40902343862171 7.82687848691044 0
117.953734888561 0.65007368713844 5.09855564643483 0
-40.8048071648546 -4.36736885082176 7.34000370714206 0
186.403103794282 27.728712557783 3.14512111741952 0
57.6650825069405 -12.5184225484563 -5.17441153417614 0
-115.062099606295 -14.6380036759608 -8.76645996163271 0
189.315025903011 28.5231620542404 19.3484402817821 0
174.214896573302 -12.070467097031 26.3290064421405 0
59.7974862611538 -13.9302770687361 -11.1426437048735 0
11.6950797086674 9.34530332794117 -15.7633006226214 0
71.0186890344663 -10.6554986173867 -22.1493032941763 0
-103.571884143695 -13.4191570391711 -11.1580759339228 0
59.6652464506585 -10.8303095770768 -21.6500561416898 0
-21.766882871638 -11.5030847764459 -19.4912108974303 0
189.212751349298 -18.2745744065531 -0.496616855434244 0
51.7933588491142 -4.72158388060502 -25.7405669931787 0
-112.543852666789 4.05416491756174 -5.89712432528891 0
42.3418521088264 12.2224087865118 -13.2814877490106 0
-97.7699481969354 -18.3560903606809 -5.12103805045843 0
194.643174870221 26.0093749451299 8.23155748626792 0
91.6800284588375 8.83322833150987 -23.6821251438879 0
165.31926188182 5.37908509895242 -19.1483535117323 0
7.09576368566758 7.65749916291077 -5.56332568755302 0
132.778655757874 12.183447791048 6.45010532819614 0
173.157104700198 -9.58172813381454 18.2309401181615 0
65.1520689669489 2.42009364387204 3.74864132621084 0
174.291238135677 -1.12900733904725 7.99950114181321 0
185.702380823612 -22.617861345174 -8.85531585594097 0
189.440235730272 6.20063368514841 26.5319084989247 0
-108.387959729003 3.94003629011488 -6.80059334775897 0
190.262165138941 -22.1828614328939 8.2743811958988 0
-31.7378157254721 7.07590644846716 -11.060527630151 0
96.0174781012668 -1.48597767868586 -26.8257438986485 0
117.095048865464 16.7385422433723 -1.3310959831767 0
128.71949718268 8.46254072527331 6.02154381795587 0
-15.1674127857326 6.26057854191298 -3.26047645714459 0
116.788334835196 8.09333454272455 -22.8913619129719 0
132.060612128448 5.42524088700053 6.47709482072987 0
181.216955063686 -19.5937194590783 26.7205269929956 0
194.232716513102 25.9647099679622 19.9193567793811 0
11.8502936242646 -13.9326632424201 -9.68823952452206 0
-116.656213028975 4.28311318574208 -4.81571898851326 0
-1.47475715658728 -5.16061470983661 2.38341176815673 0
-119.846726085934 -1.76336910075605 14.9913804912167 1
87.0921992795394 12.3051373244518 -20.7849656647909 0
105.410393488532 7.33147561926744 3.0356340267097 0
25.9154068098044 -3.71688249036397 -24.9519853978771 0
141.498385768101 -19.772535275594 -8.90073442353403 0
30.5953886490764 9.03891277547253 -6.21664357778588 0
-99.3868897622223 3.73894148885091 6.69633615413549 0
-75.946526189327 2.92321393937098 -13.7140209041221 0
169.005597383042 -21.4331649020675 28.5033716264499 0
176.818318188931 -26.1741951737586 -10.1394721219091 0
165.830454286843 0.152569885804179 15.8673292224018 0
20.1413942931252 -8.13585040387389 -0.781412734782861 0
133.300639978622 0.578062470663187 -23.0994730315975 0
23.4590539361579 -14.026327160891 -11.9578729042628 0
190.52772901666 11.483768636336 30.8454620089066 0
