-236.945505338347 7.25610321529576 -19.3870027741336 0
-164.29073966599 -14.7347179089348 -8.15666390186307 0
-184.595906025512 14.8354135958067 18.3948452018616 0
-228.865573377754 -3.25843973186557 1.60225714338769 0
-236.199780007988 29.9411212521795 -27.7151690023749 0
-82.9605973681586 -17.7566844442154 -15.4251184568067 0
-149.22146279837 6.49918923842684 4.65363978077303 0
-185.774320002253 14.3134621708705 9.42726147342727 0
-215.49815590602 40.8970337525398 7.85726765420729 0
-238.749733762945 25.6479808544551 -27.1758358029857 0
-242.040325240449 9.09078428030585 0.367690563416292 0
-244.509080719638 32.6304873847378 13.0455949407759 0
-226.304208435121 49.0026871123784 -5.69747148041393 0
-199.951529725769 6.25683358884568 13.9343692654877 0
-23.5974659183732 7.62118263504369 -6.51436807306644 0
-223.796003719082 -20.4900130355059 -10.7828575890108 0
-61.8877979583385 -7.23378880313554 8.70082478629546 0
-125.73519432626 -10.9795967385108 12.9709733442558 0
-186.120329802593 -11.8353327114767 -8.43415776466072 0
-50.3036585609465 1.13689181682602 3.48918984971494 0
-51.8946751512527 7.27551405512449 -4.57186628277609 0
-19.151266626983 6.60573052712788 -15.7868221244301 0
-13.3643683923636 8.07148687623471 -8.61925342366755 0
-116.181168674812 -21.0089145159038 8.18115466436964 0
-156.244547732725 -24.0248746267225 0.727778848282181 0
-67.2017888373147 -15.7288438865472 4.86486050317152 0
-40.3741364768558 -7.37443503450163 7.85768743938494 0
-210.876273593327 29.4961748990433 -11.9214457351849 0
-225.595220289043 -5.88157563179798 6.12193775453331 0
-163.693501536806 -23.5448394233186 -0.665000033858681 0
-101.117991222151 7.23113786908304 -8.74088546276638 0
-170.349936250576 4.91113983079222 -9.65616837797576 0
-220.316516726636 35.80371210809 15.7605290887657 0
-109.76444798887 7.30282492614422 -1.09895181936466 0
-177.433587886251 1.77193705672283 22.7545388351154 0
-246.569293057657 43.075461903417 -6.98532403645044 0
-151.929366890644 -13.8303446849057 15.5839228491 0
-196.178086885812 -3.55691698178742 23.3269429389 0
-242.18413109127 29.234845095132 15.6021438117983 0
-105.800925429362 1.37309712932996 -14.0627982248694 0
-225.867538774687 -12.1112108142054 -11.8782067097855 0
-60.9641748014159 6.81589938377302 -12.6244405459419 0
-222.489066894858 40.6164360749872 -22.1334482673584 0
-10.9259151740575 -7.76854775695105 -23.5593873822259 0
-208.89008974072 27.9653491355947 -2.49513204410337 0
-201.068814286493 -30.0784804579995 -2.5779933036082 0
-216.011129963442 19.1310409434053 -21.6216258861163 0
-231.667067366838 -26.9918606035489 19.0778363761425 0
-234.120011691857 43.0861881554238 11.6232431309351 0
-156.706326083024 -24.8329031253925 5.53258911673397 0
-155.194906350216 -5.06808765478812 -11.0720965519343 0
-236.003202434969 8.50246527158685 2.45652083766827 0
-237.493008727077 -24.7128954096875 13.871649179439 0
-120.489925700649 7.78059400257222 -3.32760153236371 0
-251.337805774909 36.622529374982 -8.89163811268774 0
-54.7401607564489 -2.63628532755837 -19.9910715087604 0
-42.6472715657709 8.01353181333137 -8.67381998277358 0
-206.620314506531 0.482668641966485 -13.5172621527283 0
-207.586421191981 14.030417271763 -12.4598161277478 0
-31.6480786824592 -20.4942774811621 -4.59715152769399 0
-223.849065233851 -15.5206054648388 -14.3087638159141 0
-192.221106378049 -25.4214362221371 19.1236617470283 0
-62.9739415131854 7.98802750903284 -8.75358271545459 0
-4.0208926059497 -17.6451462668453 -19.405495231184 1
-211.29082574222 25.79655850009 -13.8583764851326 0
-127.915942516161 7.0745734113874 1.23264746110331 0
-194.782643329231 3.2311061897145 -12.9486052312076 0
-58.7095321274596 -12.5306710414396 -20.6708099451986 0
-230.026446670732 -14.1812872022513 -6.34353588683262 0
-173.533217505605 -12.6333704229829 -8.28143818309649 0
-209.323605596506 16.6092134526137 -12.7357350980329 0
-239.136094107734 -5.2592319279145 18.4241252612759 0
-234.879325661755 -11.4121680058448 3.20688874253851 0
-83.0122424315489 -22.0070017720416 -1.615720244925 0
-17.2666932985575 3.60059578447351 0.60680134768499 0
-109.176406896185 -23.0967737409573 0.403201852603278 0
-113.876397726432 2.70057588927922 -12.8827607409517 0
-142.356909192577 -19.3161490677278 13.3114655987235 0
-144.131064475736 7.91368532817358 -1.29517518287877 0
-176.757349092001 -23.5020170275053 16.0079690730814 0
-218.416900524214 -8.99866913539586 25.3119012399419 0
-5.32453634798354 8.3602228039394 -11.8856860899269 0
-49.8900053206655 -0.892759830818858 5.22389609457924 0
-229.174258874561 -8.24305812987084 -7.38763336779575 0
-239.1409179882 7.49956175808946 -3.69170252583139 0
-241.837644005913 11.0030592042951 5.30814462452265 0
-183.867004678451 9.46561620347343 -6.46307792734372 0
-124.886479291422 7.83854552000919 -2.87626302019562 0
-253.206101496671 27.0538591508792 1.86072315475097 0
-115.321840637222 -21.9529127079054 6.12854915102614 0
-226.333036937729 -8.23896906927786 24.445833634871 0
-235.745546440058 46.9274936858128 0.762874240154631 0
-7.60075086010663 -12.0740275948508 -22.8203735905801 0
-7.33561637804867 7.75700142436072 -14.4290543652779 0
-189.214797750086 14.0330714151955 1.42579643779149 0
-204.443147426986 -8.53443955530523 28.3148885567951 0
-233.546493975996 12.3149977663175 12.7936333261659 0
-21.1029024058672 -7.37835611791214 6.01570423331062 0
-224.894410549836 -13.3518319640563 10.1625820413278 0
-199.748244329719 -35.787216244579 5.82381420834146 0
-152.89529265689 -23.6561502286856 -0.0878844224239554 0
-177.141538491685 -0.721806531520617 22.7359254364804 0
-192.850786238094 6.77856987922793 -11.2399100049975 0
-242.777410871374 -13.6296322412073 3.35938734166059 0
-180.915039714174 12.874388781984 8.84476969509578 0
-82.2460759177539 -9.39216386246282 10.072574355823 0
-221.016366732217 -20.9016426069919 26.6169140345694 0
-144.650753686427 -19.2296392455625 13.7062582867721 0
-120.794998356986 3.35380416685563 6.46202031151988 0
-231.835221282768 -14.0900734756993 -3.93020940140059 0
-48.9029135854077 7.99739811359285 -8.6221721158671 0
-119.541129604009 -1.64510860722836 -14.0341551671326 0
-238.214276802622 -18.8860410152765 -1.60985493816968 0
-238.814105032993 46.1889352452766 -6.45846137741504 0
-142.959206959354 7.72404462013773 -3.94579454562966 0
-216.860851169261 -29.2472215251097 20.0274594798655 0
-105.362316457308 -10.3742672428666 11.5851564397751 0
-16.7517830010764 -10.0616935506152 4.34576866471013 0
-197.302687902653 9.88440400117928 -9.99990374735704 0
-177.362675360081 -20.1140078442084 -5.05295374128979 0
-114.944057017866 -13.9905588175856 11.4081863900902 0
-162.831297850518 -10.0054923586773 20.9586535894921 0
-184.392846962589 11.8477812509547 21.6209361705774 0
-125.466591396366 -18.148766935248 -10.1430457002777 0
-243.025859762067 31.7344257210261 -23.98716747638 0
-145.914625369625 6.11704002351819 -7.71778855369102 0
-221.186222776898 -18.938176672381 12.4384686852059 0
-227.212974627805 -0.128328920694454 -15.7929712854041 0
-81.028843342147 2.06431049796842 4.10749879379354 0
-240.453657658877 -23.4555586253484 7.88205464511564 0
-211.209960405267 17.7108673968171 -13.8070870374108 0
-196.644006427646 16.520451611311 1.7965361738244 0
-92.270270159284 -22.6997150018152 -4.19309740435411 0
-78.3844109719248 -1.39139082794215 6.6182630295576 0
-122.063727853336 -23.0699641464547 -2.41898863044086 0
-137.704136903795 -23.5997762482078 -0.0603140563934129 0
-250.312593824262 38.5275408606481 -3.09252293309697 0
-36.3174434790181 1.65435651326236 2.96334818562656 0
-46.618073847771 -16.7466160445994 1.66296430449975 0
-219.479853772685 40.5703327107409 11.8130819474291 0
-60.8271094564484 -9.17936721288526 -21.258487904006 0
-45.0761809154422 -10.6199024472646 6.34532548506495 0
-244.277474929322 34.7528100773094 12.1502615517692 0
-92.0438398390238 -0.86679757637513 6.8956278225274 0
-231.487453442686 45.1031569987419 -18.8544496467112 0
-161.660853281694 -5.30069852678154 18.2487704258413 0
-231.697701161912 44.1947590909595 -3.65656887389533 0
-242.514546815769 42.323118711038 7.4312108608237 0
-229.128446654794 -7.99265469739679 24.9264014167672 0
-230.000100957205 45.8041104294523 -7.45981020332967 0
-224.086524123589 -20.5303246289809 26.4549229713695 0
-46.4574050839969 -18.3866575488464 -17.326058588307 0
-184.853555617408 6.76061348136428 -10.5417710079215 0
-231.006182310767 -30.1140454854147 11.9256671955502 0
-162.301461935239 8.12506846137497 -0.754883916996859 0
-191.202850709034 -29.7249670674507 10.9824688741295 0
-240.660563312489 8.53718377419232 -2.20013276557147 0
-221.437402323676 25.7429866971665 15.6767464289483 0
-178.728669660346 15.0855118498129 12.1365048009263 0
-210.209391376921 -7.91716341002039 22.3823729205038 0
-56.9222257518672 3.11244284748077 -16.9224358292221 0
-240.719677098378 27.0189156185894 16.6641298643068 0
-229.106978682006 48.2337721642323 -10.7772690973191 0
-120.222075742996 -19.4557178344397 -9.27175156646665 0
-98.1695896041366 -18.0006513687901 8.60927004571179 0
-216.868634911311 43.7871135953714 4.86243259208057 0
-140.551794217835 -10.1067210215548 -12.7740585485933 0
-216.787065603544 45.1114865762516 -9.93168683674902 0
-230.356609256284 -5.85072404771074 -4.88548269589669 0
-213.262956631375 33.1059036916416 -20.8290501747219 0
-212.767234833701 32.3119621624945 5.77339731583975 0
-206.089066602531 23.3217000665129 -0.302781504536372 0
-100.599139906675 1.40579687905568 5.74682853832672 0
-154.724164984371 7.86794567069302 -0.841199780404694 0
-106.273269816013 -20.7471299450998 -8.99989945935677 0
-125.969288555358 -4.12402602261874 11.4984382543162 0
-231.588384257649 2.27506562747535 -1.57114397109838 0
-233.157773037239 8.54704898871728 -22.7519221523505 0
-237.235418524881 -15.0630133816619 25.4945169103425 0
-216.436385980807 45.6088761730019 -4.18090491382561 0
-238.430174736417 18.2644244343821 -26.2069434872823 0
-69.132184683645 2.16228702598611 3.39570571028953 0
-247.641780246603 17.7483484011678 -19.0225068537506 0
-148.452828704718 -24.0716080564297 1.70193330435478 0
-142.263860452665 -10.0374612945189 15.2787947177917 0
-43.2405709230778 -6.9051928128385 7.93423948404632 0
-181.353294201323 -14.1686551632482 -7.7201313627869 0
-236.045362421644 -5.18555512297201 16.7212048674765 0
-184.436831286336 -16.8612405048444 -6.8893649060146 0
-54.722060123707 -18.5259946503364 0.545520210634219 0
-169.924045733976 9.41891811348201 18.6046997567143 0
-229.951552804979 -3.04464419075263 -0.634498741472179 0
-60.6608119364581 -15.8303908497849 -18.7390931583589 0
-210.079429954944 2.79623072954863 13.8462549715309 0
-5.99638326382638 -19.0966191867885 -17.7817992304855 0
-35.8953906939117 -10.2323364581812 -22.537931086709 0
-247.705233953663 8.59612527715726 -5.91138578582896 0
-175.591029106038 11.1883544266185 21.0727516322822 0
-48.8644917128763 0.177628557321925 4.49536225380641 0
-187.613320243549 14.5829681811559 10.5157290203243 0
-251.322919524303 36.1546232459708 -0.674952695600938 0
-1.79045601483288 7.73348737606262 -14.8645513776962 1
-253.953505084241 23.6975932230249 -2.23292240431585 0
-223.411513553744 23.4178059734484 -28.3944521710675 0
-217.316615748909 -7.90936948552246 12.7657078241927 0
-193.366967531386 -16.9054067588484 26.1448149519692 0
-244.859647269938 12.2135368853495 8.91177486625011 0
-135.493301592835 -22.034907486375 -3.91898079578571 0
-216.704228336802 13.3788924330885 12.5187960841723 0
-43.831112969983 -3.00325726202512 6.29455533014488 0
-237.146419905283 -26.776819466603 6.65744873392544 0
-215.108056502407 -30.393128892898 18.7725805106945 0
-209.739191749049 0.770072077152315 -14.0494227343475 0
-202.813288211722 -35.8435474382434 1.12085072674959 0
-65.8097895304197 7.9196616765352 -6.22294112862512 0
-81.9707478210297 -15.9625132534505 -17.0902988462708 0
-230.347946928555 3.53910003331594 -16.3049531397666 0
-138.56474156299 2.35819593341915 9.56270153642742 0
-253.322236527326 19.3089374805317 -4.97208820357147 0
-20.9801608905377 -21.6347247252467 -11.3101713795351 0
-201.071260167724 -34.0360849408439 1.6864890990031 0
-180.255096631696 6.29210188462064 -10.906475914777 0
-253.933863078088 21.7439141495774 -4.23256858142526 0
-62.345347107291 1.38091651251526 -17.4412028707725 0
-14.4785831379764 3.43447538664509 0.765836566519973 0
-63.3474006901789 -9.95336140726929 -21.0415346259245 0
-222.805766360581 -33.2222462415964 10.6397783037657 0
-206.674598011393 -18.3470450986566 29.4847902307179 0
-182.127287039332 -25.2984615983219 15.0768323930274 0
-65.7899166485389 7.38670033957168 -10.914823935141 0
-195.957345995928 11.8175808796776 -8.56793088200941 0
-153.636214110592 -4.19839397820621 16.6098709514625 0
-61.918681997194 -10.1614251074919 8.31141895656372 0
-194.817384433964 -31.8732474113696 8.76282746248683 0
-139.557930899158 -4.45889256003038 -12.4389237543277 0
-245.491274044717 8.72684465073957 -13.1387843146515 0
-212.217549856889 -7.25255777054699 19.5551905042414 0
-144.406035319069 4.66021124843367 7.68109607702749 0
-206.995038981203 -6.05304599845812 21.3364146818135 0
-201.377014616932 2.13064050362324 16.0930125544526 0
-177.957838756943 9.07837030371528 -6.69395017642908 0
-211.807732203677 6.96457878434889 -13.8401464149818 0
-35.1309857996492 -11.046790529516 5.11653375236685 0
-205.723390639786 -37.1693615092901 1.56767772150074 0
-27.2434308726641 2.04190713786603 2.59164264747722 0
-249.924272235342 12.2597850882856 -3.07992664102994 0
-211.400667011268 4.47386760063505 -14.5050847363074 0
-231.344656805963 3.1022485757829 -15.0755083504047 0
-111.802139338669 -18.8100830985083 -11.3103847185821 0
-237.727407265102 -25.6493476076611 0.795955620303091 0
-227.676494126044 -31.7371576440787 7.31141528733176 0
-228.717282000466 43.6185358532533 -20.7753081328352 0
-224.274498395048 16.6760529816098 15.8798105452035 0
-130.990327798119 7.8145092914377 -4.21994022073386 0
-82.0146815513015 -11.4536187554963 9.56569828525479 0
-236.124114187345 5.40305308873809 -12.9298001484222 0
-221.110022450291 -4.28603307538364 10.4649171610189 0
-232.109394405028 43.2347908501552 11.8770485122333 0
-76.0449862362721 -6.21324249737935 8.8813051267907 0
-71.1107621800257 0.111019717367041 -17.4134429195224 0
-86.5103388181647 -20.5827803966429 2.64508824976234 0
-232.918240938985 15.2934059128279 -26.6806540274594 0
-250.172037406528 19.9522829456168 -16.3625009534962 0
-239.553751256684 -15.1810268319375 0.141126514425729 0
-236.973159062558 -13.9664904256028 -1.45654835300451 0
-118.946599409452 -11.5855918338816 -15.4333883721629 0
-184.0493780465 11.2616465535689 -3.80194659644117 0
-185.81545988389 2.34639209362264 23.5323098121339 0
-192.636877939666 15.1316735701014 0.969818134358267 0
-154.292420056297 7.96278359085346 -2.64149805453996 0
-152.798817766736 2.9857677121101 -10.1814649490615 0
-55.7895525671672 6.21077478283138 -13.947461031176 0
-200.276372598048 -3.15032893331088 -13.127418295826 0
-229.930778245806 40.117808594213 14.7956906387506 0
-207.572653985529 -12.2623163445035 30.245896300364 0
-86.4123426895552 -15.5883658110807 -17.0525058866417 0
-2.21528589936353 -14.0897783104466 1.50034870179585 1
-156.666880584543 7.99550514953752 -2.40154565519263 0
-15.1736879427097 -21.5069780036418 -9.40179021868058 0
-194.949893950523 15.9786830457486 1.03981309233253 0
-72.6067448472099 -22.1532164058135 -3.72458057564261 0
-150.007968349995 -20.7997233508808 -4.81455698677324 0
-160.893353063987 -23.0117398042511 -1.49572935423063 0
-79.4701673329683 -19.2601385472131 -14.0301246519408 0
-103.284272426097 -7.31229307150711 -17.3050808314371 0
-216.376700437792 38.7105051668873 11.324461597418 0
-55.6328935742341 5.91734022960668 -1.59700711105251 0
-115.368514600325 -23.1539324736631 1.722259842648 0
-109.113466858576 -8.40868415469239 11.6486826905705 0
-237.974192068544 46.3117840952049 -0.305319790282249 0
-27.059565945256 5.25154696810564 -16.8861438254519 0
-182.162866129987 -5.82485408038073 -10.8210889731514 0
-154.637119033894 5.37171639188088 9.50538889172514 0
-119.039658001135 -22.8086418894155 4.4211570090553 0
-169.374512264835 10.9158363263582 11.0343031583652 0
-204.822591263126 -36.5694876993621 9.00957434084514 0
-161.442843726501 8.00613440045298 -3.21420524952021 0
-221.986647528002 17.7198361769406 -26.695893834339 0
-248.76722097182 12.3334933682086 2.11897763545487 0
-225.007730856693 33.0467088331715 17.9963517779095 0
-79.6234028579027 6.49635678816283 -1.18520516289849 0
-246.602035130807 30.3967747887891 -21.3538428071308 0
-73.8023561083171 7.06716090358849 -2.87742374178632 0
-243.256369358272 -10.944126080278 7.46181642894478 0
-199.98031840905 14.2641943078325 8.96363519964304 0
-67.6099628369805 -12.6586008458863 -20.0318401774972 0
-35.0093010217498 -19.7049116460357 -16.2635835834524 0
-91.4361158107016 -8.87323046338489 10.5173831670811 0
-23.3001208028425 -18.1298882880217 -1.41225557763395 0
-148.119065570153 -19.3654187021614 -6.43556620584573 0
-85.7791773763346 -12.7929886739792 -18.6987676284381 0
-73.1152883104933 0.970947943773686 -16.8784014646665 0
-234.390907176817 -21.1030053542221 21.8967163221555 0
-206.846284838085 -24.2379975563456 -7.22206090499953 0
-215.344883492365 15.3057985861395 11.8502449651253 0
-132.540354312212 -19.9368831373986 -7.0438819277109 0
-15.305073717777 0.875921404379194 -20.6310831672393 0
-155.195164968899 -24.2155862994082 9.35873160978776 0
-97.2539916643897 -20.881574485078 -9.93575030917037 0
-221.483841011507 11.5027652663093 -21.2699371150862 0
-34.7808600086454 -16.7270433364616 -19.2880123422294 0
-234.554445201566 29.4898052917737 18.6430557801665 0
-213.753469864207 -36.494226917105 6.40092702147162 0
-235.38670998218 -19.9798294480862 -5.10071409444973 0
-190.714349145556 8.55812676259059 18.6058778363092 0
-238.450668797187 37.3087579819149 14.5580306517044 0
-196.968652028291 16.6887128602405 -0.573419680117728 0
-230.023881853939 -20.7350768922125 25.6335853837831 0
-214.681540824847 19.0999233804859 -18.9365627465734 0
-77.2474984007139 -22.4042295629212 -7.58428321672503 0
-77.2223074629754 -22.4724606735594 -4.94527775652997 0
-180.204211798026 6.57426729356609 23.1316686785608 0
-238.935202243039 -24.0215013769071 1.78249598262838 0
-228.384606252775 -22.6282370574385 24.7657191533549 0
-219.575376996494 30.114420483826 15.3219293635204 0
-216.473297747668 -34.4246986224657 10.2070526188105 0
-28.7196512635455 -21.8421814067901 -9.71988359113763 0
-6.5741318742441 -16.3037759728362 -20.5470075019829 0
-244.145642234179 40.3793191927974 7.97443612275862 0
-194.689698262852 -3.46848993911141 23.9670293452777 0
-132.157764028682 -23.7860667406322 1.37243682262463 0
-241.006735178734 24.830003196554 16.5620112268415 0
-220.590745398008 -19.3773366889353 -13.6346204156463 0
-87.7313318289094 -1.77677632765327 -16.817856279243 0
-229.22440164695 9.11606760157356 10.732178883922 0
-72.9519567008857 -11.2440183519445 8.80984783322886 0
-61.1365700610772 -20.6384187640479 -1.48191141456974 0
-96.6083167269857 5.48967153072493 1.79761166909537 0
-29.6989748128147 -2.95056800736818 5.7757447518004 0
-121.571960008631 -12.5469023949402 -14.7930228092765 0
-156.528418178392 6.12887584512636 -7.4022103724171 0
-204.127739205099 -32.0024938326032 17.7375253679513 0
-242.615438826709 -20.2286493156331 12.3032639593371 0
-235.579674624748 12.4047929312927 12.9014254181523 0
-233.274804525385 18.5741602618695 -27.778298221619 0
-190.48884993478 10.810209774617 17.9959819675344 0
-45.5253387995292 -6.55572727926364 7.92134345495563 0
-185.851928355471 -11.7417000109895 25.3241758113913 0
-246.16045978386 31.0778460334314 12.1962184635474 0
-211.547787108001 -25.100516995886 -8.55090114590014 0
-142.348479004452 -23.0334834395594 -1.58763787887351 0
-112.381030482158 -3.10303826532112 -15.086221267895 0
-14.75357468941 -21.2213004407817 -13.5129287784956 0
-142.799354243448 -2.21098416864306 13.8129362834032 0
-154.326650402935 -7.31203654803464 18.3598314097451 0
-206.391603974391 21.2616832402829 -7.86856771024294 0
-50.5632124021821 -2.33835304545348 6.14665752738763 0
-218.302969398888 -17.6449765515115 13.5926014073505 0
-200.860163456863 -21.763657798669 26.3519991312758 0
-113.136989608847 -3.41208301021101 10.1062140582964 0
-227.940054161464 42.8563896917937 12.4602055976695 0
-201.727758261313 -6.06274054287195 25.1574922404917 0
-234.072184308658 -18.4283911414016 25.4465688483814 0
-111.111239751137 -22.316825201341 -5.137304760089 0
-56.6938561992329 -5.77541126691374 -21.060764760556 0
-223.121697656769 6.93286553216619 -19.6402607306207 0
-218.89055987713 -7.99083478913016 11.7162076316108 0
-167.400730943498 -8.40924768938382 20.7235048345921 0
-209.087738562898 18.7200763872746 7.32616094740234 0
-91.8574474820435 6.00895905899413 -11.8335875750546 0
-225.189040773099 -10.7557889943777 20.1920045502876 0
-232.993764774928 -29.7654084857247 2.31197968183526 0
-168.722871891228 10.2892607702148 9.23640402519513 0
-246.999741717745 22.9371017111182 11.885991330563 0
-211.493086190484 20.5268491428543 7.44855604529726 0
-31.489923077355 -21.639283816328 -7.67991769064329 0
-133.095799868271 -9.46250772932873 13.8546551596915 0
-164.915272895393 -17.4806662389597 -6.77916986199285 0
-233.363123870158 -10.2625378466805 7.75931924158061 0
-194.319262361684 -21.6833404996026 23.8895698140477 0
-46.7602041125499 -22.0586727378901 -9.39174192006866 0
-228.56861146172 -7.46936447678644 4.23231533362339 0
-65.5201001712261 3.75391483045283 1.60938560946055 0
-234.959847287265 3.82474634317945 -6.84415726661764 0
-210.36507550169 23.4135251841599 -12.0953804291498 0
-239.762279264129 -10.7377199965195 26.1003136847154 0
-183.503783909857 13.8152444665645 9.25037525328461 0
-82.8360262272508 3.04078635030598 3.45071918954377 0
-201.102429527553 -13.403188863603 -10.9877785730015 0
-245.459159947923 42.5741815593888 -12.6801999069158 0
-210.514478072608 21.0184216172096 -12.8209618823529 0
-199.648436996312 -14.7761913869847 29.1930296283452 0
-198.136298027733 16.8506615656685 -2.86379461749647 0
-2.06441131609547 -9.56947085068989 -23.5264846868614 1
-18.7726828363516 -7.69412498883179 -23.357982959349 0
-202.067978844967 5.14296999903608 14.2348424141806 0
-104.675359192628 -15.2237901827935 -15.5015615768903 0
-148.768225077774 -21.9060227774213 12.6925250657191 0
-43.5102889362888 1.18647074641858 3.34527300351644 0
-139.824311192395 -23.4526080371123 7.41732801811123 0
-252.836332040103 19.976324636274 -9.99469575169809 0
-142.443963845922 -3.94632089024433 14.4292237495085 0
-231.548087018584 -22.6517076860538 -7.81354706759372 0
-204.235280022362 -35.6933175505835 11.5752879918728 0
-209.975162368427 35.1623713009923 2.67053077694393 0
-89.9435847308165 -22.5041551403065 -1.92460721322392 0
-81.3598883130704 6.52289575635062 -11.6932926506017 0
-228.680492896117 17.9596230648878 18.4074847579666 0
-47.927491737491 5.53533612372407 -1.1930942131956 0
-254.077801772912 24.612062918613 -7.72361870924118 0
-87.9064521990553 7.68458457662619 -4.31821257525989 0
-118.366145752471 -0.523100544274285 8.65056237886358 0
-81.308291941266 -21.3069731541316 -10.7698765787126 0
-136.87410940527 -6.35851190255488 14.1810896021349 0
-251.118137851751 34.3302467640601 2.88717725740414 0
-144.451514222983 -3.57347106422374 14.6953946517184 0
-235.784357054432 -11.4203592453824 27.8887811714956 0
-154.097205397655 -24.6599767783024 6.22163500630126 0
-236.722553478273 -12.1514688112554 4.25467211400043 0
-179.157787009879 11.1820350460994 2.611780963264 0
-248.74384261159 12.7066745754941 -12.8730211205655 0
-64.9237468464469 -2.73298182220031 -19.2418168442144 0
-219.127066139085 -25.9254918029695 -6.20454025837654 0
-142.636673094046 -23.4947164361618 8.06368790311087 0
-195.825018910995 6.51511309661761 -11.7539879509145 0
-183.362886836312 15.6675427505533 16.8011352990165 0
-181.528091904402 15.9526766981453 13.6720063649514 0
-231.540305449281 46.8252730759892 7.07763065913606 0
-234.711325209273 -17.500712409022 -6.33256716029447 0
-226.653063858261 39.0767019948846 -24.5541672067898 0
-127.312899955172 -23.5953905571518 0.412252018657405 0
-103.828674140091 6.83362119254988 -0.140351798442787 0
-245.356912025607 35.0923451756606 -20.8833912419798 0
-218.347021147926 21.307074110156 12.1755890694216 0
-182.629115980761 13.1664750612473 21.1469726646349 0
-84.7322834746676 4.18978468047087 2.48713609148603 0
-167.918512240869 -2.8202155997102 -10.5937526533698 0
-40.1938386496998 -16.4495784148309 -19.2784255177357 0
-238.814303672823 30.2130960099098 -26.6343489441815 0
-252.741357393534 34.1819887924217 -3.92368855256988 0
-230.174088594126 8.45972882929849 9.19054865634317 0
-219.741144919725 -1.25872932036858 -15.7323073299114 0
-29.0492919891299 -18.6176559799304 -1.73171834659051 0
-166.606677562085 8.23730829359194 15.4803759375873 0
-144.325270477668 2.28061278850887 -11.0296198373495 0
-154.765815043797 -24.5097302911422 2.85758841629466 0
-226.538956596579 -16.9354284835264 27.2082426622992 0
-238.474885101779 10.9281786882777 5.19062032893784 0
-87.0039663257569 -11.6927413790618 9.9329746749872 0
-155.445529504593 4.17623632083033 -9.31327263218091 0
-251.294627567058 35.8763965184569 -10.8469018763178 0
-218.903802790047 -34.4950425791064 9.43978167406191 0
-129.879047535034 -18.6083969003562 -8.97817840575596 0
-235.035973930359 -11.8607381132917 0.977487329821619 0
-190.354427515119 -23.9935675559204 20.042613486018 0
-187.997949830718 2.49817685155733 -12.6920400358625 0
-233.467843068189 44.4002212190529 -8.72838071778317 0
-235.712592503851 46.2948552666696 6.01650801449574 0
-152.39856764007 -4.32931434051859 -11.251688335271 0
-205.079907299209 -14.0301844899964 30.3702035454211 0
-49.2025096786648 -18.4483595711911 0.0829201842355856 0
-177.251111816988 10.5552567176976 -1.79283749335459 0
-209.356654358613 -8.11795874690222 21.7942260601585 0
-226.550538075848 -19.1926386289238 26.8179797661661 0
-129.093349875523 -21.0306824228439 10.0576941098675 0
-30.5989564449444 8.02222874376665 -8.92228847243498 0
-220.323732718773 24.4026318125268 14.1404272366361 0
-24.1985592288111 -7.4467359866792 6.26667000351359 0
-224.560315014822 25.4612047279025 18.9663150094237 0
-224.505661257412 -16.1294209861017 27.4923586834052 0
-203.639296456788 3.42490406193313 14.9286756069367 0
-74.5447617482453 -7.66616959365052 -20.0435626179666 0
-223.575282313196 40.7108545221544 13.637857503134 0
-247.673633240186 12.4732572875708 -14.9796987353355 0
-245.079021115447 40.8705163827153 -16.2168578995603 0
-167.548654825441 10.3187753522314 10.8016564655061 0
-81.904979648547 7.4311793306322 -9.76143970951197 0
-176.654477290773 14.0435731443241 11.2821286103911 0
-133.008539208335 7.64908982377323 -0.122599172620817 0
-211.976363604885 35.6762036620101 -18.1607384681433 0
-203.018741969829 -33.602493320284 15.1274826337321 0
-199.387642891763 -34.2411636752466 11.9876096294241 0
-3.0075267497162 1.72395988639649 2.23857027240972 1
-147.625311441825 7.43284748599993 -4.95998756962815 0
-204.430249571351 -34.574909846975 13.9057741060089 0
-234.396948306518 17.8350974422321 18.2146378531409 0
-241.286323044196 -7.4606495815585 23.5042623099504 0
-19.1750004622813 -10.9204922872352 -22.8549851778763 0
-8.37492548577255 -17.540356202288 -19.4954061692088 0
-67.8101077104269 -7.267324984699 -20.5492292441745 0
-159.034452100189 -2.75285206973108 -10.8033848365664 0
-5.65388521855565 -13.3858807834329 -22.310327196609 0
-221.288510486008 7.1144019818657 -18.7385834726184 0
-232.369151497849 13.53472408008 13.3907239057393 0
-57.9457867901823 -15.4071803257871 3.76598615640075 0
-93.0836493473615 -21.8829060432919 -8.144455575958 0
-113.329616095066 -5.60139508587641 10.9563236334872 0
-101.973301809464 5.56938705708824 2.03709416547818 0
-70.1018804707662 -14.9951217976526 5.81134171178883 0
-1.55963798661475 7.98562252674915 -7.77380757725792 1
-173.723256748924 8.90389868480816 -4.93218104003127 0
-52.3228150079791 -18.4152799396621 -16.9528119411707 0
-182.705191211244 15.5707035849372 10.9768181345123 0
-224.630425084797 -6.85307361031666 -14.3847316667633 0
-150.999096847741 -6.9226366559657 -11.5965182258491 0
-248.112459525489 20.8722628275695 10.1186191427593 0
-152.709486701801 -18.8549775325456 14.7053324487942 0
-125.11493919959 6.95740909891064 -7.65844539624662 0
-221.915519900983 18.1340820526479 15.2921270498772 0
-242.317132818488 43.7647731272094 -15.3022826129412 0
-201.85854398111 -1.86160665759242 -13.1058360075189 0
-161.149202880426 -0.356502821914082 16.8654884495698 0
-141.902852622176 4.24785729467003 7.94733255183205 0
-227.521114554387 -0.562229427453348 4.12430996524699 0
-173.7867197552 -15.9438392497064 22.1456550057775 0
-30.7513741683428 6.13924535866524 -2.82789521144647 0
-155.099075264084 6.90634543716642 4.9325118408972 0
-148.298515761241 3.97177329380147 9.66829566827433 0
-248.856105328838 10.4183236594191 -6.18859331630101 0
-205.70361437738 -4.87137274427783 20.1826855988888 0
-167.001988743076 9.51858395144779 13.0931383743079 0
-235.727117098188 -27.8222639215185 1.90516717448395 0
-231.948890120562 -15.4515899651957 27.629113857804 0
-240.650884025024 6.82885826944135 -11.346024760809 0
-130.7898285374 -20.1098428029719 11.2200283285862 0
-217.249460067104 2.83193319500194 -15.9764809011601 0
-45.6162680771933 7.5505726976376 -11.9693080547691 0
-137.526913307288 -23.4183291586715 6.89479937723129 0
-131.336484652882 -13.4074286356156 12.8807458915139 0
-190.493471323424 -21.5587951506804 -5.21704453572714 0
-52.0386844856516 -4.46306020367197 -20.944275831671 0
-240.724574362307 6.8563808268354 -16.6572498567739 0
-199.80256534441 18.0490452172152 -0.900097505535419 0
-202.59369719425 13.3625021687979 -10.3112401419239 0
-211.290791191318 27.5484352465687 3.40142300347877 0
-229.5693099356 18.9914285600473 -28.3211120657234 0
-74.3012404197756 5.4318326712888 -13.5293643470068 0
-197.121425673764 -4.08406946038805 21.4022910377664 0
-71.2854285860308 -1.49871463016696 -18.1027503950869 0
-50.2456969659602 -4.33733114642214 7.11896798511174 0
-130.29756575273 -15.1301722292944 12.9674463344856 0
-122.925974357328 -21.5633251575683 8.26637809074449 0
-235.905744304671 46.8594369206324 3.53264164090871 0
-176.438462803176 10.3113801732327 2.25807265533866 0
-185.305754483136 -6.68597432231079 24.6722769332283 0
-33.6083520281787 2.25209567369228 2.43268521684818 0
-192.513748674287 10.1091810614184 -8.70864084200935 0
-182.331980507259 -25.6457121345888 0.269118385394587 0
-54.7204234023999 7.42968927731268 -11.6520877161643 0
-75.7739821976834 2.73341320419679 3.28548129856184 0
-248.82284143406 18.9615604117349 8.42576247611403 0
-230.613293139239 29.7938137995787 19.0531181340329 0
-211.319350227314 30.1929231894606 -18.2772005332163 0
-167.291546345826 -25.5073416252174 8.56635063286206 0
-193.941389848766 4.28810764426495 17.5669494772542 0
-188.720035499545 -18.3794868840767 24.1604090696999 0
-215.748242627517 -32.099736170349 15.7574869608338 0
-148.588275676124 -17.2755631153335 14.5698666819071 0
-222.062845952889 9.22627599935878 -20.5852029863754 0
-235.393707707355 25.1355991242922 -28.3559991714446 0
-243.824246486081 -13.2021326816468 17.6752937142804 0
-232.35717141849 -19.8872738941957 25.2156072963967 0
-199.230579380121 -5.49054312106288 25.012837912037 0
-14.8054142548994 8.25664498313496 -10.7778544261273 0
-151.538568077649 6.08556224192417 6.29222308466822 0
-55.1931955366046 -18.1742843475318 -17.035548855187 0
-118.743592800372 -3.22160546890175 10.2130428744087 0
-118.288156893259 7.75715754617589 -3.25487660914625 0
-15.5356547780868 7.37010157550686 -5.72172267274737 0
-29.7461186344305 6.1665753582287 -15.7148359448974 0
-213.132636650316 25.6966791752271 6.85167203680155 0
-178.097047298623 8.30478830178987 -8.66840020078506 0
-233.340044186868 -28.805520706548 12.0400986372601 0
-108.210284794464 -3.99658505876054 9.91139151452562 0
-3.96080443023815 -1.3657259338834 4.74350616884422 1
-216.143006410912 34.1687400924791 -22.8189979998123 0
-250.408935579942 38.2258181289126 -8.23334993981911 0
-99.2740459760121 4.35798033692942 3.33664733860906 0
-253.284677596399 27.6572523690918 -11.1609902405923 0
-236.302005256094 -7.29662076246654 26.5088063131814 0
-141.109722378019 -21.352722338928 -4.63235211263123 0
-126.966488607921 -10.3032976935743 -14.6983985353672 0
-217.936974480544 -15.8253787282107 12.4488193101556 0
-252.700098995347 18.0733374740804 -2.49371421120049 0
-133.385455705744 -23.4068513102949 -1.00406188308159 0
-209.904594505393 -2.05349689924143 15.9967247375892 0
-15.6517260820519 -7.52838931167107 5.66153512160708 0
-148.381714150717 -5.41982588097017 16.0021256981386 0
-178.170392762456 -19.5415244557067 21.0314679999624 0
-235.774330879907 -12.4518019497806 -0.670144574674814 0
-179.841000719876 14.8260003834099 10.6842368249463 0
-127.099235348974 5.05204309342685 5.53894599903642 0
-95.0528763598 -11.4126207363222 -18.3295916646588 0
-140.051892774043 -14.7629283799971 13.8534674631063 0
-235.433752373711 -4.87455094335405 18.9456860189229 0
-166.00305615625 -7.09421099792698 19.8080643416902 0
-170.522116994748 9.99317790586731 8.09940487432337 0
-123.804778880827 -20.2710121057721 10.1908816752006 0
-56.4796486516771 0.68301233154696 4.25075020547973 0
-34.4885609016048 7.97924139223705 -9.38032950912337 0
-237.317750528657 22.4414303872893 17.873879098826 0
-51.2609996857499 -8.25656204396611 8.34762157901877 0
-133.85692402971 -14.3643321593933 -11.9604584155878 0
-212.37471806707 27.6955961666005 -19.5514183067503 0
-0.865783107419943 7.43207019741498 -5.75241226545848 1
-52.8902758280551 -11.5118008467967 6.1574363311042 0
-23.3192926640843 2.28948277946612 2.12420415447806 0
-118.059584075538 -15.5378340883537 -13.5764095137567 0
-197.137913376625 -0.821185197117107 -12.7250788633017 0
-222.53336611016 -13.0540278205822 19.6116442772654 0
-218.579575738431 46.8777135829122 -2.728831617629 0
-92.8304334604945 -18.0194866525947 -14.257839029471 0
-200.95055338205 10.5052012333581 11.5457259920705 0
-249.154823547288 18.2367053684718 -17.2480862496276 0
-67.2334945881505 -3.27360956715157 7.06636259734625 0
-21.3359836380904 -17.6950902087992 -18.9811590754874 0
-179.388333865257 9.58335222792274 22.6329417469574 0
-75.5369527242094 -0.178931651836604 5.6710900944927 0
-247.896604606044 14.2035040470474 -16.4059120974368 0
-206.856451749724 -32.1427885466385 17.3353107457484 0
-77.3327923816276 -1.29838112956837 -17.5218582901378 0
-244.627563534038 37.0892779143507 10.3952500227021 0
-193.43529800359 -1.82588723066045 22.9646730008539 0
-217.33073827579 -15.3722408404251 -16.644591059369 0
-185.357268516001 -23.4136071109887 18.6238160530638 0
-223.610334560328 4.72498374153301 11.4936421159532 0
-51.9004779195709 -0.261999808589476 -19.2108065658846 0
-71.4158518599632 -16.5358571315536 -17.3605232791028 0
-120.506653332468 -20.965838658268 -6.8874232515532 0
-150.313627627622 -13.1489021958253 -10.2515000039482 0
-231.630627890402 12.1479436160991 -25.3040545172337 0
-209.829670677685 -31.292873135729 18.245102778354 0
-159.221726637398 -17.2249028456218 16.7755350323644 0
-40.7610881445934 -19.2057897617616 -16.6556209086205 0
-105.940385878442 -5.68776468298831 10.3699965084169 0
-121.698300033313 -6.47337791529407 11.9334132616481 0
-72.8695649417199 7.98684563163239 -8.84996652718154 0
-209.675918375738 -14.3038717686897 -13.7069927639079 0
-154.885581799282 -20.911813813216 14.28379387729 0
-236.060043379057 -26.8274895804174 12.2609792904927 0
-104.506574597587 -15.0067631846444 10.4405040327413 0
-112.904935676465 2.35095453596084 6.44439289508227 0
-189.769882674038 3.91142858425362 -12.917229954806 0
-214.913058227961 -8.64917191469587 22.8906477813502 0
-2.36927217690872 -6.42258816512319 -23.8028442919844 1
-196.996688898277 -27.7680482622433 -2.51004346822968 0
-198.86656988014 -26.8766738345144 -3.77145312298932 0
-234.186076637927 -15.0101185323246 27.6501108337852 0
-210.285799748521 9.28453514529578 -13.9372480484918 0
-4.9515237280187 8.18645509416026 -8.96444012762071 1
-174.562362865412 7.66646112409711 21.6892716155161 0
-150.737129070301 -1.77924850152958 -11.2491275136797 0
-111.723260026618 5.64564668025853 -10.5660232310477 0
-78.2016578025375 2.78129875753902 3.38867857199001 0
-208.673047868869 20.9600887868035 5.34072119880201 0
-91.1964972495077 3.16676642207791 3.8690812513249 0
-157.542094467706 -21.3580513941043 -3.77170445151578 0
-241.17248013159 12.234559881088 11.2386601899197 0
-231.26638961331 -0.401578760360731 -8.69411287964549 0
-165.015292076441 7.65536160253958 -4.46443246166333 0
-218.577115320826 46.9875810871885 -6.06424304383042 0
-185.926233473076 10.2035342007085 -6.3196351338623 0
-63.7861615265526 7.35174496819094 -11.1917648602049 0
-216.277049859588 -33.0594467766018 13.103144959334 0
-235.697202969428 41.8907135554118 12.2480652046314 0
-226.792068117015 -16.6725933277005 -11.2076336944911 0
-144.066259304085 -0.929784283752453 -11.6775231837321 0
-231.545969087132 14.5590701476886 16.0662980504391 0
-218.99633707753 11.2497567354273 -19.136503876199 0
-121.121934648983 5.07480676680481 -10.5790659350443 0
-117.18145052294 -10.765659214716 12.2194800249086 0
-235.861781785647 44.3854160743106 -4.03900720319991 0
-168.134190230729 -25.4018091352737 4.02417963467904 0
-164.251365001318 -18.8357076270266 17.5444435479318 0
-187.239125769294 13.1191410488715 -0.293542831225947 0
-214.819809460114 -19.3341886769857 28.0144652704105 0
-136.915983251174 -22.3352518575194 9.2891360965968 0
-186.612761741331 6.04153216812187 -11.4851819604917 0
-114.833504527035 -22.5885860905912 3.92164111781525 0
-236.434103439585 13.955838991199 -25.1781699903183 0
-190.01585302811 -28.7018184716905 3.02048499957472 0
-238.300150881534 12.3167518456553 11.5275543667185 0
-238.181178517027 -6.26996408278936 25.7300968755766 0
-138.498717782256 -4.98121629746856 13.9763163817361 0
-194.303457238934 9.10181183993525 -9.82503134086465 0
-25.3925655256608 -14.6488749426086 2.14466474010968 0
-242.632659301393 36.6166089585533 12.4894277883409 0
-198.351976113406 -18.710130929965 -7.68564291322272 0
-237.941865507191 6.31517505802993 -7.49838276854635 0
-150.293607579107 -17.282637897211 -7.92954466092094 0
-227.573174877103 -7.74993148679817 22.175696289369 0
-109.847659677268 -21.0241380850769 -7.95562992709006 0
-222.374096389608 -17.7688286861379 16.242056538411 0
-209.414700071348 34.0557011543153 -12.8324714306686 0
-214.159249296372 42.7748070985685 1.91702869799954 0
-205.997478139583 -21.8319985643761 -8.05694366322909 0
-8.11559247742658 -8.96138995243583 -23.5463121129361 0
-191.277136858394 -20.5786701694858 23.5928942799458 0
-230.457651692784 12.183368710013 13.3496392348649 0
-68.8712278447228 -0.0420852535162133 -17.6513401778406 0
-117.289997300698 -22.3382802252649 -4.60618146672386 0
-188.321113682931 -4.00177715655433 24.4208549100217 0
-81.4651591714009 -1.43817277368102 -17.1487117605632 0
-184.227891240287 -27.6097725376743 11.2374145525474 0
-186.916175465676 12.3906479238454 -2.93660108432471 0
-192.551100116132 -24.2903800633602 20.7169437227922 0
-226.481747441578 -31.6395064271616 10.2170031348507 0
-153.248972272586 -1.79015494562979 15.7969443669636 0
-214.776223469675 -8.57457548639794 16.5554087507218 0
-28.3058850945347 -9.26092659663718 -22.9879247208941 0
-11.8290727087228 3.27621976241472 -19.3526946706015 0
-228.699789887425 31.8709466626559 -28.0588641167095 0
-122.827180177347 -15.8353156532142 11.961652224806 0
-23.3322017278392 -19.1261914286872 -17.3523276832504 0
-154.775993208351 -11.3526799786634 17.3623205800229 0
-52.8151307336942 -8.76760830639613 8.24617699219575 0
-235.381804914019 20.6582454158668 -27.8642346955107 0
-249.293622355398 39.9169153145235 -7.6032058156694 0
-199.016389418618 -1.8007306672073 -12.7559488546073 0
-250.55460214045 13.5975722160724 -7.90705819435124 0
-156.111428342275 -12.4739256067436 -9.85426300096673 0
-244.302444625442 -19.4006550819641 11.5614934494026 0
-235.620372945812 -6.44052755986848 14.3931570354369 0
-139.069631737746 -7.12282111066317 14.6629987159575 0
-214.984031816324 -9.53403888565471 19.9700593531192 0
-237.716156360755 45.0783081003809 -4.36690901110442 0
-14.8196631091033 6.8924822408676 -15.6458202258022 0
-57.2208372859023 -1.09438283736788 5.73681357926398 0
-15.3248643297411 4.81410109007546 -0.832140704118382 0
-214.410330498588 -34.9087804091645 10.3798755051038 0
-74.3760751880678 -20.2625106518249 1.11358628241755 0
-232.941688748059 43.6824160929293 -6.82534356597537 0
-188.80504781341 14.1134525933956 14.7316010643654 0
-30.0222216877914 -21.5130697776793 -12.9879744536249 0
-149.488441230981 7.92002746964035 -2.30118898135388 0
-81.7164090586684 0.948921911579548 -16.1824889300293 0
-227.774354456727 48.0257116524131 -6.80850797390573 0
-222.898995633297 -11.4835774397427 26.9999673742454 0
-223.535560691293 33.5039137570148 -26.7286827876842 0
-214.681909496471 -8.8065556850176 25.4002969653321 0
-192.173642627258 11.0968651284692 14.0462366395738 0
-69.1609377978452 6.98014043038966 -11.6124036738339 0
-212.776287832816 -5.80363663709016 16.7530678703636 0
-230.536445879446 -0.250099261540273 -11.5566375209875 0
-223.684887067681 47.8214072156388 1.99286010416469 0
-249.038503222181 20.4142821284494 -18.2619146678212 0
-247.635631452375 42.1623108472746 -3.74270491627296 0
-214.204110915968 31.5087293556356 -21.7259748831109 0
-219.95955489179 47.3058670713212 -8.78425402421166 0
-214.93004555178 10.7106610507505 -16.3605795909019 0
-208.94960054475 -36.2995953533045 8.729754544538 0
-224.345976891182 -6.74042462372761 7.32471972771408 0
-245.335955477411 19.0116982859846 -22.0462909131806 0
-246.74570707717 43.1306020991999 -5.02042311760695 0
-246.746471169625 10.5985661455602 -13.822592416306 0
-224.620800833068 46.6583435787051 6.28687991436732 0
-215.183635640917 -10.5464174045967 -16.0968084316496 0
-49.7372539589019 3.35423213761906 1.30205977306986 0
-235.544007936447 11.4191567886023 9.09025473789793 0
-130.455075887474 2.07428303280968 8.64675747759441 0
-164.639059145191 -3.92423027329893 18.7566701419727 0
-242.139241274767 -8.55610395361278 14.183172927191 0
-209.04998092542 24.5557716093275 2.6738055566618 0
-198.688513583212 11.5219202614553 -9.67533964662868 0
-34.3123036204279 -12.8010878657603 -21.7222726827928 0
-223.587248158351 -2.36798863097628 8.56708446780449 0
-239.454677636653 -22.4065445416405 14.2472113871639 0
-186.282189685224 9.01980752283667 -7.89819128717842 0
-0.981572844935213 -3.61850115555635 5.76687704968805 1
-208.911283589447 -7.78593136190161 25.5896819794861 0
-197.665415437323 -11.4378180090526 -10.4872535810004 0
-230.353607194239 -13.0212474613649 -4.67583372201945 0
-217.451718796476 -27.1545306492338 -6.10238229989521 0
-65.5358533794601 6.13931746385842 -13.3743541946207 0
-224.823298284297 29.7741810194939 18.7423662062728 0
-187.083537332133 15.2508960015534 14.4527421769302 0
-175.113652959233 9.95295225844879 0.265336788212852 0
-249.006224354648 23.2985550551007 9.76237405360147 0
-22.9454858327627 -14.7528313420916 1.95500090491475 0
-78.4682523143432 -21.7225719277829 -10.0351689712653 0
-39.4557637545981 -11.8131428794682 4.85731559598592 0
-237.399582206711 32.2013847821897 -26.7956207514914 0
-116.812178329803 -22.7142245239565 4.01443854945269 0
-192.395387687009 -2.39865337589516 -11.8997538668297 0
-235.865921822902 27.940531978105 18.4668550445787 0
-251.720825747704 15.809213399922 -2.20415186822197 0
-191.479390691121 1.62076354373514 22.1446648007908 0
-157.917702590653 -11.1309640455496 18.6529132608477 0
-244.119092672059 -18.822012693012 5.80322811989728 0
-44.273098717063 -21.6157822842727 -6.42901182642644 0
-27.0663560025954 -14.1626219235417 -21.2607025017799 0
-71.5684873943617 5.00278759629025 -14.2010715525726 0
-179.431013850304 -26.2378568966789 2.64314951876214 0
-125.99452636925 -21.0061834572232 9.69141881538318 0
-130.934284340772 -22.7026163823913 7.29835009073553 0
-141.624632561108 -0.493442600804889 12.3762163542696 0
-196.24341611578 4.11989840243584 16.2797345684121 0
-221.217980761722 -34.0079724954001 9.14683668762508 0
-187.167732123364 -19.4164380766442 -5.92952488544728 0
-97.2800878845827 0.732968311314931 6.07645030840713 0
-219.178260974344 23.6169964128664 13.0638339861702 0
-49.5455879779499 -12.2705418068159 5.23695177321598 0
-164.138703005483 1.7513711568201 17.1262863170893 0
-23.1778737143534 7.87303469254567 -12.7997211319126 0
-7.13708050011478 -1.7979210844856 4.90390887796373 0
-217.327019300179 44.9832470153024 2.4709995319342 0
-107.935817114728 -14.1581821953395 10.7262282560568 0
-63.2335346258806 0.708575676257403 4.36259318425172 0
-228.803637695347 -13.0139995421502 -7.53342662927253 0
-5.6343834289098 0.15535809194835 3.82530797823557 0
-222.702556780693 -7.42224793470052 -15.2402286031686 0
-192.435359627411 3.45794410370437 19.7014106153394 0
-136.706206485766 -17.1290461244266 -9.53857177723142 0
-197.276042098411 -29.6498163958099 -0.875222657149538 0
-235.031915565468 -18.8177651873224 -5.59697804157406 0
-194.705461893919 -22.4502389660321 -5.32455297722746 0
-217.309021630878 42.676354931359 7.47157833433688 0
-173.406814627015 -0.223639036816834 21.4572948496689 0
-55.2512351828364 -13.5243522018389 4.79924748809064 0
-242.451403764405 7.4581277419503 -9.83877520451876 0
-39.1641327540977 5.66267704931022 -1.71391396008816 0
-229.122190714533 28.2577253359415 19.197177131955 0
-200.975808611758 -35.8490330391904 3.58944793443585 0
-21.8799975194581 -7.69617961888191 -23.2837121049528 0
-210.423282635533 -33.6859934421314 -1.45623234692142 0
-228.807085386741 -23.3332045258696 -8.20578682755047 0
-224.66090562861 -11.3891023345313 -13.8468122784368 0
-117.746735233772 3.88755919398074 5.56223132459587 0
-226.773927542879 -14.148852080586 27.1980617260986 0
-170.91350801441 -25.6675506947899 4.24366241380775 0
-220.439005624074 45.8703363204181 -13.7933647890118 0
-252.673286226103 19.3313814532727 0.173713047782629 0
-55.1368395949143 -0.390581063138406 -19.0051702802745 0
-67.1105071894329 3.52165561937149 -15.8328014865085 0
-210.105276454056 5.43641901548981 -13.5502935490396 0
-189.182947514609 13.3282963958216 -2.34996099590239 0
-204.324692890807 -19.8540081943683 28.3111924102122 0
-185.420596020026 -16.6749825174541 24.1299886166503 0
-236.252215798335 4.98840342062059 -4.35563042597615 0
-229.54175468393 41.8028551652945 13.4833168576237 0
-229.130236856449 -17.3254144520193 -9.62049621506088 0
-197.958385414177 -4.17061970662919 23.4312763685587 0
-244.046021828586 9.84077243862308 2.1767107780387 0
-208.77318468328 -23.7370025907934 26.1940783219035 0
-56.9513771363706 -8.26596977996152 8.66408220135443 0
-62.9533597036845 -0.984941125434815 -18.6124318053601 0
-241.241393994509 44.6633431371808 5.26401193898919 0
-4.96298676706897 -18.6773480396959 -3.211622729536 1
-15.7509828912153 -11.7686200438588 -22.6820059975545 0
-194.038514619238 -5.18162866935034 -11.2607064840816 0
-51.5545889763386 -6.24851570806739 8.0583782693809 0
-226.986649298509 -12.8997569972337 -10.0465865826583 0
-179.553643075372 0.226315544803302 -11.5224762619674 0
-88.2454083074802 -2.32439118230395 7.63270131139066 0
-243.491127879428 14.0271025261886 -21.3837332394764 0
-137.342128059444 -20.9212151155594 11.3816252141084 0
-234.877956566869 -12.8429734901312 -2.18517885631707 0
-176.582514819584 13.4015259738713 9.10979944954941 0
-237.385567740532 44.3509683675198 -6.79218160211654 0
-171.457770637979 -18.5578853883059 19.9541496266499 0
-217.761739400961 -32.2722340619641 14.6197966220202 0
-202.578844708529 -26.3767669830652 23.6523344855922 0
-217.082577938742 32.5929073636777 11.9498301847813 0
-225.280871834434 -16.9718260754173 -12.7301983186791 0
-195.637587131416 15.8617904786613 -2.49444958285616 0
-112.315779289002 -7.29850374552465 11.7557921830331 0
