-183.263394261027 37.458777295013 -0.476897328981874 0
-190.280926086368 33.2789249372031 -19.6579880714584 0
-205.747148493214 15.4885958091103 -21.6239061660042 0
-174.438088396489 -7.85439484636935 -14.2432272564731 0
-218.94997396417 15.9823812572665 8.07845144804566 0
-10.4958927091521 -9.39827235077375 -24.2460126206633 0
-224.007697196898 26.6102298475974 -0.553140978669887 0
-92.3339465506384 -16.8144814811039 9.3225815484335 0
-107.294856411969 -17.6397716831431 -10.8513672676463 0
-9.60156411262965 -0.673166563647503 -24.6949006714585 0
-219.27437304635 32.0141159799119 -14.6458693859592 0
-200.9098673251 8.93550450381895 8.9975677999781 0
-192.45784903764 -9.46821557800997 4.86658373943441 0
-199.524940658358 -20.5839158530912 -6.60991112987903 0
-173.447187539739 -12.4042313873923 -12.7549818068192 0
-89.1757892025457 -0.558735434367669 -18.5817475550894 0
-160.646065649508 13.7701885216666 -3.95722441037672 0
-180.891116440281 22.9131279564727 -10.0072715557799 0
-126.855209581478 -7.55684850457201 14.8428242228429 0
-89.0245161488692 -11.3837010681153 -18.1688814953506 0
-214.592352259443 45.0539517628461 -4.57167630161609 0
-6.14972690954795 -10.4587102764424 0.548416008521158 0
-115.333761075388 2.23275208074152 9.09896158002952 0
-175.633445831937 -28.3031224760779 -9.05251962074697 0
-206.915298165603 6.33391868396001 -7.85439950428604 0
-39.0398921024822 3.12450068449022 -22.1180724293564 0
-170.834105361851 16.1634972602515 8.41702865474226 0
-219.577111555221 23.9125072824095 11.4739343971358 0
-132.531811129794 -12.64162815588 17.1518689012061 0
-115.814109180025 7.69319283768332 1.80277711901877 0
-170.639412741168 -18.9476156893274 29.0477518169323 0
-26.4007289820844 -8.55739416074535 3.81603214136545 0
-186.39212886881 -10.1964702461797 20.3797688288932 0
-205.309227977025 6.19006705015245 -12.2058655372157 0
-186.914855712207 10.7492397192668 12.7041121473577 0
-38.5496894452447 -2.88212544056987 -24.1260349904617 0
-94.5444052562654 7.13985997671458 -4.65813704996871 0
-91.999443494244 -21.246796186318 4.41697838047659 0
-155.364893230284 -22.1785809531437 -7.76925961787308 0
-206.624719938133 -17.7931203617275 10.8248320351395 0
-220.273586726156 17.9161674029901 7.39050988216788 0
-20.9661898417464 -15.3127837245538 -19.178627369317 0
-2.10511845458231 -17.0246845974037 -12.0018833819177 1
-14.8199861189303 -5.46748323298774 -24.9338390132753 0
-179.2072783035 -17.29106422968 -11.799779774418 0
-126.675401405121 7.92514447757912 -5.48964958205829 0
-146.872826026449 7.41577456490043 -9.18670358552765 0
-117.587789177951 -23.6925073339554 1.38462314236788 0
-180.562392945751 20.0725539628529 8.64156437268983 0
-200.216657874053 -17.3646556871279 -3.02788486606603 0
-190.602351746639 -16.0781512213434 -13.3215255308112 0
-196.272685708015 -30.9712162269738 14.0567940849314 0
-3.10499208503026 -15.9920571825659 -7.14100643808813 1
-139.850301529522 -11.4405744700213 -11.6083275300502 0
-154.714079080481 13.4375665389733 2.15186883131027 0
-112.669886871727 7.28465121312387 -5.63766485018525 0
-197.376116761314 -22.3254754161787 23.7863569326605 0
-11.7862263819253 -17.1299970852346 -13.9787612111045 0
-201.086714676761 41.2529954713834 -19.5777477805686 0
-179.030957037391 22.6456563215675 5.5649829002299 0
-114.089197206566 7.29390222116562 2.60366283753542 0
-90.1678878993728 -13.2780597996443 -16.6552045257778 0
-162.953378400628 -21.1259286319602 25.0392098059715 0
-184.411498983237 -7.96156514154737 -15.7471031707028 0
-186.090917412624 33.1190043633584 10.622434997532 0
-32.2500814104524 -17.563586833971 -13.8609013510026 0
-62.2890449775045 6.63354258794622 -2.62338238957646 0
-170.917690696794 -2.54923808242824 21.6365131757962 0
-99.9201900869436 -22.4118964851068 -1.48821753832577 0
-62.1356225416051 7.76471119891375 -9.07232064156385 0
-38.4071719118937 -0.734250188607503 4.85519998420776 0
-220.715365794098 37.0013254385431 5.10357352335187 0
-50.7853433459198 3.74944164631598 -20.4246069581853 0
-149.811218566514 8.12045363129467 -8.71936926924626 0
-172.793871298557 -29.783706076335 21.9248639329153 0
-111.771447200414 -17.699652812158 -10.5448262483611 0
-222.744076675868 21.7758140725822 3.8789661167949 0
-130.400841637864 -12.3021324864194 16.685276742036 0
-187.015722500694 16.2899611842595 12.985438407605 0
-83.4829526202182 3.06521930216537 -16.3081385302929 0
-140.335280468761 9.71568107561836 -2.21327779830616 0
-74.6096642687496 6.56580857903617 -12.2111964998887 0
-103.909049813874 -22.9180083389178 2.80074586221234 0
-17.589236333254 -3.34592493941662 5.23738290959377 0
-28.2959642577905 -16.900233245269 -6.81464544830507 0
-153.865521524336 -28.2184336222823 8.16248476800393 0
-115.973513390271 -21.6763911859867 -5.63454160927728 0
-3.13596441593664 -16.5289131838133 -16.0895968032576 1
-155.225509228619 -22.9660154156477 19.8898998448573 0
-199.323585000482 21.4026865380996 20.9871125489496 0
-187.752914967477 -13.0956029696466 9.66355840509599 0
-140.572620398723 -19.951955916675 -8.0033441649814 0
-172.826809257275 -38.354337889867 6.3090967043866 0
-26.5277678868312 8.49678305798103 -16.1466951256625 0
-217.869478962148 36.3698460609143 -14.2181003881201 0
-208.101483756488 46.950101179851 -5.77160184305698 0
-182.985131903955 -14.9171416828019 28.8766038610842 0
-124.100860174009 7.27292390093016 3.53249512176998 0
-136.799930532911 8.78568042617749 12.2074825068982 0
-149.780713327021 -2.81114825803451 -12.5953057199611 0
-140.509397215907 -5.1588774619638 18.6135092466063 0
-144.498551320558 8.63354791085453 -6.46745109633766 0
-84.0521071943893 -11.12706163199 10.0548071335855 0
-115.717419251119 4.08161077832805 7.289894442278 0
-63.8524888839362 -2.60023659347809 6.33545342245606 0
-86.6958758706725 2.34794767827842 -16.5852966558171 0
-185.711398734227 43.619375515273 -6.2895398607035 0
-183.915242490465 31.9555641708205 1.87073293660381 0
-196.853692547048 -31.1153533462809 11.9675989068095 0
-128.283554177035 -16.6355684942948 -10.4465031020393 0
-218.456726072738 32.3157127079973 12.2197864632287 0
-167.343017853687 -23.7325726359315 26.0558312827429 0
-183.899475769229 13.3061266725652 12.2070966965571 0
-186.896013329282 45.0564580304058 -4.40886121333692 0
-112.757982635259 -23.6895358982251 2.04058290870412 0
-204.768231799821 -23.0128950995243 7.16642840155749 0
-185.620587890229 22.0656125321285 -17.2642532134883 0
-167.190779907876 -30.7666065439839 -6.74853007311265 0
-183.220287224483 -14.0809691827134 -13.9927786791947 0
-133.690672691849 6.81999409525341 12.3541268828602 0
-14.491925258005 -8.46014024191353 -24.4732365902678 0
-200.759097561205 6.61377580384593 4.20165207050949 0
-161.350963957904 -7.70404863972046 -12.0510918089392 0
-136.864360733825 -25.3634164914377 3.67173315176423 0
-57.7447024437539 7.79923539674524 -11.1020825407846 0
-151.500892808336 11.3795953180257 -2.69357374024879 0
-201.790275718339 -25.7098256553124 4.01433088208499 0
-51.198504777915 -15.200933562155 -18.4224052336034 0
-149.433805201869 9.12806048559193 -6.49443296713162 0
-12.9728693104839 6.11030960745272 -1.15593948350652 0
-191.780365801149 5.34556906291638 10.2001923868096 0
-0.715083714095999 7.38398485219381 -3.2735501469347 1
-117.768999951629 -20.9495008715005 -6.64558688193046 0
-98.1465245656508 -1.54713838454927 8.67451400471545 0
-194.375888462667 -6.93743300272023 2.75741503727424 0
-186.343583201013 11.6497843047071 -15.9268023366217 0
-189.983819015018 -10.6069893062966 6.00618938447214 0
-187.459824528684 -12.3406697101624 7.4140901777051 0
-166.797150456006 3.55464778986093 16.3698523006248 0
-197.497274698787 39.7045872642936 17.9604852250192 0
-185.102172804323 32.8570631307562 5.55569305804574 0
-188.347849127543 32.8724276512903 -14.29109529906 0
-80.2253305231633 0.52812703806839 5.92054451907324 0
-146.975699748638 -20.2442184675488 18.8991707277484 0
-197.433643755026 38.0965042419148 -21.4730833661759 0
-32.0466138007147 -3.96954127233922 5.97033002774487 0
-20.2728610936387 0.223912130760295 4.2669203730575 0
-114.207014832954 -10.2033215329418 -15.2264306081215 0
-173.681427579067 -24.1222601368492 26.9050530830776 0
-184.416761581874 30.1634428395401 -13.190702952015 0
-175.011606547362 -21.6282800356691 28.2596370309233 0
-217.035842645065 32.439560042444 13.7898882703124 0
-54.9538937681224 -0.468370965909913 -22.5880242334426 0
-166.863366440695 -19.1082171306062 27.6343001785087 0
-94.1788699290464 -12.7042834480424 -16.639281320024 0
-142.091598138165 13.4425781128603 15.9324102476854 0
-185.710180199956 32.8731615013176 8.92312423542571 0
-205.274817536118 48.469553726026 -7.80297436152736 0
-192.567312841133 11.5394569729428 13.4083978120128 0
-0.0494091458911739 -1.99690586851594 5.57835047961007 1
-210.45707351907 27.1048544913951 -22.6856378153635 0
-184.65425508683 43.2360947860704 0.0264668831080444 0
-43.9361785943514 -17.7137120790724 -13.3488330755317 0
-66.9587048711184 -17.3016822885452 -13.5989479982386 0
-178.406523787969 -37.9414880526126 9.2923400702597 0
-159.213876942341 1.15896713337134 20.2128279521396 0
-111.65881893176 6.28308433637469 -8.92073422396374 0
-5.48716360594704 -9.30470957693296 -24.3693864556653 0
-112.521198481975 -12.6936117111941 -14.1445532538477 0
-202.081102144937 3.71443108151299 -5.5469338275629 0
-28.7461565650132 -17.3942093833682 -9.17103911483252 0
-177.205311302267 -27.8220733869631 23.8406568178244 0
-29.9632673569889 -11.2582036012189 -23.0570648763374 0
-35.16522622636 6.27493371283828 -1.5838683910087 0
-163.063431637561 15.9096665435367 7.19100273980867 0
-179.838063664624 15.6017945975484 -13.1050634994883 0
-202.743149008962 5.72440729066028 -2.37018318647986 0
-171.378245792513 -10.3032119039537 28.9425970585395 0
-194.929338797028 -32.0138177469155 2.23190428480952 0
-74.6383691142292 -4.90864629920328 7.66715397210589 0
-184.398987373645 36.8417634456844 4.66495394288391 0
-210.935750349075 46.36473245746 -2.71362979683037 0
-8.53582261722205 -5.37108070853974 4.08834958936399 0
-36.4190357925158 -4.14247840962945 6.18608313409434 0
-4.23877940353689 8.50015329308514 -19.3295788069102 1
-212.861849763704 8.40879754747854 -9.49045519117519 0
-210.348000500395 38.3879130014221 16.2848237578408 0
-111.015647095582 -7.34239818868824 -16.5241310010284 0
-29.2059357062359 -0.415782760122773 -24.131514370734 0
-7.27412226368699 10.0077031154482 -13.8580117862891 0
-174.593092569431 -4.67995675815117 21.702672397349 0
-157.467394632104 8.27596919137247 18.7739148116629 0
-212.236221763374 36.1875439956431 16.310556564274 0
-198.522531777295 -29.553365463645 12.9522974489262 0
-13.6057117683354 9.36828206703352 -15.8812311950646 0
-98.0139323184068 -18.7316529107186 -9.74563026191698 0
-189.228508467812 -33.9486610733332 16.2873789111252 0
-151.264337915486 -4.68723600935339 22.6748094137997 0
-75.7241872993661 -7.37729150046214 8.43404131637702 0
-64.6387938887725 -19.2128416257644 -8.69275736618753 0
-215.487125560914 42.5583949650999 7.85151860119858 0
-186.341210198921 21.0134384769451 11.6448668072776 0
-199.952291926209 -11.6483795170604 -6.9603181600065 0
-191.366056517928 -32.349023259105 -2.75554418540089 0
-195.434464618534 30.9009531697377 20.7531839858286 0
-191.834174714353 -2.81224923875239 -14.8637416872138 0
-119.396223601277 8.03591446831632 -2.84175781881258 0
-137.872048387132 8.94224031147759 13.9930022552162 0
-43.1063764216856 -17.2860741918562 -3.89377589749138 0
-136.029467596262 -21.118321903773 13.1970027039177 0
-146.378716064161 -5.525291865252 20.8158259292837 0
-13.3967859169209 -3.84263958168256 5.17315104174468 0
-134.999636943257 1.76565706322189 -12.5137407113948 0
-174.267653389559 -24.979793898688 -9.94520056479395 0
-70.9332353259115 1.96189834257483 4.30944125603156 0
-55.2302905637028 -7.09811032091401 7.64571386468726 0
-115.935247229812 -13.8918301390277 -13.0105625165418 0
-155.097134600201 -24.8821149282594 17.0890247425871 0
-189.706811693192 -12.8630535456095 8.5240708714231 0
-66.7540820373005 -1.36536983355763 5.84081922232495 0
-35.1562961834599 7.49403360004414 -4.03780324235457 0
-74.0407102082082 -20.0377166037431 -5.9385077862119 0
-175.923124098834 16.494907097711 -10.2568419935362 0
-173.987457805116 -28.4514092379843 -8.8021281820732 0
-186.8704043173 28.8610159412827 12.0175086603494 0
-57.2622429486992 -1.37549916338732 5.60285306937834 0
-35.5995626372518 -8.52664288221253 -23.9277980440449 0
-181.653493324287 -32.107959965186 19.80673643817 0
-190.583056633407 -11.6792846866645 -15.3657571258108 0
-194.344537422711 14.2956276643423 15.035401710221 0
-85.0194482454592 0.269316672469054 6.45014547763952 0
-131.192808088229 -7.4447744125455 -13.507300579586 0
-192.994245593672 -11.7089870559623 -14.4393906342948 0
-64.7966144569225 -19.6554636953128 -2.97435717252892 0
-185.390994799221 -18.3342684809696 -12.7473286416232 0
-140.150232291666 -7.54436907688871 18.5063552062801 0
-171.167438256736 2.81936175922967 -12.534469857353 0
-158.949216245573 0.752955116694288 22.1475827039294 0
-216.013447411826 43.8628048827439 4.21594520577079 0
-169.677293946791 -7.29456570438545 -13.6976059711974 0
-221.195702034349 34.7747033083052 -9.56089135311127 0
-201.016116428133 36.7545569644808 19.7634723060407 0
-139.391358743827 8.67953740990125 -5.7561737977518 0
-55.8429556445881 3.48866100574434 -20.050346140754 0
-112.074270952047 -0.712148273234336 10.6020976803119 0
-89.0606834211793 -3.89723834610632 8.60634287945211 0
-135.052341216041 -19.2916988677448 15.0936075800669 0
-188.102857550748 13.9731560257183 -17.760512173829 0
-189.823664629847 19.0435088318411 14.6661387472212 0
-182.22979461933 -30.4508438896967 21.6640953048882 0
-174.110452631624 16.147743489406 -9.60048612727282 0
-34.3606676848175 -17.6051636334286 -13.9806929434644 0
-177.305511595964 -32.3332493591389 -4.9966276321008 0
-161.306703961024 1.76725454624024 20.2427663264608 0
-190.599797713122 -23.7244787878713 26.9052277426768 0
-195.81289319345 -21.3879462085794 25.8373653298934 0
-150.179353540322 6.30758380790835 22.7172089603529 0
-219.191045616604 40.9930039719704 -4.62935720229406 0
-58.7038197847954 -13.9777741334448 5.68756477211886 0
-50.4780111904148 -5.73045163389512 -23.5071822682577 0
-84.5228084206454 -20.2537059351991 -6.09571403951726 0
-173.155553663192 -8.31962280200558 28.2694030680955 0
-163.355577803706 -6.54220497657546 -12.6595099673685 0
-171.160825808992 -31.7185009649171 19.1906964269165 0
-169.340758684898 -1.04268275980508 18.1730747198952 0
-180.55982869122 8.42764375508674 12.0215262625069 0
-201.920534108974 -22.4459595519828 18.5385259653652 0
-183.450434848109 40.4662311139259 -0.682635081125161 0
-62.2538180212705 7.12711245418861 -13.2132957933702 0
-147.19513534071 -19.0846503717862 19.8234705321649 0
-37.376315716982 -2.33542360504986 5.67132865368453 0
-160.779016889938 13.0183791230898 -5.60385866663528 0
-175.807166737735 -30.3460139881583 21.4988184153705 0
-201.80587657518 3.38636246091964 -7.65999556219732 0
-163.858880943062 -11.0215380182048 -11.3120113633462 0
-193.94210625878 -25.8950131938035 -5.44161183225385 0
-176.171058182079 -39.498543299215 2.88105699947858 0
-114.980961249728 3.20430321538141 -13.0299942716244 0
-36.641522156181 -8.06535343666479 5.59552119485803 0
-157.127604141241 7.54181780927195 -10.2802494044228 0
-96.5101476039903 -16.0856995516879 10.1195306774093 0
-165.189455046981 -30.0078763410118 18.5550813604672 0
-125.40845646292 -9.24900230230645 14.9434927167461 0
-120.929822392391 4.25406687868469 8.20965111636758 0
-22.5799981904694 -12.1750508534836 0.48809827960426 0
-152.111272355194 12.5792790715931 1.55291031769405 0
-173.513411372897 -33.8315361987694 17.0047501830495 0
-218.791415252638 40.0012770184361 5.57032395526154 0
-191.639364591877 -17.0663401445953 -10.8082774846619 0
-174.220340163958 -16.5536548167846 -11.2643656787084 0
-136.132967567944 7.89322612480636 -6.75115221369829 0
-173.366859763417 -4.43784016181097 22.7694826319927 0
-15.4578234901382 7.92327558040405 -19.3256597309633 0
-77.7155640878397 0.740194368407615 5.69597411381196 0
-129.980882536308 -10.7188319872037 -12.7662590341924 0
-202.291643234759 -11.4876930475045 13.8369850249255 0
-38.6444939587253 -17.8435375204245 -12.9646609196802 0
-207.398343613713 15.7611611513285 17.3259246389958 0
-212.031616093143 45.974790581517 -7.04552049022051 0
-188.902887266656 15.0455806495616 13.5982038579524 0
-201.172298501571 14.4057736865267 15.9465297573521 0
-205.94113613616 -19.57252117546 6.07507740122936 0
-13.3104784805476 -15.426196355243 -18.7699442708827 0
-25.7712652430738 9.08944549362168 -14.0811176830777 0
-38.345170945853 6.70087904072235 -18.3609347684768 0
-13.5006852456267 -12.9640463727118 -1.13652615256292 0
-16.0785223519773 -0.826495960538868 -24.583504153255 0
-183.357190243891 29.0841808098532 -11.4959843687673 0
-208.216633582549 17.1795981755148 -21.6747226564118 0
-77.3243871080367 -0.660710561780337 -20.2721101663189 0
-202.606662737293 46.1545691227197 11.1816733311882 0
-79.7418179101023 6.8645025373618 -3.20341308901261 0
-179.346866932732 -10.6093961577951 -14.4130223059661 0
-203.288114140952 5.80180527389177 -12.6486454195824 0
-114.942694687337 -0.486701011524584 -15.2471001537399 0
-153.889159815964 15.109654868306 15.7618864702708 0
-187.668236838385 8.63488003725869 -16.1102285912083 0
-212.064265901449 16.943190825402 16.1500795772075 0
-44.2523594376519 5.39207622098619 -19.4596032806221 0
-190.475509064037 -26.4115259468211 25.1194217185754 0
-177.62820924129 -3.42150671162602 -14.6239907904245 0
-32.7884152173258 -7.20550065565601 5.66531587521339 0
-55.1254139665283 -18.4985981251781 -3.14289927313199 0
-130.160599146192 8.2840296183251 2.85540904017173 0
-173.31220941044 -3.07681548987526 19.1852265048156 0
-197.100081926634 -8.28453592670031 0.269346758103355 0
-169.749837786482 -32.7158099330442 -6.22030929400766 0
-214.783406996641 12.5351675367337 -13.8861574312137 0
-175.373201503883 -33.0754630382273 18.3005891763669 0
-214.75231360748 44.4129404077739 -7.11034180339889 0
-32.0758573369854 -10.2995571008578 -23.4572147578862 0
-85.6082343907066 7.13953821550812 -7.48073176924491 0
-145.025006778228 15.3316126608527 11.1532336347149 0
-96.569880753832 6.33816605512523 -9.43723418797998 0
-181.847656179272 4.88604648966276 -14.0590572064448 0
-204.560164108526 -8.62748522806279 19.9740695613119 0
-170.978882901941 -2.55712013364944 19.2886858325269 0
-106.318849192011 0.096803300763619 -16.1693991017362 0
-174.670689852277 3.92513201730565 -12.6126582621365 0
-199.776362356821 14.1728816426719 16.2292073123497 0
-183.694270649955 -19.0530876389122 -12.1801304518984 0
-181.00654218212 19.8310803309612 -12.3203799647777 0
-192.27982063686 -7.06118766982883 -14.6729229265315 0
-29.358580338661 -6.07260116381693 -24.4786032548084 0
-214.766211547879 8.88500021801819 -6.75710232803029 0
-191.123224709168 9.77407395675436 12.4813093353045 0
-184.565470048363 -18.9027546626455 28.5497275902245 0
-204.770399410083 5.63459290144834 -8.15004260179706 0
-184.341622985501 -13.6660612545409 10.8408507888094 0
-109.422629951318 0.439981766073386 -15.6130885584991 0
-4.52927201224408 6.92769068770694 -21.3224302265477 1
-27.8828669399284 9.14443898578864 -11.1851064352871 0
-190.177516303249 45.0223715323666 8.83142545598869 0
-148.596814847152 6.74737497325691 -10.0135611986048 0
-145.48971721335 11.5775271576036 5.54579053984577 0
-101.331418082458 -19.7790933679921 -8.06062323873558 0
-113.010221034551 -16.4769553278866 12.1806060038915 0
-200.2006038545 49.211861076195 -5.20277005356915 0
-212.044979128817 25.323200409968 -21.8124111675709 0
-162.196739518046 -16.3764369933758 26.2562282140112 0
-151.0474856492 -9.38490200255825 -11.3715087428562 0
-186.564743864869 -29.687008329334 -4.5227426232008 0
-56.2457659789698 1.48611174683445 -21.4932416354352 0
-77.8156351294264 -9.03422935394518 8.9811778719011 0
-188.048206589233 27.717155689076 14.0137937860527 0
-161.682796117436 -25.043222809618 -7.37727636118214 0
-164.767274982354 -15.0817629938165 27.7153894309733 0
-205.156256306023 47.0583785956784 -11.5332567871809 0
-13.0041059573632 -14.9921798427947 -4.07963034899548 0
-180.471250561725 -15.2108490866874 29.2261710887893 0
-170.961445720611 -4.5989679828185 25.2606901123798 0
-194.526758511556 -23.2144082764799 25.9688811264539 0
-201.959408668875 -20.2340348596017 20.7064315727848 0
-5.17334120534197 9.45428008464803 -16.9709262831533 0
-58.0554238052343 -10.2141598359024 7.81808572977227 0
-152.849363216661 5.58038999787226 -11.0194515140472 0
-132.30102202178 -21.0691298665201 -6.65214777339098 0
-164.333358787318 -30.8441417128316 14.7493630260641 0
-138.532712770632 -16.1766132107331 17.997356989322 0
-175.533501468262 -3.66609716527321 15.4811537200859 0
-194.966203732408 22.6147110286071 20.4087636826459 0
-3.79806173899657 -4.80331041524129 -25.1658905881101 1
-180.748115461289 -33.7256051801259 16.6541483169086 0
-150.295321298913 -19.8209068889978 -8.5819612545952 0
-159.444213167241 -30.5425324806918 8.96971589196438 0
-104.730482048056 -15.5435666143987 -13.1597458732766 0
-166.954356924316 18.0556814713007 2.11177451059123 0
-38.2637857838595 -0.079510610864928 -23.6382975694411 0
-46.5327364442551 2.41493764487223 -21.9641239359571 0
-175.150471050278 -29.4626546734233 -7.44255937608627 0
-191.415037316979 24.5959395360231 19.0210499744194 0
-43.6179817614232 6.30580974721534 -1.77331250359399 0
-166.962909077157 -31.3142525612712 18.0132176070717 0
-219.350772495803 19.4479047600996 10.255181819383 0
-109.509528416176 -19.9683905607773 9.51623683562771 0
-104.947820504395 4.24515421112436 5.49705374548175 0
-21.3049840105681 -13.63876429372 -21.3798498292595 0
-165.899311280706 1.41117808750248 18.4142913360294 0
-212.169743259237 46.019617822301 0.212530787532966 0
-143.545113093948 -25.7924288199708 -1.21797065234961 0
-197.53311130734 -10.1900302226765 26.3431735737329 0
-193.435613696815 -19.5703489749067 -10.4789357187081 0
-180.337316572967 -10.9380626819119 28.0285047246138 0
-184.77756609249 -11.8111820733193 18.5929648629015 0
-36.9315297382948 -17.9492471670506 -10.00857113459 0
-146.008391809356 2.88725704072812 21.9274078205385 0
-214.975231980936 41.1418312100406 10.3210690202946 0
-205.601630413551 -16.127235267948 9.54183859695924 0
-132.736160966193 -23.254761173334 -3.78362037388778 0
-64.095830940845 0.173035071376274 5.17157931814465 0
-206.943845808681 44.7836922406438 -14.716064225082 0
-171.420196879576 20.009989336779 3.0273909289551 0
-208.471892621582 45.9976857492888 8.09045942357082 0
-39.1302326750264 -10.8733847432662 3.91033224693373 0
-61.3892092529307 -4.46483808756781 6.86810591493676 0
-194.218120590746 -28.9634380243133 21.7894493360415 0
-161.675234693387 11.3389607401733 12.7514798734344 0
-184.248212929137 -33.941142886097 -2.92243157241799 0
-150.306224215964 8.50331248814738 22.5768399036198 0
-161.260991816243 -14.1547773230283 26.1992577508117 0
-164.713582637313 -1.96773236804875 -13.8362988244989 0
-19.149372845909 9.39873788294623 -9.5927917474863 0
-50.9363087543166 8.13407685212552 -11.0717325483538 0
-213.413236797876 32.1936302925617 -20.3464083882061 0
-96.8348190160138 -21.9181871705569 4.29228579348919 0
-164.121677178546 1.41898860915664 -12.7302596772794 0
-68.7458229841813 5.35316657582737 -16.1147351312184 0
-181.497837880568 -22.1930951864789 -11.1118369785572 0
-219.948842030388 34.6689038392407 8.92690990066425 0
-123.152246586061 -6.97906773779886 -14.876755572239 0
-61.3838079947182 -14.8499496387287 5.40352609295177 0
-101.677738639652 -19.4444001548949 8.90892228935124 0
-189.575818657364 -14.0797195103925 14.9989513037081 0
-85.2818009575856 -3.0510352610925 -20.0635861212655 0
-172.179516182083 -13.6698693568782 -11.7385415590606 0
-187.420616559917 -28.5921285252293 -5.57346006024825 0
-186.746666667249 -35.8095134259947 13.2217097874907 0
-27.0913749330265 -16.3667821316664 -17.149975013397 0
-135.987425247287 -24.8452446205164 -0.968461995270298 0
-191.979269902216 40.4132810982405 -18.116990274675 0
-188.583710601746 -27.2364928999177 -6.71060618898816 0
-165.132568191922 3.91520020929 -12.1583956023936 0
-199.251954678252 -15.3105858398067 2.5603510399179 0
-169.284471218429 -31.7364270517 18.2764149371857 0
-53.5584743852747 -13.7715269857023 -20.0095009171002 0
-167.930162145133 17.5446904512885 5.77091310284044 0
-144.017882844016 1.33351553073761 20.8148556575429 0
-196.903784856349 5.60140490928633 7.66848940299544 0
-166.081083724035 10.3293355936443 12.3338865864671 0
-189.063693433125 -16.2063717535653 28.5647372013326 0
-191.512623924852 30.4865435609506 -21.8784441261265 0
-196.293351908454 -26.2837341588969 21.8329188199808 0
-139.813044612868 -25.3557811036573 -0.750442487891772 0
-202.353442198532 11.9977869340747 11.2800194032482 0
-198.847178549453 -0.506709156046511 -1.29598969739356 0
-176.163447665112 7.6729169960016 -13.1370447185934 0
-142.738484973587 8.48437412984146 -7.05368961073004 0
-180.793269720105 4.22944842594819 -13.6949832872306 0
-190.166396069697 -14.0344273301953 27.8753921202145 0
-167.620422148113 -35.2931035894293 2.13303514101796 0
-118.810308172988 6.9578070732062 3.42591489527839 0
-34.5021292739732 8.76197289015199 -8.75911406301003 0
-95.5921470000576 -14.0531071339327 -15.4225988054576 0
-187.421855252528 -14.7365893954922 13.2918347906043 0
-168.102734358635 -2.95123709991512 23.85950968324 0
-104.807916321241 -6.32061160602909 11.1178810256168 0
-67.2577995605233 -10.0552200747945 -21.3030542469303 0
-183.841046445696 9.16067236401273 -14.8762067550331 0
-15.3365249785758 -16.487695506723 -7.38379036997186 0
-176.343365306465 -19.3757273588137 29.1164057880053 0
-97.8083784073163 -22.4489278068252 0.761156930350505 0
-147.339328489415 15.9637512251043 16.0305588010504 0
-181.325497942144 6.95178486753112 -13.7533611062582 0
-166.441191289993 -28.3720192653981 -7.53283223776851 0
-196.194911679371 -16.8309495744016 28.7819408913447 0
-201.677651198843 45.7285963676078 -14.8396010067554 0
-222.7111714107 24.4279006950489 -8.55664046531099 0
-121.766119145387 -21.5860878373108 9.63752915348598 0
-195.280152877991 -14.6641162089127 28.5195511398757 0
-167.831924319986 -20.5752223395378 -9.5674968022799 0
-210.270160618062 8.85732757906183 1.06274959626621 0
-201.482087591385 45.8368732303995 -2.52241908039459 0
-190.517981008041 -1.65599949209711 7.37432956123442 0
-202.052701776073 -8.86594475076029 25.2600996168336 0
-2.10687726516401 -14.8857380337194 -19.5940566648934 1
-216.941606338366 43.6601687529492 -2.91141388372269 0
-178.258087399058 3.96841537118626 -12.2867543605595 0
-176.789618899637 -31.9332896289595 19.7095892003274 0
-75.2823134540768 -0.330831229672749 6.03099213884671 0
-13.9217719803311 9.76199033794872 -13.3763349370132 0
-4.74732242275047 8.06869566525515 -4.57359841844161 1
-188.477643892587 -24.5705792970164 -7.69817511053596 0
-162.159769382919 -9.22481348366412 26.1433306711969 0
-107.56852224906 -13.021224080647 12.603129117297 0
-54.522924475334 -10.0404439583551 -22.337780559532 0
-148.044819339538 -21.1111780836243 -7.58990314628327 0
-188.012177719343 6.62554227019402 12.1393028737468 0
-25.790056491396 -15.6007332319166 -18.733419548504 0
-106.385282278514 -19.9383338541888 9.09986946589415 0
-186.647615963395 43.3496444256664 -8.20205711297655 0
-131.13868250309 -13.6740670881799 -11.7932592252404 0
-153.748929763968 1.47276141094147 22.786955610579 0
-145.967615026937 13.7149015436694 20.023404549725 0
-164.89902447234 -24.0341547490738 -8.53905836179222 0
-199.471436738836 9.27037018938767 10.4451827855108 0
-20.6919496099017 7.05558360563131 -20.0625645487814 0
-211.924783690953 9.16377033845439 1.63876668360832 0
-185.574215276548 -25.1818856804202 25.9053601923211 0
-190.511278078087 -19.0392486428989 -10.6315403688739 0
-199.627179901278 1.25705221073631 -9.63270596141199 0
-188.516005080937 -8.10369109551202 4.84572588733849 0
-201.736585354695 47.3001545089401 8.59228687874674 0
-187.833819043284 42.2154047568806 -12.1724601968312 0
-65.8767590899833 -12.0262132807123 -20.3058259807632 0
-32.7990873791785 -15.0265930061894 -19.629266042572 0
-174.566584202079 -11.1303646366015 29.6308612451948 0
-18.3022248611747 7.77826761530617 -19.1603488443199 0
-195.462458627408 33.8392679287166 20.2314994905929 0
-14.633327815321 7.07062979365995 -2.96715520795041 0
-86.6416342390097 -0.396754249394419 -18.8046913222352 0
-191.273524394778 -8.8549013977397 -15.1900197211937 0
-109.334145120449 -22.6874687587466 -2.88093111898919 0
-187.490180998234 -18.3564470910742 -12.391225043029 0
-187.407974015702 -18.2067746274517 28.5212527112908 0
-18.7120465683745 -14.2632505809532 -20.6556469931616 0
-82.1985816217463 -1.65856637758585 7.13537359335448 0
-143.392950348734 13.7288521453413 10.7843860924246 0
-55.6794794426781 -4.18776596723419 6.62396899664354 0
-219.589726779021 26.3582732896699 -15.1680342353972 0
-165.884706811343 -3.6596066183221 -13.8360287338198 0
-24.2409588137961 -5.98123028023525 -24.650935983492 0
-169.075694931961 7.19335552230176 -11.9052230594711 0
-195.024424519422 -20.7696024391904 -9.74011892143744 0
-186.072394019485 -8.79629489128615 23.0189431018507 0
-197.623880038295 8.38802042543044 10.2382994283995 0
-27.425894416347 -12.9995827064476 0.0997877479325352 0
-193.666516209785 3.2071980501999 8.20117343682068 0
-40.8709142902858 -4.49941227790881 -24.0759237118906 0
-136.263007809412 -10.5463474344733 -12.1171609079521 0
-110.803662595422 1.9277151515892 8.58836192122129 0
-164.459550904735 13.8176861159538 -6.79877768402111 0
-148.879773877715 15.1793122500797 17.7699079484147 0
-130.64581042189 -23.3628212015332 8.46476380283552 0
-204.030677950642 43.7251777420261 1.99749214264636 0
-177.958540739214 -38.1492491617124 -1.0030389950019 0
-168.067560823725 -35.1699677118997 -2.71172585358776 0
-199.751516002215 5.44187280858153 3.57593536316639 0
-70.1349951435202 6.28125923351695 -13.8836301578913 0
-108.655850907795 0.650239356133823 9.20918851546102 0
-27.9083175552938 -12.8458673540189 -22.0263830582833 0
-133.519599243977 -14.7350594577905 -11.1709479356892 0
-192.023547974422 2.39951450327169 8.98565737576766 0
-197.784958935516 4.24058496281288 4.64789609595446 0
-130.656941216986 -2.73282107295482 15.8197981009889 0
-167.047066582248 -9.96793710453214 28.0038927932834 0
-105.336523207922 -3.31179726844541 -17.5552807509039 0
-169.966283525685 11.1332784331617 -10.8752441216821 0
-192.343246314408 -13.3863124993748 12.7742400432459 0
-181.82711784972 -12.5779592688538 10.4902978083659 0
-205.179300530972 -21.2939926026162 4.98053961409901 0
-182.122599883273 -38.65650709171 1.22290104998254 0
-35.7151603076528 2.38296448096504 -22.7554180272304 0
-155.71996119126 -5.90624027246259 23.817578195119 0
-108.059857977625 -2.23374038633112 -16.9467798101077 0
-138.936666399185 -21.9300856832451 13.0465262503305 0
-178.044802286804 -23.8124183205554 -10.642474560899 0
-165.576918627634 5.70622470475307 15.2491594690873 0
-114.765902135009 -0.213427455243909 10.84502298978 0
-199.451588414835 -10.9473331501075 27.48650724683 0
-205.154552197553 6.99907745151023 -13.9459103487445 0
-209.619899267039 43.4196222855653 12.4316393692929 0
-36.9686932557025 -12.1195145237106 -22.3573189499237 0
-152.087708222251 -23.3471116891439 -6.57629980176837 0
-182.198645201106 -33.2631897703577 15.8035375643452 0
-19.0300212438813 5.06443564322573 0.366097961148745 0
-34.5689183135014 -16.8477310420002 -16.1875043063071 0
-64.21879001328 4.32798018870291 -18.1550586301062 0
-71.8583363368337 -17.5266884113784 5.34273040113017 0
-185.740876665501 8.69854306122875 12.6770045193949 0
-177.420335169602 -10.6219191271943 28.9764212741333 0
-57.3966337253455 -19.1053230841464 -5.78248556982167 0
-205.471023007608 -14.4385770731715 12.4443706521174 0
-122.592151073788 8.3218289174223 -2.82254701396852 0
-191.703563652441 44.7002675533169 -13.2700211068224 0
-100.528457420362 -10.8220594716938 -16.9430008517044 0
-153.161246667293 -15.3550727173842 -10.0247171817507 0
-205.940150108146 8.5417705303891 2.57306054053532 0
-159.652174207814 1.38211118506773 -12.8802049647724 0
-208.784524847847 12.047275431484 11.3921366918872 0
-58.4815345566785 -7.9522834724145 7.85296286492705 0
-25.0680909111515 -15.52236962686 -3.72323303832335 0
-218.741991786039 28.1675377835516 -16.1646044716215 0
-138.913313440712 10.4467499240558 10.7991358712921 0
-112.939064809632 0.84993300300028 -14.9113283142136 0
-74.844649732604 6.9862907156789 -3.81983191860973 0
-174.404237391583 -29.0697663240366 22.900478623876 0
-135.318702852369 4.73976091713705 -10.703428467053 0
-2.59243413354675 0.642736889269956 5.01670870500517 1
-188.853576474692 -35.3990106534291 3.49866666226456 0
-172.005236204792 20.3834336406794 -1.66068635261678 0
-111.907501117886 -3.45362271794741 11.6678850082378 0
-216.992564141668 16.7911967894611 11.8110865186671 0
-145.96119366451 -15.8321566191376 20.0645688032875 0
-156.936178005577 -8.26264931100214 24.2051814963821 0
-142.551860760414 -25.6941981408363 5.88301824684469 0
-34.3731445560409 -15.7373356736927 -2.57452207808184 0
-68.867355834794 1.37297629587589 4.72553548699995 0
-205.650619916236 34.2915433441118 19.9596170736536 0
-186.688467964614 -6.71608739507574 6.92086398974781 0
-18.507505605517 -17.2594078048817 -11.1454563784635 0
-195.582090897546 -11.181321948485 3.29746355968626 0
-105.812973915317 -22.5300987520502 5.0074758148696 0
-106.52942998536 7.20628241824638 -5.65210668504392 0
-111.748648084073 -14.2097977037545 -13.3172847684496 0
-130.01920311297 -17.4826313141943 15.3995259609826 0
-31.9372252975505 -16.9470572983281 -15.7797141112636 0
-193.596480670424 -9.49346161431805 -14.129784680618 0
-114.238734725293 -12.0739862278743 -14.2856856059872 0
-35.173113846079 -6.57131834985417 6.13929475327284 0
-169.994839826443 -26.0248993537361 25.0097279357933 0
-79.3619914307153 3.6745970996772 -16.3254128927724 0
-128.825451005621 -22.5809460166162 9.51219586010453 0
-156.900949498441 -29.3606556631932 4.22151601258055 0
-198.615131751935 -23.9255542192709 21.7043313281089 0
-166.406700246269 -1.4410663018207 18.3850675537501 0
-199.602744591954 -30.4813603368059 5.60833644464738 0
-175.17796048951 -0.713773927260607 -13.4056139189517 0
-197.095880072318 2.38518621062783 -13.8822075241355 0
-195.459905180314 -33.0817106314077 6.91002166823059 0
-45.7522011587034 3.84008898043861 1.67642984808761 0
-175.400714130292 -27.6450333383166 24.1189748027157 0
-177.421487937001 17.3511234560356 -10.9966070376139 0
-132.176554863685 -24.7246058643779 4.84220062111663 0
-88.5392650463483 -7.25718735998318 -19.6872518104003 0
-176.770975008846 23.6593689630274 -2.83313254350326 0
-68.4290666529593 7.43824002809157 -5.56007754294402 0
-160.241486487573 -23.6747591959313 -7.71338542335427 0
-197.018423336301 -8.72509936222195 20.6055563599998 0
-192.106724325842 22.3580361357409 -22.2685362333901 0
-16.7529345619671 -13.1742581365071 -21.8050565093973 0
-31.3644242439162 -2.11177412330057 -24.329899973846 0
-142.318953186891 3.91672676275559 -11.7082814728007 0
-8.19826688899205 -7.66505326980519 2.51366391634002 0
-174.243295094341 -11.0505231862263 -13.2985782788105 0
-98.4154431412589 -7.95605508814388 10.7707259988335 0
-206.525522685678 44.4837225271314 -0.725316921524802 0
-210.190004590074 22.9970629624206 19.1622095288077 0
-136.587621102053 -23.5900857474757 -3.95498783923956 0
-83.9484524464664 6.79717351381457 -9.61881536084272 0
-173.820337935157 -18.6099903088139 -10.7135285738976 0
-37.7889806620158 4.81381417140634 -20.9116074623766 0
-217.423734084142 13.9164797633298 8.31708505415172 0
-89.3928587448733 -9.15084945205708 10.1433982461141 0
-170.667610324774 18.9653187916954 -3.80156300069441 0
-86.7438766981856 4.37763808636381 -14.1970819968739 0
-48.717841669995 -0.194150573237565 4.88990857669441 0
-124.154228214262 -15.2388874155897 14.6910355258625 0
-125.79677291317 -15.8562007074578 15.000342645641 0
-87.6297780237049 -9.99500857803063 10.2180664955894 0
-199.781843360508 -29.9649870508928 7.75100115443504 0
-159.412049717463 5.20674136542831 19.9616256435018 0
-158.554956098647 -16.7361672251338 -9.74480408629828 0
-121.597961175036 -15.6735926671604 13.9584961800222 0
-25.3015678327795 -14.0906302304746 -1.44266009412737 0
-163.685010937653 -25.4666125145009 -7.55645139904115 0
-192.684565835566 -30.5918648860259 -2.87950974735798 0
-26.34676915184 -3.7667243757299 -24.6499013033068 0
-189.764579641314 -9.30915510128489 23.5836395617079 0
-107.264792473564 -9.9001314066152 12.8352466198282 0
-204.788689429899 11.3830899373154 10.5037684552957 0
-158.567612521735 -21.9248797567458 -8.35352072755548 0
-71.8479928193205 7.46800464765914 -8.04340774876396 0
-59.2968983059444 -18.1581503466258 0.139571392270402 0
-111.081641898214 -15.6748688925265 -12.3994340081352 0
-99.5940543962971 5.24706521949659 -11.3851049891056 0
-132.518328358874 -24.160563819171 7.00324256036437 0
-149.648911563991 14.4232506584603 7.27255852028513 0
-217.813652321621 34.7820904099148 11.9235453352495 0
-194.805974363258 48.5380361251611 1.48132904306882 0
-183.308147846962 17.5909712233393 -14.9142900117009 0
-80.2517630825029 -3.45242932840091 7.65855373216801 0
-26.6240497031132 0.582563505746014 3.75761399035013 0
-78.3755217440886 3.67890719065406 2.88429557627088 0
-187.10360678957 -37.6233416259122 2.80176148622976 0
-170.599638475671 -0.656725683261527 -13.4246855980033 0
-204.569922887353 33.8307200732871 -23.3732002040633 0
-211.65167820933 8.11466233722141 -2.89854270938628 0
-202.559267066868 19.8804783962796 -23.8171377489399 0
-189.941122960391 -34.0619866494655 -2.06472453533053 0
-65.5081137924433 2.21300277545599 3.76724710183595 0
-8.43844730924232 -15.9854217322845 -17.6907776824765 0
-41.3061283026086 -6.96879762022677 -23.9084770611815 0
-174.858988090097 21.7832676331119 -4.0858579094182 0
-140.611596570954 8.14434611787336 -7.68378534375618 0
-178.455310391629 -6.91519675030597 -14.9264020171486 0
-43.7677975845826 -10.8034478706105 -22.7081207130677 0
-155.353648681817 -17.9720901603048 22.4452993152963 0
-116.587616994469 -12.081183316577 14.5499954608305 0
-154.545842386417 16.7370648343951 11.3569909443102 0
-210.153447640643 47.2089633478542 -6.49205338285 0
-195.114291514 48.747295016413 -4.78688704845037 0
-206.018691308363 39.9148822339431 17.1418945931132 0
-171.184717752415 4.90719889133314 -12.5645034910822 0
-199.803909492052 11.4701127798673 -19.5817146840926 0
-135.07395994197 -19.7846843676844 -7.94358186761324 0
-198.853194188019 -0.729533495197104 -7.97368641969761 0
-198.08823812591 -6.91264768425432 -9.95826176087323 0
-154.584152171721 -3.27819247916446 -12.8929774085158 0
-174.751906414727 -5.90408194722342 16.3211506897162 0
-183.598772968481 41.1917017196073 -3.23702734126922 0
-170.229390168711 -22.5597729806695 -9.55407047640733 0
-183.749396042741 25.2786464312584 -14.2189894032342 0
-146.368100057508 -25.0045170529589 10.6360622002912 0
-185.968748678994 35.2926988614968 11.3988069049701 0
-184.762391042859 -30.3934637895299 21.795827962196 0
-202.626419223696 -9.52552791889686 16.7609352888618 0
-180.963912385428 -23.0284021795599 27.1777309253041 0
-25.2997673147057 1.90809798414011 -23.5550888318629 0
-47.8071212233586 8.07456611085898 -12.6039431848838 0
-135.854252308407 9.11299601990456 9.45626930731662 0
-196.165765700882 -27.4998200181608 20.7784356575892 0
-29.3146349823309 -12.1123470780116 1.26727122921613 0
-78.7869892547344 -6.98945427197701 -20.8921119737849 0
-207.754724131806 14.1625114454265 -20.2495480976861 0
-191.867497770669 -4.27594180227328 5.41309740283135 0
-54.4953418205256 -15.2405064435142 -18.1632577145953 0
-169.056747369895 -27.1123553863993 -8.81542526379697 0
-199.519494413569 38.5089490890646 18.888543093189 0
-21.7240302828872 -3.93582454666834 -24.836975634953 0
-111.509286401801 -10.9071810121521 -15.3197970139558 0
-153.065389030687 12.1795115226514 -1.30457209363069 0
-208.356209053396 45.9562215179349 5.82490119787573 0
-213.372337607671 33.9015555440785 16.4916747335276 0
-57.1834974830103 -15.9489194323914 -16.7944560414839 0
-80.2097648966602 -20.1123959464081 -6.30002325164139 0
-195.365266730562 15.0476549867065 16.3375938542676 0
-119.860199892135 -8.81836630996528 14.0609539248333 0
-113.789045556212 -14.3875375628707 -12.9725922536673 0
-210.955843446205 44.717232049723 -11.6850971440679 0
-95.7026857942934 -6.36092774083793 9.99689497405705 0
-187.924120544637 31.9401038043176 15.6449940555129 0
-69.4300093550563 -14.1727433574216 -17.9411538239772 0
-139.377354650837 -15.3218179063259 -10.5618422224006 0
-199.185207649869 -27.8968596757032 15.4974044468104 0
-154.805140988651 -5.444099796714 -12.0145216520427 0
-118.389904994435 3.19566918303455 8.85652364855577 0
-222.106715363951 35.7020652911005 -5.30611974269813 0
-189.316441730077 3.49210823386009 10.901832883631 0
-166.270529520385 -0.377779275751967 -13.5614161573602 0
-17.6500279797672 -4.11906708569602 -24.8955526480983 0
-189.957260099365 -34.7460864400412 12.6408672911258 0
-176.018588096243 -33.0903303412798 -4.98245958630096 0
-187.639529669148 45.1631640435826 4.47142876622747 0
-168.910890651115 -18.0963794165393 -10.1890370419407 0
-71.6323808501752 -18.9530564089598 3.0277693121043 0
-200.517909081311 -28.4516625023926 11.9158033580962 0
-78.2027954263696 7.33341445156243 -6.58183995784739 0
-50.8005878932022 7.483579192393 -4.71687978202417 0
-171.538771731306 12.3945994219718 10.8911594994148 0
-219.828966309154 38.4564452974267 5.51793741381566 0
-76.1112597355931 4.69224867657223 1.2802810042588 0
-199.789385903766 47.2788751160564 3.33320712578449 0
-204.951726983623 -12.7602220083339 13.9322384213346 0
-153.512226140858 -1.29204530148214 23.0552113133015 0
-185.590585596394 -11.0795499633799 -15.9352731446906 0
-190.161947222392 24.793462503761 17.159318151859 0
-160.993379814771 0.435173895056521 21.135328728013 0
-41.1660424161999 -9.82194336216536 -23.2301525690884 0
-77.7899155395916 1.29501038750415 -18.9332933551843 0
-186.574844497569 28.8544982016946 -16.6628467706468 0
-171.151326092887 6.51158230065182 13.7663112294134 0
-188.350806871275 29.6270853836445 15.6246940720755 0
-182.834726749511 31.6088896401037 -1.10499963528563 0
-53.0259659529271 -6.49274308315534 -23.3172134508116 0
-82.1095170686953 0.438074815806925 6.11101508867202 0
-182.058208309785 -11.4990067884475 10.1128269075432 0
-160.681824024662 -27.6282967404447 -5.97913990841457 0
-188.32894603027 -5.86665994140616 -15.4617114148506 0
-170.502862324764 -37.0262544546903 -2.1362964020873 0
-103.385996599942 -12.9863399740499 11.9392878448011 0
-164.761529367299 17.0581791057512 2.11019309459913 0
-148.379277461343 -11.066961125886 20.7712324314514 0
-188.940169372346 -12.1448001876802 6.83439556397593 0
-148.356037270606 11.3629337854528 1.0935987687385 0
-58.5388963533192 7.21506151205794 -13.9938727488223 0
-132.79293181572 8.86551560205178 1.94534037903895 0
-189.239104300528 17.4523430831241 -19.5962069508737 0
-108.981946889917 -7.01983202643841 12.0247068643922 0
-126.52521553131 4.59985327991962 10.5585884411144 0
-208.306442316532 12.0118228321817 10.1341370321911 0
-198.285263954379 -3.0209061482533 -0.904162407593757 0
-163.676493505566 -24.6671831026047 23.8725483836895 0
-70.7432541454587 -4.25205369148551 7.20049126769605 0
-22.5338882297542 0.495832891223939 -24.0962382025236 0
-194.228696429283 -17.6992678338209 -11.4907943932571 0
-201.412417240014 12.4819603848687 12.0268325532732 0
-65.9579972296157 0.410054040562309 -21.1005970336965 0
-137.089406758994 1.846328748704 17.5773341157981 0
-152.429424050125 3.15448223247638 -12.1428077891562 0
-77.1210085628791 -1.63656442014585 6.73891606043735 0
-171.347030497936 -35.826710632342 13.0616047758815 0
-101.442814947579 -22.8092524642519 1.4654505719225 0
-182.722368233609 -23.8302580494285 -10.7049263816368 0
-202.902214064458 -13.1840633511702 10.889788264626 0
-32.6881737711872 0.19441021210318 -23.8183691596019 0
-209.668539695741 20.5847055968239 18.8256107298973 0
-220.34165021756 35.3922205484976 7.4828194892669 0
-151.902969060173 14.9710712792232 17.1908085074814 0
-205.923167272564 6.70743872875908 -6.70416178198092 0
-116.030562769602 -12.0520510070388 -14.0775609489902 0
-41.1999741912629 -9.25904298072524 5.46509205617929 0
-174.253915695979 9.10014933311725 -12.5759490017339 0
-161.146952367381 4.98655633625453 -11.5348718594902 0
-16.3875563152547 -1.29961045202854 5.07426804636781 0
-214.594804349421 20.8686034359326 16.0938534788534 0
-154.379400755429 -19.5539219663684 21.557836915651 0
-195.075118126021 17.2608077732178 17.3993336079982 0
-162.890269847744 -29.2678490837692 17.2880392634543 0
-189.842510041697 46.7371021191844 3.48155796060169 0
-199.415684359693 -14.3085261130818 27.8884016441791 0
-39.0640795747766 4.39184611622313 1.15764609426552 0
-203.048741440998 -7.79289188578177 21.5426467354692 0
-57.367839195314 -5.10171368236531 7.02212624495853 0
-172.896180336162 -38.2823564140181 -1.67945052167742 0
-57.8267364296009 -4.1467230791041 -23.0166581151383 0
-68.1978427830658 -19.9880534184043 -4.62935800585195 0
-220.561781040089 39.4132756212313 -2.30784128426462 0
-78.3308003748424 -3.6182483672808 7.62171009308532 0
-185.549342926841 -37.1402729818856 7.87978079132662 0
-72.9322216854825 -5.95367970443408 7.84849635822621 0
-54.0446942840337 -11.9075023273411 -21.4417763545217 0
-210.572929633031 9.25138290084002 -13.9917366532093 0
-160.796841175369 -19.4533363157092 24.4729018172355 0
-115.221563670025 -17.1441262708566 12.2761859277169 0
-152.606033604139 -5.04532313283663 -12.0964814226808 0
-107.70460595579 -13.4711564103768 -14.3195344651022 0
-215.05678506563 23.2625268316891 16.3108771965479 0
-211.477039560148 45.3907180700998 -9.65104944685181 0
-65.8506055587593 5.75634881975645 -15.8743611519752 0
-202.098746782572 -14.1932829041406 7.57747742111657 0
-196.326256539995 -10.9678325047174 1.76671268035419 0
-94.71898587487 -18.6856394757754 -9.95676039040451 0
-181.950320643602 28.5529621782359 -7.39709478757409 0
-215.969207445971 32.553875780649 -18.2907500994301 0
-106.307903812286 6.71928339616162 1.01616429519463 0
-179.32908267778 -15.140197369926 -12.5376920802434 0
-139.607202902145 -5.77443271347769 -12.7914641173788 0
-189.16445548932 31.5819742974855 17.6072537234007 0
-173.804950373558 0.820547766183412 -12.73989778523 0
-124.309655353058 -23.9314143450582 4.99526104708002 0
-10.1531871461941 6.73751442959227 -2.20405067777013 0
-191.625738209447 -34.4847063165717 9.67003909003205 0
-84.3444437636972 -20.5250950958911 3.54266687645955 0
-188.28439874354 0.72114025822173 10.6883300390732 0
-162.545653323786 -18.770709810686 25.713997914084 0
-177.156040921932 -1.49339670514975 -14.1821866324688 0
-60.4279549036439 1.0148539689221 -21.3685430905645 0
-122.452938807825 4.11519775203471 -11.6806928241871 0
-12.8195433067114 9.0912002211846 -7.41845095237748 0
-99.5345376555146 -20.5751286088316 7.51944295291566 0
-208.349555336552 47.648256724005 -7.90476497996984 0
-20.8331296993431 -17.3823299432191 -12.5435425434741 0
-192.90532930952 28.567095645501 -23.0632384007043 0
-220.854899389285 20.3631996475622 8.05704699572291 0
-55.6077968409953 -18.8505354798202 -8.46824166091462 0
-23.0899780323935 6.61881659372533 -2.27256973131874 0
-215.329973852057 27.4969335553548 16.2239884909456 0
-111.384698759228 -12.331600774746 13.5813346077966 0
-193.787828804465 -2.71319964001853 3.36818196135935 0
-162.698724291727 12.8836430820343 -7.24191135125982 0
-194.763409875722 -7.01848493849398 -13.3412284571207 0
-146.154840480046 -17.7681072462209 19.7756902550922 0
-169.494837946291 -13.687702674522 -11.1893062654571 0
-111.794506807605 -23.2416128559417 -1.58897020101086 0
-10.5284377735666 -3.33238979875164 -25.0144885461659 0
-195.669343030917 -32.3354535723375 10.7485026756166 0
