209.107954780577 33.8375526655596 7.35425575857479 0
188.340935043927 -26.9454870731526 -36.7874934113261 0
-26.8078103920421 2.14485421485073 6.96450255442564 0
85.8478129032608 1.27476647143956 -0.414561383765719 0
139.849956925217 19.2572276452542 10.6856029753787 0
110.338261316019 -17.5903042952609 2.75333594206141 0
-25.4811110118597 -0.500601014990571 -4.53978809819777 0
187.409081075809 32.4473327213083 -22.9219652987077 0
195.367439335434 41.4873675973779 -17.9739145871511 0
-8.28715518741738 -21.0463576281779 11.5520542023617 0
208.57129825967 -35.249085509289 -26.5838517892658 0
203.979502078532 19.5203965048311 -31.5007040037887 0
50.3735249772275 -18.3377127252788 8.99398196210863 0
-19.7212512825486 -0.239525923954608 -4.23678335370067 0
110.645691425496 -18.7060770484903 7.34772623887273 0
13.7517647841408 -13.1705970593438 23.9459137960518 0
179.205629455886 -24.1699514742945 -31.5558305624886 0
42.9725659038325 -18.5623382290402 17.2487786816982 0
216.705931496876 25.5262856548188 12.4845218942921 0
183.095636644831 -32.7270093111674 -21.2777945371499 0
193.054361804593 18.9913252121283 -25.4978605429218 0
211.152400124854 34.1322551102825 5.28713153464844 0
208.587791835656 -34.1867202316179 -12.5115170798518 0
179.742330341686 34.3057832663942 6.1932760577398 0
145.820507361003 20.3525742355562 8.75068055710618 0
112.713799344009 -1.36220360335825 25.3415174839036 0
224.58545927 26.4726960213751 -10.5062671716303 0
162.291679212459 15.330930308973 -7.7704891719318 0
130.031781595635 14.1597974154047 3.61995959336768 0
223.961347678067 32.0164942831644 -5.8047377730578 0
132.108650589932 -1.53146626860036 -4.32228393974512 0
198.381355574093 22.3339885796127 -32.0928257579497 0
185.090119448293 -33.6360481518183 -1.91519254099391 0
183.891563511804 0.234235248061043 -16.4200136748849 0
11.3642531784381 -17.5789630402871 20.6371756644284 0
209.441653821583 33.1481996549257 -32.7608432626263 0
213.520825055554 36.1913437060247 -7.84317859150366 0
189.098865340405 37.9146937223692 8.16166758148378 0
220.491721956914 14.0024071167009 2.98297062960434 0
-12.1590214487613 -10.6686080591545 24.4816515603567 0
207.18658026385 16.2753146022472 -22.7458135685283 0
40.3370461400947 -11.3052206168053 24.7577963242764 0
168.66969742526 15.6183967514547 17.446336921376 0
201.700829529002 -30.3121534306322 11.3830748360623 0
179.068348854844 -26.2409707517467 18.5328043791732 0
43.0290521717504 -15.4410544858363 4.24578296236157 0
199.200693869138 -36.6625259311516 -11.467999048539 0
205.787715401566 17.0838437557125 -21.1168660201835 0
109.452540093957 -6.7678880405651 25.7908459265148 0
179.007993024151 39.927808249584 -7.06244879960746 0
208.425292894328 39.3969471784507 -2.77321872888822 0
204.281026722315 22.4770324555764 19.0193997493052 0
211.882041176454 -9.96984920556562 -12.4529398716719 0
28.5259868517944 3.36510379995912 -0.426225756360823 0
56.622792243539 -1.98080827986029 -2.67305209159217 0
215.770460445615 37.6145891028894 -22.3928993717195 0
190.711898369472 -30.8884725897005 12.2522581010878 0
131.455123140689 -13.3617373244753 23.2090878387523 0
199.822870063894 -30.7281839979993 -38.1497899860263 0
215.107896692555 -17.447469896644 0.179621950668592 0
189.869074521403 4.38410684211217 19.4327350959588 0
142.599075093453 19.3164966840244 6.62914432951919 0
141.06566636858 -5.09327043462373 -6.08957076073949 0
44.5695883212231 -19.0955023619199 15.0085904349829 0
162.063144725885 -23.2109961727695 4.08532648538209 0
94.0327173829905 4.92060452525255 23.4601244881285 0
91.0515686446072 10.7626973992411 19.3712251571158 0
179.530007460904 28.8943614378978 -12.2291360429604 0
52.7287093613501 6.5836414235648 10.4423023610727 0
176.842440599075 21.4816256941913 -11.2961953929362 0
162.863019324798 13.4645207315181 -7.14239937811347 0
137.144553878323 -18.0934518896086 -2.14432050891599 0
25.1197608095866 3.65337779060584 7.17038529254987 0
198.857730458482 40.4856899500789 -22.1962768181686 0
214.061366626723 -19.0667706108391 -20.6827436704185 0
97.1474707072417 1.59940727552688 -0.731914988650768 0
-37.8240849820773 -15.9838434265471 21.2761954494604 0
175.368125828378 9.87561278000017 -10.3371286188357 0
206.959852444287 30.8105979280487 12.1910549927233 0
202.265813592645 -31.2003450708635 5.91270213783176 0
142.25586503874 12.3808673121272 -0.817796238447374 0
170.871682079387 -3.66277946893653 21.7540531987827 0
199.360875561487 -27.5289354218875 -39.1111945963366 0
21.1674349761037 1.75593855895072 -2.27486446702257 0
210.467740318564 -9.97264783333615 -17.7804888080183 0
136.409603280834 13.403777020787 0.859604542478556 0
214.467356153502 -30.5829457906364 -12.2466232510823 0
18.922308602806 -11.740573324706 24.6139845669398 0
198.147587283176 16.9591278020752 -27.8970534259288 0
157.377590375532 -1.07028805472178 22.7550884680818 0
159.454024526461 23.6106474283439 7.15082464273603 0
209.610999635051 -4.91505779749764 11.9217794784079 0
74.4825478596435 -16.0803067196929 3.76450725393559 0
132.996951267924 3.87779406138049 23.1251355766323 0
97.7857098492304 5.501786174136 1.09766852660285 0
131.318576634439 5.90920927259001 22.3760470082152 0
39.5845397975083 1.40240971642107 24.317789859209 0
183.390824139487 -9.43946703818387 -31.1743404403873 0
221.830624988737 18.1790526428081 -10.7155126167215 0
174.061580274942 -18.2520923186328 -20.316765970744 0
217.783477890865 29.068928376559 -26.788177630769 0
154.182410474826 -5.6913362464464 -7.9832357267324 0
1.2575559375445 -6.58351951641063 25.2945896224534 0
199.554758527726 39.8887027809744 4.43338776840979 0
187.207585092907 -37.4911925616774 -15.128421526197 0
160.66157056926 -21.3320288189589 13.6952183200717 0
73.9210806629138 10.4806224109357 17.3670414593242 0
142.371357364383 -11.4048253121052 -7.7678678969157 0
-6.02684069266946 -7.11269159083763 25.1093438091275 0
63.4831948689496 -17.0179050159821 5.82980590496148 0
162.705708278081 -21.8177825281235 13.0732975457722 0
51.6726391333224 -0.472187862536438 -1.79382180677402 0
83.359816015053 -14.7740110075462 21.9937647916775 0
53.2575705113602 5.7713397727723 22.3207997347492 0
98.9403341864599 -18.5917044051714 9.37642155169832 0
96.2862495771581 -10.9499315184377 -2.11672188335151 0
157.849909933859 -18.3242816076503 -11.8426023985716 0
179.576212920797 35.8220200665521 2.75911835997693 0
149.6611509622 16.3252003812537 15.8719818450421 0
-33.8177879522057 -3.88314944565881 23.0847053415764 0
-28.116121817715 -21.2678164394228 16.0480610775185 0
223.788520735227 28.2232506384889 4.78247428763405 0
177.960413116457 -11.6225674469032 -19.6668820987979 0
194.46066900878 40.1773081629353 4.78644160706168 0
196.815754188639 -30.1843664890396 13.6258765352457 0
178.099690050459 23.7255428459262 -11.9795706391805 0
8.84188706750077 -17.8401953121803 20.4689176841205 0
118.800520134252 -16.5103194260332 19.8755054127314 0
-2.9889433527534 -0.290535196549227 23.025997113437 0
158.841352152622 0.122001886930292 -6.87381670579069 0
46.1443174623256 3.34722447285986 1.94624813442144 0
109.236168095283 14.6109053963672 11.0692913531318 0
62.8927407483382 -18.3998751341706 16.3184416473901 0
67.1331528517994 -7.20875277059453 -1.30204097585671 0
164.00873139736 -5.0715659459349 -9.7097665507299 0
180.551130667095 7.25827980192177 20.3986156886604 0
183.754890596646 36.1422225667652 -13.2585524468193 0
186.998831659833 30.943010823679 -21.074880725561 0
130.406830480699 6.17949466711163 -1.70226898537468 0
224.058659337203 23.7090847048904 2.74994440472279 0
68.5093185548748 -0.283219449768232 -1.3415225079537 0
206.483742308857 -4.7111927233859 15.69681195586 0
-12.5214750362146 -20.7276954239933 16.2831906618566 0
211.166459765073 -29.5346712387127 -31.1169392536963 0
56.59819245675 0.278733921503417 25.1317720290081 0
151.612728654954 -20.8766761595017 9.27882689124419 0
224.046430609639 21.9454802722237 -3.27175723399219 0
197.488553701081 0.739724283215057 20.24077589687 0
-2.5052274388079 -18.6989791138749 19.5470557120672 0
178.310225037109 -13.5299570840784 -24.6838303128993 0
127.335250806792 -19.3994031477873 8.37637428776423 0
219.842662857315 12.0288904466453 1.12185851933516 0
168.045852425554 10.1809356334863 19.5584138908315 0
158.675432973959 -13.5801864767461 22.9361970666574 0
113.853446976287 -18.8189872811176 7.67249262580572 0
221.056391361475 26.3259905926906 8.19843210467221 0
212.351456971857 10.0420379589027 -8.43837650371548 0
95.5076554903721 -14.003980592384 -0.501338745699215 0
199.265413075258 -31.3387317889071 7.64455854714443 0
214.813997223802 -18.8231928038047 -9.34031053342837 0
224.61553809951 24.9272207231793 1.14590926256592 0
127.933589334455 -14.9368756188624 21.9026914876969 0
183.02589803814 -16.85136961557 24.1746100508536 0
170.337380801816 -18.3323908539802 -17.5066710394313 0
162.820277238346 25.7847866706968 -2.4251597148241 0
208.377329721464 -23.9256564546936 17.3252605565401 0
209.211887052601 -9.68315811151044 13.9707033594035 0
192.1847233838 6.69607917457379 19.9116318101417 0
213.729658231109 15.0545627010701 19.2291401158184 0
43.9706715901023 -17.3679938937759 19.5674976395415 0
24.4268899946478 5.34768733033491 15.4176511632649 0
175.916978624109 -26.0462514152663 14.41801311401 0
-42.6220219882612 -5.06333187973382 -3.78784022720461 0
205.250383152759 -9.46413700967206 -28.0358888608488 0
-38.562588154477 -20.0595133397586 5.82417647396447 0
184.266987811531 -6.19649722629388 -23.7107900335696 0
169.376246210268 22.8029813399207 12.8066467903895 0
161.501656400089 -10.1545645433727 23.3883695564313 0
205.239301212215 -33.6754218236033 -22.304078908459 0
199.528107989736 -5.89449281748211 -18.9408327097927 0
188.73741261064 20.0564056066344 -25.0923922861373 0
223.634431811651 32.0847407277917 -11.9335595396858 0
186.996812306757 -27.5163673514731 20.6231300974846 0
203.518159843709 27.7751362714715 -34.0102037209957 0
177.697214706582 -19.0092854833647 -27.5668923747198 0
220.968679198956 14.244591606545 -6.11205580005955 0
166.655038484489 6.2084260504107 20.1230370697554 0
74.2699017762768 -16.8763895519559 19.3436426357087 0
222.490571890081 18.282677691647 1.89382801103054 0
99.5290067269121 3.1961275810049 -0.103520210310572 0
215.214731090781 25.3686763670538 -28.5776326682202 0
144.971900591574 -20.3212015959262 4.16484327414727 0
179.650272427565 -8.29776621829909 -18.1360876271666 0
203.393306227658 -15.2788918069091 -35.022439259348 0
106.005581833154 -15.0891924419474 21.6233573900929 0
153.642041573805 -7.59011548449532 -8.46393510359285 0
15.9804726957122 3.36323002730984 0.976196068649319 0
68.7445025488388 -10.5952400915791 24.921838234425 0
66.0824964119856 -11.4119932865875 24.5656977906759 0
61.0189407239215 0.248798004524685 -1.0812288414707 0
213.87792727084 35.4808145808377 -2.71811799281637 0
209.834975541064 -28.337889635612 -33.1156768991735 0
36.545031271243 -15.6715827950304 21.8915034455511 0
188.185290065397 -7.73870468014734 21.8004676637856 0
166.912837265423 -24.8078080151471 3.03635075227047 0
190.352575045222 -32.3002656642689 5.99162146727155 0
17.4312069871126 -1.42936530072483 24.6907992740666 0
194.601772378511 -17.50271604338 25.9641402597942 0
152.147046010582 -21.2553785191289 2.30825046932014 0
140.838692428827 -19.4819572954536 0.596317806862695 0
98.5542752092619 -12.3588554310201 23.9251312850803 0
210.022548992818 15.0164270904908 21.0864550406798 0
178.488928951284 -4.2685152092806 -14.5483334438225 0
202.313776479572 39.6093463119034 -30.4840447671152 0
218.895383512314 32.1304300274195 3.28428710331441 0
180.964795563266 -8.56521780192946 -27.6651603311479 0
224.217478411005 30.828269367042 -12.4131226442206 0
194.971468922056 6.09284073908267 -13.9591547820443 0
193.300006456365 40.5558894711199 -19.9401225042443 0
200.10373482485 40.7318800021361 -24.9808119611367 0
-22.7154836036913 -13.3608867005858 1.78919306501096 0
221.580810620232 16.5485585470525 3.41127740312932 0
212.59364494091 -12.5378274152787 -12.6421917509739 0
187.548627638577 42.4920005544627 -2.54220900187305 0
90.4224486323714 -12.0175139156326 24.1430837964997 0
16.7688757734197 3.93822919430398 20.4847161622518 0
6.96490131900425 4.08761394287766 16.1639682367495 0
213.816605324655 -31.7935595945552 -10.072044599163 0
33.7072066660931 -13.5422339769808 2.92611290502161 0
132.957912857138 17.8906302015609 12.6487402701687 0
212.891480165446 -20.5690770253065 9.95242740868305 0
70.995648932066 9.43857013243228 12.1903328235556 0
191.631453593946 -33.2012835701185 -26.279971556883 0
214.665387353473 33.1896146142503 3.75867376659471 0
157.297089325182 -21.7945140997383 -10.1230514734072 0
186.763834035979 -11.102881152807 23.1107728694786 0
-29.8378667195808 2.11330184099607 6.16439327303373 0
186.762017218202 42.0048354805301 -13.691538752754 0
5.0956038318061 -20.2573218959421 16.1697328238596 0
159.189642784481 3.40555640994248 21.5538967297827 0
183.343448662602 -21.525031280316 24.7379442528651 0
-38.8922069220232 0.203089606122602 -5.00225569433978 0
128.099210938803 3.33880691304196 -2.49270794689602 0
113.235210657487 -8.39663420679509 -4.2518059038069 0
197.223483537993 -14.8740517742313 -36.9180274430773 0
196.573972274444 -6.650194080215 -22.5451895586855 0
199.024281785138 -8.17798221296913 -30.0777447965742 0
203.25559620087 11.3739010204218 23.8439884920266 0
213.382037242052 -30.5194870147837 -5.38371052468927 0
119.814982203781 14.3717704947393 16.8627856368882 0
214.903189786475 22.6729414478322 -27.9504427145849 0
217.688312077323 36.0929239944099 -15.9541224822875 0
-13.5017806115767 -3.33371155203615 23.9960503089248 0
211.076659058959 -14.5203113263362 -23.7000775446454 0
9.77810163726288 2.99178257105786 1.03945487121563 0
73.8701193050435 -18.5156821899417 15.032503033488 0
-47.2242250464381 -21.9990817594588 8.22198051411666 1
177.825298584877 28.7547902621425 -11.3259427152032 0
204.970545647402 27.7086091090856 15.5230774982039 0
103.372796772817 -17.5119635476543 17.8526428804535 0
197.583705379714 -37.1805276750446 -10.8571266639061 0
76.3757199309664 -1.86566948034845 -2.31433825495797 0
144.754306884502 -19.869986151282 13.7863220132506 0
-33.2337982834449 -21.9027109332078 10.4555595785249 0
77.9005783878858 6.82503216168559 6.29432101132635 0
210.767292063951 24.5606407599647 15.6190601064811 0
213.177141582769 -33.8309312064839 -22.9698616379826 0
81.0250886368558 7.36573596226262 6.47859796073261 0
76.2789058789971 10.983232614062 15.96153595946 0
134.469678031971 15.401242930645 16.4879278986954 0
-7.46473357614362 2.23695573126932 -1.93166079927851 0
204.990919151071 -30.8544862728711 4.97959177854066 0
210.042202349754 -25.586748090566 -32.6893194183551 0
158.663740042816 23.7325154234975 -0.530214903139635 0
220.478351028 18.7898098663393 -15.788906223945 0
184.167481129147 29.2022424009322 -16.4452845362326 0
180.610318577542 -23.154894878353 23.610638819884 0
23.6098933727151 -3.30616961536102 -2.5388577975249 0
-25.2101254360734 -3.49372982020427 -3.6059736568074 0
194.878573542632 -36.267679573687 -19.9550464761708 0
193.070362272068 -37.7700186077013 -12.6055556714586 0
203.060464999886 40.0310428491505 -5.47494761525619 0
196.395748157692 40.5951053831482 -29.1004648808689 0
43.3075274419824 -1.90440108560268 -2.62182328526012 0
-25.2897962590244 -21.66678851714 14.6052110207396 0
195.896689693676 9.21662244001403 21.2508088334334 0
-34.2144795528263 -16.2030221413788 21.3279664372725 0
203.03902453105 18.4897974511454 -30.7434823287099 0
-30.8619522333258 -20.6649966810966 7.63249060412135 0
204.974527531124 34.0316779238044 -33.7211822475889 0
148.438089954088 14.2926637203479 -1.73420690215003 0
223.654529211773 31.4121745962476 -14.5379173008767 0
205.183844481555 -23.0641362584149 20.8504030568384 0
179.929165800543 -10.2622480581472 -22.7540584945025 0
193.976154662081 -4.06905369693567 -18.8814092710689 0
156.621331205507 13.1751443220562 18.1638289322291 0
176.250294208208 -28.12111054466 5.31547512050111 0
164.744485912472 -23.6957605274967 -12.9396552575321 0
-21.2171936131039 -0.72951399837935 21.9480694630216 0
161.846529726473 -22.1281451544978 10.5669637912862 0
218.129617867462 11.0249186424531 -5.93908123774511 0
118.797443416252 4.65076457779796 23.2000756230987 0
80.626742040722 -4.73630485614244 25.9896122625717 0
208.586694845777 15.8815062524151 -20.2240119328271 0
209.998315666561 -7.13289363992735 -12.4358729244331 0
200.819305296004 10.9762737909604 -12.294446055731 0
7.34304850502716 -6.66530700930424 25.4793268547322 0
52.7402894324905 -17.6366165133257 7.25297415353368 0
18.0647912438696 -6.11524741029249 25.6428613216619 0
94.4443904102297 8.12768242972362 4.73139018605062 0
152.383158596668 5.68786583957356 -4.74699277464479 0
31.8630672506303 0.080065077998454 -2.23958388150228 0
223.53051398776 22.4047476756378 4.17288825338996 0
190.377366761543 6.67747405859447 20.0173313196306 0
180.793679285047 -24.2700496772672 -33.8963367462039 0
27.6408168793472 -3.75908168973248 25.6183746750375 0
150.628140760732 -10.7059806861683 -8.8635645542239 0
211.998563273021 3.21491691655191 12.5487079630462 0
147.636551188974 -5.31425731001661 -6.90254660106531 0
183.563925819489 -30.8950796076745 -25.9076743662967 0
6.87122575673367 -18.4815051748773 7.22581594138922 0
191.82624718307 19.2081860601048 -24.0991527825457 0
212.987015048743 -34.6406411202761 -18.7255588217111 0
59.2332540165439 -6.38515130003002 25.978709309146 0
57.3843215271603 6.67302804643189 21.667526485594 0
216.199215578946 14.7433738637404 -16.9871352843018 0
-15.3595712779846 2.74163484702059 11.6135878527624 0
187.850770836761 33.4156888264437 -20.8478235820194 0
149.870037072835 -3.44357901884969 -6.67224752364118 0
71.5600416260224 10.4370530485301 15.1376455713436 0
152.651487150263 -1.6524000169544 -6.47234915921589 0
89.5633656989648 -0.0435220129909879 25.3069027650323 0
114.966985397682 10.1097248833051 20.5692552116883 0
-27.7935256793372 1.15812599356407 -3.92812590352639 0
194.727134339142 -29.0442438645306 18.7657399296831 0
189.814177179087 20.4601440857879 -26.3999146010521 0
63.9374080313865 -15.3159279736107 3.33274535595312 0
204.623139462901 -33.9091593407244 -19.4567186996107 0
151.465197619822 14.9990369084785 16.9379777526561 0
217.398975217608 33.7843748878118 -6.08549657554451 0
203.417362998932 40.7031039278371 -27.326365891804 0
135.548267387293 10.8599717085662 20.1064398056515 0
66.402582727125 -2.47560073245418 -2.62637836145743 0
192.71758448159 -27.5709196459599 22.727395359197 0
109.893022854529 -15.4245401258783 -0.946714391939604 0
160.857090688575 2.38087541662886 21.6360653165234 0
213.172379736134 -26.8733260666833 7.03149691016272 0
-2.86210250296209 -20.631431165619 10.688997594096 0
115.933412885948 3.00728964316379 -1.53372516314114 0
21.7912806003902 0.105881350170795 -2.95791385304849 0
3.7854398082522 -20.7414914886873 13.2033162334149 0
188.923501299959 43.8472506863499 -8.23966728497307 0
208.877902414389 18.9001896353538 -30.0587395303773 0
153.462808563983 -20.4904197854217 13.3861171989189 0
177.426425787659 14.5244602388303 -10.8772389168334 0
91.6215284519013 10.9992617842934 9.72444222155182 0
186.622129406839 -6.42626540716122 -30.4758780092495 0
-6.91860867150022 -18.643003420413 6.56499439367736 0
177.07543381942 -22.9248276741704 22.3188762584492 0
185.629811796819 33.468958350857 11.19701668793 0
187.908545299348 -29.0213050554352 17.6426979935222 0
203.737269024761 16.0133000574328 -16.344748967521 0
138.56083504901 -0.934804835202939 -4.77125843455447 0
80.765344855473 -18.6224962073294 14.1851447262981 0
43.993297213481 -18.9805399791413 10.8131214719967 0
182.711320228332 28.3653330041168 -14.8177620542297 0
200.514889682587 -28.5066659220725 19.2326263271281 0
8.45325751996752 -1.86449993197578 -3.65318014938821 0
-27.6486881603979 -14.1485050493872 1.74499851186516 0
63.1255509799654 -2.85269759967753 25.9531190372408 0
206.441369467317 -7.20047191254772 -19.8873880864997 0
131.484041894146 -17.4904840631215 -1.68138319861248 0
-15.3549777800322 -6.06029737231014 24.6612489470219 0
183.601771459511 -34.0297618976045 -4.30388919314956 0
127.561107788908 17.1236138727784 13.2415062460315 0
33.7197037116075 -11.0720096214686 24.8605626523603 0
189.183333811142 -30.6469555345068 12.8476127300191 0
41.8307324081241 -19.1305141370338 11.3149237706276 0
208.575600321369 -31.067994542143 -33.8800125535123 0
-38.533564616025 -12.4274471022634 22.9148228995192 0
211.459407719357 1.61411595946019 -4.84508824589855 0
206.693898037482 -6.45086453212993 -16.8073387625383 0
-17.8412274525275 -16.074950290352 21.9550902094897 0
215.079471926987 -25.1295684024376 -18.8322691907447 0
224.498642537214 23.7006858831 -0.580594839940298 0
157.251413405085 -2.31869413219814 -7.39482931665832 0
9.11361759103846 -5.1197539318082 -1.41332163522513 0
151.266691933368 -17.116403534461 -9.91734940793617 0
97.7507318911713 -18.6358724104776 13.5776389004801 0
158.728370627786 22.955275184097 -3.1624735294791 0
154.379118643369 13.9305608055268 -3.599900050787 0
193.368026776045 32.5830792794578 13.5526793139884 0
181.406403293719 -28.3029318517285 15.2203989207612 0
137.162538354422 3.25162100177409 -3.43144430857043 0
174.67390555933 9.55992567318122 20.2214403506134 0
-40.3092172495951 -9.52532161145734 -1.24102018942339 0
211.19892770971 28.0722014155438 12.9317683622634 0
173.146238731742 5.53904533027331 -9.13419640180722 0
-1.06111641154291 -3.23225783498871 -2.76753921955131 0
219.239905162554 28.7661093864293 -24.9553933276908 0
150.197743374518 -8.6327516579723 -8.18739324042044 0
174.300263653889 32.7077929006057 -0.0928759343051901 0
190.053240189219 2.79835515666852 -16.7074952376319 0
-40.1740613482215 -14.7693643482103 21.7935274262762 0
20.781208178284 4.91552146046481 13.8075814807248 0
212.843428752928 5.22315884741243 -5.76911179398081 0
-12.9399470203806 2.9812873564202 13.7938961362278 0
204.508080888751 16.9855077074492 -18.7333398883082 0
109.421179225994 -18.1623930981841 4.89947563863564 0
53.3790339578746 -6.12438379688055 25.9981618964946 0
-28.8337334769601 -21.8815880120408 11.5421554016648 0
67.7015965134037 -17.311433022016 18.6669862914366 0
143.978446468979 14.0429999583116 -0.681269542061312 0
168.502096749787 -24.5556149349915 -15.5237907033732 0
197.304478178011 18.3388532613753 -22.2741096438274 0
199.495299358893 13.7500927227197 -14.6449145183605 0
-5.70517331991306 -20.5829730315308 10.2472074836135 0
142.825637702985 3.64415190798343 22.7080200001919 0
146.378996773489 -18.8750420548758 -5.57988069703177 0
201.515369202826 18.1668094276374 -23.92021011642 0
111.561439763204 14.9399259811998 10.8609309072976 0
26.4443344435582 4.40311763795047 10.3421434579466 0
142.254944870879 18.7931811212793 12.4778762577413 0
-18.6834212416974 -21.5965200714611 14.1577285520311 0
18.7712919162587 4.68956157839281 12.8675350616423 0
-31.144740110728 -16.1057203709161 21.4329669183409 0
-19.0001134257247 -10.4215399085363 24.3050910543073 0
-44.9214096919546 2.55202735477582 -3.72949200577764 1
153.871338814657 21.4426432175682 1.4637413656453 0
188.640093168043 -9.70439335446703 22.6273634740336 0
204.980169753405 10.5847016814357 23.0331450552802 0
207.622514307869 -25.208770241866 18.3052219296676 0
195.787307936828 -32.5922867344507 4.87674338654167 0
113.26128306992 -10.6768644789521 -4.01341827514964 0
-1.46682108618379 3.55506545814489 12.4108459121754 0
-43.4933779532833 -4.3709344945534 22.3698303082311 1
189.450100284953 -1.82468907153472 -18.3306072498111 0
178.812661293504 -29.6971882846175 3.02356031009729 0
19.7556785226819 -19.9833080656257 12.7646636896989 0
163.227135947014 -23.7653439765724 1.50548320639346 0
203.810122224702 -26.598457844833 -37.7211451238997 0
175.129257182103 3.21742821415336 20.5604321874717 0
-17.2872197200138 -15.1120789870203 3.05294834452609 0
56.6117717719463 -18.9581791489292 12.5614155843816 0
220.225103981822 14.0507728920607 -8.40643300277848 0
172.597634364318 15.2783981751386 -9.5995114061873 0
28.0015378399508 2.49273861824286 23.2050315085749 0
-28.0842220234177 2.25997177662566 4.70268948306402 0
126.36288722226 11.7662682554054 19.4453556679732 0
210.822092366169 15.6081509067392 -24.003226940799 0
213.508624384676 3.80263628184593 -3.63430369525958 0
152.189036302422 3.67893813331713 22.1017073580915 0
187.643852525744 2.71997001544121 -16.6370115951376 0
192.191695880833 40.4155712065252 -27.6988872870371 0
79.0891410362041 7.64450586710595 21.8132488741635 0
153.179706793466 1.83989016429712 -5.56942337216983 0
19.4884936830061 4.3589918256457 11.2605711321539 0
165.161186858247 26.3865678956185 -3.45655187566646 0
-9.15088732077037 1.08985380246696 21.3711743853322 0
171.570382312852 -27.3886402141597 -1.80460708045949 0
192.896353527796 -6.81166651932992 -26.1465885910095 0
215.72408839419 6.38026233128853 6.38502489945686 0
55.9427146213032 4.02414060253175 4.78489574719784 0
179.50735023298 -10.1679821210838 -26.8856069825858 0
212.660441171736 38.2190181789503 -18.8761071115599 0
24.5524324587494 -1.767521655137 -3.44251152233544 0
73.4790268193027 6.10243873198034 22.7348307656095 0
37.8861962861244 0.592523783585322 -1.69179268011035 0
165.432372926927 -16.8399980816231 -15.0348345877256 0
188.08082111805 15.6666099337214 -17.0505442116864 0
101.996670937571 -8.06013583609137 -3.25705291501618 0
204.519741813772 -6.18533024798845 -18.0749113077331 0
148.967343856986 -6.77867205027724 -7.46927954131739 0
43.2055111942807 -13.2658115201366 2.45334629657525 0
208.198628315143 -4.70712475982981 -7.9771427429208 0
172.676961606608 22.4963384526343 -10.4829766505081 0
199.26282621171 40.8846476783038 -29.0936234313173 0
179.952734189545 8.41602392493405 -11.4496672703372 0
-5.00528085272378 2.04296283782993 -2.18087452755199 0
105.031477540823 -16.4082433880005 1.05584747773855 0
-21.5409686736014 -10.2175255441223 24.2412768014476 0
146.900242569901 9.3816906567671 -2.80998353434301 0
207.568501328234 31.3724249581619 -33.3960997419883 0
168.884666653816 19.0564987058803 -9.98218925954861 0
147.713655653697 20.6639995509333 8.97965819505424 0
135.325017179865 -13.3644051838037 23.2248459878196 0
-3.53129765932536 2.03560256284204 20.9497378116689 0
145.277241286929 10.7782407007268 -1.96317118045792 0
64.2994289565289 6.68857137571694 21.9942438974861 0
215.252742427163 -22.9333766094045 -4.18679567092539 0
174.242296957017 14.9101340744094 -9.60579408714952 0
96.6921955529872 8.47354931213762 4.69141419712007 0
122.001891079997 -16.7848882281658 19.549857389651 0
155.578939973229 -20.4535394437503 14.4029989630529 0
159.21510141746 -21.8034245334244 10.0026056516712 0
193.736413866348 15.1682527057367 -17.7023275984362 0
201.99385895054 38.8041740165525 4.62964324879923 0
153.638495529727 -18.5457729726124 18.7132497108529 0
213.65448175035 -13.789210053836 -10.167489492533 0
184.223099534307 9.1381059757924 -14.5014780443921 0
45.0890081282038 3.54795957101781 4.44358410755515 0
14.1723792546785 -16.8776784527197 21.3009591963557 0
2.84965352115732 3.10389242008269 7.4960721251274 0
224.705170012793 24.3113292656726 -4.5210288911738 0
138.767445110877 18.0014327069686 5.93318098393931 0
215.24376953092 -24.2179596141161 -8.7179218992108 0
202.442170287919 36.8475952459557 6.74777941763332 0
211.190753324531 37.1454753748711 -0.435125372246309 0
194.590780985011 40.5087714447787 -21.1072424930042 0
69.3535632349571 1.91354628202575 0.437066842346165 0
164.144390712475 11.6302470552436 -6.90844760510715 0
198.063794911075 -33.0309584468096 -22.626798757706 0
38.8936565112406 4.39974460786672 22.4310686853862 0
150.27502626786 -13.4544594020776 -9.48491805013238 0
204.156259433636 17.0939595137072 -29.4824687865936 0
-23.576350284728 1.59964472525427 17.954674589554 0
154.61185288953 2.26613735268882 22.2611922659412 0
147.478975476408 -4.2934234055274 24.2564041905368 0
199.81423854202 -32.7876442347791 1.72647698512397 0
141.080671021429 -12.9360929590456 -7.55900178428268 0
35.9729011006975 -18.7773103070282 17.1026390034399 0
-47.0419145278131 -2.96702848702223 21.1054850678537 1
209.983456549942 -8.19396306692013 -15.9571030434824 0
52.467523010935 8.22827316700852 17.5433117634804 0
-18.1098031168628 2.38864003255298 16.4218878225862 0
211.071673919343 11.7277301006272 -9.71695876351841 0
111.642833344435 14.0331934428472 16.6551023374232 0
213.560201970993 -30.3688288650664 -25.2043515442601 0
223.143263888923 24.8661499951472 -14.977724120301 0
-21.3650960059631 -16.7779018296312 3.86034138976815 0
111.188655364001 -16.2391194639795 20.1955157753556 0
49.4307918138082 7.86086132912404 17.9436468795662 0
190.039528883574 22.4353549842105 -26.7853341184708 0
76.9966910283937 -3.8769113743287 -3.0728369882277 0
-23.4531134715307 2.25003800907969 5.28519599516121 0
24.4799763819115 -8.41289798274903 0.490041426808836 0
50.978477866459 -18.4459825792683 17.0402516690639 0
-13.587263310299 -18.2361988834709 5.60134266928843 0
130.452199340675 10.666704541209 0.386218535494902 0
71.2067087419609 0.403575952385108 -0.792755792656296 0
-30.2730492084805 -18.4470805550785 19.7297217983634 0
88.5095984794592 -0.446040497610148 -1.49497259870119 0
11.5322684123653 1.0203467009986 -3.07660815424618 0
14.190020932255 -13.0658458328882 2.73054529023959 0
182.177275447132 18.044521858493 -13.3663186123545 0
-7.68899067031505 3.26160380122963 15.1209493531171 0
54.236054960306 -0.49348604744189 25.3247748942032 0
128.421510617797 8.82549366660207 -0.292591727752905 0
195.89381646704 42.5538447048658 -2.75719221231347 0
151.048571683852 -19.9377837163732 14.899761802076 0
196.939370273361 -3.73860450910476 -16.8400665902219 0
38.2752191470169 -18.5293906861534 9.03948866115087 0
35.2779292028491 -2.18544738790359 -2.88229052286057 0
140.105162583855 -19.6211481761047 13.8534525530131 0
27.9298242246915 5.55405801088215 15.0139881597466 0
41.6887808948712 -5.04529648598046 25.9120488809582 0
10.0472600352928 -4.82004102603905 25.4262769427478 0
181.178931807161 26.6938352550959 -13.5141016671868 0
203.955411147664 -33.2121198831509 -35.596801906135 0
206.060522985606 17.2249268628443 -29.2662581107793 0
195.171546090532 0.32414758591694 -14.7377098088809 0
159.460421802682 -22.9977404368438 -1.45503489767236 0
107.543372548595 -18.4025407239146 6.34212850554462 0
125.017792673582 13.380646669417 4.25277458264115 0
163.995121330934 -10.608803356805 -11.9879726066474 0
-28.740192225083 -0.804715918572247 -4.85780821467454 0
56.2627197371597 -17.3077539469526 19.2116625808588 0
136.98044764901 2.09005772771621 23.5427580201634 0
208.584234442632 6.51004974150167 -7.82444235478605 0
11.5369319073098 -11.8625782898871 2.02215133670668 0
176.620708656352 16.9917107913539 -10.9601990340084 0
64.0882324157361 -12.8794576962993 23.7139089684747 0
207.513259793909 -33.0271559854604 -33.7742228936092 0
-0.696480611319106 -11.5469627643653 24.468110753261 0
197.565409322181 -36.772707825072 -16.9637118540957 0
166.098920281885 -0.696379971553654 -8.69680447342537 0
212.728216941885 11.3937395338309 -10.2060291924908 0
101.740051535017 -4.42902643695095 -3.57028633970013 0
215.932376929492 34.322287773851 -4.8199694953506 0
165.367374075631 -7.79299179849273 22.9305245330219 0
216.64162092934 12.9420922664525 -12.4468345927291 0
182.441357648877 1.59753690106771 19.8213718660863 0
150.888664247761 12.0328026808932 19.0590564495108 0
159.494500889239 11.2478438655805 19.1330487219497 0
221.224548292543 33.1906919589172 -13.553684718436 0
67.7468907286605 -1.02760709675145 25.6805016753127 0
182.619500276765 -6.8031597793424 -25.076172580964 0
196.680005786915 -27.0975229977107 23.7041258520475 0
104.95490307641 -13.8675573451655 22.7672898605242 0
220.6176761266 34.6124095354355 -16.0749074506843 0
161.421639710444 7.65630863377805 -6.42052477413875 0
154.156749091525 22.3267297092352 5.05585186124215 0
209.328038371671 38.5724251560023 -0.804975507930911 0
136.944367068423 -7.51145130425282 -6.32450259585411 0
194.064485801529 -32.8037686206345 -26.5628069409869 0
18.1899069113373 4.87594080830031 14.9943579083653 0
160.876766245615 14.9525490051966 -6.52300546753859 0
24.4665872755352 -11.1681233014956 24.8863433455877 0
208.234347790716 11.3574882760893 -10.1569791479791 0
16.199633739801 2.7874447015604 -1.52721802775361 0
220.738288412266 34.1037379969536 -21.2003046439345 0
172.988638554444 2.48026229417305 20.779936447756 0
151.658830323901 13.2023923743049 -2.92573396679966 0
140.755730086716 -18.8809299917399 -1.86281128322749 0
122.605872403947 4.39736229989746 23.2274326508389 0
19.2512945456602 2.80725106665849 22.3593369310067 0
-2.10845454304691 -1.18306608189446 -4.0342105287334 0
198.110452611511 39.0617818874133 -31.5225517642656 0
207.121471941122 -31.2277587770714 -0.591565469115218 0
176.096714767367 -0.823708713601761 20.6410436363878 0
116.269926037242 -0.759771004247301 -2.80648217858511 0
-9.07021050387802 -14.9909079641929 3.35179021386061 0
169.583877639555 -22.1601386705949 17.6434743789442 0
210.530251975665 -20.8918824781732 -30.6250581559661 0
-20.3602219053019 -18.7067049798905 5.69317762474162 0
209.817998563084 16.4859170124821 -26.6865059792763 0
112.620717005052 -17.4318804324561 1.94453003987509 0
182.318060730433 10.1427586057014 -12.9837190339215 0
217.292422073689 31.1216771866332 -27.3611782659598 0
45.2787341736696 -2.98029050114413 -2.44630680885305 0
168.83392821517 7.37718010043892 -8.08320601534334 0
69.5437073024419 0.997515513521332 25.1240499316123 0
1.53483271708127 -9.57414293417496 25.0564113608856 0
162.861445468374 -21.2607057530549 15.1607522652011 0
166.45657997405 14.8150415495097 -9.14454046376139 0
43.1792712781463 -15.5537228076469 21.8670950923686 0
219.20661810923 32.8694340586421 0.138228875929293 0
30.2027794195107 -19.618308632594 13.3850801791216 0
165.896690386843 2.16544156481974 -7.86953723178028 0
219.994284584436 18.1340957640455 12.6779391177113 0
200.833432414749 -34.9907230653456 -17.5148905231888 0
206.253560583164 -34.1687055224526 -10.6249218916407 0
118.071126644105 -5.8990258129985 25.7064133150845 0
143.941849687768 -1.35047142524291 24.0204712805943 0
-24.2336835731758 -19.4246761194477 6.37422674959152 0
207.862490993558 -34.5922736629488 -16.6665692170714 0
91.401788083192 1.40889009911279 -0.495881632487297 0
134.193939583321 -17.248393904869 -2.9324066245077 0
216.126708506475 17.3598687111269 -22.0102468396539 0
185.693114398686 31.0192937213488 -17.6075327331885 0
202.384859800523 2.5966282635903 19.144548324784 0
207.875843938809 -34.9840638098031 -29.0620980697768 0
164.557719315492 4.97840557752857 -7.16105884637403 0
196.853466739797 40.6264614629411 -23.4577552963681 0
211.622250221126 -16.4909390883539 12.3151973681277 0
178.68447265697 7.70147472781034 20.3957170415383 0
-40.6288558971761 -1.37395786535813 -5.10498747693927 0
192.406263512144 31.9620208629821 -30.5997497079906 0
200.253137799654 36.2681528391885 8.01224914708408 0
68.0950029390758 -7.00076346086951 25.8888761045456 0
140.197159771768 14.9120244027013 0.935836290184255 0
218.050155150224 31.703736632109 4.88765336722181 0
50.8184780348539 -9.10563834403278 0.120482596824154 0
206.357682385744 29.0122004465221 -33.5440336761246 0
162.35378038876 -2.97747582777928 -8.5493374467891 0
210.927378546179 -19.1585695034596 -29.0119025370345 0
210.804090811592 37.4152903178765 -11.3745777301145 0
209.379327788089 21.5619568984535 17.7105166160788 0
127.66984182439 7.11628824378232 -0.999561695632363 0
176.291684189027 18.2637588447483 18.0579136015487 0
18.2812616921475 1.81213633961461 -2.39383105021471 0
149.919348602821 -17.951157581378 19.3153562284278 0
214.402840935073 -13.3657129878366 0.435779642288373 0
157.216832222449 -11.6646279912207 23.4527740801616 0
125.252388216723 7.98293003515836 -0.258046237785177 0
-13.8559426188872 -10.8825278014141 1.10880917575077 0
191.574403786483 38.374285296208 -28.0779914199982 0
193.329706006222 38.7881518202857 -29.2331609302677 0
-27.7719019257096 -21.8345353833729 13.900367190851 0
211.362953334187 -24.4255437456454 -30.5390205279762 0
179.910962691757 -20.8140535409721 24.1178717058957 0
202.257056193878 -3.14774341493949 -11.5917813988839 0
147.671060771508 19.4092533139515 12.1854336752086 0
180.920862776573 -29.7298109559088 8.23213771845501 0
154.653497341146 18.183264590241 -3.09358272206651 0
92.9746758382586 9.70156596874113 7.4228979554916 0
108.611315616602 14.9141151721984 13.6857996204618 0
203.55667210323 -10.7855715960875 20.3555285905648 0
98.2438568464308 -13.0047542364016 -1.41017635728732 0
200.444712354045 37.9876626639597 6.14171729741395 0
202.364161250767 -7.20486667971799 -21.3142203997836 0
179.115437926726 -19.1279718796572 -32.630674005286 0
173.677044633225 -16.3281507920043 -19.3197533430008 0
213.327151145909 0.648371665384752 0.463309454755668 0
-22.6068672679078 -10.8347670656773 0.613739857046058 0
147.449348417002 11.710066849835 -2.11365632478392 0
199.079407516708 41.2524843783743 -26.7041202160825 0
194.863565631458 3.38016074839422 19.699976927376 0
166.781897274431 -23.1280845924775 11.9470411534119 0
191.714898235512 27.4896027883347 -29.6891497801428 0
198.090402291363 40.9134967486885 -28.9969556094192 0
-25.3955268720191 -12.0138257990151 0.945129924033214 0
216.8286219035 30.0263328771567 8.55648307859986 0
-32.390153886553 2.01325557301752 7.57072811293306 0
118.287484229343 15.6405931857037 14.7592385151251 0
205.297070989747 38.6571902774317 -31.8322249576388 0
32.9791700729535 -7.15434023738088 -0.169102812305825 0
189.556129399158 -4.7757253296078 20.1507400529858 0
206.279547541481 39.0894922362158 -13.4922608573695 0
165.351540920898 21.890833427377 12.3255471935446 0
61.3567778972842 -11.550160051254 0.767245762752231 0
147.476496794081 -7.24106857128581 24.5072781698718 0
64.3533204922044 9.1829089681269 18.6865315611051 0
-37.5948088135283 -21.7464294054023 9.07409332301939 0
-16.262738887502 -17.7326726379052 4.9535629860152 0
177.94381666285 -7.00207749525981 -15.4960695677223 0
136.484189527766 11.5299531466438 -0.188712384513783 0
202.351428179717 -33.4302177302849 -19.8125860580108 0
188.096349072078 35.0162985301469 -24.3650142189044 0
88.1071848755476 -18.3550411616775 15.2964173121178 0
200.552095922901 12.1675753502213 23.2921009502051 0
37.802685021032 3.43117436730109 1.92634561116969 0
187.928686652194 37.8907062467943 -17.8291989178455 0
201.981668239569 -10.6221691171036 -31.9487857590464 0
181.194579383124 14.4520080307444 -12.2478206394632 0
221.107605117032 14.2825148477584 0.160101905238669 0
70.9805537980143 -4.42222304049634 26.041170117445 0
185.657718382179 -5.01891586701057 -28.1787843060713 0
198.526578720187 -32.6681016052235 -25.1927262273978 0
213.942100032864 6.15293590961469 12.5612932170021 0
99.3413145405684 -14.8141307621964 21.8995170940351 0
130.785523226472 8.64251733774237 -0.711851298629405 0
197.816917847392 42.4267819669898 -0.22242543168957 0
73.7528883748179 10.3454473732437 13.5459595171392 0
178.764911193815 24.3079742671085 15.5667135655044 0
197.725169209635 -34.8700956724631 -4.91769999281489 0
200.102547487111 -32.1998902485406 -23.2264606234568 0
114.262928403175 -13.0973866888654 -3.30525164797333 0
217.369670625051 8.49438408381624 -2.24918414169016 0
31.2541398795442 -13.0593654025801 23.9336005639213 0
214.142735600137 -21.466070067374 -22.774141229578 0
4.94297213207188 2.71495254613218 1.09507458092022 0
139.549066371293 19.1762672065984 8.07847954251208 0
182.838402121596 -32.6735642724891 -1.07337803631978 0
195.182729619068 -31.0351217781955 -30.9568014026054 0
-18.8922850265201 -9.74188599637096 0.35536651903001 0
6.04068373648227 -0.911370903278631 23.9640154058934 0
-15.3681283622499 2.77936047815032 14.7722873982377 0
150.933578134774 -11.7925525357516 23.7542605076286 0
173.421012123399 28.3220911725052 -8.08384860972764 0
214.723081314404 -29.2846002724747 -19.0427721111781 0
201.743438645213 -8.3193232255289 -26.1269659373111 0
137.950025702665 -19.8393801099916 11.3965822525943 0
180.580922902802 40.4362248414834 -5.01444399297614 0
75.3940434968659 4.03101332142962 2.26360512358005 0
173.400629794289 -25.7424660279276 11.0104726629237 0
-44.3250335937417 -22.0857032842954 13.4467116737727 1
173.428130455768 21.7381276854766 15.0883135929468 0
173.323122014377 25.7676201149589 -9.32718366408015 0
99.3088133150383 -6.22719250979832 -3.32627552494484 0
18.035215032526 3.24540966052305 -0.692626581272073 0
196.08372655224 -11.2593306262724 -34.3604456014192 0
142.855170837623 8.04333867472625 21.1394745715219 0
2.74975209783304 -20.5513622244793 15.2121582978014 0
180.44085747718 -26.6063024791034 -30.6654029543487 0
179.935493522023 24.9634123255978 -12.7945759399868 0
127.14600617033 -4.087054635273 -4.63774156149395 0
192.003888119897 -28.2414230179326 20.6408307629309 0
-17.2538249706445 -21.5594588521495 12.3295636886408 0
174.346612608583 -21.3301447083248 22.2288961092257 0
149.976460281126 21.2194311762746 7.17689316929712 0
23.6691239801109 -13.1033533127111 2.76241136215932 0
206.987242760756 3.77427481436881 17.8244769293095 0
210.830645859604 8.19988624310091 -7.59679476878993 0
215.069908532265 -28.6486590063415 -14.061262029453 0
192.455294690814 42.9341648572815 -0.561778076113505 0
116.723790330836 -1.40968820721795 25.2477877103115 0
-22.0841975443707 -19.8426566103778 7.06581401286187 0
162.114088433474 15.8141662568539 16.7104024525479 0
51.5492743737906 -16.4405643507398 5.23934522451141 0
42.4061729523233 3.19130119023313 0.877387829383343 0
193.067797585598 36.6827831248979 -30.0820814913829 0
86.3868032912131 -10.9610478087262 -1.24962525960808 0
180.756712000244 -18.0991861168476 24.0078845263738 0
172.648434026595 -8.91108870466183 -14.5718491707199 0
-17.2808583228992 -20.244236853326 17.6368233284795 0
179.486123091019 -21.9078812315703 -33.4143069928327 0
103.692915924475 -12.405854386751 23.8675646700844 0
168.967453862655 -24.5706033938521 8.31436629220273 0
23.9737560434534 3.34159077961598 1.67117584963726 0
132.071659334891 0.242001838118945 -3.77513014673287 0
139.229648438277 -19.5537634488192 1.69582170453024 0
205.001338593995 -31.6239249657345 -0.346286651261881 0
217.469228825269 21.6799879930523 13.9443618489961 0
204.020096865996 20.7318937112529 -32.2570552025742 0
211.245813517 -12.4113509357234 -19.1451870969481 0
112.860774501654 -13.99392766095 22.6782568548721 0
164.492522858114 -23.0464017216481 8.99158807154181 0
-34.0628715431883 -7.57897561665692 23.8519594648233 0
188.616778992104 8.72283363244944 20.7341564004744 0
-33.6009774135317 -4.03212213552164 -3.85992782390292 0
213.69347509937 -25.1308753331049 -25.6676546453937 0
53.106853225788 -6.96952169002621 -0.915066068255831 0
221.990494636564 21.6692003590139 10.0622034751359 0
221.847010076658 30.2687104272207 -20.4545190972101 0
9.40331865274337 -20.0540677326017 16.3685723479769 0
149.507587534051 -17.9581400375866 -9.20868379322327 0
-1.39595209045059 -5.97613133102245 25.1908572008826 0
127.538240769571 -19.3409822840381 11.6403548965694 0
173.213813591806 -31.0106756556978 -13.1199112194688 0
200.947472304456 40.4247422648845 -23.007227545098 0
191.501765098637 21.1350494924644 -27.8095403026841 0
189.089226360842 -31.0486648075017 10.4773658373516 0
191.59639788568 -35.3445860894915 -22.580143243923 0
203.37726581785 16.6676594715551 22.1169152778613 0
142.22910800124 0.785824065306624 -4.60226318456153 0
171.258428026291 -4.24014096009842 -11.3253439413276 0
195.09782964406 -23.0119396708864 26.2985368969175 0
-42.986985749348 -13.6071578001023 22.1806593587407 1
156.575801708324 -19.7220204819332 16.7148394281281 0
201.673307871958 -0.0424294195684165 19.508008365967 0
192.50399289362 8.73084413412835 20.5541559266253 0
155.93388828726 15.0940659032086 16.906929580451 0
180.961002104602 -35.527623654485 -14.0594153157327 0
195.55947630598 42.7583728480537 -12.7118398077794 0
-28.0808098040754 -11.7623784283723 0.626816165344394 0
28.493922901332 -1.06518908516089 -3.14687453571715 0
65.6337816382652 0.0324036282458261 -1.20108527387414 0
154.150660538297 -20.9886882473048 -9.22372944839044 0
130.88192615272 1.74916608222911 -3.23513027549525 0
104.448866705769 14.3595353563238 13.5481452799424 0
27.8982993678826 3.64642971398485 1.27853043010518 0
151.871287080133 -14.5515440794748 -9.91349368046683 0
-32.3122692067278 -11.6547350880959 23.419767011526 0
167.550804092411 -27.3377072230956 -9.4280061878622 0
187.185412965359 -24.9362719109663 24.1007298968845 0
223.147059957551 30.8817335361549 2.89590536990451 0
210.350993953222 -12.6769502332328 13.5397238208073 0
156.863313952774 18.0942468508733 -4.73732309607692 0
190.052139789224 -37.8902474661276 -16.4566489009305 0
188.468565214878 -7.47505235960258 -31.526094093537 0
22.3410616739958 4.49148514584783 11.3933959342653 0
192.382625813012 5.45936557985351 -15.3014802490115 0
169.983916021961 13.4443810232055 18.6883395995596 0
114.033122381432 15.4621795336385 11.0996350943647 0
214.558976355789 -15.6547628813888 -7.98067630381714 0
-29.0536578847496 -19.8208703658823 6.49366591825035 0
129.476849655989 16.4730043884095 14.8607118683579 0
-42.8286987868483 -1.48448394911333 20.1104200638656 0
194.099161747747 -33.1938484039464 3.24318052844932 0
180.100395489589 11.4325574394099 -11.7459866164506 0
169.249661019972 23.2937433653404 -8.42006864786837 0
201.053872486142 40.6157245882115 -4.1740886063041 0
28.4038934330695 -18.4677818200889 18.4724583388318 0
-21.9633622253411 -5.42985749938195 24.2376549757515 0
160.884059525419 19.2299727031398 13.9149538411776 0
60.4136123711072 -18.058188171195 8.23784176558065 0
204.736760651283 22.9214455084572 -33.0894045755764 0
195.782897612265 -6.92672424829026 -24.3659440600027 0
-4.06959666441742 -9.23278277615762 24.9529263397396 0
172.68576971396 10.3323762264887 -9.74944287820438 0
28.4825213047963 -0.698560392836171 24.8040827281835 0
194.150879746556 9.41251086416551 20.9602332662154 0
36.8215687701312 -3.28513634624121 25.6929253720305 0
108.465302899415 -4.66197077084359 25.8776724418434 0
195.349511448736 17.8078831656826 -27.2004699061601 0
23.0100614760125 3.27093778791695 4.51214217802384 0
203.232558305045 -35.1686281441362 -11.8576376208352 0
177.11208944974 10.128328357586 -10.3863424455705 0
182.421775561856 13.6500605820155 -12.8638481037681 0
6.60475602638174 -3.36932924213121 -2.63168497395249 0
170.448680531617 26.4609651821015 9.51115235502114 0
170.026168339368 -8.97973701724463 22.5868187945852 0
204.919528463903 -34.8113776500281 -12.6933525944585 0
4.35463679355043 -4.4855792524823 -1.89982600724176 0
176.511087970711 -24.6314296009312 19.4129050227932 0
194.93996590239 -28.495447102631 20.6611250555575 0
19.8735259980966 -9.1949798852238 25.4131746475207 0
208.820476174555 -29.7129891231561 7.38527182988615 0
157.850324842104 -21.8305743209762 7.00181997790448 0
6.62824111969209 2.77757380535277 2.89031695230078 0
-34.3261108851374 1.9805790588114 9.84597084546076 0
206.638815424491 -30.0263820468586 9.58508186340379 0
-10.0685153536974 -18.8555905379521 6.51725757790617 0
126.074162672362 2.95468569089921 -2.41280631972627 0
205.463269763754 10.9390860996006 -10.3164769708791 0
-10.1338570487615 2.38500775239221 -1.62946883444284 0
204.66588005934 1.71922870529808 -7.22060065983824 0
46.1492104244393 6.96355482540857 13.2278431782266 0
58.6950539898146 -0.928229641173323 -1.94541595828814 0
194.829308687209 6.95613287046653 20.2788020962517 0
139.371064905175 -2.44724608161479 -5.3151919054569 0
151.37291712122 -21.1053295238104 0.0877346958412498 0
33.5614507645809 -15.4359618625342 22.1531851097579 0
184.498962527792 15.7030023560326 -14.3984729832636 0
155.817774016944 11.6973533253302 -4.19665064553436 0
181.636011677913 -4.53780568445689 -15.8890185224367 0
175.318402834039 34.2583421469662 -1.42297891097467 0
-44.8474731120079 -0.588707909673863 -4.88451871094689 1
213.182901834219 -1.05221000715295 3.42494062343462 0
215.109158449741 -21.3931961975332 -12.3794725648122 0
