193.538159167904 15.9540649451116 5.16843205033544 0
194.315216966222 12.0088940711438 -0.0643894820314854 0
189.412545867872 -27.3246486355127 18.2355595227233 0
168.585146363055 -31.2403248886978 -12.9663225221473 0
181.280458738116 -28.5080980539339 13.4971876420469 0
133.4386141472 3.46113691890237 10.3399702979643 0
105.948416458312 -11.2022411957013 10.8714021905633 0
86.4462204285889 -18.3394031850491 0.538249989203087 0
118.927106899402 -6.84340776066855 -21.2736716015334 0
182.816567449864 -21.2770487587925 -17.6004371969666 0
-113.851054116344 -22.2506632777823 3.16000435007016 0
135.926987108027 -18.7044619753539 6.81352402003997 0
178.174698368955 8.78492815870853 -26.4141373845263 0
164.431403373713 19.0811343951213 15.2375938556664 0
64.4583340008429 4.84224815290064 -1.03331566547392 0
49.5370245461566 -11.8368419253384 4.36475523387825 0
185.528673662513 2.13337809919779 30.7113596142881 0
177.927272740156 6.35504537202233 12.43095792991 0
191.392694302165 38.9235922246927 -5.53213500824714 0
192.838181061755 -11.0109617349559 -0.726333856608188 0
-4.22614476815053 -17.702176704817 -1.06515144265527 0
-67.7537404284257 -18.7960631492623 0.907572616842374 0
-11.2687712427926 -20.9322084840909 -22.4996726371074 0
178.6714352833 45.8859157877475 4.89954721302611 0
89.1909814524595 0.474737729250897 6.04364627076247 0
186.45414651612 -1.9532331645132 12.4576852816576 0
-41.5442508688454 -4.15535231237657 -18.5286996519873 0
-13.1918234236022 -6.45380521708103 -23.0709435165408 0
119.2125636471 -18.8493503560761 0.459859551610414 0
146.626582931396 13.8427500015849 8.22527894989682 0
-137.951007253626 1.65915596898185 7.54132525876908 1
-53.8904949559914 -8.87830403979404 3.80212384180693 0
179.474897177327 2.43029151412976 22.042551432292 0
173.186794664186 21.9977925418492 15.7404199514493 0
91.1575329314715 -4.06581430120572 8.21194474502555 0
165.944387053484 4.62155507644364 33.438574714176 0
-113.810321643808 -20.2286801348616 5.60806843213854 0
47.8845764307198 -17.6989446373569 -20.863446721646 0
179.24287931013 -27.475998750939 -16.2250429889866 0
154.236787881638 -10.8021064470218 -18.3391680288704 0
109.693307455388 -18.7219331996026 -12.3326229669078 0
-26.6363591933135 -0.0758818650975103 -5.41251584050202 0
102.505973446366 -8.42984745146092 -22.0323006825194 0
201.588711344205 34.2054112105329 -6.92331681814853 0
191.896440170795 -4.51376309815021 3.26286062381467 0
136.550988856089 12.3360119029897 6.32547582092967 0
-72.6583186610118 -14.0809310858351 3.46145667186256 0
107.703089947762 -9.57577312513568 -21.3079871068472 0
193.029064172988 -23.4760088101915 2.98325501069572 0
164.333995935458 42.882362003057 -6.08457827446498 0
193.47878811307 37.9448847136852 -6.64805668659593 0
38.8877959107136 -19.758160349821 -19.078393079275 0
190.29459854509 19.2035984183372 6.10177291401062 0
111.94789264888 -17.5637902089599 3.59862750070443 0
178.831225229005 3.39556945290516 35.3612663461357 0
13.8819609027129 -6.75240952887355 3.13116708822277 0
179.009873856213 -22.5577081366576 40.7880071353095 0
159.413045518809 0.881597143045434 35.0849946906095 0
193.397067049045 -24.3954173926918 16.3504602647358 0
190.422873502225 -25.8417092274213 24.467810177038 0
149.044498937973 -11.9067690480297 23.2635912654701 0
-45.0240106884895 -25.9077585239359 -8.46491574428634 0
148.915950374631 -24.0159229777808 -2.17174255851163 0
-16.437647319904 -0.313824689083513 -4.26275687495306 0
-132.28277028518 -24.2446322589113 -3.96619731061196 0
172.588013866743 10.5229639934593 -24.7568852401077 0
-22.9728610430403 -2.34529383453561 -0.257999416313934 0
169.48476666744 48.3499325745834 22.834856626237 0
111.109369843712 -17.6532039225558 -14.3557443752854 0
184.492897141943 18.4175082120463 -23.8046972286043 0
110.215866509168 14.7606121472616 -10.5935352038757 0
85.776715669988 2.4787472142353 4.55265443153786 0
12.9051587633306 -12.0049464750568 -25.1117704463973 0
35.7682946635412 4.61590890591489 -13.9087355457927 0
-13.8334026809357 -0.262857010547738 -17.21432134227 0
96.3512207807661 8.89238291325559 -18.4918302534525 0
-47.5815545374054 -15.4018216046166 -24.5502033233859 0
196.512779179302 40.3180194328335 18.2433510919875 0
-79.7880086411609 -22.1575737792273 -20.3943057190106 0
177.874375311301 -27.1044877887034 -17.5715471055079 0
162.332090702102 31.5543833865468 -15.8076038706836 0
77.3399374023541 -20.4128696153408 -7.07159641413697 0
-135.587520125445 -13.2462244996961 13.8369517262754 0
163.379295025749 26.8536379270777 19.067356001596 0
176.604032244111 47.2800164096432 9.09548307268186 0
175.045619919848 22.8587127541531 15.6773836987551 0
-22.9467014786776 0.210533383312922 -9.1225096001166 0
164.394112124785 22.6862967984991 16.1603186572561 0
-21.0432733314498 -22.3506329176695 -21.8095704539837 0
-115.201045457264 2.45367740856336 -6.91013911613361 0
10.9923706280471 1.95144282480641 -8.28164867705872 0
190.319050444817 18.8011195800154 -20.6336736197251 0
54.9885024298511 -20.4446266822778 -4.70161876688546 0
-31.7204405454371 -0.359956953550628 -11.5037862003698 0
196.862423436501 22.46562520556 -15.0586512099551 0
175.056556355778 3.43641000429061 36.4776169405084 0
140.570475606872 13.1066004184944 6.6911499930999 0
-66.769820960917 -21.6168774583646 -21.8075801857446 0
150.853064433052 -4.94918795199648 20.9276596433198 0
-14.5956722666732 -15.1687929510391 -25.1710081895104 0
52.6569778882022 -21.3258138143201 -8.44764512363193 0
190.800740552197 -0.947538475787929 1.94543725355501 0
139.928433536721 15.6867988779907 -17.4125244029376 0
-125.048492170249 -1.72707391288327 7.57086773010941 0
-59.6688394876737 -2.16731003315071 0.438898437283701 0
99.6011603585759 -16.2062342279574 5.20182975525171 0
-82.6177083567906 -26.8884408843873 -10.6128308712984 0
123.683731953425 16.7469376856245 0.171048242738743 0
-56.3493865919508 -1.47715978167401 -1.2606585306173 0
-35.3841619977139 -1.20199838351224 -14.3301767162579 0
-59.3063758609123 -26.8933825534764 -13.7441255684398 0
9.44710777273637 -12.9294716412057 -25.1144721796304 0
22.0753937220267 -22.7929307805879 -9.94214757629063 0
190.640677105018 16.6960683056053 -21.5076183041712 0
-44.7298783334024 -11.0990157400336 2.5761675931016 0
189.960728159298 40.1682019582173 25.3359025671713 0
108.024031041958 14.2461179395006 -7.10762854964195 0
185.346895941735 22.7010118091756 11.4814002670606 0
-21.1425992876223 -2.60970048538504 0.705108334947592 0
52.2336685714368 4.23952603438235 -2.93704455614944 0
117.550614402818 -11.2224165082621 12.6986742131663 0
189.59738787467 -20.1983046150138 39.6709837635138 0
164.269021061358 -24.9521988109745 28.8133315790667 0
-29.4047088942866 -15.5473135854096 -25.158610380602 0
181.209207627569 21.5740240338286 12.2817682944994 0
-72.9466155445327 -26.2404009601467 -6.41963400290382 0
-138.306809956639 -22.9457442827548 -6.00298949217205 1
179.517256200813 49.3896966879245 25.7885057055376 0
131.154162441546 0.49800502197481 11.4941122840705 0
191.89237002446 6.87342264296593 -9.58377678076952 0
183.157310397381 3.54010496095507 7.544199210391 0
199.848393709607 29.630311758922 -11.7203029527494 0
57.7569769964497 2.36016212272977 -21.264543873707 0
165.010636754669 -6.79823695345923 -18.8929842324399 0
109.001723390558 -12.9601814417581 -19.4964232657559 0
5.83254191471459 -24.1614708889555 -13.5550998811645 0
164.648444617078 17.2131827219371 15.4545410545374 0
38.9638391351221 -20.8797618138125 -5.3836257723898 0
177.90550251962 -11.3988523883593 46.8734646190182 0
-67.0556754653998 -17.2931174374103 -23.3136714937917 0
-129.383021787826 -20.2412054866176 -12.3745606517011 0
13.1921161545919 -23.5878052433411 -12.7092521760643 0
200.606529877918 31.8600820369831 8.34494161903812 0
-97.8652454459579 -24.5489119007162 -15.2912301954498 0
-107.654037047724 -25.1424208174907 -2.99919348350863 0
182.867104802545 50.3202041203931 19.9504187521232 0
-40.2249413866735 -10.2628089145609 2.66715633366002 0
188.402060956627 25.9775102817977 14.2117493226178 0
-105.417287368442 0.466568138977491 1.00588614654548 0
35.9829148795548 4.10700802881592 -16.0966571140183 0
27.6378675473256 -22.0070518420338 -7.69234572222802 0
143.841258935098 -20.7889185059088 -11.4864333794698 0
166.710058072467 45.6348910092875 -0.705478283117675 0
-30.1033918441672 -10.3093349872172 2.39291513645163 0
-5.95135125064247 -1.3564673650571 -2.08926329543799 0
-62.6811171429027 -10.7406479961719 -21.9724255985964 0
-92.1610294122031 -14.9532177267427 -20.8372411413063 0
191.577409125565 -15.2716224694578 -7.54122196952147 0
175.289481578221 -3.58256640701665 -20.4197102857076 0
99.729335938093 -11.5633788324544 9.53821726155231 0
152.439563441031 24.6781382570123 6.712794147494 0
94.8852912629303 -16.0261648710039 5.02401188443086 0
58.5937108848631 -17.4334664316944 1.01115758118552 0
134.78788284981 -16.974927667372 10.8524824493063 0
-93.731920955238 -13.2033633265052 -20.1366012603066 0
174.447576172631 40.1832250405781 -9.71558831971041 0
158.101584064782 -22.9426320429753 -18.0766567392092 0
-88.3689901181869 -14.3877947884682 5.30661654729601 0
-18.7618948536246 -18.3148491528646 -24.3599624552036 0
187.092622104907 -22.5504997281915 39.6216509153964 0
112.830881596847 0.148876336930572 -21.9488237627733 0
108.508396721368 2.80355690351447 7.22907636708838 0
168.653740153373 -12.1179366858297 -21.6244825879563 0
13.3762116243767 -2.05750292354076 1.02751354038675 0
187.882843128843 39.6977767688912 -6.15964832303737 0
167.775027557385 9.46228852125501 17.6538831043554 0
-104.715364744495 -23.46260823716 0.395487103810587 0
199.236040166902 27.5776125282328 -12.8703096294015 0
5.52024306615821 -9.86668702178848 -25.0784638211084 0
126.071892164682 -1.23993186235771 -21.471934712512 0
191.238535584275 -4.3759663995462 31.3502295452021 0
26.333704755798 -22.7033679239595 -12.1577411979539 0
-11.7694085448573 -24.5779577127757 -8.96653209626696 0
161.419779992711 -5.32571903199845 -18.0749403878495 0
66.8564055096938 -4.12874080437641 5.81865945339788 0
131.772601706337 5.00210943321051 -20.6552666565615 0
118.92804608103 -5.78288062367173 12.4944198028358 0
194.484188708062 -11.4429033902749 8.35075799214588 0
-116.918158272671 -18.9032804593053 7.42915941508919 0
-139.282481393835 -21.9225167604196 7.37516154211003 1
174.972248321221 3.29395615866965 24.7663101370063 0
-87.6322844207513 1.11044008561831 -6.18394422314157 0
180.248428225421 -20.8556325461485 44.2708021223079 0
-89.8625063931755 -8.29725650194315 6.99165521002481 0
-33.2690431327013 -18.6369820550049 -24.39682313889 0
193.191222850312 -23.4741751832085 -0.173204897624966 0
-36.7630744359169 -0.745725243713078 -12.14320608072 0
164.318582618508 -7.72127193649007 44.0885695513638 0
158.992724550201 26.1582163832463 12.2887919077409 0
161.786045090517 -9.00643023172708 -18.8960249892007 0
193.713628518666 -7.66032107196497 10.4090632904928 0
116.780095833032 12.2958677778105 2.50469522349512 0
-32.3563346318015 -0.0831047715391798 -8.20369037102627 0
158.821984722553 42.3124202277656 -0.746638803080731 0
14.9876063987666 -0.835830146907659 -20.874086231508 0
109.490078239584 -5.21483638143928 11.0128929565491 0
96.7043554763774 8.00638990606282 2.27031756135709 0
13.0799953509837 1.7520832542161 -16.8795481560404 0
-35.0748922287385 -25.171757867312 -18.7130260438611 0
173.459635389283 -32.3321016776395 -8.63340418845659 0
-73.6054660194501 -7.50627951090311 5.39085135643555 0
147.932822567021 -10.9493578942615 -18.1037127478401 0
-59.6486100850187 -17.5180562144889 -23.7506921273929 0
165.409708273473 -26.3950970912631 -19.9139907789141 0
57.3258253601921 -12.9640723666811 -23.2909363016807 0
187.481712503767 -28.8373453591442 -3.17806974859106 0
172.420632357467 18.7603576209203 14.9459534076729 0
89.729783788783 -18.9108663002924 -0.975673097036956 0
82.7336171574768 -3.47176813423837 -23.2151702949342 0
-75.0772323347047 0.143078564597163 -8.27884775322052 0
-103.384053458624 -1.99370041283576 -12.3149653370066 0
70.2257393615848 7.16243957432029 -5.35503432175924 0
95.933695143348 12.3530041391047 -11.2363774407287 0
-21.2289606087256 -19.8097918266138 -23.7383563090246 0
-101.611614364399 -26.0051932911562 -5.6613832931413 0
103.271280137342 -17.8735427991358 2.09294089853094 0
21.8894559055871 -22.9907404595024 -12.3837784065973 0
89.110954471423 10.4388061240743 -15.6686393350839 0
180.047870624003 44.3853607897478 -1.32828460384565 0
44.1453269637629 4.69239511895249 -6.07773376116983 0
43.9119677410989 3.38920745079938 -3.37376154014694 0
121.712572267678 -14.0546870983527 11.6042512293164 0
194.961837176631 43.5439229513962 19.8793624732096 0
15.9690226581377 -9.38324601064721 2.64790963844996 0
-56.9663376943251 -22.308580972502 -2.27488493391158 0
172.056708124768 24.5727731183212 17.6206693395991 0
178.312341422476 46.5717245350546 6.84126813302722 0
-7.59333414498806 0.465086054893489 -16.9160207205317 0
139.294330220192 -5.38027491862691 16.6301425981932 0
-94.7234148326954 -26.5588365251445 -8.99511934795789 0
177.264810408632 -29.4304637712956 14.4953876247285 0
79.1110442868705 9.98405009294235 -13.0430755271245 0
11.7220921573874 -23.3851546021874 -15.5481952319899 0
112.856858186733 15.3110914028476 -6.71941614895073 0
90.0828451196623 2.3671079464557 -21.9202070497931 0
35.8021592889498 -19.1299589075039 -20.3630986023936 0
120.228218667614 17.0982357696037 -4.64166845501185 0
190.851530391913 -5.20551909702241 -4.06239229075505 0
-136.854043043974 -1.35818822720291 9.70886672131367 1
176.375828018702 -22.7970923665885 31.0285420878199 0
150.899903228399 -22.3877740808973 8.95806980063928 0
191.328533682062 -3.04935797157693 1.94034037703238 0
-6.2799420769879 -22.6848120550132 -6.02816970040999 0
-118.074345556863 1.46279255579222 2.07044316371154 0
167.368058193527 36.6293489828809 -14.0367322074032 0
88.8491018186656 3.44144971231803 4.42863752613444 0
-111.476213276453 -15.0232840255598 -17.965799893283 0
192.207735634803 -5.04049005196287 24.0049271324274 0
129.909392848335 1.98496751494951 -21.2637495973379 0
161.173650959107 -29.3647212791202 -5.26435783011931 0
188.360555663684 -27.3756485003775 10.0521484972864 0
63.4223560043668 0.140400410150264 3.39882633683279 0
19.2921858313126 -12.5923869300492 2.04901127240612 0
161.926681484061 -0.411718514679527 38.2667176566027 0
-7.19461671455958 1.42787833987758 -11.071598500156 0
16.2550828793374 -7.67269129223785 -24.6535486947496 0
189.926028405924 -2.64200697432371 31.71340369654 0
194.4158683099 -17.1589826972089 30.6150922645118 0
176.278714890307 49.5522634169882 24.9396834111984 0
-127.814997958955 3.65002649642146 -3.67782701897069 0
158.901788621716 32.2732578876567 -13.5056472782945 0
157.70875804827 32.721090246971 8.94670191807101 0
59.283945590721 -18.62768291617 -18.4958028202065 0
-17.7630743131654 -22.9917954999884 -5.64698682707096 0
130.601757551124 19.1571851153867 0.927029446069293 0
24.241130841385 -15.607575480301 -23.9790165280047 0
-4.29296760495956 -10.6790416987194 -25.1306925785779 0
-99.4337880553007 -20.0245520327032 -19.1428427868667 0
163.769247693236 43.4325247960702 8.87551978899574 0
-96.4352656026675 -0.0657187038425217 0.652039640894922 0
-18.5891415805793 -23.2291308076896 -20.6872706051893 0
13.1210604904975 -9.03115232807737 2.59368935203321 0
192.923998522309 8.24754988529492 -4.44744091678558 0
193.513044398064 -23.3748056030335 13.5743278454663 0
171.243014686127 46.5966686034964 3.53292768186904 0
158.935031692915 13.403838664268 13.0601502262638 0
165.634607016444 26.9208470072775 18.7713058038401 0
124.248113498688 15.2212615946589 1.95466946410833 0
29.3202833599429 4.02706921169495 -11.5231315796253 0
-74.6825729991109 -26.9720934537365 -11.4059744626284 0
195.306056492755 -15.1480075737576 27.3514021574294 0
127.881403377817 3.57369921534584 9.4494442045851 0
-32.5297521148857 -26.2193802225294 -11.2002062170734 0
112.578844149054 12.4038848117311 1.26608579713161 0
107.790131406893 -19.1624947836301 -2.5981210862488 0
151.135340928325 -20.946858948202 13.9060366823589 0
148.005126985541 2.21566194828561 14.5091596024898 0
5.95062889150968 -21.5310375342091 -4.93698092060568 0
61.3691000665634 6.85441358732147 -16.8014207976274 0
98.9361759402413 -2.6143538666731 -22.6495648647761 0
158.273560406445 -17.9349288749767 -19.3476986206143 0
96.3098428374374 11.1257907820596 -4.49378461088867 0
181.222133781562 -8.68931614743342 -17.8716873099043 0
178.592900563754 -2.45209794500534 42.9774026946846 0
165.430555406279 -29.650303891256 4.60685165002767 0
-41.7612475810244 -17.2247115410853 -24.6778284451763 0
192.966229497333 -22.3537872635551 5.18350527751469 0
167.343783085515 -29.0129562732901 16.0188743845783 0
156.389739555828 -6.2137353669033 37.3068380715451 0
186.804202847268 30.91059347213 26.6158618171181 0
-117.789787759574 -21.4613662067719 -14.4521132539737 0
101.711666165382 -19.4424302174065 -3.88202608458303 0
202.177442989056 27.3340883312483 -2.00448712367065 0
183.478357346482 44.6854127054071 1.85984472869652 0
183.033136950784 23.4085480986672 -20.7894915247003 0
80.1906856133028 -7.88757769938112 8.1648132720835 0
-40.7229808862498 -1.13451079489774 -12.8954741821626 0
-103.017888050988 -6.80823304419978 8.17248541530176 0
136.44068297213 -20.3692620509668 1.80812318479734 0
123.249110153311 -15.3764283131703 10.1749985691903 0
192.948664241503 47.6233532141414 4.67367197278663 0
126.731810104266 -14.0699928389843 -17.6175498240415 0
-44.66812532291 -22.959164637255 -3.82718001915286 0
-130.378670703292 -6.15305690832793 -11.6771998702505 0
137.888026371233 16.8623242645949 -16.3116161135178 0
52.9681967147602 -5.00395481495709 -23.9326429627091 0
159.212414326588 35.5381078111918 -9.86830425612624 0
171.537473684167 -29.1552534795084 -17.511325230522 0
171.381227845657 39.3606414699717 -11.6252806430102 0
188.893586561826 -21.741663510676 39.0250777655662 0
-27.4277873104648 -17.0719691700267 -0.53843102466304 0
153.253093359682 -2.27412532710379 -18.215175324217 0
69.5916666013482 -0.566710132585172 -22.7873401889642 0
188.712938880954 -16.0244108964375 41.8023774565486 0
187.464904471311 20.6211369764983 -21.3353599993908 0
91.6235454570208 3.23881181287372 4.891443202892 0
111.19952198941 12.0373822858346 -16.5254138402435 0
189.317827809668 23.0525397973694 9.13029139179887 0
-47.3816698319204 -19.0887754307736 -0.83516582303695 0
71.8855889101134 -17.1244275161038 2.07851147606831 0
168.838175604118 -0.465081186660868 -21.6672495924774 0
-67.7864717093946 0.137679638762863 -6.14929461651838 0
145.888786965431 2.18243327877061 13.7636058655004 0
35.8080556528593 -8.55957817923322 -24.5794102080495 0
82.2333027235803 10.3035842225597 -13.4219681062099 0
155.317021902575 2.54783281904973 -19.5650028656725 0
140.141672293349 -17.0179321491429 13.2306696540438 0
147.045504881714 -21.4252359620833 -11.8424894235975 0
6.20716207788476 -16.7768140223407 -24.2131447903151 0
90.4578689782174 8.61484486380403 -1.25839235048333 0
181.718878964053 50.7539422483623 18.5711362551657 0
176.96387865163 8.6156335366427 12.1468733928092 0
148.211312460452 -20.7554053631888 9.97864129689363 0
-15.9647811032413 -0.23439797630546 -16.7481504664753 0
-123.449507347763 -5.72182816433914 -12.4408772588856 0
67.443512257231 -20.5141631589698 -12.762992834257 0
40.9095426272983 -21.8595608144227 -10.3109874809834 0
-112.993879065092 1.53687738620231 0.545611755549748 0
-6.71088758403913 -3.29785113050313 -21.2823586859088 0
178.700610033846 -21.5130595904751 29.6426871606413 0
-135.95305897946 -20.4419971463784 -10.1927197437511 1
-17.7740993377256 -12.2654472021371 1.44862520301918 0
126.966169479272 16.6596374625613 1.67732054703397 0
-129.389944949913 -24.2581286108698 -0.797769304263189 0
155.715679984796 0.00997075480666849 -19.5223006847512 0
156.513826620246 0.0990875132583713 32.763267265538 0
191.682015910585 7.63420768518162 -0.767601284451624 0
193.281093074534 -7.39920631632025 23.3573859028436 0
-140.186487471335 -14.9404932759183 -12.1512092096949 1
-7.08430854556931 -7.98153379426779 -24.1856212545468 0
152.403635251703 5.9030217867933 13.7941605778261 0
51.4952639816845 5.61154847373913 -16.6726272124591 0
73.5454751896562 -15.161083293036 -20.9721706036578 0
137.236485119262 -4.07147737254803 15.2716429172 0
48.1430527763091 3.33001930987405 -19.8674038534149 0
127.872258636183 -18.2142739480242 -13.0434711893835 0
183.746280849125 16.628126094219 7.59118296752152 0
60.6118431439472 -18.5494516149316 -0.532305200623616 0
170.901075282932 1.91429920140912 39.1787542583387 0
193.033359994359 -15.9895786166266 -3.64164964329935 0
187.962181373343 28.8817841372194 25.1065584444813 0
162.740506660201 24.0029151496682 16.1318212751063 0
-55.3942156428422 -10.2212946897929 3.3983239302859 0
171.355607776534 -11.2905017035011 47.400943831806 0
-71.8318938385088 -3.2736300637101 -14.6895119781012 0
176.66165869355 27.5811579337768 20.5732128457725 0
202.744609550513 32.491147455514 -1.28826943686135 0
143.929858257786 24.8128277782571 2.16030689896434 0
-86.0409191508456 -9.66986367125668 -18.9744026230023 0
-50.164473443161 -21.2523994679347 -1.99814159290643 0
115.919310678852 12.8774334161275 -16.1757618558423 0
-78.2660742252654 -0.874213072116343 -0.216335019456405 0
-72.0427089478877 -0.951717012130351 -0.912711879989952 0
42.8952386125791 -3.96647935832185 -23.7365607689594 0
-13.7472831001529 -8.23022875315075 -24.0261361787177 0
-98.119610447093 -26.2374953673735 -6.43176675442265 0
92.4470939368411 11.3714582655068 -7.58611061317831 0
8.15373264336517 -23.3178577903878 -8.74422670735743 0
102.153388964829 -14.6349706567916 7.44098141518058 0
14.1930291433868 0.827815900755223 -4.11476691479931 0
105.766843644689 -9.0815810375439 11.5658470853522 0
187.034874174664 46.4734175085627 25.5270842585705 0
-110.682722494547 1.90227150729219 -8.04786734669109 0
-121.293535079811 -21.0592607865079 -13.9097414233276 0
171.787499258125 16.5420190131643 14.9053320880994 0
95.5587721419884 11.716393965296 -6.73612799875489 0
182.245409073159 2.34963156046278 12.4378063581646 0
193.993537929768 -16.1226045781383 -0.615288734589662 0
-66.3812079262634 -8.79924154770391 -20.2350366674191 0
94.546503087775 7.97111544882944 1.66859041451194 0
153.292640027665 9.66449544379549 -21.3814861733504 0
-100.434893598209 -14.7343777888545 -19.7263932800338 0
169.450582357893 -15.1284356444612 46.1874585528267 0
8.31362804103421 -22.6541364280171 -18.2995452601686 0
176.68332958059 -22.1407482419628 39.5914486366321 0
186.931419808452 -28.4411866398709 -6.01371969625357 0
195.655640803539 15.655005109709 -13.2588811820621 0
-45.9145298457018 -15.7228019704608 0.811242405541546 0
4.01841442246989 -24.3470318784686 -12.648229830607 0
-117.996448374006 -23.556734120131 1.38380234872356 0
175.584797000473 7.10960366882349 -26.1620882935638 0
145.21055604382 -1.03668264851689 15.2520458382671 0
-60.7798279474643 -7.38724374586291 -19.5548958165722 0
186.619078877896 13.6010798357254 5.34085149344878 0
92.8085194497876 8.97549650417889 -18.1880441559437 0
191.965098568296 20.1150042184767 6.59479426611536 0
173.260838430993 -5.3449642586699 -20.8480282947314 0
180.538502773603 28.5146107584271 -18.6701225273045 0
10.9426184843914 0.484521388847254 -3.81176567306732 0
133.57417509887 -18.9983730029643 5.01526884338937 0
188.630906866144 35.0621758197259 -11.3979081830296 0
20.6671159935473 -4.9393136810412 3.2051412690172 0
152.729607138994 19.2758540143788 8.4681072148978 0
173.24498248764 24.5431609165245 -21.439593559137 0
59.13047564285 3.87306501860853 -0.418371718150829 0
-110.692371490485 -8.97032622960384 9.77765441484907 0
159.715570664402 42.072212303177 2.28007141757569 0
108.720764045933 9.06407854796319 3.65741598443857 0
-98.6659673196784 -15.5566044023238 6.40818680538629 0
-130.727090415138 -23.0741945700213 -8.61366245139297 0
-80.1356951926607 -6.69287197463232 -17.3343861457766 0
180.249697627064 44.303464247476 -3.68720981513963 0
173.970077624559 18.0802092918516 14.3105588170106 0
111.532567251369 -19.5031931084628 -4.5055812469 0
198.265480320131 45.3913440284995 5.08090415772897 0
-57.29182454371 -0.559706404948877 -3.50587267939871 0
-18.8325473584727 -0.903494840597693 -17.3802153180341 0
-113.170271488618 0.213390353137441 3.03641440309825 0
85.0547844825394 -19.1949733235396 -14.0014975825333 0
61.2479545349251 -20.9071498205061 -12.3995341331927 0
-51.2102828746846 -23.3412836477148 -3.71320688243457 0
-113.86839789301 -25.5619415547022 -5.29817173832699 0
172.715830586942 49.494051864549 23.2301116198597 0
196.790149456101 45.7612090845783 16.9802621439467 0
180.737861068614 -6.4176535663561 -17.511501102315 0
167.033434258258 25.8803995313792 17.7099072461311 0
123.403724818178 4.9746043179345 8.14119685733075 0
167.252152308896 46.1368503899765 18.2407824680387 0
-123.612227101063 -24.6965717867138 -7.23383365853115 0
136.569238264114 -1.80311421463368 -20.6915355366774 0
74.2017308549779 0.000604372811555711 4.64713667495131 0
-66.2186596078395 -5.64605837924035 3.81888184307682 0
31.868089751939 -3.33910669781015 -23.3107869564096 0
42.9988334097714 -17.7737716345996 -21.2266492451471 0
190.985746503656 16.2806677039752 5.36209582105419 0
-65.4726294685308 -26.3018462363357 -15.6248504027658 0
48.1272253683286 -20.8338488113563 -15.4477853177091 0
-4.24494503452687 -23.7295398371173 -7.97217682548639 0
-94.3544918413798 -6.10424728082819 6.6964543437339 0
15.1159515319508 -2.91894245479368 1.96068028761406 0
-10.1462362088046 -2.26857462130718 -0.214868482053025 0
92.1367177774322 -16.129721576056 4.66232711256614 0
151.000212876966 27.7235540970019 -12.1125715664362 0
118.364146553656 -9.61361945870281 12.9818816516911 0
185.143842576098 -1.35333004266993 -14.9730386395579 0
72.7100549962505 -4.36333633342439 6.47120788203712 0
75.2502975435652 -13.4417497798224 -22.012245590674 0
163.386816597291 -5.88000378837027 -18.1438355514852 0
176.215879150368 28.4376995744814 -19.097716800627 0
163.156491676044 3.65837358397134 -20.3517344952296 0
70.0307584975521 -19.7689229286679 -3.02952288394824 0
-115.145077040739 1.93938642705649 0.230650361911842 0
165.901768948996 -14.9535493690764 44.7487479445569 0
86.1480378206682 10.5920587506007 -8.92453462389749 0
194.369262266704 -19.4590701656927 29.1176866475387 0
83.4094219269168 2.39160226097469 4.35193535916623 0
31.5384293388496 -0.462806474626628 -21.733807326008 0
193.239077193774 -14.6683181957859 -2.20921822015026 0
45.1357727937432 5.72953401264377 -11.7567011191262 0
144.505432327085 4.06060873930537 12.3678968867163 0
109.280006339285 12.9995441773004 -1.83960857665679 0
74.0760934419838 8.13434555936391 -17.0310800194137 0
194.519259839172 17.44927516451 -16.9280140918708 0
-6.31126198384283 0.142636353724587 -5.62357356902068 0
10.4314865837697 -5.53353723787723 3.27383076575824 0
170.693186071509 3.84077462098218 31.7773472420303 0
-47.7128527679188 -6.80259572701481 4.17947585941695 0
130.472129626596 20.4358161862936 -1.19969249623429 0
-113.920830416504 -11.3632642678964 10.2392924929339 0
-3.34712423267697 -23.844694900655 -17.7579443200753 0
195.30598398506 12.7011916276719 -9.26557981595265 0
75.7287222057322 2.29837575559307 3.52924697654305 0
-121.606817181794 -12.4310824476139 -15.6931185240319 0
45.5732144574145 2.80583672723029 -1.69942805573561 0
110.207109837586 -14.5385619629519 8.78099788359453 0
155.296176471344 28.5348177431643 7.45245198763662 0
156.679747477044 -14.2333080799499 35.8844274328003 0
136.744241500645 -17.9288919894275 9.4304162418843 0
-83.2649023277892 -24.9394294990455 -3.40331060669563 0
162.947614481425 40.9729073227725 18.9068681080442 0
55.7436849567337 -21.1554337112202 -7.79000647828792 0
-112.947898471624 -2.22986805753967 5.74098855008339 0
-78.6448643090209 -24.8116044651427 -3.40448040501319 0
136.449275004295 23.5793646157865 -2.60803572432078 0
142.054315558366 -15.740658695567 16.4312469809791 0
143.606341106978 16.5644026702446 6.20966861644369 0
-47.3363077347869 -24.7416511115733 -5.86422202951959 0
180.882360610141 15.6936023643413 -25.8948626600687 0
169.315898275588 21.0613165402144 15.8598405323234 0
121.338519963465 17.6201350506672 -6.8442307109243 0
-38.2899442317613 -6.84075365265156 4.03705893146952 0
154.423402742774 5.6554515502093 14.6630274920035 0
-82.9288969627596 -21.2352168513967 0.725573258228958 0
-96.6533476436789 -21.4760525912152 -18.7480158485686 0
-49.1820402636899 -1.49521351823205 -1.38751970038747 0
192.985890103485 -21.2960305244781 32.3292809443948 0
183.733236131739 -27.9893256127632 12.1483152734178 0
194.861556626004 -15.459714528395 17.4300099345956 0
154.064763430514 2.1025472191966 16.423801778941 0
170.082984194899 13.1267871840095 16.0751096804162 0
85.4068961075882 8.91554191523441 -3.79994082474599 0
-120.510283937525 1.10012750390081 3.28668369739739 0
117.501931404049 15.7218789232798 -2.3573527193278 0
51.0239894618746 -20.9019471437908 -14.7433722772564 0
36.1784600635475 -22.0943452682486 -11.7402700206837 0
-123.520749821592 -18.4935401662189 9.23014774046481 0
82.7140822409143 -19.3841645153458 -2.30745677262023 0
176.501434340579 -30.1675373304977 2.70900952752859 0
178.368742040509 -24.9868272658695 -18.9125467226253 0
156.559290761101 -27.2489468404524 -4.82564907455243 0
150.706361646899 -24.4739123731352 0.575520681923672 0
-15.5599407926683 -25.1202814161289 -9.83071477605114 0
179.1243754062 36.829092436391 29.7678855466234 0
142.992032146338 23.5355911626376 -11.7590504017601 0
183.285682123962 3.72467307186571 -20.2895805493587 0
150.463977100468 17.92313251702 8.0697858825583 0
166.138210340383 14.4194414149241 15.8061695999564 0
165.270494303055 41.7836126786641 12.9953637050392 0
127.684327772043 14.8638179888336 -15.9118070279055 0
164.24923884469 45.1554426717144 3.54818587577045 0
93.4533031217007 2.48679176447596 5.49770106255715 0
192.767266475366 -8.49591357876543 17.5597550071064 0
62.5815327437124 -17.7232395632479 0.799096998664043 0
-127.972387119254 -23.6574237643044 -8.44544101805927 0
188.63385085812 -0.90749010556159 7.00824088356787 0
150.639196941796 -24.5297457482771 -6.28539727902587 0
-89.7919566640517 -13.9907580189651 -20.8757806120685 0
188.792954592528 -9.61954099871139 40.1310156644943 0
122.172477778989 17.6099500224432 -3.65007810888243 0
148.169658802098 -5.47547331404871 -18.8356824634528 0
-15.4198131094258 0.65649468318869 -14.3466300795186 0
137.408914897205 6.67536580925933 -20.4614590535623 0
152.368407635692 28.9798338895021 -11.4647983124391 0
-108.951596204978 -19.8762525086353 -17.4262133490161 0
192.302997027431 10.4634208854523 -16.5078966186683 0
119.468999198776 15.7123561013392 -12.903178331648 0
192.006142813373 14.3495190991603 5.08400466266176 0
198.481901306168 46.1977403142426 12.1954412946365 0
190.94709738913 5.7282065163946 -12.0334287554347 0
181.202408318526 2.52633362199183 -20.6343683954374 0
149.816442503654 24.6874262077972 -14.734983237902 0
-48.121032017258 -1.02821084670393 -12.2662916846165 0
-69.3913810875651 -20.7212020979434 -0.0410247407913046 0
171.682298001765 -27.4760336374077 25.985469624622 0
178.157780355499 -24.8381164686528 26.5589561180622 0
-78.6572314739536 -7.65639886809413 5.75059404807309 0
128.248914627624 -14.6510367226892 12.5483129915391 0
39.2310969010397 4.73210697718858 -8.11479520818659 0
192.676307893996 -6.37149219587675 13.7708578889743 0
-73.4226648248624 -16.2345581855865 2.65927496381019 0
101.458849688406 8.96391316464573 -18.6909954454199 0
70.1075674743178 -20.6377642275203 -11.3660909758773 0
15.9639081750883 2.81173627130696 -11.3025359154277 0
172.026023697987 4.53728566879096 24.3941264203466 0
166.726079451883 -12.1542972495378 -21.1112022538545 0
139.673154765803 20.6463761482064 3.80615408879039 0
52.6101205865111 -18.7883735236909 -1.08348083582633 0
114.786481902329 11.9135905488791 2.36436305808318 0
176.967843996619 -29.244940344977 22.1221890969569 0
174.859057888261 -32.2434165696651 -10.1753246827175 0
21.693680127624 -13.9300145849658 -24.5780987014294 0
-88.7859475900323 0.153373189120835 -1.01619171247338 0
-34.7937327182646 -3.57708926598601 -18.6036075905717 0
-47.4016998767589 -21.5995635525612 -2.47338764627702 0
189.733177758865 42.8428880234935 24.8659459121186 0
98.4993109547666 1.42659042202833 -22.0484209402245 0
88.6511870165938 -19.2761617909897 -13.2507996789498 0
134.450267277593 17.7981508000651 3.34691819761748 0
164.98136164524 5.41870388980343 -21.1151081009312 0
6.42078473547168 0.152976499869066 -3.76962481707924 0
161.368652009942 -22.1172693950384 -20.7701788124657 0
100.737995971453 12.1868639981854 -5.0244951928476 0
179.093439548707 4.52003108792551 14.3856689530491 0
167.642091383764 31.0027033308901 -17.1592950794864 0
-119.38144803854 -24.6359709015945 -1.36022350543276 0
1.55129467280549 -1.09365411393558 -19.914271496147 0
28.8197380718387 2.31776263816477 -18.5963705205031 0
15.5631667283256 2.04348731774047 -16.5813972278851 0
68.5072280939774 -15.5366956826092 -21.1365553291022 0
156.486989724156 38.0939438104169 1.25119718825314 0
105.234298202594 -0.230855359746367 -22.2147974210974 0
200.461814244755 40.7411591914814 10.7266232106007 0
185.767480575389 1.81145767914182 26.9599910075068 0
116.712990312663 8.87290583494658 5.0918536316904 0
133.163477657082 21.7463532337862 -6.40714860832953 0
-73.7662141799323 -25.3423361143867 -17.2187958526239 0
182.70722722413 47.7062156368306 8.91544250044063 0
146.541002240197 24.1063600855152 4.42191467393679 0
-2.42192498200469 0.190367395915065 -5.23264676821357 0
179.449093898639 50.1636311756317 18.3390554476339 0
156.655375847441 34.0490149250531 5.31913184831239 0
93.1070932745792 -15.515339904364 -18.7681682367262 0
-98.5058684255293 -5.65043654188695 6.84102432466751 0
69.8316382706599 -11.2984010741264 -23.1770892291243 0
142.710142266077 -12.2815259976331 -17.881036051919 0
160.923642162614 -4.21235090138795 40.1863007260446 0
-55.1439310276724 -0.984454436960982 -11.9687861978724 0
189.886137791315 -11.4528489889299 39.4688476519177 0
172.148828319937 42.6850839306353 27.8235097600376 0
154.312674051914 -17.8850801205583 -17.7773253386452 0
182.183839433019 1.7384853622182 24.4673991355542 0
188.632027340044 -28.5124536240822 -0.300532802417203 0
125.932091366427 15.3222425745434 -15.1529639018988 0
178.139739229119 13.3554938321776 10.7490993259725 0
166.07230178664 4.91632196652336 23.4302552364258 0
194.253555816724 -18.669185972002 11.4145762764298 0
182.547512078099 15.7245788378564 -25.6684748066707 0
-82.5158477472676 -17.4824043985107 -21.9720091224564 0
117.795529448459 -2.90299781330472 -21.8197840433581 0
42.7844341079303 -21.5102955095669 -7.93340962558591 0
187.561214285623 -6.22599155117558 -12.0441592998629 0
174.549931199224 -17.3579142930197 46.2902136096997 0
189.993207186547 -3.87705634561632 -6.99185823818169 0
146.032484309807 2.34683175781868 -20.0614386600517 0
6.00715380826653 -12.0525030961531 -25.2188909479799 0
196.005900596936 28.0268176895104 -15.1661845208393 0
158.87002911427 34.0170262208259 10.9937802120036 0
153.809371413206 15.4952947469452 10.3479258734819 0
154.481010775702 25.8848315207056 -16.2034055143479 0
195.662794578124 29.6645559572693 18.0349137324131 0
167.763778631632 -28.3834096229332 -18.9624881707519 0
191.492537640658 16.6473751822651 -20.3766411816379 0
167.658573338206 -30.8494671820083 -1.80920111004318 0
-35.0390121539329 -8.29039652978851 3.503966224194 0
185.000859065488 -26.9155241018398 22.2843851713915 0
83.1749395016466 9.47874768718371 -6.26797746380611 0
106.749768382861 -18.7554064947404 -12.4587549255191 0
-51.5302560338341 -0.847086629051086 -2.77792627043475 0
136.598796095205 -19.7489520320706 -11.0188994346631 0
200.928953373369 38.1674114563377 -1.30216884007862 0
-92.330228096015 -19.3992706629479 -20.4452468090835 0
-109.030695324934 2.39394825790164 -6.42753489347875 0
148.838390192753 -23.7730022699551 0.229279764531985 0
194.618195321631 40.4339425159201 20.7199990288309 0
171.491506218903 45.7507674241271 -1.1359998782705 0
155.785295798142 -17.1764807910501 29.8010839258801 0
184.09143793108 1.8128366008132 7.53958604716868 0
197.489622598047 46.285183902026 14.5582468453314 0
61.0522458081759 -2.20539019052144 4.35527932713909 0
183.508828663575 9.54720178293459 5.81663977620677 0
-110.765223652881 -23.093812790908 1.5254711786931 0
95.2302264188782 -8.0903526270187 10.2712174744796 0
130.15614535781 -18.8273206212677 -11.9986437031224 0
-103.135092934937 0.673193349798745 -9.70517839907314 0
97.9665480746145 -19.8254270824717 -7.45845350143714 0
181.562125823265 -29.0593675923094 -12.4558621779281 0
-3.57406729073767 1.71601176931599 -13.5192293269343 0
176.116999369744 -5.57152444199211 -19.8517340210142 0
175.605386398791 2.13118986227046 38.681283798812 0
183.592315177526 5.12677862258443 -21.4178339134092 0
131.621876900101 -16.624080279714 10.4431641863285 0
147.131377565102 9.66249582419379 -20.4759723889785 0
104.293009749963 -5.71513009927095 -22.3191041082859 0
91.5641449272165 -19.2520979155679 -2.21139357229059 0
92.7455636865914 7.37932696686428 2.09416923256207 0
186.119000995519 -1.66576280382881 16.6087377544321 0
138.401017585343 9.96523931900031 -19.6447307199601 0
146.076886338462 6.10652392982241 11.5962870232272 0
190.811765199054 -26.6258937310423 2.57065792835276 0
85.1738046262373 -19.798749072811 -4.00205601133528 0
179.169697030827 19.3512107905171 -22.7683243014259 0
108.416104981546 5.60503731036508 5.86916212205536 0
23.7498850819843 -12.1919138768679 -24.7604275140921 0
71.5191396288138 -16.4377749028528 -19.9837993479448 0
197.772728927316 43.2872088267269 16.0601838061613 0
-39.6079602871368 -24.4870844104802 -6.17069635355159 0
170.854582625696 44.2690410281829 -5.13909554117278 0
179.011669258289 50.883937025881 16.9382815085078 0
97.4179806139551 2.831428721026 5.79530757596491 0
85.3895281143317 -4.73025483894053 -23.2164904327822 0
-84.5082701514133 -1.13213898081317 -11.5892155662995 0
-95.2445293826181 -24.0167952217452 -16.4918949162827 0
150.552549361751 -23.844399296008 3.04408584083013 0
193.981993925195 -10.6411937548603 31.3576141998486 0
-60.6023380797227 -11.4949406420948 -22.6168517374059 0
189.24382514247 48.5906682986296 6.96935597099682 0
-4.69703023366487 0.60488692275714 -6.89501222427933 0
193.823773532287 22.8520253492814 -17.0717639448946 0
129.35726957909 18.9408086593195 -11.3201548740131 0
-18.6949234635943 -6.71512075286851 3.67813295238462 0
155.080484277223 35.676758654471 1.11140348650327 0
158.871488599976 4.26023340475505 -20.3785034337315 0
53.9821334118642 -4.01123041836914 4.60944476260285 0
140.030327792413 -20.0487578284812 -11.3263358934053 0
164.192994990341 27.8270714440333 20.3513559337965 0
182.29800598426 -28.1784882779052 15.5883643733471 0
34.9837490378484 2.50651668268698 -3.47781017452918 0
167.994157823272 -25.6868719477309 -21.5404882140275 0
-21.9786674423699 -25.9875904559605 -14.7611345175808 0
158.108374557856 2.06774341684828 32.3113748782515 0
90.8092151678346 -8.84033027662588 9.47819510486916 0
141.896852524712 16.3046535906607 -17.4613552497549 0
179.244128809573 -14.2230019411717 47.0058169172692 0
-78.6344984175366 -20.6919491768657 -21.40352838134 0
164.817283484097 -11.0586051226044 -20.2474647815218 0
84.6111580477181 9.96577019990492 -15.7203152475355 0
171.006380752412 17.93739154773 -23.9445893156105 0
-62.8686763684961 -0.0402268506301359 -8.3356433621261 0
-88.1674088879414 -10.7483309232374 -19.4829142535695 0
-22.1126399891229 -14.4283719008857 -25.2764294032166 0
165.483576891773 -30.5141104506453 -2.10882036199561 0
14.8489090051122 2.56202765748269 -14.3802865636139 0
100.171042136111 -4.37230357114365 -22.6625943183725 0
-50.2860644999931 -14.6064957416306 -24.2870427826919 0
21.4645443530456 -21.3425780769088 -5.41807993741838 0
106.158792066254 2.58786064954493 -21.6229327984878 0
116.398509452895 -16.2987260353516 7.01336542835637 0
93.9439198584471 4.67023248782934 4.43479861521484 0
50.3494881935846 -21.1637098851272 -7.08014632233918 0
159.304071650573 -4.39320306254997 -18.4859126606064 0
18.7455781376637 -6.14229934492526 3.36746228525571 0
-138.908160487589 -13.8655471770175 14.4734960845677 1
23.4256008263076 -10.2471205213605 2.85282566075009 0
-71.6878972888153 -17.4467117276368 1.96324814892788 0
-63.8607255312089 -8.23313070950248 -19.9615785109471 0
62.1153477241991 -8.27369908691544 6.31944613544223 0
-50.0633758498933 -18.6669830781782 -0.421991249939195 0
136.318053585617 11.5811421361118 -18.9298735122552 0
-68.8818146230948 -6.36910025970711 5.05818101313595 0
-91.8814112972175 -12.1299396414225 -19.8556676585781 0
165.16329310805 45.3092044054094 6.22066205979025 0
84.5178723985818 -1.34306859790058 -22.8727550397952 0
49.1240427726281 -15.7600657307447 -22.4411485893807 0
155.249462741729 -20.3563886331115 24.2173930613388 0
151.90282920544 7.44027995272383 -21.1123854942911 0
-34.9911877983921 -1.59433882636912 -0.874117270358882 0
-114.532445472211 0.795491728334577 2.42183116821847 0
-119.607816848625 -2.81715969740384 -11.6461616352877 0
16.582697473247 -23.345318706231 -12.60682910601 0
172.882639353935 -29.2399310235598 20.7681788599898 0
80.5527210255742 9.34664202610567 -16.0813519545021 0
157.624776469026 28.5136448399035 10.0573288553816 0
184.838029454964 -26.0102506934989 -13.3988863013593 0
188.591157128152 23.1534235030424 -19.0756452272552 0
-89.6446882417517 -2.14243255711422 2.59385497201789 0
190.887207353646 -23.2331214005558 -6.79858835057201 0
126.607273448584 -15.048901750544 11.6353159029916 0
156.226614741787 -24.2763224460932 -15.350074417131 0
164.636108330855 18.9520121735767 -23.1005191610591 0
23.539465155162 -7.59001517438098 3.15545083843974 0
-132.290597248873 -23.0597318583109 3.79460616449196 0
160.248333014065 34.8968487663957 14.9820665692063 0
152.265309634691 12.069274869552 10.6234119958303 0
156.638970784377 36.3791335389381 -3.94539859013665 0
165.308574980739 10.2113414002836 17.2727882816409 0
131.786914355983 -14.8527982265377 -16.9215002864142 0
182.297902900746 9.92201715926789 -25.503460031803 0
178.731065580131 -18.9432456459661 45.1491077110371 0
193.090937592909 -23.1278505900344 28.715559806204 0
184.053469179677 -3.26859472149029 40.8335608982205 0
148.567686581536 -17.9933833415193 18.0361690648328 0
16.2058144186798 -13.2367468203641 1.70461145324126 0
-91.6853932143462 -26.4909280946108 -11.5540732474311 0
-111.549609479683 -7.87203835547303 -14.8824246016306 0
180.853916696484 12.7916713105795 -26.2275945026807 0
-10.5795932051876 -1.16099208196116 -2.49113578982254 0
132.109228805344 20.0552819053357 -10.8686069378022 0
8.81016125175472 -20.3446640091239 -3.49330618131419 0
189.414364911909 24.8578296410953 11.4744541291844 0
158.367979311786 -7.6046200044143 40.0522171041938 0
-118.974654898714 1.02551508291659 3.20730036801236 0
-11.147212308415 1.23018817060502 -12.503468876985 0
183.50672952282 14.6776365432949 -25.5992889147298 0
79.3050736403577 1.91310853837887 -22.0538562490862 0
101.38082772814 11.4702846666666 -2.82390217594705 0
24.1775644242196 -20.2337487457169 -20.1953889507842 0
78.7348873408363 9.78167391898942 -10.1894964165569 0
-36.7982535546492 -2.60764595275087 -16.9606553598219 0
36.8873629995309 3.61958257611122 -5.23143676583592 0
177.936953190563 -30.0526834762376 -14.6402137503597 0
129.906084219568 16.1006455477546 2.94280938571926 0
-88.6615497859962 -20.3342588258344 -20.553706435889 0
194.378476278084 40.484760765885 -3.45832238308793 0
-52.9074323147696 -13.8624375017502 1.98776949406174 0
-8.15977788533669 -13.1149015136931 1.20840870731647 0
160.534693347083 4.70997469040976 18.5035295393912 0
-95.217584678281 -1.32217705468343 -11.9568807097975 0
-126.939217242753 -24.4051265669196 -1.01643653223639 0
0.91658010526578 -24.4958044690483 -11.8771517489138 0
-113.722874938447 -14.0955760426299 9.78737612139917 0
160.461695925205 11.8590438015586 15.4167917524444 0
-74.1349800718244 -1.83860364489725 0.852230164876548 0
125.60919227608 -19.7181875582906 -8.9060016352229 0
188.077430660046 16.2164368011977 -23.5051346069721 0
189.2799505301 40.1234185383899 -4.81913897288269 0
192.441206247929 -23.5537601311465 30.369417021732 0
142.714735883923 -5.18728785623117 -19.5745816712946 0
176.239637980539 -30.2675789030693 -14.9545554330029 0
164.857000196385 41.3346979779862 14.9690541253599 0
103.400354735915 6.73030287547587 -20.2140774852656 0
-69.2054312871481 -19.7324665749844 -22.5546703827207 0
198.56172929726 18.656321291467 -0.411425341043484 0
91.3513804605533 -19.263139231708 -12.8492790621181 0
3.17618669477295 -23.2716142157367 -7.83374493417338 0
55.0930570397353 4.89048291659783 -3.94746286886969 0
183.879126421486 -20.5201481986307 44.0474021219589 0
114.837122338254 -10.4133032244556 -20.4853310124665 0
154.723192229487 31.8900302380191 -9.40115618630348 0
190.70001758342 1.14127316747321 -4.75842292852567 0
-74.5475099150684 -20.3220443443614 -21.9109242888799 0
-36.0934614966158 -6.43575667439918 3.97976858786865 0
169.910025046842 -31.4725087130923 -6.62966618328644 0
-96.1879268790217 1.52837540847336 -7.86485286592541 0
154.720777602674 -8.89762422804605 30.0181061330536 0
-46.5605485731551 -12.7005068066554 2.11480430094857 0
175.546524220042 -26.887609306319 -17.7560953585498 0
-96.3905718026625 -25.3787638116694 -3.34606176570739 0
-48.5207168090906 -10.8620992169385 -23.2374998277791 0
180.815380450697 -32.0270347735688 -6.63745119781432 0
103.469065790457 -18.9113328707071 -12.273039537159 0
-134.088307241012 1.81937028833621 6.18161699251736 0
128.190227200622 -19.4825220274814 -10.1163208157802 0
180.794473196544 2.96262739357365 34.9543533478024 0
126.92924076343 -17.4317824257644 6.77615185749226 0
76.1481410586828 6.38359763748319 -1.02410322536859 0
-47.0821232524121 -23.5220933005403 -4.23451119907507 0
-54.9123737205817 -20.9697136896816 -1.40711304589127 0
165.9016769071 8.97584312902778 17.9819887296118 0
145.521795763372 -6.01514827967188 18.8739335110622 0
171.926190112374 -20.0853939783659 40.3613549672449 0
177.853908435079 49.379722376251 25.6315506281905 0
102.442007613922 -19.7334973879546 -6.6317991872486 0
51.2706491722257 -3.63592031249026 4.21224991918366 0
-45.1062659729953 -18.3334909703172 -24.313889519936 0
185.306297996983 -27.6885688144673 15.7712344171599 0
7.81721933319448 -14.6802790497469 -24.8272336606561 0
164.823585265662 39.9869812334169 -10.1477329997698 0
43.9068459422879 3.82062130095546 -18.6596747535231 0
100.410521200946 -14.9693973930965 6.85620724746698 0
-125.300158585998 -1.45453407761737 -10.4931224466341 0
-3.32329732591512 -6.2797918117175 -23.554868850833 0
198.86936665687 18.7200728257467 -8.38372112571695 0
-110.915856887731 -21.2189003841049 4.12206552000506 0
128.386995372861 18.9235638839705 -0.186035288575828 0
175.654148332283 -31.7792916567836 -12.3444365694741 0
161.142285582974 -14.7155164385468 -19.9316608795713 0
130.254964054091 17.5906224348285 -13.6564561444555 0
-31.1896571841461 -19.1486983261383 -24.2113699577183 0
190.106514970005 21.7132182090166 7.74251485153699 0
189.138490457351 -21.8097378413167 -10.5284281695552 0
-57.0278914194263 -27.021229188755 -11.2511761928704 0
20.320569096417 -8.96983945048204 -24.8776262011304 0
-8.50132896176257 -21.1937538750295 -4.01522829879821 0
81.5054290762628 6.30347701338921 0.998383525479162 0
193.207957219361 -14.7669382040796 34.3886187336753 0
192.433950038432 39.8977544715528 23.2233498673506 0
80.9335249310886 7.95484608467764 -3.13839083530101 0
94.0062669151075 -6.02279498630003 -22.86024390963 0
-133.34073891766 -10.9933202307003 13.153309567222 0
-4.18271106501207 -0.518068019400754 -3.65302574678896 0
67.7930473292269 -17.8836053215879 -18.6350556131855 0
8.82926820661051 -0.0352181235886086 -3.05252966361566 0
-63.3337995031426 -3.28300609435072 2.29217520770214 0
-122.719294089106 -2.43078957122525 -11.1796705726253 0
4.92246481553917 1.00884966721226 -6.29573874964545 0
