43.9507913718434 12.165350068024 -7.53405743538646 0
-106.950192624552 18.4410404295472 -9.06011052563275 0
-204.560898612841 1.51127730569888 15.8359882070017 0
-55.1731198044267 5.65596934945618 4.94358458865499 0
-90.8483807922224 5.81568389613359 8.08994677361382 0
-234.7662497231 -3.68930356557732 2.56778291315144 0
-170.131007714163 22.399879385331 15.6570116386508 0
7.44757154586733 -8.73168431602659 -16.5149257075946 0
-216.343143372319 4.65665089513214 12.4218825518959 0
-221.436085477811 8.66556654761671 9.26717496849431 0
-116.140765377053 -5.23595015693586 -8.21813031505543 0
-229.960755272135 18.4557343954801 5.02063991210203 0
91.6274583149579 13.7604191009304 -6.66083727260895 0
-149.692924243302 17.7984644922894 14.7631731497022 0
-60.7667950486829 -1.19608853697231 3.16513633960151 0
-227.585045194024 -42.4231807599188 -19.2919458011523 0
-128.539510042949 -6.58982315996117 -2.29025233813039 0
-115.163237687991 -5.08567138616741 3.29596790866022 0
-220.534082254463 25.8144586690536 -5.44670093373572 0
-66.7706552460607 15.5781753372321 -4.22664711353313 0
-239.972081830528 -11.4120657538491 -20.4233844876589 0
-250.981656298371 -27.9008664247719 4.05091196223568 0
-229.908408179341 30.0991969831096 10.6923140280408 0
-15.6887235364284 8.755383487418 -26.1009139594794 0
-216.044502849674 -44.7197439895406 -5.16707313062316 0
-225.890919604356 -9.95749174859175 -22.1994074380342 0
-236.53085031738 -10.2908074459544 13.1101931983072 0
-243.042815441256 -35.1602183347096 -19.0589112991343 0
-218.160675702825 5.36084073046196 -9.96235508979964 0
-210.482798595557 -10.6350708014242 11.8286173266626 0
-218.369728677901 -10.0581986821668 -18.1008404786775 0
-123.178916407239 11.2821169157485 -12.233520796996 0
-213.568606823228 -2.34022278498086 -11.3769612940145 0
-40.5453283447474 18.3331166751843 -16.7065075126569 0
27.1633475310018 -9.61251881947707 -19.1306979158298 0
6.5678129488276 -4.79729800518926 -24.6326504633706 0
43.2597465882336 -2.95791331191032 -26.7743436061218 0
-206.292136112598 8.08973642240167 28.7282731877914 0
-32.3152401187648 7.39735708761926 -25.5010365389737 0
-240.465236789079 -23.6344240434718 17.074663297534 0
-242.005922405637 -9.67682734404336 -17.183730650468 0
-204.851730093999 -10.0527394166139 10.8884087150598 0
-113.670545411383 18.4649188405546 -7.78276133622261 0
16.0442318360656 11.1173473889637 -25.7070015830318 0
-144.982691613379 16.1923477285946 -5.9190483725388 0
-22.725499956646 -7.42408243400211 -18.5955899355464 0
-202.679662269033 31.4003962047726 24.3232174913424 0
-2.19946091091972 16.4219536710889 -14.1834375671207 0
-219.064390524689 -5.94231927617802 -14.393659659891 0
-175.560716438856 -8.62590151298098 -4.284664797195 0
-233.546759755664 19.7697777511753 11.6186369080971 0
-35.0406674771844 -3.64707992547692 -4.43436173869976 0
-143.926058167462 20.0192149325683 5.97036512721413 0
-48.7013514993464 -6.87709148994703 -15.0023649216 0
-220.032902031982 25.3562645932174 28.1556372262364 0
-163.547250945396 22.6931470980959 5.99970736274401 0
-176.258603308291 -3.41462777873717 -9.78080961642894 0
9.03609709322898 6.50987877431967 -0.85075438988235 0
24.439899918064 2.48520193975464 -27.4404978868137 0
36.6025764322955 15.5007110204139 -15.6560728246313 0
-194.146212828162 11.1230633004566 -7.24379653010082 0
-130.943516142509 14.2218853006674 -9.32745246704484 0
72.7495488815686 10.173382305044 -2.65488458349935 0
-159.336236202076 17.0518182032883 -4.2480367948756 0
-225.816081534068 34.5136693069684 13.1192369691054 0
-237.645889162679 -20.6177719977354 -25.3870540483514 0
45.9244865940913 -0.621494057024895 1.23746817062261 0
84.1860027259133 15.3452902479032 -16.3036151810135 0
-233.809647669735 25.5235473657292 13.6093648284888 0
-117.834011653949 19.1333596754988 -1.30203980770655 0
-246.12143710924 -11.2981814003732 -13.5182472113875 0
-94.9777613357493 -3.22336699032165 2.108115528342 0
5.49829251496176 14.1232772317996 -23.6184968691753 0
4.6531881598124 -2.31303539236501 -25.9895861350698 0
-212.806566984392 -31.6448318039352 5.76803695841098 0
-153.117499827619 -5.69896117569075 15.3485535223263 0
-209.840923771451 35.5452926884088 1.92714003710192 0
-206.496097219268 8.07868787031263 -9.39510838020701 0
-145.589937870253 5.55209509003543 -10.2272103642003 0
-157.693387842069 -7.10226035137576 -5.86274290819098 0
-72.3072403580688 16.5127104352481 -4.5532482859058 0
-184.541531716608 28.2540507321795 4.72145796150988 0
-232.147630093193 -46.9021451417378 -9.36345357916307 0
66.2588084458023 -3.63392911466016 -1.02703794509958 0
-176.003091062752 2.76553778723752 23.1166256826415 0
-218.240637846536 -31.9198290061298 -23.6150458641468 0
95.7523662867342 5.50614970599915 3.64617823086562 1
-200.885097444028 37.885403827025 14.6766375022354 0
-173.236431447804 -0.110908157011945 -9.25371112046987 0
-107.589248297003 2.34830144183708 9.41487669670648 0
-8.82967643281996 -0.4243322352077 2.81443550426054 0
-214.309841805097 -32.8423825470919 -19.5628260455754 0
-113.430334101044 9.89751519723268 -14.717616870891 0
-202.970799178505 38.6551071169311 3.15520581545338 0
-154.542086281978 -8.78951564436232 3.86282689459844 0
13.8982633609113 4.69023668641491 -27.3138758787883 0
-194.311514994808 34.2220094903221 6.17910590725626 0
-248.485238146449 -37.5996906765857 -4.73904458176692 0
39.2319926409551 -9.53638565225916 -13.6514310685344 0
-232.890421859314 25.898615332465 5.220447160836 0
-188.800138285325 -12.2684395448558 -5.37951330941578 0
-217.396345670459 -14.6643876323458 -21.6452651846292 0
-219.111968163572 36.6793017469383 14.6894823354584 0
-181.443821172227 -16.3991590627117 11.1115778851653 0
-229.506516554476 -32.7019953459169 18.740166855318 0
67.3492475813589 2.02994945530396 -27.7885771175288 0
57.069169433544 15.402396342191 -16.7778518208079 0
-192.753827688052 33.3199550592177 9.87271774548238 0
-241.409733145247 -26.4564992737714 -23.719688137517 0
-193.796533924221 -0.424573877816314 -8.57640934393017 0
-76.8196275886716 17.3116662344763 -15.8421343753161 0
-36.5188617283025 -6.08039008450062 -9.56391338567883 0
-227.689628381572 16.2214686479389 29.1074385021172 0
-212.130967356274 9.41821413119839 19.4329325516369 0
-236.658406083442 -5.59929285022685 -16.3891638689824 0
-226.634814204837 13.8241195980058 -1.64633590021376 0
16.6401620819148 13.4590664080155 -24.0448226109661 0
-52.6685283068447 18.2663004253032 -11.0600758072953 0
-227.109280590079 10.0403058282778 0.400210503475929 0
-223.748362786529 23.7822554924193 -7.64449328116059 0
-229.269691712879 -41.6814758729139 13.0963559283727 0
-191.908784073265 -7.85911728951472 12.953653336566 0
-28.6643949137439 -7.40141185667641 -17.3262541275143 0
-243.095493673563 -37.251890021427 10.4940302028577 0
-214.133955556841 37.7530735291082 15.9443294132794 0
-133.600169084486 4.77107268718276 -12.0472524192044 0
-236.540800035423 -11.1985871608807 -22.124143720484 0
-180.289103716053 -8.51808648535508 -6.07614415833567 0
-121.320649882736 19.1357660008231 2.07592948877277 0
-220.763878891215 -19.2431821948907 17.8541901195327 0
-196.053308265171 31.6332500958606 20.764834407368 0
-229.257531348858 -11.5051136536286 14.939641028194 0
-0.6101053636204 3.08384403195695 3.69760750495484 0
-42.358560655861 18.085389759248 -11.9519348531142 0
-132.055743730587 8.54996843582511 -11.8969258051018 0
-226.865509811835 9.00850020914788 -1.23825662380244 0
-198.596603478029 14.3251663453541 28.9542986986913 0
44.2177182830808 -9.401401587061 -21.7517426348279 0
-35.1495329605973 13.9796548867702 -22.5036552753103 0
68.6687206682952 -11.1614059625738 -19.8991930037658 0
-120.022231874938 17.7864725432524 6.53099347498074 0
29.692220566712 -6.92752731890189 -9.00363154478547 0
-232.406715226287 24.2033057966942 3.5711969861108 0
-34.1351890239587 5.10562103084945 -25.5281317082383 0
-228.716868287083 21.1931069948836 -2.92540434576807 0
22.0136120111375 -0.866954005373426 1.89104903880383 0
87.9251186795808 -3.5765416992509 -26.9728867367674 0
-108.589253591715 -2.01776758504056 6.79324297512718 0
-120.350583134995 -4.63984725161515 -9.1826619146827 0
-79.6312848320608 15.4143336275446 0.144752447383715 0
-86.5698425290938 -5.40292659687488 -2.91532475995689 0
-162.593566342024 22.3437951311835 8.84711899764054 0
-224.177252437978 -7.34902505130345 12.2272644777837 0
12.3381348310099 4.00668329160615 3.15719612787924 0
64.8411476034895 -10.6750952329637 -8.39883693952467 0
-152.413374254326 6.7849299295786 -9.25073245170325 0
-214.808358196191 -23.0437335392646 10.5316286792125 0
24.8134883774921 5.45242647385155 -27.3398043905134 0
-166.741056245171 2.67989170257283 -8.49083782260601 0
-117.080867917969 -6.36045624320005 -1.18159814187543 0
-172.562135609336 -4.99774122303794 22.2647206748175 0
-50.8432120095392 18.2175955250961 -16.5712193048725 0
12.2698432560526 11.2784098841373 -25.6307902225892 0
64.0957719852983 2.01868193438742 -27.7752999650676 0
-39.4396095105815 -5.35777865367082 -19.5546627301831 0
-250.803409995356 -33.3653269615652 -4.29092729644592 0
-55.8602908781068 -1.61938589676845 2.29280870433363 0
-112.085179077032 17.3611095109241 5.84154292561081 0
88.4639260569165 -9.13891001732377 -24.1530676798124 0
29.8935070796446 4.88720785770475 2.04631542830496 0
-232.232485882397 -40.5790438466635 13.6736139546728 0
-87.5317842768367 4.26255340204634 7.32769507170029 0
-174.497344025364 -5.23797096807202 22.4630158177728 0
-15.6742753163333 17.2309968348422 -13.935983717703 0
-196.506203318508 13.2868187050814 28.6064308569298 0
-79.1296876120539 2.2182292889813 -20.0555653262153 0
-248.885279672106 -25.7166528100384 8.93226397595775 0
-44.9961646717975 8.03508056778288 1.25307599369404 0
-239.33273074536 -44.1948416354461 -10.9006913246348 0
76.2832878220805 15.1578368681642 -17.1601704256146 0
-24.8041301523563 9.27393346904654 -25.4992326386176 0
-208.006294830121 30.2288956349365 25.4461119447566 0
-130.2256061721 7.30680420179874 -12.4362307281826 0
22.4357136294802 8.33438659756785 -3.62588405482593 0
-76.835629992662 3.78254935866856 -21.1867753043362 0
-39.3974363589193 -6.39791439558122 -10.2170579787293 0
-196.673465336805 35.5625430292038 4.53385879235641 0
73.0322157854893 13.7169888563333 -8.43839991799594 0
-46.5419103665282 11.2547750223927 -2.41546267366271 0
-234.746393606628 21.6844671890437 12.3028255788597 0
-196.327862437403 27.5171854327759 -2.24181209604882 0
65.2912444585663 14.9320950397554 -18.6445923552887 0
-180.678565768776 -9.74040191807739 -4.67764373317092 0
-141.312151438097 -4.71521844190706 -7.75983027326707 0
-219.24889588143 16.3957685777259 16.0527218547648 0
72.2443712381904 -9.79621412901215 -22.7962733266511 0
-65.2379231153375 12.8027759157393 -0.00650175447775288 0
-214.247793433493 35.4793254511581 3.12298611288492 0
-224.331415574494 -45.0512701033232 7.64272129798539 0
-152.400029951504 -4.32071822981755 -7.73654412841542 0
81.9969768671141 0.101861462196766 -27.6530372913274 0
84.0980632089342 -9.29911369952623 -23.7717367874768 0
-75.4247048010721 -0.307137710558533 5.15609692321253 0
-201.397552684686 -7.89960215769635 11.7739594460726 0
-193.141899420251 20.3541923584771 -4.45505807271126 0
-220.787938792522 16.1709402222526 17.4915408612601 0
-13.4001091744102 -8.06771273072645 -16.1534498561986 0
-219.158119959118 -42.9594514060438 -15.3076782574933 0
-194.612358190494 25.7647979951267 -2.5686860685941 0
-2.65717024373471 -0.901305443667244 -26.2744018919971 0
-212.333874247659 29.9591488535268 25.8657441743577 0
-99.8804455775629 -6.16216779100087 -2.59433666529419 0
-190.437243516237 -8.62847829829715 -7.90062276632063 0
-208.800148458888 -22.7330975622126 -12.6753419287837 0
-210.679138423934 10.6831951207677 -10.1121170632972 0
-201.2308482602 7.7573476817813 29.3110160584946 0
-219.198526408836 15.2904445150637 14.0277901392896 0
-242.571763128034 -7.96285249240176 7.35262853125864 0
-237.803857627157 -4.01677123973575 1.3783073664467 0
-205.223427301329 31.294687608808 24.6898513177225 0
-125.616639821556 19.4423316524299 1.77241486390661 0
1.92020421701763 -6.08781353003732 -9.94921459024517 0
-210.888783497227 -23.3069128276707 -16.9419795523223 0
36.5206397208335 -1.18464418287795 -27.0937214831293 0
-203.410313741095 -22.4316001245536 -2.55249612800422 0
64.1867544971228 -11.2810937980832 -17.5564433268658 0
-192.674952415515 32.6691120309123 4.61227912261349 0
-247.980465246484 -12.8763998221108 -11.963916576802 0
-209.221472499234 -29.1729334618433 -1.25599405071644 0
32.1775631239291 -6.00240506387953 -6.99200233046907 0
-52.7822167834096 4.29484298188213 4.85799729740255 0
-161.067935415572 5.32370162571895 19.79503608653 0
-120.606174529466 12.7285751542614 11.5470371398614 0
59.7533796253154 -0.603884149440979 0.822585986417723 0
92.4633840767229 -3.84603219433634 0.124522178861172 0
-237.828666895669 -43.8246757327455 -14.0206940500918 0
-31.3851817211156 4.8233588465271 4.47797775402523 0
-226.93287517154 -1.59057827232269 -12.2913645430084 0
-219.257281952017 36.9180598922041 12.4065848315502 0
-44.1316300500089 -2.34689640090871 0.0337103023402127 0
-227.954040568171 -4.33137654041147 7.56090611974418 0
6.32823770194475 -6.88125284471441 -11.1072631615549 0
18.780862969469 -1.17463835946052 2.00192628407126 0
-203.287195118566 4.44826164224889 17.8469628276108 0
-225.285567905877 14.9426482847135 28.5162574649143 0
-209.899401571752 36.5389712993766 19.2385774383957 0
-194.08511137293 -13.0843400075057 -6.92655197437332 0
-49.6753065364493 14.2573807998606 -5.80415123228982 0
-154.616239515716 9.60583876275872 -7.85588969290975 0
-207.249910635109 38.2946508333587 3.58440320209145 0
-228.470649966965 25.6592162424719 -2.61474698637606 0
-114.945446553667 2.28166207017031 10.1319205550026 0
-173.570343788097 4.01549937994896 -8.00081854448509 0
-106.817693410137 0.129709122898105 -14.7661049894225 0
90.3651880508414 14.4646418778292 -8.60511082988394 0
-42.4941545674425 15.1889284624395 -7.82780591594071 0
-79.3257336328251 13.7021942630293 2.95039495916082 0
-81.228430702696 8.62319944974512 7.25533496717605 0
30.1994556097436 5.87637239902986 -27.2767305072188 0
-103.861858984985 5.02913746192014 9.32430542067846 0
-197.867395471339 -10.5860532082978 10.2477955800954 0
-55.6457033379988 17.296451322541 -18.0422456301175 0
-203.909154667341 6.3784997956855 -9.36623532728362 0
15.2051872915687 9.39381027853663 -5.21930152609439 0
36.1035241148297 9.67919985515527 -4.6510747313799 0
-193.629403046942 6.31879019272302 26.3820097356384 0
14.2964872587575 12.7392934702035 -9.37567500664132 0
-212.209947586615 8.31284337214803 16.2428645690205 0
-211.365735522764 -16.5064276707249 -15.8663661062314 0
68.8866230982103 -11.5769627571325 -15.8854850388618 0
6.70204581674037 4.15767309881881 3.2662478647138 0
-210.92587534065 40.5600478565252 9.30707742336815 0
-188.24465759346 30.818375377972 9.04596580445726 0
-38.7092766126094 14.5658325046556 -21.7647539187338 0
-223.46731616621 35.1619266116206 17.3162198544446 0
-221.875998389163 -8.23559411128265 -19.5933437101839 0
-220.791648106861 30.8596208765916 25.386638630454 0
-215.494481977597 -17.2175900860787 13.8132644608972 0
-230.853925208268 -1.05207126851476 -11.037897344395 0
-236.492889478173 -15.4439261489526 -24.4463020050728 0
97.741775782438 -10.1144801947798 -5.54789993319431 1
-247.549212232045 -38.5874000983412 -0.70762271459792 0
58.9820240917152 -5.88989307522463 -25.7089966808279 0
29.4896117437393 -1.77502668241142 0.696189056675503 0
-223.992186710108 4.5502753454309 7.16093527407473 0
-229.622154386577 28.3710776676613 -0.0400520083072526 0
-30.0659139550465 15.3061126989006 -21.83115883227 0
-186.675707834252 6.64951486538447 -7.39845108659927 0
-192.46505792535 12.1460054156383 -6.81511520171069 0
-41.3749679326178 -5.47076460762048 -7.94840285369205 0
-203.242760937342 33.3363193250137 22.4462046424148 0
-51.6196671649056 -6.99404864710036 -11.0823728301553 0
-231.33296280544 -10.879533950786 13.994900032213 0
-118.100674245166 16.5662895363309 -9.45259174958672 0
-207.452659940322 -11.2104998509837 10.9321477941959 0
71.2432707315617 8.6171085186157 -0.958594038721034 0
-213.022671933669 -41.88671170405 -1.531582348443 0
83.2221279423365 -11.6514634457444 -10.1743583975162 0
-218.072380865163 28.7220345093689 -5.25013948227528 0
-235.325843951089 17.8415839385688 18.4638598031677 0
-209.123954681281 29.3236766972755 26.2068623010829 0
-22.001295318247 -6.48582460002898 -20.6823022532233 0
-124.106590869652 18.9723459258877 -4.18986487348016 0
-236.099800669861 -26.737490401771 19.0427700357404 0
-202.679611663876 -9.4642296302156 -10.3531154285952 0
-157.76135701147 18.3620805826098 17.2376769626468 0
-221.037543004617 -0.679196074378692 10.9837433716314 0
23.1435369686991 -2.48364057474395 -0.755390334133789 0
-32.8598636418717 6.13986284910962 2.85615735519312 0
-8.37574410878008 11.3488455050638 -25.3322084657683 0
-218.48030426157 36.2683572758205 16.7340668687636 0
-144.607322843104 18.2960611559702 -3.92694493496235 0
-233.153603545756 -18.0648313329425 19.0378628634897 0
-251.2653687022 -21.5932360079657 -10.9825730733827 0
83.043666988346 11.9419964249162 -4.16604158736834 0
31.5820241099809 -4.42362519549468 -4.81892688130535 0
-166.958932227111 -11.9372336047369 21.0423121644059 0
-243.718257516379 -5.7569252971219 -2.9876364645027 0
-232.512587608229 -43.5176731747366 -2.54850404844863 0
-15.5293390806578 -7.02424738007909 -20.5272631012405 0
-164.312331796946 -1.13876654715289 19.8352976933177 0
-67.91676555754 -4.69263601055721 -16.1836031521894 0
-194.398782416033 -11.2052893944051 -7.98164512083998 0
-208.50226825313 7.18889491070068 26.838638851197 0
-244.216910515592 -22.2052318644274 14.3037584146124 0
-113.487195586122 -2.6943949649952 -11.8690811032729 0
-203.948184651019 29.8864592585246 -3.87547736564251 0
-249.983771516422 -26.5582092291692 -14.2131662093163 0
-222.323921776885 36.3897906188784 4.26722788706184 0
-27.3322481519164 10.7859090771835 -4.9167262176944 0
97.2461846311457 -12.9470026166167 -18.3106898979248 1
57.8285879327965 4.20310830833607 2.8699148807143 0
96.6389697938106 -3.2174146453404 -27.1488478990982 1
-218.952959818846 -10.8808190697484 14.0611469387992 0
-212.728211387835 -37.454487656474 2.12506219908789 0
-197.113566438909 36.3205831817893 6.58498633139797 0
30.9650544957081 6.2161193913399 -0.325049211202951 0
70.0180315087835 -10.405360162441 -21.7928408610128 0
-199.088194685719 -18.3085923019387 -5.57800361399063 0
-4.11423565786768 -8.45208087195955 -17.5106322962357 0
20.2080005331582 -6.03753352465692 -24.3550129000228 0
-239.066471903156 -15.2409426692227 -23.1913751822833 0
89.6930058479436 10.3463390633103 -1.18823385431882 0
97.9690785308563 15.2958198942621 -16.870220713256 1
-182.858687256092 -2.85405833085922 -9.19206613082419 0
-210.421625283608 13.0882663855938 29.5567370510557 0
-216.766854038725 -10.0420556194938 -15.9597994766506 0
-122.747386552305 -2.07151619264622 9.48775420185 0
-228.107608064881 12.1525768974244 27.6243262455994 0
72.2212475188006 12.3884486712863 -6.01536930969055 0
-182.593099232624 -7.57734924352604 20.8645570057026 0
-184.989816107479 -15.0494449593008 6.07170833587273 0
-137.653161447963 -6.07001962336978 -5.48099998252861 0
44.0262623285104 0.619274412923357 2.22075654643791 0
-97.7588659780402 -1.27320180644076 6.00726156128253 0
-161.849112580406 -3.030004469005 18.8687085101018 0
-117.23280956111 11.9275264232654 11.786088895186 0
-57.9106545780105 18.70368060794 -11.3678221939323 0
-81.989193077956 -6.45325332728325 -10.348533053332 0
-251.088760181146 -31.5637175387546 0.485371795648334 0
-238.79862231353 -10.8477192484478 13.1752553373107 0
-151.012951794909 4.88686571712585 17.4662427087561 0
-122.747279627774 17.87797051859 6.99414135317046 0
-182.862153076373 9.47231298229368 24.7722929743145 0
-179.166992823855 -4.76888157866367 21.3690400608607 0
40.8643229375783 -5.12994636734919 -4.40779603512098 0
-217.6673865519 23.6803546828084 -9.19520543625405 0
-149.232119771695 -3.03488400583913 -8.36515775088099 0
-230.280430267549 18.0901413758865 3.14532141510762 0
-228.310291994824 27.6856199886818 -1.68977318252624 0
41.0977501317343 9.3223033565706 -3.91442010883475 0
-229.117576029118 14.4930382224964 28.5561496953847 0
-140.558283080135 -1.31374185664122 -9.8900247093029 0
-16.0976556039316 2.44332156571131 -26.3332513275135 0
-200.952336426217 1.4992165609922 -8.74383136133146 0
-84.1833612883191 -2.21104956716376 2.84564147255057 0
-228.040403462973 4.77430392338538 0.454019395970183 0
-40.9840811304183 9.93165080326934 -1.95848295944199 0
-83.1700658266301 -3.35564435575119 0.436725732276014 0
-55.8258479964227 17.8606250054961 -9.46882616816289 0
-191.70831077369 32.742845435817 7.29721760462285 0
-142.380765821304 17.3899896687487 -5.08072037121283 0
-74.5076427705809 -5.13816310598606 -3.86212583823579 0
-252.515337101468 -23.0277937607036 -3.92107137311953 0
-178.281838393723 -6.80544466406799 21.8502749883454 0
-220.207580841905 35.2900048617753 18.6520649675406 0
90.5938517893997 2.22421270339517 -27.8778551580364 0
-245.577503921223 -39.9704557196432 0.098035600929231 0
-97.9451699715403 14.1617834282479 7.11509487617663 0
-117.558976494323 -4.90295597754483 -9.27430452096131 0
-237.921351415263 -43.0723973988266 8.25205674692785 0
-135.55718297151 1.07919257105748 -11.4632421122682 0
-202.377763969887 5.51412985412408 19.835990116146 0
-96.2190422087592 3.91152620326389 -17.9297767144156 0
-181.200936433826 7.72643088410534 24.3640875337619 0
-188.103089983848 22.1211253827326 24.3458797381331 0
3.85325493083529 6.18604572607742 -26.9175058644369 0
-196.911906601048 0.933701866864103 17.5151480697748 0
-175.598570708762 -17.3683555535557 8.80161852465457 0
58.2022305215216 14.9260380670071 -19.3364662204318 0
-175.247345338321 -9.98351964100646 -1.75820534919293 0
-232.266003975917 19.9448535494506 9.49442355008553 0
-119.507765674704 7.25577227531293 -14.2842884042481 0
84.9651606315384 5.68114784926329 -27.4967597547076 0
-133.890960984533 12.4323784571667 -9.88591717755672 0
-142.470270633946 -4.86206690617413 10.9935670806828 0
-235.080000890222 -12.7699866431771 15.8409500722368 0
78.8766818522986 12.7432721556041 -6.05103733050336 0
-104.380983047649 12.1325374683887 9.67822936084234 0
-242.396879482336 -12.1034373169964 -19.0330663628309 0
-206.218905342117 5.35939129108816 -9.30837561390119 0
-244.177044104493 -40.4703301090934 4.83886222272622 0
-225.9947808706 34.8922103614181 7.52855827761529 0
76.7792449389333 -2.44007497352962 -27.069827765153 0
-65.2355386066569 14.6171868661033 -2.74076702991627 0
-225.008046815488 10.9071862391316 -5.09017741784801 0
61.9441943594305 4.2184050904576 -27.7112969541873 0
26.4658260782682 5.19069634524387 1.77073552133102 0
-85.4894484307395 0.998023054735122 6.4233300853685 0
-230.687645451711 20.3919140251839 4.75395228979747 0
-144.436337806612 -6.65342872824317 -5.4245512463861 0
-37.0605358621763 -7.01198516759263 -12.141850125506 0
-22.1029106108901 12.9554628113981 -7.6326802886397 0
-225.056677711726 19.5967538266906 29.5191396507959 0
-133.221146521249 -5.79391106600364 -5.84712188684203 0
-203.590546760227 12.0975472386849 -8.35954215807321 0
-7.54943375326105 -4.38428800497254 -7.09216680624789 0
-203.812942203374 4.55756895064969 21.7117645210814 0
35.7811378978014 15.2649755681263 -20.5275562447403 0
-243.380722084103 -31.331245041043 -20.9867327236034 0
62.4717434628422 8.27955647463147 -0.949834297997685 0
-36.2269590819868 -4.53155132675505 -21.0316328685619 0
-180.821353992292 -12.321175099149 -0.363287733088183 0
-147.433148691821 18.5334134541256 12.6424571447259 0
2.9647415887993 13.7082834061334 -10.1471235830802 0
-239.482289401248 -3.22369890300815 -2.10371846353019 0
-240.097645772823 -5.58263902290628 -13.5025045703324 0
-167.116829003955 -8.6454107992498 -2.0089505731926 0
-0.203315268109379 -2.51505439103494 -1.76264640472267 0
-241.742045585372 -4.86169003583391 0.378288365391456 0
-194.415581645054 -4.72745482891248 15.0926075315622 0
-249.593405417465 -22.6149950164576 7.85033557556487 0
-152.060013319273 20.1187952962124 10.3476421781465 0
-221.914907145348 36.7045358592714 8.04159304944866 0
-237.536092799345 -2.25370792442631 -6.33247005107813 0
-158.979349920885 21.8256290484213 2.80586185744817 0
-136.290893780738 19.9305313294521 1.76945562130278 0
-180.167504475077 -14.7069054400954 6.70809145607878 0
2.86992526648324 -3.46092379457829 -4.85191477077074 0
8.5225391570769 -2.99203054926323 -2.6471860827714 0
-165.569964230731 -3.36069937006766 20.1634035303977 0
-167.218042204405 -16.7503897720818 18.9453287209682 0
-93.6830584946006 -3.16890140288861 -13.6797695697542 0
65.599781350812 9.56265052250413 -2.44366307007276 0
-160.206922509991 20.5810309444062 13.5600022997544 0
-204.366183404302 17.8166351042128 29.5826741872737 0
-170.40218676317 23.5865067934 2.69695268438463 0
40.7004818736451 -9.82330484039366 -20.2775510703093 0
-215.88066773834 10.6028902498275 11.9771786497978 0
-217.988376697749 -44.5046025687602 3.80951571681778 0
-215.471110105749 -41.3966650324568 6.76249515066408 0
-177.368953029214 25.7864421816841 12.256881057755 0
-212.690822122713 4.64775723322845 14.0363828137883 0
-207.783315379308 33.438372296919 22.8601880075416 0
78.4324999961358 -7.57329417199806 -24.9989321187913 0
-228.212226232798 -19.6676462977506 -27.1241454330481 0
-34.2875162390042 2.45901136909475 -25.3163256627623 0
-60.8199525804886 -6.28252871348685 -14.3717805067791 0
6.63861260435147 15.6684769368644 -13.3768934731263 0
-158.172311827207 -6.42914329379035 -7.87139296142632 0
-150.170735590615 20.7031349515403 5.30445311302938 0
-207.352879180044 27.202510783246 26.9218887637606 0
90.3025766659964 -10.3347185932567 -6.1806329833649 0
-172.512552688872 18.6543678862574 -3.12543599381345 0
-203.844446846178 5.74906726846003 18.4596674486689 0
-213.415350689254 9.99668046399631 15.6852024769127 0
-107.804534391795 -6.20840766293433 -2.10760797408128 0
-232.686103814326 -24.4921730763574 -27.0978976329039 0
42.0093366944757 5.72515992034245 -27.4782589435504 0
-249.148229280447 -32.1026817511662 -13.0825044973415 0
-131.60364823258 7.14091286960664 14.4148877143196 0
-67.879053012429 -1.4602806000255 3.15352179237421 0
-33.4130715959269 11.9074571067315 -5.59798086065682 0
-20.0353192417603 12.7169357898022 -24.1735770151367 0
-8.97722753437734 -6.76903543214245 -11.5122171774312 0
-64.9470595376225 -4.30621918733833 -3.20455763129745 0
-56.6532077702822 2.20290076567091 -23.1481730707438 0
-171.401890255311 -18.7729452320793 16.9886912249953 0
-189.684706084866 28.3932238399081 19.1947804393053 0
-192.947955685946 28.6676262823859 20.6807166181297 0
-65.9913278224888 -2.33300363088177 1.05610790183612 0
43.8381468287325 10.4127570984484 -25.7771251705389 0
55.9282305911518 -10.1503212790063 -21.0857180084283 0
-102.789551837667 -2.75868874451449 5.52531407713763 0
-153.674310735115 12.0340643894117 -6.96764011753414 0
60.6838927780721 14.0440120182416 -10.0794128292682 0
-60.4622868285451 16.1383461460432 -6.42185228112364 0
-88.6825139969907 -5.0616012191692 -2.12833210151144 0
46.7830541420521 -6.06078599928758 -4.20062814419797 0
-176.678510453682 6.2843650584945 23.5093977390456 0
-208.135704312112 3.14919649894407 -9.76288875279875 0
-77.0129550949573 14.9523369555495 0.101299328169379 0
-205.077835864968 -5.66768567400687 -10.7026072181996 0
-242.515168424581 -4.96600580477979 -2.04020365599544 0
-46.8929057017544 -2.65069583663315 -1.07533073090763 0
-224.149501468541 12.030828692655 26.8875680885443 0
-26.020907650512 4.70485886368211 4.12319959104019 0
-96.5785189307032 -0.300769224616096 -15.8551827422742 0
92.4911711982152 11.009218644543 -1.78963355432795 0
-209.887916727299 39.8523101835444 11.2190668258716 0
-19.0608206150246 7.54523882773288 -1.23955605095477 0
-216.663756125985 35.253481328999 2.97395798785529 0
-31.842715605654 0.0161002947853138 -24.7636656101473 0
-194.111062753025 -3.21711585920071 16.5964267227909 0
-227.284776007384 -15.7219118185593 18.3495122590315 0
-176.558051575616 11.2341758306627 -5.59516431963969 0
-128.823741567373 19.6621911989044 0.674744223950469 0
-66.0477610300662 7.03241212555622 5.89585914829936 0
-141.314035817965 -8.22369727030144 0.304124491457111 0
-217.19696087606 -9.32551148195946 13.4007091092568 0
-82.4252957858033 14.584513223017 2.64332465395516 0
-169.240720178101 8.74059416499019 -6.64356209043614 0
-44.1613061147274 6.87931953229985 2.81998321802129 0
-225.643835412005 34.973104454875 10.4715096470024 0
-64.7718975422495 6.23209452724379 -23.1142121458599 0
-63.7047711185251 -4.68571878037335 -16.7257372127661 0
-208.592398039896 -31.4240021565988 -4.77067582293507 0
-156.349663316161 -3.9901343302832 17.0588552592759 0
-14.4503013233664 11.1845354585441 -25.1834238737913 0
11.9749811792363 -5.62366345515229 -24.2424754147473 0
-227.125161387237 21.1770073448009 -4.37837032597393 0
-189.200202563103 -14.9383673998097 7.61764260425061 0
84.0033381423985 -8.89726577168579 -3.01836145691803 0
-219.074590166504 22.4274335741582 -10.9678902272439 0
-210.249472152918 -36.6120520679555 -11.3528153964002 0
18.0507674410907 6.36138629881392 -0.5197902593256 0
-216.767126808356 14.199045208172 -11.2147226075915 0
-216.41537148659 39.2204666935525 7.89348312444731 0
-156.62659679824 2.68796170217505 18.3033099835455 0
-128.69311415843 7.32239327000889 13.9993415538543 0
-127.576703342184 -2.72008131076747 -10.3523294520302 0
-188.973381129723 -0.832624067424151 21.2376775853372 0
-135.295030546198 2.49444917338249 13.6819517607788 0
-84.1133549614658 15.1651281289852 -16.9300102980964 0
-231.870692847501 -46.0411626789176 -13.2798339658637 0
-211.298932756818 31.0374152164245 25.0336667502706 0
-84.2844568737719 -0.0470231265662709 6.03616928913334 0
-47.7275712129489 -7.05176589829377 -12.8802331319791 0
-51.9618045028736 1.7554270026855 4.30216456781121 0
-87.0936459605521 5.95730284249927 -19.9533962080376 0
-195.078915275352 4.48110659317858 25.727188155989 0
-51.4361345943934 14.6358823085572 -5.90054944086081 0
-55.506787477829 7.72451230568481 -23.7410390999862 0
-213.4594593466 -36.9075187162822 9.9677345404452 0
-147.529992158808 -8.8981528473278 2.31435677030789 0
94.5870604634041 12.1113003216764 -3.14215031682843 1
-54.5373863890491 -6.33019638113467 -8.29320684954702 0
-88.805758545902 15.6487489723304 2.70663507162039 0
-238.368682701741 -2.71975297505194 -3.21631964842689 0
-214.927953057185 -14.874999586858 13.3531181638243 0
-150.464944484096 -8.71235282021733 -0.939996655336827 0
-206.869284108148 0.0639330024049964 -9.94827500726997 0
-83.1529557328606 -4.03852002624226 -14.453134124415 0
-226.607360985949 29.1286577999707 24.0907933259908 0
-88.3895539129965 -1.89761348775731 -15.7431733770667 0
-172.48956173488 -3.01013898256192 22.0802673045186 0
-165.336973122984 -1.7201090534979 -9.0804749692614 0
-145.118154690966 -7.88324518596115 -2.01762184422939 0
-127.328786052418 1.24138903983032 11.7298749438443 0
70.0460247930567 -11.1124897619664 -9.60257546049445 0
-57.510492390065 11.4554391242406 -0.15843051284662 0
-31.8566679484145 18.3043441389792 -15.5917633489291 0
-174.003365781662 22.1756328007309 18.1615727877496 0
-190.499948628726 14.5167439693096 -5.68747679625046 0
-168.840802063348 17.3769154404727 -3.73798645806828 0
-188.433629303751 -14.9818318471156 -0.425303222415856 0
-211.492939127078 -38.3299628563557 -10.9389957754385 0
-146.321841095848 20.4864639239162 3.29335853191477 0
-226.409913638862 34.5344099405999 4.81689320699263 0
-165.002595169949 -4.85393626333883 -8.76130380733737 0
-237.079393042729 -41.2620873080582 11.2181553118682 0
-203.627671071839 -21.6042072531774 -6.7274613117195 0
-227.255517606358 -32.8913377720819 18.6206118297499 0
-50.7249772002781 -7.06283823416697 -13.3083365230929 0
-198.302300681601 36.0762022513262 17.1518991155855 0
16.8515063375641 7.72954387380936 -2.873325550822 0
-103.775124738937 6.78004760574551 -17.1084954697397 0
9.27911096509598 -2.02814567256434 -26.2800842505238 0
-208.181580458443 5.50802703202667 -9.47756968197964 0
-170.112949680149 -16.212865428376 20.8904412855664 0
86.5649473433609 -11.5670497175705 -9.21880167864485 0
-69.5825658574125 8.93622152666312 -22.1852071978365 0
-208.794671415506 -25.8483635432519 0.638999155009575 0
-229.772914109251 10.2956011030426 20.9185066604665 0
-86.8571461364839 -6.97926211783633 -6.91235482998974 0
-215.560747907979 -22.5967758425318 13.2356078272548 0
-163.681841596105 4.86359341473272 20.3840124804158 0
-193.198929564508 -2.0234239954432 -8.92182050602528 0
-43.2846116264498 13.4270501471209 -5.92029859589587 0
-34.3484393344671 -3.17566531686255 -22.6562725024115 0
-203.050352464768 35.9927328724378 0.0950005409035119 0
-177.628677111939 -17.622500539928 9.10498915824171 0
10.2210149525014 -8.82419306267518 -16.4418914335828 0
-83.9386715201522 -7.03825666301342 -7.04077454479085 0
-225.881132042566 -37.3824546500765 -23.514741903044 0
55.1433410531001 3.7461288607015 2.90846608390412 0
-13.519578674539 0.865065127851358 3.45032570212169 0
-227.137036279202 6.02565611251579 2.35686835213864 0
-101.298123694843 -6.11379521883458 -8.59946491571461 0
-250.308918400881 -30.8237219360772 -11.5099120411474 0
8.71666534387979 12.4201069115526 -24.9900274956571 0
-118.63196050726 9.69532088669021 -13.7306971635242 0
-213.3308059578 36.6663478549153 12.7258877193849 0
-29.298353582329 -6.58404017070934 -11.2635621538288 0
-232.219702526221 25.454224123836 1.23849653305353 0
90.4335035839697 -7.15452867735045 -2.08729014223991 0
-230.20502433274 -2.50711490145844 -14.018983169325 0
-41.1813900531774 -2.32398690736248 0.169073314233611 0
-227.509467597119 -13.9937768003928 16.9729910921427 0
-124.102025247999 7.13383318009382 -13.5350286323171 0
-219.065852056846 -46.1747426713683 -0.625864505548413 0
-196.430330653616 10.5591361115607 -7.81425354035187 0
72.1110303025808 4.03766219636567 -27.7580692855918 0
-63.4416753963319 15.7187928258006 -5.17645129482535 0
-227.714504490128 -1.47680642622401 5.52934422115085 0
-212.096088423353 33.0454997241987 23.4750618315233 0
-226.513190579366 14.2984354126539 7.06224564413919 0
29.9358694458197 -9.63560754034154 -19.5086897987198 0
-216.074549658103 -39.4713389837021 10.2501723304745 0
-179.6371163094 10.8936263249766 24.1719126141227 0
-234.533591301507 -4.46948861430525 -16.1741316474756 0
-234.764426287241 -20.538331528222 19.1281047168071 0
-187.157182976563 -13.5511530491524 -3.12361757286364 0
-226.847588870317 7.63730138801563 3.1291821063863 0
-227.935852636394 -6.36304489451197 -19.5840767834398 0
-219.19002430874 -46.4868503314903 -3.24801721815515 0
53.198541767509 15.4949839055 -16.4872437304808 0
-45.8908271257315 -3.53832238311647 -20.5867111905664 0
-199.381032994111 12.0782223723052 -8.26077569289873 0
-106.51530273038 12.5089957244021 9.67311317678789 0
-101.98593986688 2.11819299803043 -16.3963935776155 0
-210.368552931863 -33.9389089651351 -0.668191718032912 0
-100.733600678801 14.3930053771871 -14.8202188201676 0
-187.598251758386 -4.65868528545762 19.8380465665267 0
-175.205844200787 13.8110711788153 -4.82244702850013 0
-84.0284031721891 -0.911927483003819 -17.1859838762212 0
-228.17454489342 29.4238464234825 21.3477053356023 0
9.59379540919605 8.15582040341125 -26.6489313094908 0
-220.527886610202 23.757928463222 -9.73994034350677 0
43.5025962373298 -10.1981225096993 -18.9983635417345 0
-21.5385028939359 1.91956152756811 4.3352046033467 0
-4.77698786829539 -8.00155256393766 -19.7081605360852 0
-224.023314035696 -1.51308364902464 9.02866699730945 0
-164.468996026855 21.8752949108334 12.8221222741453 0
43.0709901708338 -10.01964522857 -14.9503236147012 0
-161.576845680702 18.5131426823144 -3.25841771413477 0
-219.210845016373 -2.58407124152809 12.1905132350113 0
-213.9447458543 -22.3801406544639 8.44924104864242 0
-149.733183964282 13.7469669511055 -6.85034082462487 0
40.5214702181489 -2.86064993296997 -1.92660546379334 0
-232.756212787443 -5.17881956734912 6.03428234060678 0
-109.511311116505 12.8821216287482 -14.2154792464999 0
-221.710189600751 -25.6129085623135 -26.4017848758034 0
96.8663601806946 6.07853297326131 -27.3037357388693 1
-198.207764687151 19.7610779987456 27.6765263866498 0
-235.685689735971 -30.0648070134765 -25.7857709064018 0
-232.209649931957 -2.15185369652255 -12.8690037796839 0
-219.901972036092 17.6229694551178 -11.1867074523658 0
-208.101236063092 -14.2052062112699 -12.173566105724 0
53.0423078566384 -10.0062810686923 -21.1883248472445 0
7.79765906091908 5.5662966859459 1.46538579853641 0
-216.820318148666 8.83129596515463 11.2775636089061 0
-9.59774556368818 4.83248021274785 -26.7502395317901 0
-66.959295814334 3.90518047444733 5.51857648667973 0
68.5256553497391 -8.82120008055899 -23.7369892687572 0
34.3453618759043 0.649808954940468 -27.3511064154318 0
-187.961287788446 -7.08562083708985 -8.04092815065744 0
-250.727988591456 -15.9849089028148 0.0244134952783345 0
-213.218507263648 -41.1355776711057 3.2313205731238 0
-202.369796941067 16.7961435501206 -8.76307498061083 0
-165.324784138931 10.908927436624 -6.23759406483983 0
-228.194705482413 13.6499220745955 2.30356764642759 0
-10.6989165691266 -5.46962459886056 -23.065029835104 0
-147.253980864068 -4.15993368418857 -7.70912293319875 0
-230.805762142106 10.9179943103995 26.465690944595 0
-224.75896812414 -2.03844685137143 -12.7663693973557 0
-191.367567897425 -11.6605759403075 -6.7948781509762 0
-223.500250858327 -17.0177573461587 -25.1779887633079 0
-187.673242351563 30.1518240078841 13.2455332779638 0
-213.795507253258 -20.9001662744021 9.68053573288299 0
-93.6163455974186 13.0853851625237 -17.0198050357876 0
-218.705927306304 10.8417097353281 25.9099565566359 0
-139.078091977724 8.2493725217082 15.9889174506664 0
-65.9710940047536 -6.66494321827368 -12.4464057757504 0
-222.174532821104 -2.07704173772406 -12.4559433379692 0
-228.958606703928 1.04324006132586 -8.48683308755635 0
-0.491981449080736 2.95079877617408 -27.0055166204346 0
-226.064861877055 -8.56652701586035 12.451954020508 0
40.4389888832272 -6.10912809785061 -25.1512618320386 0
-127.189987113395 -6.37154951482916 4.44268708234594 0
-225.193912759579 1.1178978418061 -10.1608844329221 0
-211.899546500375 -27.2387705462967 -18.2919972278354 0
-166.377874610398 -17.6704271442822 16.4625770263883 0
-110.4575514943 9.16056888066531 11.5039102240258 0
-241.297134305785 -36.7465372598095 12.6000922011839 0
-174.384209242489 23.7880973925554 15.5293071136475 0
76.1900666111496 0.717842884731088 -27.6788212329643 0
-95.2167084557667 9.05064017867547 -18.39529234867 0
-63.0916639404746 0.935772009839473 4.58106075175604 0
-204.320879259701 6.37256572699989 27.7986877220998 0
-223.89669382182 -5.57236983534862 11.3925189395069 0
57.945887240526 -1.88020952222527 -0.688846287413959 0
-99.3659509405634 3.42448382598067 -17.2496526200251 0
-195.998291684864 8.7696363618345 -8.14492590236365 0
-109.113696950274 6.16096838926132 -16.2724449232518 0
13.0167536073117 14.7317605390725 -12.2081277163511 0
97.5854158253711 -11.9627667204559 -9.66399850744378 1
96.5214710762084 -0.046777490863268 2.71706783039617 1
-164.114417115039 -12.2379530362787 19.3819802366043 0
-107.132950621951 -2.32560797580658 6.43239703594001 0
-228.509628905702 3.19529463141719 -4.37208347271098 0
-202.137156027082 39.9986294689091 9.09167866279699 0
37.5276916379333 -4.10066004356499 -26.1802477612821 0
14.1770125978802 -1.10317862752336 -26.7219623470237 0
-185.246242426597 19.1386845627912 -3.69457165284324 0
-12.9082505844042 2.38834585327285 -26.4985471738252 0
-72.8605551459276 -3.97297622541001 -2.00794504989746 0
-231.622924444855 21.8379505307482 2.75188337419316 0
-89.6388479272112 8.60120042227971 8.49336566349744 0
48.4506087374616 -10.0744125008235 -13.577036191268 0
-8.31758332637559 2.10144087724772 3.66795887184782 0
-96.8928926239555 16.6445647236174 -13.3850989375442 0
-197.533779351228 -8.73558059925651 11.4051184791974 0
-145.901670233622 -8.72792111069318 0.171371424260134 0
-141.126101167376 0.446052636723721 -10.6169106210009 0
-179.164725899307 25.8172889875889 3.05302395453266 0
-222.816771751244 15.1931704260721 16.5843251688585 0
-120.890284488742 2.25015069263199 -13.8939370036357 0
-201.583535848171 29.9039675970499 25.2522221098887 0
-231.738959418968 -5.63649133975771 7.21235432013177 0
22.3772625423068 -5.15148681556217 -6.89098182883338 0
-9.36330009026165 14.0482474622583 -23.6508044386808 0
18.3698114240217 -2.65195888130999 -1.03565199283449 0
-185.987265940142 16.4910849647754 -4.67957509921624 0
-213.718269364611 39.8295685315855 8.82174637469043 0
-230.119763259207 -8.4975208012487 -21.1957149393625 0
-214.036524482114 33.0790307927737 -0.107757722726788 0
-184.520314625383 3.0572345517534 -8.5657330446097 0
-10.8225585471655 15.5303331442982 -11.3256920034823 0
-83.6250298343711 17.4544779087096 -3.26004785587507 0
74.1227269725785 -4.87916151446464 -26.3093804416031 0
-166.7770208495 -8.28837907659197 20.9929004592215 0
68.084350716169 11.2885278623563 -24.6257561826421 0
-186.500329673265 -14.2755525968018 -0.520356964334584 0
-245.039636176183 -7.03855859464381 -3.6665508110229 0
-109.174295941591 14.9639223005985 -12.6680125793406 0
-206.648395868915 40.459020979742 8.93482558608626 0
-78.5197820976597 9.44273405504915 6.43183198699979 0
-122.4395344538 3.44002347711471 -13.9276797102477 0
-52.9171400383726 0.6915290394976 -22.886910535631 0
-226.69981905813 9.47843021731614 4.43394960057457 0
-234.967656793034 -33.5233895783905 17.4559266338782 0
21.2856066701858 14.9637460529192 -22.1593418974108 0
-252.357317717637 -27.2778545693662 -1.70666563037864 0
-117.582986567771 -4.38824736969724 5.6871926057259 0
-246.436091805677 -25.4203856745924 -19.536437562247 0
-132.901149971864 2.99536549543792 13.3657740755113 0
-46.3101427193072 9.51443799924047 -0.447831494469683 0
-225.873666540966 14.1266986133355 -3.46027222795468 0
48.285889090571 13.6884010288149 -9.79375970346337 0
-239.951468807268 -7.04935382373636 8.27128613949378 0
-210.723867784284 1.82423788902013 -10.2122785166111 0
-194.667538995173 24.711522938576 25.4422089077308 0
-229.848329045562 -12.0138935767148 -23.9548746360078 0
-214.292978104402 -9.42962950204117 13.0223508933728 0
-13.58346360502 -7.44558944423634 -13.3415474980647 0
-216.403544657104 31.8849161804425 -2.82070565032407 0
-213.801710579193 -42.5982852256071 -8.02612642966236 0
-151.467535529175 11.9390390432405 -7.2551774130194 0
-246.322803161314 -23.1482332369153 12.282328696026 0
-169.37147412739 -13.3969084347506 8.01700755067296 0
-42.8107387072113 -2.00033702258699 2.19453218632791 0
-123.360417513771 -3.458508031094 8.56406194739029 0
-9.93276936678085 -7.36404321621266 -20.515867514707 0
91.6797705292081 -12.3981138761802 -12.4764431163089 0
-232.845949364747 -43.4134351724438 -0.39247374703564 0
-244.39817980108 -7.34490931157465 2.38637077249834 0
-207.1666409903 6.16427897043912 25.0903273138519 0
-43.8284669753208 -0.730499386699553 3.77646808546074 0
36.3628950180479 -3.78826811089101 -3.27448228286797 0
-144.773391162963 -1.7123910663508 14.3986562195651 0
-102.315355935087 -6.57407325027618 -4.07337696311235 0
-223.022580696636 -47.5277423914702 -5.72323255239271 0
-167.018238369145 13.3348911452097 -5.35434847263004 0
39.5882603506644 11.1521863530335 -25.4468180294216 0
-209.45546340999 -29.2808046403948 -10.1346100603017 0
-110.500384562574 2.40132073253007 9.5778227362058 0
-177.833831460646 -9.60182808148981 21.8582687429171 0
-117.071236493917 -5.6351223120663 2.11865583690921 0
-210.096380029917 9.00156641882625 -9.97170285355949 0
2.13417302584637 -0.44465454070361 -26.5616247040897 0
-137.873329432995 10.9241025091442 16.221644878805 0
-236.782987644634 -7.39938226384573 -18.5789741917151 0
-216.38406155774 10.4516040097759 26.0093122452161 0
1.41374212273208 -4.63756045457308 -7.52522925648884 0
-74.0197943132799 7.39250631961792 6.74087073059398 0
-158.140523870527 -9.7429234785696 7.30650736791425 0
-74.3387122412507 2.26119834056606 -20.900425311213 0
-173.55177166782 -16.727471792551 20.9811886715934 0
5.27699855902114 -1.66643338784953 1.70004032883216 0
15.9532258748368 -6.45248031380136 -9.96712985611215 0
-218.944916495213 -35.0221699936686 15.6853973121041 0
-245.786756251607 -11.7651005426203 7.64108838981402 0
13.1600370317065 -0.892450623444384 2.44356143439079 0
-92.8988999889753 -6.15618315192954 -3.25193889357087 0
-68.5325621305435 -2.6874566638488 -18.111883721809 0
-163.276371462688 -7.90555652549772 -2.82058406955335 0
-190.512023927114 12.0898260729669 26.7224953224252 0
-194.068971639683 14.5596191532946 -5.96233687237202 0
-208.617398074965 -15.813465384473 9.4361912009647 0
39.2447325768927 3.35074258675902 -27.5716914807392 0
-143.560075293052 -5.32968915204738 -6.93936493231088 0
-136.32118569754 8.24760550934155 15.5012328860105 0
41.9496311565298 6.36045228773151 0.153778310936587 0
-113.468439207093 -5.59640107093544 1.1977183322481 0
-95.7007338747216 18.4163693905352 -10.5661967096844 0
-204.106717207577 29.7739794855152 25.7430191155782 0
-202.080660980347 18.9869383507173 -7.04577106712968 0
21.6771429618696 -3.45772909789104 -3.05757177656847 0
-69.4956892210447 15.5242247469091 -3.39894931079265 0
-163.690068365177 18.3904900235963 19.9393225011206 0
-216.306545868526 -24.667560001867 15.9966658897065 0
-78.3177714580199 -1.74705066172705 -17.5712036686339 0
-99.5681864920371 6.6436945684911 -17.8082224753869 0
-186.745969772367 29.8597942981743 7.04257860154738 0
-103.567679453521 -2.07616049926161 -13.5455042719406 0
64.5993281164021 4.50611732034798 2.82265889177722 0
-110.394177311346 -2.95297938205189 5.92040500417388 0
41.995106914481 15.3473547884834 -19.6159223321756 0
-200.02622559434 34.85017359408 0.0410202881534683 0
94.9719770989324 -7.2583577758923 -2.48573240456696 1
-223.113434724793 15.6389161048172 -7.72028285301729 0
-229.937560223012 -6.48023409349381 -19.6080663728006 0
-171.647093880912 12.9592606284944 -5.18197127702461 0
0.740213146898633 -8.58771286775594 -17.1379178442125 0
-173.911653801486 -11.2830654868837 3.1682764387427 0
-156.911040737927 5.37141039492415 18.8711813381473 0
-52.9950528040945 10.4425959498721 -23.0257452369551 0
-134.297942570021 0.80860878440224 12.8008715250349 0
41.4788075959962 14.2745005064027 -11.5301958986108 0
-153.249781616891 7.38004026246482 18.3777954375493 0
-34.2955062238816 -6.7947969254199 -18.1459482582619 0
-93.2030772513339 -4.20755567368587 0.0381087149102332 0
-221.159019094956 -3.04212866368255 11.5346361289018 0
-230.796094351269 -1.10716112574596 -9.40405432727446 0
-238.687053372739 -4.2870212764563 2.73059095420682 0
-211.868903982404 -37.0992249804611 -13.4272790730308 0
-212.369531651603 13.8483930093711 -10.794082274199 0
-143.997616577021 12.7864378597345 17.0662397317962 0
-212.824627926726 38.0848483704133 4.80947837301553 0
-226.373242512932 -44.8975668922981 8.60162556984588 0
-221.372011503584 -46.7130081118126 0.821546473031712 0
-200.647392995374 16.360777713893 29.091007661032 0
-226.480585544888 17.2065305993304 -3.22823971474271 0
-72.6174999926075 13.5558946686951 -19.6413642029346 0
-214.906747483337 -38.4049747557281 -17.0394228702925 0
-201.592967079101 33.6012526034266 -1.65582577376946 0
-217.884446341034 -12.4849749306084 14.0639129367343 0
88.128909127239 -2.50932280250375 0.820161341313969 0
72.5962105867617 -8.57499718444111 -2.88805650449529 0
-66.7978136061062 8.15072510582064 -22.6281608203123 0
-207.540518417929 -23.0101105919529 2.54130960344104 0
-35.941714086081 3.35125037213159 4.95763294847636 0
-243.111212641394 -35.3365369566587 12.3638483800737 0
-91.2423329458514 2.94048029919716 -18.3607349989721 0
-31.8398949601462 16.4804081514057 -20.4953092253514 0
-247.998629462738 -10.6578262132879 -6.24038700496313 0
67.2997509709813 12.4331325915368 -6.54452693356453 0
-183.715671082406 25.6671824440383 18.782104609473 0
