144.374088334312 1.33880457886428 -8.18691954987243 0
168.033572271854 41.6017807413487 -12.3506314986033 0
106.254344354574 -15.0812627787378 -4.16640478620228 0
41.3575200789751 3.78543653150463 3.16324929137119 0
130.512645523484 8.14216266495112 22.4994660364527 0
167.626491337826 -27.6647575722307 12.2321974144894 0
132.445959402001 -0.610807577646742 24.4944213173459 0
134.366402142149 -21.2580690035495 5.34693602453686 0
194.093216241149 34.735242001627 -15.4000652861145 0
19.8852179357779 3.24524999733464 5.64533069252281 0
27.1463486988367 -14.2042101844939 3.72869597938476 0
182.842338400716 37.0363253561803 -14.1723944284306 0
180.694719672841 -28.2856189281287 -15.9239801559435 0
86.2123809475666 -18.5930229587924 8.20453158453241 0
154.302935764947 -15.9569630697577 -18.0878584842627 0
30.9284744911971 3.25468167946704 3.98406784942575 0
36.2544385540279 -17.9830921676228 10.9774669616562 0
187.467264921528 30.9231388675667 -32.0412542901606 0
167.668750474864 18.3922405610739 -33.1163507588219 0
191.983008143648 -24.6170291488575 -21.474177293887 0
111.879182023752 -15.953485983659 21.0804483716953 0
58.9139304064621 -13.6539462417444 23.1199871874229 0
128.969841955417 -19.6689775277235 -2.99733693309893 0
122.565242473927 -13.605615960911 23.5471328516293 0
151.605162533406 22.5246827111179 -14.9328781727809 0
191.624850114037 -13.5966022053495 -17.3541168074731 0
75.7569431602957 -18.3731224261734 9.99165034372216 0
118.462413680839 4.93426159375276 -3.56675979907029 0
110.166066508533 9.44014575774593 -1.63004252802108 0
71.1413144303043 9.79150204391956 8.29592061839939 0
85.2329133871125 -3.77055382720931 26.4303913800621 0
196.149769531885 13.2716656364735 -10.4163246500573 0
135.893840035758 10.5312440267259 -6.85700449013804 0
79.6840642202749 7.04716134939893 2.35191808873075 0
189.62963888336 -10.1303905894069 9.73245315519237 0
160.667966777486 29.6295340503691 -20.6226112476632 0
162.356837663378 29.005772174367 11.3941446953273 0
172.853823261161 -30.0548840548893 -20.5072979186439 0
186.123948590723 -14.8285170574582 20.1432145887855 0
131.838796136534 -18.3759591453699 18.0893430654206 0
122.591978851402 -5.41929273671617 -6.25726285172384 0
102.092630597025 -18.8709143185858 4.28887464358835 0
143.207535499443 -15.4799447628705 22.8897450944568 0
87.2136346923954 13.0567456528495 15.6855705794558 0
16.0253779385307 0.779655564034229 -3.70904172982904 0
158.902742146681 -22.4629327542619 -26.1070482281629 0
181.395810326677 18.4600226300921 20.3933416660154 0
16.1196299890818 -19.0714217076014 14.7189983153834 0
136.301077391972 -5.11363958823864 -8.12876124702058 0
100.223196039781 10.9822032063579 2.21763879849706 0
134.639738837439 -21.3710000993684 2.81461525275946 0
65.3805357188793 7.90577660099996 20.3160580798939 0
165.110817314025 7.27872952301139 -15.8470235211581 0
179.200811884963 -5.19245364907204 -22.8390855767863 0
167.269630571926 -30.9273924045287 -0.146786308784816 0
16.8503817965071 -9.74966451326728 0.666300948740761 0
176.311387569402 -26.6275591070279 -32.8657506541334 0
145.711068847545 12.0005603227814 -11.3092498971906 0
188.164251380279 -4.79575235661432 -10.4870971912953 0
3.91320247746614 0.277215049295513 -4.22175751611175 1
20.2673878333885 1.27623021063629 -3.27731084024675 0
152.910140413186 -18.4722352515327 23.214885801883 0
193.282484751873 -18.6668496943027 -14.9598297519708 0
0.730389197193686 -7.79834195963593 -1.21344546299988 1
41.5967255497708 1.35895098574007 -3.23482164426289 0
151.448476322466 13.7256517166714 -14.6955523592433 0
164.552387934468 -34.0083200131009 -13.3494631801253 0
95.1777182085408 -1.89679817786885 26.1206345453744 0
189.9756561467 -10.2515472765655 -12.4352670931777 0
194.916272027675 28.8137856202804 0.678781103655031 0
188.336338369885 -15.8461884399018 -27.6645219986747 0
113.506828313787 15.7525123678879 16.6469760792002 0
164.755371286559 -21.1143924476316 25.6482518034688 0
183.820139614127 16.9894137692798 19.9019817053224 0
171.948083239678 5.81825423044113 -12.6827836195384 0
181.77536876866 32.3222279401141 5.31214278375506 0
98.2014034136633 11.4628872213369 19.76177019856 0
0.15656884295616 1.34782503898635 2.02292504248641 1
166.149809670778 20.3891142587611 21.3116780963679 0
88.0344891969374 13.8322811378788 12.1739745624775 0
186.69783768417 36.0502650705319 -12.5748910033502 0
118.01778160816 -19.9407637290419 8.80685065359352 0
30.3017151296362 -4.47658147971695 -2.8731145143406 0
175.742169320922 -26.0024599579649 17.1076474472958 0
96.638815124617 4.91159011748093 23.9149922758234 0
85.1973217762035 -15.5178066162317 21.0987112843816 0
158.7381784812 24.6480343539975 15.4753221882043 0
22.6823422212713 0.263953586652686 23.7718917512129 0
123.073554748768 15.0937069968902 18.3175894806327 0
162.464759598923 -29.1606738547381 1.80269198846989 0
158.186546180437 -1.31751565012711 -14.111773030129 0
129.399146383977 -12.3733215362252 -9.21475045482896 0
186.644677298704 -29.7931697313874 -18.1700722470135 0
164.008245946585 -32.3498644184976 -15.1800464268663 0
147.616446249539 1.49378805132953 -9.15034473779165 0
20.686965155163 -14.6315392391164 22.1705832876332 0
25.3197656633732 -8.97594389946697 25.0636033173405 0
24.0514415779398 -18.2232808912301 10.1084826269064 0
197.82436634104 30.5337476525663 -15.3122478255557 0
177.945532574348 -21.2293979795721 26.4523520900415 0
193.146129192922 13.7959054329629 4.27795424573008 0
197.792306646604 29.1294432854243 -18.0760127768985 0
168.491338336645 20.2577153249454 -33.9687044736527 0
110.758535168089 14.448348252873 2.63923401578901 0
192.133433497004 -16.1750312197723 1.2581355618807 0
104.057632641174 16.2592643988198 9.00279830634573 0
54.9529530819826 -5.19542242955648 26.2140847448811 0
180.675678918148 38.872869173296 -8.03206732184876 0
189.629665887054 -8.60648331532451 3.71917724351767 0
9.88158476054456 1.24045729919676 -2.18449673396074 0
165.216066713739 28.18869615277 -31.3688081855083 0
66.9581536042583 -16.6890475927161 4.63931973070827 0
87.5509626676356 -10.3894608902325 -3.95634653778071 0
96.7715700170371 4.37073634628433 -1.57901336162254 0
13.2174729920889 3.17546224381483 6.44202102801675 0
178.562100989826 8.95510350989859 -12.5375149506754 0
138.573232746712 -4.75251393516504 -8.30533757105781 0
179.888812611529 12.3544039529771 -30.1832359713688 0
152.179689492807 12.3370238591872 -13.5913674424251 0
150.390083122748 5.92575824550542 -9.62155615850107 0
4.35595739374802 1.94275645182161 3.77163669044687 1
154.052399691645 -22.1082549296501 -16.9516432950242 0
182.729080727718 -13.8000879479973 -31.9725649868276 0
150.275210282987 23.3346687037026 -13.9407111773938 0
196.371188789856 32.8023504463584 -12.6489756725711 0
188.379713870646 -18.2325104556489 17.2215987640213 0
190.469068539138 -10.6781552571568 4.41146371174516 0
155.442830515341 -4.41728842506991 23.5978390975262 0
146.432651687617 25.3030613989828 6.79380565727158 0
42.4650931952427 -16.4423256345806 6.32831550359319 0
182.219770909498 16.9135665734431 -34.3593398595048 0
161.287945415082 41.110711097176 -10.0682569340568 0
185.640667086932 -27.6884515129439 -0.572522664753469 0
121.106020857243 14.159893222148 19.0593258420969 0
128.044184653088 -0.451782048928482 24.7167216992849 0
193.01248670449 16.4968040434389 5.8116346758869 0
133.505586808608 21.2551139527674 -1.23265989172081 0
155.585562202862 -14.6015855659033 -19.3079747423763 0
190.191339069374 -10.6409093999655 -9.32293949210978 0
174.847133177182 -29.8406463568061 3.06620022217495 0
146.191332666832 -10.7330280722473 23.9104695367806 0
155.886675203387 -25.1492356352319 13.5047352777322 0
14.1956068749276 1.15801067765501 -2.35024901300745 0
123.972991118182 -20.232297521496 9.19903904158665 0
186.814950328266 -30.81259263306 -24.7037368407076 0
155.574056651111 -22.2886025378584 -18.4394647192874 0
189.515352477491 -23.1462012807329 -27.0655442716461 0
194.378444592915 11.6072637714779 -10.6763752332577 0
115.306801205176 -13.6556647372589 -7.15023470426296 0
134.574172188511 -21.1873936996509 8.2958335003614 0
124.445643261019 -17.3205140019892 19.5890239103161 0
183.729864261732 -22.6202625912694 -32.3501406189173 0
21.9461173580518 3.06624177731929 4.90200800281615 0
188.34883220556 35.7817310334378 -16.0713880500747 0
157.212300120119 -20.6600821648499 -22.659582866569 0
151.842628788513 21.059201491516 -14.7607819847973 0
103.335187566298 13.2626773426994 3.72681506364011 0
157.270495546808 -9.95257885260208 -19.7926830532536 0
170.907536872649 38.4199736095225 0.754450963492835 0
108.417393637219 12.3014511578035 1.14649203221221 0
148.65830726731 -24.4241174455973 -2.67221197664396 0
42.9954288859003 -17.5038276354783 8.93493914953359 0
155.911970533529 -20.20103389114 23.0679246840517 0
160.831904498208 40.4507342636812 -14.4922701663983 0
190.008955021301 -25.0417137850324 -1.60643202564458 0
184.410203675446 8.02627529512843 16.6597566940826 0
60.9843893383197 6.1885992078452 4.27580554659984 0
132.192061833407 -20.8136691825645 9.91031207881303 0
92.3855070970402 -15.7720185633422 -1.11362352695089 0
191.777910845081 -28.9193683129443 -16.9698302117444 0
194.944234221103 34.0963930561144 -17.0131356332062 0
184.132354669287 -25.0136750651894 16.3279840891555 0
143.679370548765 17.0027752903623 -12.967131679192 0
192.274121789789 -15.7721887660013 -3.30185792576965 0
133.050605606619 3.05512066903093 23.8600512191718 0
173.632468200902 20.1253395739063 -35.7070395233501 0
159.51355728458 39.4919528356881 -8.33251156629309 0
198.941778790961 26.4366653021912 -15.3634883152296 0
126.028622571855 -10.9400548519889 24.8413332910712 0
144.602902206209 -22.3169596533234 8.74477057083679 0
15.0995331624161 3.23217377105299 6.27981521312044 0
83.0027070611131 8.00248365580893 2.85667921968683 0
156.70512778131 -14.8719067711653 -22.4921319867749 0
149.081541790844 -23.9366624360439 -7.30861472743858 0
158.664320147938 -25.1148731961249 15.6220356713617 0
174.512593367823 24.1512073267265 -36.1551030664439 0
142.789711951742 8.57804800787302 -7.81037937926556 0
161.750798927713 38.7653002711623 -3.67015632811905 0
183.770016890194 36.9008083986786 -23.1915272899496 0
150.251678214286 20.3075397116102 -14.4656003795392 0
164.790969206758 15.4926420455159 -30.4196126632237 0
141.275746610049 -21.0779284411576 12.0096804889794 0
154.619859065499 23.900627373322 -16.301316924386 0
35.2333651178503 2.98320155467254 22.6535863631367 0
118.847480065091 -6.65822188094705 -6.27375063502285 0
163.866886068551 -17.5200011099455 -32.7654487123165 0
192.902268273333 -24.3131150571742 -16.90758038126 0
78.1101246646108 -16.9684162207694 18.7236912581191 0
104.168572209392 -1.54326605761397 26.0113100217011 0
99.9807905065285 -19.2343062858873 8.2725384357049 0
163.998162015248 11.4819524642187 -17.4880332389584 0
168.121707180128 14.3014218299917 -24.4428830996887 0
186.754444616261 -25.2760117967611 11.3899017452939 0
146.07232514664 -6.19920401818335 23.626457197836 0
135.449732305648 4.43179177515682 -6.00041874550555 0
103.684208205843 -13.8272261183461 23.0804428369005 0
168.014205296415 0.925192791374179 -16.3176763104018 0
165.942638958946 -4.80751189891172 -23.739408472098 0
157.80149629427 -11.7264875383883 -28.6837887147885 0
85.3578200919264 9.39950014535269 3.97747663380791 0
190.812351304117 34.7965097629491 -13.9553764891561 0
100.711276002156 1.12327850613843 25.3540749217222 0
190.202007404042 -9.38670729835734 1.33454960889343 0
77.2551705357864 -12.3753257343478 24.1535894141947 0
161.613336716215 -12.9036895459899 26.9745421781895 0
158.768849236889 -13.9173605122597 -29.7585396092002 0
29.0835320142277 -12.9331894193983 23.5150041516375 0
184.43364285109 4.66492346901584 13.6595211370431 0
11.6287083230229 1.2603688867747 -0.0770735934980485 0
196.753272030353 25.1456138513424 -23.249696889982 0
146.029181290703 -3.10396213095279 -9.52504765230329 0
116.85387735546 18.3974866884704 6.66374545883359 0
150.988420821388 29.7178121187762 -0.630441933415059 0
123.978902903076 -14.0605792311466 -8.88395053516008 0
161.339601461989 -14.2988365755047 -31.1715992212155 0
100.357478062853 -13.568740464737 23.1733558235542 0
164.833547931748 -19.4344500748017 27.2772318842015 0
158.142538347506 -27.002427549523 6.60894268445624 0
23.5967728678741 -10.6772850049966 1.12555751857042 0
139.619836499069 18.9618943718418 15.6074407767774 0
119.358015144505 18.4855310924692 4.97128416646631 0
157.004816547048 28.1003920622094 10.3051740350566 0
154.418850574511 -26.2123768084109 2.88947114476411 0
160.782881893145 -23.6850274851985 -27.4836187461257 0
135.490653784821 -4.05955109799057 24.7026778369421 0
151.258184579613 -25.0741566670145 1.24101760012489 0
170.643521663239 26.787731250929 -34.9212720603806 0
195.993896885901 33.2978798399179 -15.5056515036429 0
155.602797467108 37.1436147836726 -10.0667027882088 0
15.6507942425922 -12.5702827630142 2.47528577923709 0
136.376423961852 21.6225331744743 -5.29723821884071 0
58.2351129960199 4.286429827738 0.810667884983718 0
190.435320602557 -27.7643988321612 -5.79096479107017 0
74.7987371104459 6.40680197921291 22.8626743560908 0
49.2728217753903 -1.78568358271111 -3.54751788856237 0
180.887614941218 24.2394746734349 14.4571887847494 0
189.431693231463 -26.609825422952 -26.6481367470832 0
191.432817222469 20.577808122153 -30.4391128737538 0
184.094990567502 1.91741973013553 -5.32792412833961 0
74.5282579371303 -16.9530099800774 4.05500460758771 0
195.68512038128 32.9906948946168 -7.98804056976274 0
105.040882653068 -0.602937575943003 -3.8131979466844 0
89.0365614792483 -16.5966391203981 19.6061879714906 0
164.443573594925 31.3451916701195 9.03742697964809 0
192.889442190967 -20.0165600360774 -18.3320891006661 0
4.66603285381174 -13.6669150538128 3.2181458164841 1
152.289454379823 22.2413807020692 14.6754139054319 0
169.992679858833 15.1426381966636 22.3924415858285 0
59.3061149900585 5.34217119125069 22.7025971854822 0
146.636212404831 23.3428874705193 10.9563439070481 0
150.420982143715 24.4298627177863 -14.1879775731971 0
140.535162516401 -10.2123697066332 -10.549063003517 0
143.851693554768 -22.1716608823123 -5.71137823067525 0
165.841874882736 13.3825720972285 -27.7112836447551 0
13.5903867772356 5.09015311370189 15.2697712945697 0
107.080060598432 7.50257009912261 22.8798490955086 0
31.2312778485113 2.65352921153159 1.77460657697419 0
147.971909060561 -4.73538486007068 23.0279962744514 0
68.0233445546873 -13.5296918700356 0.342366056749572 0
63.3258010197867 -4.18955713600887 -4.21872710959884 0
143.618512436033 10.2819288981116 -9.0180676847686 0
67.3327107341665 -6.20829601423377 -4.01589886167825 0
157.158354278389 -22.3678588879545 -21.1269900470231 0
49.7760769822543 2.56983205815889 -2.50212681074262 0
93.3277896377777 -6.56312699356969 26.2126281749944 0
143.709958453386 22.746026751565 10.8828708387312 0
186.692271691162 15.6881383857726 17.5929913042571 0
168.643621782422 -26.0108816888476 -28.6260438128404 0
33.1937163589451 -4.35579033151733 -2.97623651331891 0
115.78210950605 -7.21786217847842 25.979821978354 0
95.2867371571773 -14.5837950421962 -2.79446471924627 0
39.1381393677507 3.26792182650047 2.15472379755675 0
182.027358630967 14.3015357000281 22.4336407289744 0
163.193982885152 1.66834262208977 -16.094560201279 0
107.051698043903 -17.22221748366 -1.76185253466923 0
164.908115854775 29.9389553660121 11.0680634641157 0
162.434998155759 1.37830325290384 23.175292857581 0
116.947331041659 -10.3518636129374 25.1771921022853 0
1.18855127718527 0.651068422093232 -3.89178378064856 1
139.959606280443 -19.3892534834944 -8.54099950271355 0
189.447099927428 -23.9438440657979 4.2353669448452 0
95.3745279151812 -19.0151366280812 10.5392562625689 0
173.504956440593 -6.58981923820402 -30.3665791699978 0
156.988894887378 -10.5768338065505 -26.975764144926 0
156.875005729196 -14.5522514443343 -27.7138368242627 0
17.445426821306 4.48784181888847 18.4409316123591 0
176.107980339818 37.1511111965432 -28.4705198139674 0
164.267748040706 -2.26150992704764 -18.7784122216993 0
92.2521671800728 9.14335709259066 2.30523074156963 0
172.604263643407 2.53080939758717 -12.1239565404185 0
197.674585161254 26.2891289990774 -20.7161377843953 0
155.086543480923 -27.8636783816128 -10.5200203632802 0
84.4950575357069 -11.3880526928734 24.6478430952619 0
122.617457575299 -9.68024730163484 -7.75785221241616 0
39.869637374752 2.8321865165346 0.257151510129902 0
197.120708057755 17.2708826338432 -1.34497830773581 0
125.101294269854 -11.8194615154142 -8.62461909980225 0
169.927850005764 14.2658754754974 -23.7067614317083 0
56.4654108653616 2.86837168432104 -2.01051182851913 0
6.97970679487757 -10.4801645803161 0.945341401384746 0
175.923644823205 -29.8356104872556 -18.3988263529872 0
174.97026686359 -11.161840722727 27.7698787796222 0
169.118768976861 -25.2766212258294 19.0373507513948 0
153.778417514666 -26.6356265463718 -9.6490158667739 0
180.897379551257 33.3590578632322 -33.8027976830236 0
149.861069448441 -24.2266747974442 4.27861589377514 0
182.80939950301 -28.585580326056 -16.8108732639073 0
7.96206145438404 -3.06179093588552 -4.76351804552552 0
146.679457766824 -16.5517617556177 22.703878410843 0
109.248222668954 -12.8053907213819 23.9101643542952 0
153.023728344392 29.8306415101297 3.6144394576801 0
10.4021463457833 3.95688699126984 18.8301245969183 0
125.593665808857 -19.3586951531139 15.3108765129867 0
112.454443738892 -16.6794005591243 -3.87295398259436 0
75.5888848489598 -5.81444623721321 -4.59020319284628 0
186.474106925607 9.77677903289277 15.8477300419353 0
176.093760835311 -33.5238810323822 -12.201631986647 0
187.616639933525 34.8419941061146 -6.94059998693402 0
148.731938647205 -15.5480323398365 -14.9440521213001 0
85.376465796739 -13.5019271552832 23.1690248112049 0
186.892924548382 13.3837509115668 18.1476012474629 0
153.716482633321 20.6220017549993 -15.3767536679662 0
161.30565415453 6.1898918046093 21.6325563614995 0
126.077916379626 12.4976037479056 -4.17933916599929 0
192.639750437558 16.4767399333017 -27.5301146717869 0
29.067330472409 2.44304542730162 -0.656419754050676 0
59.4382505242764 -16.5895600956301 5.33070603481832 0
177.189170123385 37.3465472905741 -23.8929508970685 0
177.771224582461 -28.926292395745 4.1826243055305 0
175.127250988847 9.28650261715259 -14.1731747985641 0
182.0498275274 36.7915208386979 -5.17589309931766 0
189.995060383333 14.9661470979691 -28.8850555139061 0
183.967925547851 -28.9089799375246 -15.2410453819318 0
44.8466997674044 0.341082278145229 24.8671267856934 0
159.921602576089 16.004649531331 -24.1561667843186 0
157.22879867484 -17.7468983170092 -26.5416825164233 0
17.3012440195013 -15.2292580135309 21.5863293441653 0
30.7934018781261 -18.0062290936326 10.5154786617733 0
27.9943356561327 4.2685186852592 7.30182907914959 0
141.155979849373 -16.1099997662239 -11.3899825247036 0
124.254957517629 16.736563815125 16.8466835745228 0
174.054542517703 10.2753804469235 23.548963400119 0
163.370456931264 -26.0585887072977 15.2495702263312 0
161.692248616005 -16.6744459433614 -31.6469423860168 0
129.645579432706 -15.0465845503154 22.51739465657 0
195.199878197151 13.7490583006326 0.704304966766198 0
136.084370688629 -10.9299135524253 -9.85662409396041 0
29.1291186418546 3.63507139628129 21.3624989179303 0
166.212223515918 40.0773807110204 -19.2014031064973 0
136.029067695273 9.41411149783852 21.91731495683 0
171.044736338913 -7.70807957106148 -31.0563439314615 0
191.257473361484 -24.356019115481 -4.46870749518548 0
190.351591121776 -14.0943192414802 11.6802308028833 0
179.172074914925 -31.1428084420721 -13.1952686419401 0
120.150422013335 -1.75070145126484 25.6094695504023 0
42.1284777060552 6.99177481538757 12.1507742454664 0
159.056088098301 33.0127966159183 3.74995822805699 0
167.394155354479 6.30157203927416 22.7278149212412 0
174.346176280531 17.9047759601826 -35.2724787414439 0
23.9634797945338 -15.153637675619 21.6415577108491 0
41.8920935162185 -18.0166870501913 11.5180181384189 0
163.118413260727 -1.75031663283752 -17.681885817001 0
46.909048997015 4.70912287440371 4.12381012273602 0
175.823808948283 -33.7689163999271 -10.5535309465064 0
7.47660714695268 -4.14315526528121 24.8719431746271 0
97.0445197943244 12.079954029234 4.165736468228 0
189.175101113441 35.1639906853743 -12.5834473146372 0
171.657617106531 -25.2795015278174 19.3363254410179 0
120.996459992406 18.0510475759512 14.0807917144243 0
193.451225866615 21.711271037433 5.92393677038445 0
69.3201760318635 -2.05266103815497 26.3341281991658 0
143.033865223539 -16.5390611128523 -12.1007529574145 0
190.248495297227 -21.2055283726027 11.2182176042244 0
191.230318918236 30.8429735006622 0.103060992873898 0
20.0513297312935 5.16665945379762 16.9985262250397 0
178.985963612138 -9.18698456599465 25.0520854360543 0
165.205973951941 -30.9333383757563 -19.7660255150867 0
172.559870685839 38.1583271745975 0.378797406254573 0
147.367015879654 27.9478125331972 -7.09220155639884 0
81.5964685277296 -7.19329130784396 -4.69043415481347 0
151.739252795664 29.4422659339174 -11.3212935119931 0
185.310784541158 -7.10462408149947 17.2226819288644 0
71.036734456777 -4.141861476965 26.5098099657529 0
183.788558989069 11.5074738794264 -22.8261744722288 0
13.5758746636815 -15.4494946430801 21.418768438172 0
172.507054332575 15.5444961777389 22.6560336183265 0
159.466134033897 17.1201189711426 -18.8019096618943 0
75.0786788290175 -15.461243442038 1.45920452867337 0
52.8713255527423 -7.94763454279894 25.9033047059722 0
172.677539287294 -28.1761721719254 9.89832772209815 0
38.9514950078782 -3.43970254718175 25.6358083354472 0
169.362164529519 8.89906204848179 -15.9227884147993 0
182.116437584353 -25.7609261987795 16.3502730711416 0
178.710647300579 5.93206415448827 -9.40114162318828 0
125.716115401657 8.16324011137093 22.5961772714859 0
66.5096460606457 -18.0710389244956 15.0435374899256 0
173.585483067765 15.0016812420735 -33.2186756719147 0
139.2187797332 -12.4760282638829 24.0443151943982 0
8.78045956236544 4.91813854449355 14.1543374542412 0
15.7564434726782 -6.42697181004189 -1.83580500566265 0
80.086958362206 5.6221481436326 0.951038309362766 0
128.065513055589 6.40144822992645 23.1661567447597 0
49.004860973921 5.27126363579367 21.6357412211641 0
181.077867194318 25.2807937099149 13.1947595951391 0
186.745019632405 35.7651861772124 -10.7155171249561 0
174.8541724079 13.4613567798438 -22.8949598104157 0
133.880584254323 10.6394140086541 -6.24882673813337 0
193.58728024487 10.8921710369002 -2.2217896364119 0
185.98825721618 26.3331729470213 9.80280759660585 0
50.274554800239 1.69099029260528 24.544760561682 0
128.726700794231 -20.4470373566913 11.0859016148166 0
153.927492522975 32.6756443280502 -4.61875459788124 0
189.669177962874 26.2048828816237 8.96730065475339 0
157.254430201536 -27.4463473069598 0.896223611007889 0
151.722296190476 25.3353001818646 -14.7679501272181 0
54.4909980714804 8.60413563038507 15.6025043484458 0
69.6658497459619 -18.216494887988 14.0439399979366 0
134.833477668844 -6.65206869638349 -8.17479594776633 0
167.941918810698 -26.1009774761176 17.2128730535192 0
186.587213918172 -26.777163365825 -29.8428799113403 0
84.135737352022 12.5990264269752 9.21853513799499 0
174.281985232753 -30.5340452798393 1.14939600107129 0
184.682356013179 -27.4361760141587 0.0943163327560155 0
125.451768811334 -2.86865935189335 -5.98323281784855 0
108.580558720577 -18.9993348571331 14.1026631232408 0
47.3927165257349 -17.7658527181685 9.85758569728123 0
134.156849842205 18.8363914433552 -5.98386986848895 0
155.407023903679 -7.02804855445494 -14.7125024991439 0
6.27563520372975 4.72296829810702 16.0137779081843 0
171.411725889571 -18.8872764380756 -34.7798840430194 0
191.614551545228 -29.0912193829236 -14.5351266662467 0
180.336046203552 24.145006719018 -36.091821866065 0
160.842828740352 38.754088078674 -17.8113264242015 0
3.87386483340953 -0.0205759638529796 22.9695613418063 1
81.7809015860676 -7.77128775737788 26.1370939566602 0
195.829932593524 27.4116049618329 -24.4369709413227 0
30.515264628299 4.49963101383629 7.3996380401675 0
6.10661621703099 4.75014982678088 13.1478814445552 0
98.1802019660074 -2.3884014523071 -3.8969551938896 0
153.660800445411 7.51822401296191 -10.9137373857366 0
97.0292787513987 -18.4704612676292 15.1175813271727 0
123.193179457599 -10.6708649675871 -8.0722979695939 0
98.3938666253046 -13.4750059219072 23.2158227480475 0
38.7372306216181 -15.9665290126909 20.3657470633773 0
177.839857493041 -15.442538104215 -34.5222499604106 0
187.418494701133 17.7011595000989 16.7345501184277 0
153.681912464744 32.8459499887486 -12.7599873883159 0
142.715062496966 -10.2859988810993 24.32153073552 0
188.405055254377 25.3008475054628 -33.0573602514397 0
94.3834106343346 13.7349329118528 7.42103403724127 0
168.527929028431 -27.0071258563439 -26.4427186634904 0
179.224585761708 37.7730605663566 -3.65448249758718 0
140.929958277539 5.19320941438801 -6.87999062407427 0
195.736517951202 23.7807685790955 -25.4246356176138 0
178.522171148216 39.7970806975455 -8.87654729258169 0
49.1406869556132 -3.33635554328053 25.9890148443463 0
170.381825110773 -28.9988056597188 6.41009366765879 0
137.189657648404 15.7695975453717 -8.46243230687228 0
3.2900519700053 -7.62365694009364 -1.25213314383235 1
89.3626775850223 -17.3383068383866 2.15683320674324 0
192.765490645104 31.4659849097431 -1.95564359729217 0
197.983564064418 18.3120774388333 -16.0133723603926 0
9.09865847244052 2.92471163114052 6.25627251845519 0
86.9509681679101 -17.6718250711691 3.42664159136352 0
145.462593737244 15.7450560665447 19.0752020196805 0
143.627648134261 -21.8307182321717 10.4579588665269 0
191.689838644033 -26.6818928870777 -7.84441341415657 0
163.155032891406 15.37620593263 -29.2653177422327 0
161.066851034647 -28.411845595872 -19.5709319219656 0
192.798480439608 10.3056626632648 -9.7980050460376 0
166.96953803273 29.8348180950081 -32.1970756192388 0
188.631159400926 -5.28033938347912 -5.83582494015851 0
190.004953458156 -8.21875573628924 -4.09014775685429 0
143.985755186592 9.19161043157737 -8.4655440607811 0
63.5475353237035 7.32624640243996 5.45219007629167 0
124.351235910684 -18.5020358581523 -4.91631682624064 0
163.0469060846 7.9569002565516 21.5038020339026 0
108.258947217626 15.7006832047771 15.6059256588409 0
120.550983631286 -17.5788133197325 -5.61052938050366 0
153.781778799195 33.4685518713772 -9.77145597151198 0
163.541585594112 -10.0120431310245 27.1415244867597 0
72.749008718349 -18.0390373338017 7.9088810646814 0
163.447486835979 -14.9560351124469 -32.4290720541301 0
71.7961371825118 -10.8435061462238 25.0959679814546 0
181.784607289443 -0.154705715049813 -7.52696335245593 0
189.596921828292 35.2300234827933 -16.8587988309288 0
15.1939075845444 -8.84296439144433 -0.00242089614654014 0
154.134402948639 26.8091563604682 10.3947609624181 0
152.520721672925 15.5321474102652 -15.1189242800823 0
19.3386570470269 -17.351664013938 7.97388031831747 0
185.531067826656 23.0472790138111 14.0621908017404 0
126.48691829237 -1.10022226503614 -5.83389655628778 0
192.988999920572 19.1639842711255 -28.4929807557089 0
167.312106260353 8.41900010602553 -15.9778637708666 0
171.070508360697 28.3088312151047 14.2309573878828 0
144.497607206764 -9.76006887730424 -11.3530220840055 0
137.437723290164 12.2083868220534 20.823203329255 0
187.519241484196 -15.956892108488 18.4300175253519 0
173.167407576228 12.855952752164 -27.1205833243169 0
147.364786140146 -23.0796221095117 -7.29109076181206 0
11.5103159482032 3.47115899757956 7.56246751531844 0
161.380885417044 -0.195949410946873 -15.9342764299689 0
159.670669984728 23.0973810922604 -21.2867199379664 0
157.055670588405 38.5415652893463 -14.3487030758682 0
1.69716066837451 -19.8289173131471 12.1352665997834 1
171.615643567927 -28.0874150445128 -24.4331075765605 0
161.020174730585 7.3590568833479 -15.4996942709873 0
140.779724154617 -8.13685907980827 -9.83529985774277 0
93.9159263894355 -8.98510910321711 -5.44213666500816 0
113.417962805309 -4.03837573106663 -5.24534618190695 0
156.960385384828 -2.52360622494633 23.4265458615457 0
26.5270197328668 -2.74090558263812 -4.34711589216996 0
179.4610121182 3.76766509146842 -8.08485062582529 0
152.153497705881 -23.7570165302699 12.6044842548911 0
55.5225269502881 5.56410716643248 4.08474452420093 0
34.565887450582 4.83675721124758 20.3678934050109 0
189.699577978337 33.7179529387509 -28.4251801599382 0
83.5243991554909 -18.6023731782681 10.2539358458861 0
78.9687709823377 -18.3839698978396 13.7235750433843 0
153.265911713545 2.11170324280645 22.2006868763318 0
84.4615549315007 1.01187161837576 -2.09554670177651 0
156.795701598208 -16.1256445543707 -25.6525292484597 0
100.725769225798 -17.7118242996802 17.5491101598438 0
131.926284437975 6.81468304564329 22.8591212468589 0
162.187878644722 38.2476205182542 -19.2830540666031 0
129.605981059471 -20.2620052072682 -1.12036621299808 0
130.644705382008 0.15496550564749 -6.09190432515733 0
53.1222318335092 7.45982898084614 9.23719083774548 0
144.722544252121 26.6450117923246 -0.43384497000663 0
58.2808492618304 -4.97559922365468 26.3365962113152 0
145.680590728408 -11.4110089549285 -12.6803959196215 0
6.43898147699504 -3.61386849437244 -4.46994258059248 0
161.207316196116 37.6466378012007 -1.91292166371059 0
140.825635276991 -3.7630630474497 -8.51361818329272 0
95.3175596080341 -18.7277454309366 13.6225010432814 0
142.069062251578 14.0106667354682 -10.6580693446455 0
136.107627455581 18.6564620074075 -7.32098640111567 0
190.423388834555 -22.0570874442538 3.50127863751892 0
133.711772749038 8.09109307912945 22.4155594187889 0
135.340712387858 2.33914920335363 23.7197223903022 0
158.520777536581 4.41608715483551 -13.5710483933938 0
154.274095087094 29.0462350026435 -16.7332151195162 0
111.996883038934 -19.4110414191163 4.35269553716705 0
190.516710089259 -11.9018565691538 -19.0542562970648 0
170.706933069472 5.33191902373423 23.3585096738994 0
140.412268497478 -17.6940767552965 -10.4381592006371 0
193.936383962031 14.1631013140942 -22.9874150476736 0
166.608476059447 41.5310494501413 -5.83845459437287 0
152.983643525753 31.3023499972857 -14.1293785612701 0
168.926425373001 -33.1196506146191 -6.73127843734547 0
166.182921213398 -34.1611678747478 -11.1338592724768 0
66.7676996864283 -2.10306550543225 26.2747632801187 0
172.658792395599 36.9777919970204 2.39170927255844 0
161.724481157186 -4.53413936464219 -19.9102285554435 0
99.4955558999559 3.44618613715638 24.5340568031687 0
195.143158923251 33.3460769471437 -17.6774683623064 0
177.90177453725 36.982484970872 -28.8055786356207 0
17.7934710690442 -9.09021514238236 24.8373447030675 0
171.396867725302 39.2470642492832 -17.6398275971239 0
172.595321734304 -29.1456114355554 5.86191741801631 0
175.009058281105 -26.7743825324042 14.6712925005189 0
194.425903709257 14.1220184933584 -21.5931258585705 0
66.452623688926 -11.1505063432334 24.9425373617369 0
140.401897617855 11.8413026155459 20.9400855479104 0
133.457281502172 -10.6306600615788 -9.33222434494983 0
173.511189719744 -32.6443894850155 -5.37786990105378 0
160.871513237512 -4.4480493461378 -17.7583640278194 0
20.5906820812489 -4.08593483032203 25.1825707200229 0
168.561999106506 -22.8006772072195 24.5614228939182 0
195.843581928642 33.3999057769936 -16.8379884664832 0
179.874723010755 -5.48301825473142 -25.0564966764743 0
163.384694101052 30.0250344411196 10.3806470657175 0
97.3810683695803 -19.0651307975565 8.03306324744057 0
56.2517048476813 -11.7055639001842 0.216301124054557 0
166.356921022726 -28.3672109185852 7.79574643904984 0
142.609737646119 2.24126792328184 22.4811990093061 0
187.267875888996 -29.3945599947077 -9.12148225982081 0
183.515227717839 -29.4475040847237 -11.8085919564323 0
169.702824673085 -15.088275097034 -34.4162014315449 0
77.8440848449084 7.83063369967346 3.45578033642775 0
102.232522948138 2.89598697373192 -2.91581062254684 0
157.406208547165 -22.9106646136625 20.1259114616022 0
153.065248974003 -25.8336683389399 0.730507732041669 0
157.338135100339 -27.1602983535122 3.75082416378266 0
130.27964931901 18.1916824864254 -3.92420617462292 0
53.3291315315689 -17.3493695664256 7.79273445154842 0
117.960225145571 -12.4016819368318 -7.82937708004667 0
155.583550999749 2.05276089564733 22.0835143446071 0
76.7725695269745 -3.85953003881527 -3.88359170891776 0
175.217334356051 15.0213869154669 23.5119396773495 0
34.9894232993506 -8.00402857660594 -0.691665743940732 0
153.206653500364 -25.4947628275056 6.06286499429275 0
174.373158979184 -25.5377003121274 18.6464429549836 0
178.595912384432 11.3679705831279 -15.2948379286135 0
111.260275325858 14.7041643596197 17.7472193183154 0
190.783717872975 -17.2767539416533 11.5706026609251 0
69.8578203720744 8.55054621122201 6.22047754237257 0
101.571939081938 12.5218352413313 18.9969922081375 0
122.614878472196 -16.8008734019316 20.2503147994064 0
175.110751732683 -3.59570597022834 24.3892226405125 0
21.0014453090687 -9.12862258412912 0.220879756724438 0
191.268818158079 -26.6971200423622 -22.659781092065 0
169.758388041184 13.0482419193413 -29.424819289617 0
110.289749930282 -17.056587871645 19.3855295725259 0
107.792464421289 13.930157678285 3.12238621348729 0
64.5905432673232 9.63165064847273 17.0043044315936 0
152.886232408067 22.3274347433939 -14.8514581474702 0
34.0128126039311 -1.27666072453762 24.9853038630135 0
174.229838911193 37.2037843662704 -28.15303699091 0
49.6550841415597 -14.3827429095444 2.85152627881316 0
53.5768121086954 6.46956146802323 20.7152705910148 0
184.698171875894 15.2102044441504 20.0863786009746 0
40.7386372239285 -0.210985598703645 24.862304526404 0
75.5762639019902 7.0000955083811 2.79681187221602 0
139.19795820712 -21.647586340558 -1.9984985222076 0
39.3945955850017 -5.4882741125765 -2.29158004644604 0
37.9257849467184 -2.89810547302913 -4.08156432724331 0
164.649458913974 19.4972570916484 -31.3302010153822 0
177.049259491982 -29.1990339087796 -28.9508861969553 0
156.555626800394 -12.915738152019 -20.7275760363252 0
178.107554473357 -24.7193071036801 -33.9427339817823 0
176.281578143715 38.2897403529528 -2.06899935425095 0
185.85569914298 -26.4676065744776 6.60446871177878 0
189.118648715733 35.3004766841725 -14.2754663115346 0
131.763293419671 10.0596484416722 21.7505509262369 0
86.6172457842884 -18.2864341709866 5.87615563903072 0
190.694552892472 -11.5575420108994 -11.0598331501065 0
150.258132219645 15.1900229290272 -15.2107794149316 0
181.634253025376 -31.018586755207 -28.119059881936 0
50.793703231652 7.59504776850707 18.0764186054694 0
183.810925489431 18.4619884360809 19.5049560117662 0
163.765090809551 41.7974111314891 -13.5459666128742 0
130.500527586268 -13.9521903507087 -9.43033847359706 0
181.76720434354 36.96486041096 -17.3688254072739 0
189.199968734222 19.1025541595931 14.7271633773664 0
179.606847862217 -3.56820092962672 21.5063734301081 0
182.187667821778 -26.7781248057808 11.0861081270915 0
198.078565367668 29.5985103476873 -8.34361058342633 0
129.539018100425 19.9097006157687 -0.0246394522181261 0
90.4132748542066 -18.7560961812176 8.36824390111931 0
163.143707071471 5.93663118462064 21.450625476799 0
23.6876829107942 -17.1867834703761 18.8784189079836 0
190.462794371442 10.1088605538717 -17.1970741737948 0
188.571761935633 -13.8498278760953 -26.5307906575151 0
97.6472845639676 0.407711706320526 -3.11464875868861 0
99.9063128526936 -3.98850187957801 -4.60968635014855 0
152.861358484072 -25.6134052157109 2.31733672398422 0
130.774323805477 -16.4961321534185 20.9632991755942 0
165.226828115005 -5.59603037876374 -26.8333223430321 0
168.016585232563 -13.3843450072864 28.8311058283291 0
53.909518391222 -0.37602823381275 -2.7324915904789 0
82.4611910839232 5.0460469288589 0.352237208435209 0
129.059518547764 0.960892148980763 -5.78627145131736 0
177.35904125708 -18.330790523764 27.8087225923889 0
181.171684563292 26.6444932448772 11.8962830763753 0
190.103300109044 9.80390751063735 -15.1778032460614 0
177.077433300137 35.8886085849476 1.74143371714019 0
115.42476131291 8.09363759168705 22.678984463749 0
195.937413434054 32.0421305824033 -20.0343985809126 0
152.933102192799 28.6894067097301 5.84473186117103 0
75.2205507727534 -17.9748980485606 7.03035131159116 0
118.681531307191 -12.4502271451426 24.2571179603948 0
189.363663123753 16.7578472264426 14.6695178720903 0
191.038022959789 -16.2273569818894 -22.8897829952662 0
62.5155857425548 9.03022750555074 9.96003429481756 0
176.078189619332 25.9214452789429 -36.2425725703521 0
189.18054320743 -8.91822298443005 -16.665922940071 0
198.749629543915 24.1188653865968 -5.60879526730835 0
183.487217036421 35.5774764187702 -30.117185865166 0
53.1585232400357 3.85114657546638 -0.885171432183711 0
176.96758996758 -12.5738659140041 27.4050533467715 0
182.046898005424 -20.9032262974199 -33.3508820892619 0
135.875085807903 -12.1358081712912 24.2421655141558 0
104.840788756617 6.67766241964473 -1.78876418347794 0
161.472531364346 31.3851323636277 -21.6809169131128 0
150.471310089449 22.1346699922317 -14.5151757063306 0
193.788312181682 18.4633500226637 5.12045378229508 0
191.679787630311 -19.2226751967563 2.66027681066612 0
84.7592248280262 13.1575435636636 14.0758584291914 0
36.1323160266523 1.13592117204884 24.0408869251238 0
36.960232359085 4.53321011751511 21.1445525151748 0
11.9368508506158 1.19484997830883 -2.33580549815624 0
154.985578844529 12.6377408409384 21.0829536034817 0
92.3726861149274 -0.913995808492608 -3.04357863691043 0
195.812363409545 33.6873047871258 -14.299930601079 0
165.03542072566 -33.4108359669375 -9.01490516216286 0
137.770023772024 -1.77044283558154 -7.4789956752759 0
199.019734682855 20.749438392394 -12.2562053673771 0
150.046848713519 29.1436694508854 -10.842718274158 0
132.559984409554 19.4211901735364 -4.29294647799643 0
155.374241664025 -18.7325118563135 -19.494478620744 0
118.456407906895 -17.3271131330866 -5.04612855631573 0
192.49031478508 -17.1466512489589 -18.2936700644561 0
165.880732294635 6.98829335784288 21.4114024854325 0
4.49577725865068 4.30390489596557 17.2905310176442 1
50.6509091505656 7.51689981381796 10.3044041051488 0
22.0513617385485 -3.07299092844245 -4.49524037335021 0
47.8672189124831 -18.0872905447443 12.4136563924808 0
151.451816544018 19.5094093897347 -14.7140975697133 0
174.998951642811 -28.1039906900986 -26.7060046289525 0
30.4235058524893 -15.0434393402687 4.57829277332334 0
133.399489685848 -17.2508043884022 -8.38223103901103 0
146.97644327578 -9.27709338743309 -11.9810237866553 0
111.059232249346 1.50346127423884 25.1564999040274 0
29.8531546510111 2.13125930767641 -2.68439216169472 0
193.845664258721 12.3237273395089 -17.9820891924641 0
157.835476984293 25.1321788574318 -18.2168967492686 0
184.033175661691 -10.213330397247 21.1462243049524 0
153.621450274769 27.8734372746598 8.25565104637116 0
180.705885546927 27.6147680760522 -35.7520832551472 0
92.6766675066415 -12.2126201575056 -3.91049906164534 0
102.93081365996 15.6113470352513 14.3215260697061 0
87.851361752618 -18.399831613601 14.7064212729388 0
119.117244842571 -14.1018081588527 -8.33305062501658 0
119.143687082017 14.4972969701289 -0.93919770712004 0
180.056821237654 -28.9806360747952 1.80931007536344 0
189.640509272398 11.7995958443076 12.4570556970563 0
167.658932481208 -31.5901251952321 -19.9246194451472 0
88.735243452965 -8.74882344868817 25.7837960645351 0
94.8378158694094 11.8787368694031 18.9689880360299 0
190.149083021257 -29.5089531160961 -22.7773780272601 0
43.9409021625401 5.0525612848602 21.2841127182895 0
192.342302653162 -16.8879191019203 -0.955645128702665 0
134.754731782977 -20.3777466463263 13.059172366981 0
177.870401376023 2.39746793785828 19.9574341839829 0
74.9565876912722 -13.5739645828983 23.2118117894074 0
131.803962301081 -8.84637222501818 -8.45316986171312 0
94.7567761029455 -15.8709243613795 -1.41919046931505 0
146.8679466316 22.0511381342288 13.1244060581295 0
153.919760067194 33.5991979084668 -8.21592856126992 0
154.608468395313 -20.2558276418006 -18.1729302083954 0
189.001610339007 -8.15894335550755 9.04460787836368 0
163.901158795815 35.5682535526136 3.3882342637028 0
109.533101650095 6.75718145563745 23.27752091617 0
192.090131029118 -15.0789920868838 -9.58318876645424 0
165.213886083535 -31.8431487295657 -17.8003013110471 0
7.23970023085112 3.21791048614861 7.35981511667051 0
2.89801974433197 1.23799988070786 1.38036487263884 1
189.378819322705 34.6481367649035 -9.27419503381567 0
192.241902587061 13.2565762558459 -24.2222775229613 0
196.785015425424 14.4186132554154 -12.6194973798867 0
27.5011970342137 -9.17640442954857 25.0722034092052 0
134.019146609806 0.627519753532526 -6.37129432929111 0
54.0739644889346 -17.8142906390065 16.0004134808337 0
79.7279079684045 -16.830318652151 2.98312978127413 0
156.105508619558 35.6647412463102 -7.67473174034947 0
151.704057240777 -25.4914725042554 -0.833875567385155 0
164.724257036414 -6.81558977222837 -28.9986810083692 0
49.3393630818804 -16.8751291661329 18.699776887449 0
16.126731224526 -0.314961592129896 23.7991321696714 0
183.418446802028 20.2501723808853 18.13204802416 0
108.533100382619 1.71900269492411 25.1146026999331 0
190.174503083085 22.1809840926739 12.1945935955526 0
81.0259857299272 -17.5109083923679 17.5096693609824 0
140.114759887479 7.17812845533461 -6.97253699044571 0
194.362077499687 34.5268930684253 -13.4890782318668 0
158.529330631712 17.1524057517885 20.6683923424921 0
49.0360752366451 -6.23903948214525 26.0055600885137 0
15.235874090537 1.75304548019679 22.2916342384096 0
11.0553918339624 1.79540766889826 2.29820928840309 0
181.314770000153 -4.624551274801 -18.277091912998 0
182.183538030576 9.66236470400541 20.1637170514182 0
195.253675727401 33.9178539473864 -11.6396659544728 0
176.973575207645 -28.2151888795824 8.22112878370975 0
145.117815600081 -1.93791003094743 23.237041667343 0
142.982071532323 13.7459987822621 -11.0986424819037 0
161.95051943007 -25.4060141642253 -26.827407615569 0
38.456183000815 -8.89085114141343 25.3639288025488 0
159.595706505143 20.4420477565212 -25.4691704327914 0
158.631710358592 -27.8001123124798 2.24647487526092 0
190.250446125817 -30.333661740066 -16.1055008242036 0
164.53664832927 -24.6385712026478 20.3498580553947 0
139.654520909891 16.5173039403644 18.1755112322621 0
144.491129959474 10.9282538391176 21.1832982227447 0
192.394596915099 -25.5596331419939 -9.75047258352087 0
193.721248477813 28.0746099707267 -27.528380308512 0
136.188660931089 22.0821549914382 8.89406780408329 0
136.827496768604 -13.7624049505075 23.5545810593039 0
89.942029060389 -1.13230466920951 25.9759760298266 0
169.125296414198 -28.3590283161877 8.73269953027675 0
162.272363984424 -28.2238409351089 -21.2470112713899 0
171.16414615923 16.7678088837778 -34.0591001822791 0
158.641644276573 -23.3492365022696 -24.4020803441247 0
186.241805826611 33.512143914255 -0.726758428675471 0
189.771992919761 -15.454913434895 -25.5028137297819 0
156.053056266394 37.8703715177262 -13.0931616711715 0
74.4093564126704 -10.7573246175842 25.1443349850456 0
187.083857972548 12.0330430531357 -26.9698581613857 0
192.906338063624 12.9608429385123 -22.445407015705 0
179.492005515411 35.8463132246308 -31.8533081477199 0
137.388345134596 21.0266049954898 -7.31862557867346 0
167.687092591001 4.94027447476102 23.8571673632141 0
192.071216290414 34.2183749189543 -11.1237507102406 0
19.8699849960719 -2.61482419137501 -4.75706229556892 0
178.421450737942 -31.825617469761 -5.86550285356534 0
189.505622238826 8.89144976600727 8.83150039871653 0
151.507126738547 -18.0467816083621 -16.5530138429016 0
154.723460007661 -25.9096975921546 7.31812314895005 0
23.6607400483513 4.62790259587453 9.32861371131853 0
94.288936876179 1.35343741347226 -2.52040565597066 0
95.6335431997384 10.0392931725822 2.38126464390735 0
115.154677736987 13.7064854557471 0.0793255160894868 0
182.034153365865 -9.23743980022007 -29.8389355983829 0
177.467288222906 9.9730202291722 -13.9487152426089 0
182.323421121142 34.1620944164478 0.955419807854045 0
158.697394889512 11.7023955913988 21.5139053260195 0
66.886986760802 4.4691523861622 0.381775351525913 0
166.121624524935 -25.315571365012 18.8741516867724 0
181.354068238597 2.99324013247778 -7.22377198104404 0
179.077319126191 -30.1621203593956 -28.8336415525577 0
148.344452864823 -13.9297712487842 -14.6173301460121 0
172.803272116139 -5.90376485174104 -27.8336046180157 0
171.111062789726 37.0546156721034 -26.4743485972771 0
149.128987309272 22.2641608188018 -13.9780665689647 0
151.146954226241 28.163265529531 4.83118010166054 0
82.6701542953829 -15.0576784790022 21.6959422113268 0
14.527603924851 -7.86775314462657 24.9973339313805 0
166.384394555762 41.6475940361573 -13.5811236281121 0
145.524878878995 -22.1234287116964 10.7716309938806 0
14.7343514935696 -4.74862348979142 -3.1261888492609 0
153.647320221895 -6.34314995506551 -13.3863332227119 0
179.383073546389 17.8644135555745 21.3979685709248 0
175.350537697966 -27.6005687883331 12.0304469444302 0
59.7698120217111 -0.190624173062112 25.7197678780386 0
106.121223019597 16.7650599337108 11.0755717833271 0
81.7513633157206 -12.9371327629052 -1.92091219167664 0
55.0443074494072 -13.2604700814484 1.42144401428829 0
54.8805840271272 -7.22930228618634 -2.35194044499528 0
187.544982736886 11.0352608131775 -22.4895513724941 0
160.347646333095 38.6384923565864 -5.79539527967208 0
91.237829647623 7.72884620022081 1.28123508604697 0
51.9730184911587 -1.07400865737308 -3.07705831638787 0
54.0981701693851 -18.1495656202994 13.0188418938779 0
184.890692817905 -23.2053640620944 19.036880237864 0
151.535161774693 20.4083472991489 16.2126934771983 0
77.7687882723182 -17.7326402873109 5.46431170304131 0
160.920518632908 -21.8682840122864 -29.1589480483634 0
174.426919102606 -12.6614464494846 -34.1151998901753 0
169.416274400083 26.22032859608 16.6155846378443 0
157.586243739311 29.3085773066271 -18.4151016298116 0
11.6440992441022 -13.1735816566268 23.228273487224 0
91.5657534255418 -18.86973912686 10.7024000811642 0
135.365179386145 -19.7244762292005 -6.4010046489979 0
177.01557669211 -2.66717733682778 22.6963124817008 0
173.939480247911 4.33203033063161 -10.4701645714339 0
30.213318809406 -13.1208418709968 2.64396965998705 0
100.953551926578 -18.3579155529253 2.38241379467792 0
132.217019468928 18.0990565340485 15.9918715762137 0
181.170061037299 8.39566977128693 -11.7413655942633 0
183.688136452758 -11.0780879000634 -29.7582882325706 0
157.621786761916 9.46858323833549 -12.7513111959835 0
154.003025375359 34.3946086128144 -13.7976732749323 0
100.298818766951 14.6243060435379 6.73416173801017 0
19.020861037333 3.9812688491062 8.03330500607901 0
67.581441427639 -8.39877939927763 -2.89582684520125 0
172.709162514855 -2.5802170128047 -20.120422318251 0
133.659242548793 -8.79672587961965 25.088619623547 0
184.888922491733 -28.8519429139697 -4.81670473180549 0
153.002364377731 25.102469688027 11.7913062535312 0
172.34615624675 -26.1124169190807 16.9838789049443 0
182.228200426404 11.9243220640477 -21.1400449322007 0
134.232661306334 -1.79487185495547 24.5363030517763 0
113.482193510596 1.66562937112597 25.0824752048793 0
171.569905539375 12.850481909435 -18.1897790038211 0
172.625350962585 -30.0478225709328 3.18163997055165 0
14.7340511704607 -13.1839194735692 23.2600826371449 0
147.381433393942 13.7887225150211 -13.6716248058043 0
160.737778319552 27.8564438170829 12.3607269941954 0
77.5807092449188 -4.19261198275865 26.61079204484 0
76.4418941573622 -6.57641470239738 26.4083250064379 0
169.844815297498 36.86298120704 -28.5402825871878 0
158.916692771893 23.2524984987942 -18.9961976373627 0
48.1080403079447 -7.53893890083013 -1.56994266983552 0
188.622466605647 11.7105654483583 -24.9862883499737 0
184.417624497392 -20.3219236290118 -32.0406051758433 0
197.624191425877 16.454154081066 -3.48197571219104 0
107.244247483711 -11.7220834066664 24.5680162953817 0
95.7696859959482 12.6859071625875 5.27437318245768 0
92.0762725028555 -18.4590331935157 5.1941917966234 0
106.271988157245 11.6971106021796 1.21104111044086 0
65.5561523345031 1.14956606256024 25.4866471888946 0
192.314800049549 -27.5314338904867 -13.0950473040734 0
