165.706174725324 -32.9178048657205 6.37710909537832 0
159.504736521569 2.31315874687608 9.57016941001818 0
171.387226965186 -12.5980034835306 23.5740685156737 0
194.764729873991 24.2243029491726 40.6702536691327 0
192.277044401958 31.0756639609829 41.578190820215 0
-3.702486762404 8.46942510143782 -12.2928289905773 0
201.873260407777 40.4304498158167 20.230183325958 0
191.278263928006 -33.6910738043081 -8.96406572459249 0
178.919852301793 4.39416920307753 17.7987905386499 0
194.096095438032 -1.04584321521678 -23.8459722174504 0
-32.2609614952437 -8.20342608291299 1.68076174995342 0
27.3924166638022 3.77693605398155 -24.4833459358168 0
205.981654783809 -39.4959332681033 13.1731619997306 0
162.996803242709 10.7739630476894 -21.4212311445268 0
13.7059567537974 -5.48170145080546 1.49296035056207 0
167.458675936061 27.5846749516873 -8.62683104774763 0
-15.1774547185995 -11.2188257395832 -24.670904785483 0
208.438602983024 22.6267468774531 -16.5387987851627 0
203.944888746499 25.1476458357032 -18.4471766680712 0
209.382458821872 7.49381822461505 -3.63760401216395 0
180.317388267428 -40.1657376848068 2.0403399937209 0
192.735788219278 -35.3835989465513 -5.08552192573783 0
-10.2528758769031 0.428337958708705 -25.0238568036624 0
49.0123297320893 5.46961427126025 -4.13841010833936 0
184.231846974259 44.3856654231779 13.8083278450552 0
203.937139554733 11.0439511006484 -17.0576631281572 0
170.808567806956 -27.5118475670806 -14.4337251674281 0
151.534177753252 -14.5120854941916 -21.8253698369585 0
170.500471152454 -1.68690338697144 -28.0276873711334 0
214.166069245548 19.1153208957566 -1.21675893027864 0
83.4007321669395 -9.24651107553365 0.962087872583287 0
25.1348670869536 1.68746750878775 -0.635514869609735 0
162.120862297566 -8.66024816552796 -27.6265773429874 0
146.103878263653 -8.87342423757163 -24.9022602962098 0
-31.5847206890263 4.98145042662598 -20.9792065110418 0
186.974721715436 41.7827439777609 24.6086306343063 0
207.510512324454 -29.4274667669032 -13.0307451542326 0
140.637954300606 -0.610352928954179 -24.9400851796293 0
191.825401582742 -20.5365859046368 33.0962233951539 0
132.185000880341 -19.0554023201 -11.7764864095354 0
182.074708686899 -35.1036611286787 -6.8183205022186 0
215.49230796066 26.2469080924495 4.33474774785562 0
49.4365758792054 7.9533688385309 -7.24508183109768 0
145.097575456585 16.4247677009204 -16.4967576238498 0
193.755680790614 32.9405540466578 -9.97786357698478 0
206.230603374279 -2.37836464130864 -10.5765501793767 0
206.195146764762 -32.1591251142418 -3.71031667121409 0
190.309553605575 1.49879751392081 -25.4453974094807 0
163.663807869578 -30.0151286202385 8.17203381979849 0
-20.5439809780755 -12.8902119881703 -23.3701717231796 0
173.528979507215 11.6506309416194 20.5709204776639 0
113.96435831424 -18.3196928972197 -12.179111465278 0
-17.0816872042479 -7.8732511364966 0.919610815506467 0
157.597703369065 -25.4787621726681 0.799636022644843 0
211.922382921724 19.9226351386462 -8.86821943531195 0
187.033945458326 -0.0967826910651778 13.9860555288171 0
191.505560600486 -26.9621528174461 -23.3021172760923 0
5.12558890154115 -13.5748808001169 -22.8263733575407 0
186.766528745623 -6.36964775773523 -29.8686941662484 0
198.329890649654 13.0964509508067 -23.173648323252 0
210.082909795501 -26.4708148663488 15.9465210033332 0
198.097511165829 40.7428869965168 19.0900489041418 0
188.950670886724 30.5937553340092 -13.7285987254163 0
167.666956364139 -30.2046962584731 19.9135163135757 0
167.620838817228 5.75813742484197 -22.9630778237317 0
195.920186964859 -20.322221440364 31.3724364555812 0
-37.4561030114929 -6.69558955982059 3.46934996281261 0
202.456795791234 -33.5060168075953 -1.31471800938635 0
189.239791774867 18.5996535442584 -22.5885053742035 0
191.496852883685 35.1172213963517 -7.93688252452729 0
199.995914502187 6.91231223814628 -19.0966788036982 0
177.686500460778 5.73053545488216 -24.4473084225012 0
133.38945053477 14.138632666967 2.66603791706695 0
212.690487663239 36.3826893621905 10.3959990979104 0
-31.4770887307882 2.70968502058236 -22.971839391543 0
213.602785699744 27.8390876538889 -5.30688676675348 0
110.113593681823 12.694720973173 -18.0674153255067 0
170.510940177486 27.7320550584744 29.5999201261054 0
193.51485246155 16.1263557568132 38.6296125410784 0
195.81785137122 4.13071411403926 -21.6248944702318 0
207.978535231444 9.13636110201727 -9.50864540797321 0
182.001796233765 4.16827132954864 -26.1943497522867 0
93.8226390370471 -11.4820055300987 0.747923670262198 0
180.528173740243 11.3980440725214 31.0519000626655 0
188.985278330213 -6.73846391695289 15.2414409547419 0
5.67413450689549 6.37462432581717 -6.29507740076126 0
160.850714662636 23.8131543979241 -9.40948050650498 0
192.30956432545 -23.9313623219588 33.8093358872119 0
214.43376221158 35.6891725801668 15.2707726551411 0
195.665520392627 40.6773700466484 5.03130921170756 0
209.481338168494 -26.876504774286 -16.1442332339723 0
172.053585359864 6.09482785687891 16.8249729620664 0
160.216874471554 -27.1778040274454 6.70549702745583 0
147.743122930116 5.9471018466487 7.11057159226504 0
191.239359569893 -0.53970843285077 11.6889462103624 0
187.97703502229 -37.168374366437 -3.73013666053131 0
172.351711266487 36.7518517684496 25.0411269481213 0
60.2149257970378 -11.1847505279861 -24.0762929010842 0
162.950400057107 -30.1030266349656 2.92132441271029 0
-29.7281523070286 -7.45233191144901 -25.264102988506 0
96.2939609141566 12.1710465942921 -18.0355747221176 0
-37.5897675349781 0.384480962620245 1.05402151323777 0
176.351787444931 44.4130958001923 17.0182726646238 0
197.685373338792 8.9441667297474 -21.5114396496207 0
182.475805831748 34.4898824066277 -8.97439188778384 0
169.209848021975 -22.8466962121709 -20.798929010133 0
180.173253893723 7.3777492175383 -24.3095103570338 0
205.599622908674 -9.572086395676 13.176000053746 0
-42.0160887662759 8.40602625562019 -11.6189577421603 1
179.95468273628 39.5606780786733 28.0143386698182 0
-10.2402590754386 -2.58694502189084 2.57017432207832 0
164.162481527302 -26.7209141450699 14.0489030025685 0
18.8375456880033 -6.17660797728929 -26.1542809633681 0
127.476705296509 -11.745565299313 -22.7393938877695 0
158.783941453898 -20.461710979143 -16.8382001475268 0
166.930992103335 27.129705080201 17.7077947250352 0
209.929023034156 -14.0016256050026 5.20133232115254 0
204.519111695238 38.6941123727739 16.6697034307378 0
108.285947155194 12.8645836951149 -5.25774352174644 0
159.518654098684 17.9614262588232 -17.2190283465162 0
163.938754859953 17.1826080705225 -18.9619304902047 0
214.872362329918 24.9159014614055 17.328400304998 0
144.071296986426 -12.0187045176656 7.41014441181491 0
161.669437033713 9.79709034050107 12.7064892439649 0
116.542843508758 5.14077285447144 -23.9512613037348 0
-15.4781747247907 7.5605751733765 -8.70039208480796 0
190.055301355494 43.9492751576034 10.5913940026634 0
92.7329851289942 13.1918005210774 -12.6378316191995 0
187.081732175588 -37.5425968104569 33.1663902296788 0
198.193051715683 -42.4144907256589 23.0617054628645 0
193.261454332482 39.8217462815608 1.90165712293433 0
-19.3066113124205 -1.88878933684005 2.38077420152482 0
162.434238300946 -29.1450850918199 6.87586817073532 0
169.339430319829 -6.38623889973117 14.7841925081403 0
195.482414653968 21.9479504422716 40.2668247404916 0
139.827891709035 5.23955207804831 -23.2975842935965 0
168.102486251575 -33.9944945500467 12.0446320213857 0
121.866209555906 -3.97241916482913 -25.601573195488 0
204.809660975843 -10.3471858352873 15.2689908353662 0
213.300302962883 20.5803072502786 -4.59618594281462 0
53.6816955159823 8.92299263589081 -8.63848933985489 0
187.033589414559 2.00009570216015 -26.5419153088495 0
210.872945337448 -27.2941579394493 -11.9713452083873 0
13.3956955192637 6.01515261982818 -22.5125891654213 0
167.85174505813 -16.8720148939519 23.4284562690883 0
200.301970449169 -1.07538252072348 -18.5772862443027 0
199.939762555721 40.7711110770041 17.5982576793364 0
174.519197027578 13.1294105947413 -22.6649768750985 0
212.289970162036 12.9197439592741 6.22484196224816 0
153.389807109027 10.9304647350909 -21.0365338979096 0
205.783195321523 -19.2658632476851 21.4328784870734 0
144.995553191916 -5.93326636113814 6.88309548909249 0
195.240903659118 42.8117875480457 9.8649118933079 0
-9.75825361662518 2.6250773798461 -1.5025574580502 0
194.395202816632 -4.07403855024075 -25.4083545080563 0
201.087051695927 -35.8605736317405 4.11644195881267 0
40.3136765194933 -10.9200274574992 -1.93554655709029 0
39.2158436839852 -2.1565945028361 2.00573386026497 0
174.477352570505 -26.040831973505 -20.3462262937091 0
80.0520161567497 11.2663069756347 -9.61003172083921 0
198.152937588921 -35.753324121896 0.0974430570663546 0
-28.4344744304631 -17.5444056829757 -7.94936204655229 0
187.067614004625 -7.46345493672171 16.6647671772131 0
31.2307091953592 7.37432021326836 -7.56038142626942 0
78.7426295782418 -5.34893980187084 -25.9810413144804 0
88.0862357899016 -17.3940968283183 -7.83695166487818 0
6.50204244610455 -0.646238115811476 1.9206025624324 0
122.579788170341 -18.7987244145905 -7.60065229360984 0
-38.4128926902827 7.92089361923129 -9.65932707037206 0
198.402247481371 -32.9060264934576 -6.27368170943795 0
190.328671386963 -24.5938510424582 34.3445446479159 0
152.160134148012 -7.40676742463077 8.23156895031014 0
183.538876879877 -4.52417644704602 15.5656055635297 0
61.4858519989557 -16.3463521123058 -8.22005578540984 0
207.653071872466 37.5607354147907 15.7103843520947 0
211.727138559388 11.6579265962951 0.195508053364776 0
195.596733093262 34.719567743372 -6.57653768755213 0
174.083463185029 24.4621486068808 34.1701720731115 0
170.529685663839 21.5086927132291 -17.9010164104333 0
198.767030913015 23.5713362690773 -20.8381256705843 0
201.925686644545 7.24174404849444 -17.343234932344 0
12.9485628470615 7.56358262833667 -20.5733408084862 0
163.591602429377 -23.8649185237856 -14.352238844458 0
181.036892652485 -32.019661256723 -12.116334071214 0
-40.0861346456966 3.88908064373911 -2.41337864619966 0
8.43486705801489 -5.89166150441129 1.35329854271135 0
165.110617800207 -28.9007097674925 -3.00991167419688 0
158.412892772692 7.79801159725038 11.4400031220222 0
75.6742305905021 -0.585967757317035 1.22076116871748 0
167.361121107177 7.2898740340958 13.7781631028278 0
91.0987418684795 -7.46654223276643 2.14355377676876 0
166.146118803793 -10.402548086429 13.7958636312785 0
81.6915689950626 -17.0430382659205 -15.5217421260727 0
202.013635453307 20.969642547848 36.9687510996368 0
115.399323864981 -4.72460997188132 -25.6786788791335 0
194.815381161832 -40.4511019134932 19.8375486767985 0
83.7362838847487 12.2763750494623 -11.6265764531912 0
168.683390529048 13.6626093216993 -21.4480851150904 0
132.644536540246 13.7770483585094 -18.3612534364786 0
170.957343888337 -26.6221651944627 -15.9701821868969 0
189.430753025369 -12.375473109328 27.0183220301153 0
184.102144336325 -15.2017738162219 -34.8635073144227 0
206.567927143043 -29.7450543612827 23.6503505733116 0
183.932772290937 12.4189787834243 29.2729814718527 0
23.7244243505021 8.12178053639554 -9.53347453848811 0
211.031984334782 10.9313836761539 8.16221995701186 0
195.431532550387 -16.5374924398805 -32.2254688060156 0
101.397215066593 1.02626765269166 1.79352838453551 0
193.157181777861 11.6664248451785 22.3132114138109 0
213.953703922952 19.4921228975195 15.952573243556 0
212.662809675567 -23.1850099668837 -3.36234568795445 0
-14.0019143368767 4.58740682831481 -3.57484499712908 0
145.014783525174 14.8464260775217 6.98086419309511 0
58.8522744580652 -15.8371681366607 -18.8656231655741 0
140.343567705615 1.31582319801102 -24.4558869929211 0
37.9443108234432 -15.0254855215032 -20.6597972225237 0
22.5464953484443 -4.16565754879399 2.36646441930253 0
137.295022406332 17.5434161200009 2.00411155800659 0
-46.1060535248393 7.43112063761076 -8.00891264351946 1
61.3193623028174 10.1425188336612 -10.4642795856221 0
166.693255346515 -30.3512561497832 -2.41316819273165 0
153.612474912243 22.5642194129969 -6.40873151666539 0
123.717095604531 10.3186193505584 1.61536880677308 0
208.612573348152 -30.6729812944681 19.6488110695564 0
205.542286001037 38.3492967128307 19.6552511459276 0
185.693726191617 36.342926339006 40.1993542431894 0
160.831495963154 -11.0364485860247 11.4588546360495 0
104.689000975666 14.1272933401875 -13.7040063623232 0
105.917812567501 5.44601983396553 0.838139793395205 0
107.812862316579 13.9273890188077 -7.89589830376339 0
99.6445011113741 -2.77225803396334 2.51317747527955 0
154.323353404464 -13.1619642436087 9.80264013051464 0
144.434086588813 -3.34862159859233 6.60254155282496 0
16.2500706883556 4.05674846190158 -3.0768196473851 0
25.8271597428188 -6.47568181672089 0.662728089862387 0
80.6156640898973 1.03196931819551 0.759987877750557 0
113.323444066971 -3.01340340861305 3.45763861349776 0
-36.4593256693946 -13.5485716394941 -1.59194327780712 0
196.178835109035 -38.8340358594451 10.025683384526 0
151.350940502707 -22.2878533072181 2.6691261671895 0
190.125691236397 -4.34893681821316 -28.2778045940801 0
203.240046918305 12.5115722712571 -18.7346864266911 0
-13.3483145983748 8.05993374872168 -17.712050033298 0
195.540519200611 -21.1154450495871 -33.3147052278714 0
7.38777284434542 7.94912728582406 -9.97971426950906 0
210.139114255278 -16.7424078158052 -16.5762286402217 0
60.2576390947203 -17.1194257066901 -12.7616273268723 0
175.482940408363 -34.9948553547748 -3.55948112856922 0
-18.6992279815434 -4.21819674438537 -25.7577751464822 0
185.401296208943 39.3176928727318 -2.18707203879101 0
12.808661011346 -2.03613831776368 2.39318073728725 0
185.057014313761 -41.0141173424306 8.44375619024496 0
211.823222229826 23.2185332955406 25.8397733211886 0
205.630423646002 -13.4223389218381 16.0116270124848 0
215.045459340755 28.4980187514471 17.61495036217 0
209.654971721014 -10.2536746462965 -2.25977687693769 0
86.483850991177 2.69800765339552 -24.8636944626916 0
160.843298130289 -16.759665847183 -22.7887788608633 0
141.755689984155 -12.8493137351257 6.85748679656303 0
159.122964664671 21.4845830262267 -12.5036108322246 0
159.11338421475 -0.521251341727067 -24.9940554666062 0
170.929125770374 42.5294826012539 13.1213605964729 0
200.388237772942 -31.276244348609 -9.22374153186869 0
207.429551754286 -2.4298553454027 -4.9346664153724 0
151.727384555751 14.0385463525643 11.2676732652344 0
16.7099895621644 8.79499694970948 -11.8455784191522 0
174.379731537053 -27.8262391596273 -16.0680102182237 0
151.288330355332 -21.1071987820836 5.85996542911937 0
210.32911487477 -12.5292042382048 -1.00452207079709 0
205.333115717913 33.0165911558605 36.2733396450613 0
-23.2857898072324 7.48495414102194 -8.42681383823322 0
210.304119483475 16.8827135273826 -12.1797019878162 0
171.379432421445 28.8142519453027 24.794921363109 0
212.281854832064 21.3708854394684 24.1957915454537 0
207.72116678658 38.0794111066112 29.3276674227213 0
179.400472078316 13.9612709073804 33.6465339830205 0
159.206863761542 4.71431672703922 -22.8877384673101 0
188.424684788218 -29.2209668623574 -19.0872772477834 0
139.66650235828 19.0176037110413 -2.16171651342185 0
62.8997728879472 -15.3248116919496 -5.67465183354317 0
210.787284929686 -26.8712115652739 13.6669073118058 0
177.123625823945 -37.7522776717074 -0.960813405141444 0
57.297286040667 0.696610599956467 0.614085339882286 0
153.028006827642 8.65352318636823 -21.8463354174696 0
206.741902703197 -27.8508109681641 -17.9362419993287 0
180.253757035315 -28.1836537394975 -19.2021427556496 0
-42.1365971970457 -4.43352635180872 3.6937527050279 1
139.19961136082 -1.91016566048951 -25.3070746962549 0
211.357472819147 -23.2104045713719 -17.6663906425786 0
209.769207452673 21.4599476384782 28.6297203176438 0
100.29877251439 8.49154103787668 -1.83233334620151 0
207.229935179721 35.9498588365632 33.1973835882103 0
-37.4619675735786 -11.1389564144418 0.0580054603764476 0
34.7576014305225 -14.311714966149 -21.6031876834146 0
187.437215387922 1.65402277647258 14.1929989173477 0
210.009949519969 -35.8364301510541 10.5114185630236 0
163.852796473225 -31.055287377833 4.59521191338309 0
186.451327930711 9.47523144010459 -26.4812378776991 0
129.754238327224 12.2037121659079 2.28458588432175 0
163.603597178547 6.00481582389916 11.9177139610232 0
-45.5763772859358 -17.2595893894645 -17.2814401522812 1
-23.5928014958046 6.63065821397522 -19.3965292471263 0
66.8060589191401 8.5264546259126 -21.6761343341914 0
151.299797067777 -2.97034065682685 7.60677015744648 0
187.243823779839 11.1579266493369 -26.26958471308 0
207.447076649069 2.42751878286349 4.24094399156797 0
174.443845483017 -35.7656286228699 25.4333984456763 0
148.261803483083 -19.6340378849059 5.78795829927621 0
145.079266498723 9.56216553847878 7.04984727337744 0
3.12891537123699 2.23916329786298 -24.7076718040655 0
-19.6454216368435 -16.4428665521769 -6.74057814006321 0
155.481413658867 -19.1444887275315 10.6111264590132 0
0.787224315649761 6.48320396433183 -6.44832614999932 0
210.528782622087 30.6472227804745 -7.28411727089281 0
165.89053369268 39.6634425848527 13.4151423685057 0
189.725219531392 12.5698306042499 24.620978847704 0
178.588269772842 -41.0974665409584 9.36179231848808 0
193.766166910435 -10.8674230777785 22.7962072638184 0
109.412651614108 5.54228606965858 1.18558684475509 0
199.270410391728 -42.326624552633 18.6102642591208 0
25.6275608554375 -13.4127455256502 -4.44085268292466 0
23.4972291373665 -7.8986622086717 -0.123387342910914 0
176.194306496348 -6.83819732322127 18.5342681301153 0
10.7550297259601 -12.5329279094349 -23.6559098985734 0
212.529761084792 36.7964818091988 13.7912288228231 0
195.204331838668 -38.3769277052371 2.64347046886234 0
193.950996321338 -23.5479252797923 -31.4806708401927 0
15.0145004608148 8.27179196122983 -19.298026477806 0
184.995312479743 24.8868381529742 -19.4817867464141 0
146.889348738127 4.71673748092546 6.80337701632179 0
-13.0583817356938 -11.6469248335173 -1.72489765188894 0
167.129366597543 -10.7001547740756 -29.2298373114197 0
202.760047569743 33.6942708190952 -5.80046608305833 0
209.146750689557 -36.589370631936 15.8158349121516 0
165.976286785672 -25.7458503309083 18.0729973129586 0
166.049546448768 33.2809620228166 3.4720040545225 0
202.76451679557 19.1755075301152 35.6362474612361 0
173.38840651779 -32.5919002492919 -6.66479766318871 0
203.135522848841 -12.968009956032 20.3555765017571 0
179.395612208344 38.7702444428485 33.5482404791997 0
59.2707376653364 5.13847718848016 -24.0288977252498 0
195.544296854972 -38.8723192365988 15.2464903989439 0
133.847205845113 17.9424002016576 -8.49250522221998 0
169.287486981191 23.1218891450396 21.1619450824278 0
169.786344092165 25.1507586239523 22.359842344847 0
113.33015648233 -18.5007200774283 -8.59045870463342 0
82.426535088945 -17.2811522613577 -8.1874850179134 0
204.813611763334 -14.2226003594712 -23.6375751330006 0
184.919638738303 8.15842354113878 -26.428022418639 0
180.619315537725 -5.22302737265936 -30.5582409518138 0
172.804798577833 -6.49993137753247 -30.3146449428752 0
206.330246848471 -31.2273937963371 -6.95294453187772 0
129.332679602619 5.31739815893406 -23.5952914826731 0
159.187225621321 -3.49510322688009 -26.5575833744201 0
159.31708178261 29.6256797775958 8.92013241215967 0
176.950946098261 12.9155197324677 30.9257870970427 0
8.5045482092913 -9.65164445501353 -25.433922875139 0
91.9252211379124 10.9304402735629 -6.09322481448081 0
203.283147162536 -34.2317249166372 26.7816058063741 0
174.019966170549 -17.44729945769 -29.922685256325 0
21.238409147031 3.1479770335771 -2.18042829039654 0
124.131740736412 -12.0587992597349 -22.5595974261804 0
56.420285247712 -12.7194453843322 -2.94521899400156 0
166.188238778644 28.3413259241755 -6.21669202481098 0
10.1856865455968 7.89532543924371 -19.8502597909625 0
-43.9120380060702 -17.2077724431548 -4.09931068319454 1
156.517152287928 -20.6874965290868 11.0396484788811 0
115.00681470829 15.1870130987069 -10.4790948507922 0
63.6500219679306 -11.6671522115571 -23.6905924423931 0
138.881683937454 18.740542856949 1.16343174855566 0
205.08011505367 -2.71813887661735 -13.1541710996734 0
-25.1873667805022 -16.6550461935696 -6.42929633541077 0
177.393779660041 25.0295967440471 37.168386705542 0
150.138083977466 13.0749882985691 -19.9191251966385 0
189.957565416078 -37.1553186533012 33.5270379010827 0
105.86005224409 -3.86166391422274 -25.8366454478585 0
169.40899016877 38.971955538496 18.500980662864 0
89.9072887702582 2.53527690608625 0.621182329963907 0
170.135080236955 18.6326967839751 26.0043246543199 0
195.745110476287 -38.9586217849104 11.8939688500189 0
151.135340682514 14.4957083320276 -19.060760300333 0
168.26240979737 -5.34076855972215 13.3842291201551 0
130.617946107513 12.2933686947215 -19.6625688864137 0
52.1890067784267 8.31722997230262 -21.5977367276988 0
179.482605868441 -40.5181163925652 3.87965649253554 0
173.393545652808 -29.8488115368879 -11.7341567934015 0
182.097926681104 -40.5039642252601 15.5237817841028 0
174.838415307595 44.261461637965 15.545626017351 0
175.263787776211 -9.28906508269666 20.1580092343359 0
156.277695641478 -20.0459699050612 -16.2924636221064 0
139.683961742864 -11.239801859881 6.67613185637649 0
171.730002883151 27.7433933804683 -11.840452901791 0
175.460853768223 34.3754451603249 -6.56313834233012 0
194.250775349705 -2.31011087939987 10.121400572177 0
178.824630675545 11.8768525612107 27.0253551249116 0
148.817337944936 -14.5702485892433 8.62484582191538 0
-26.4535575958428 -2.04510968091639 2.34278032569216 0
169.84906359485 33.0704969175835 -3.23764477534483 0
176.58406042831 -9.08756897512351 -32.460054821619 0
134.744636910048 -7.03604224049649 -24.9986367215776 0
193.862933409171 -40.2387168105393 8.18124914044974 0
186.243781759078 42.9287605888058 22.0273139245879 0
86.6124935102727 -4.47347369731532 -25.9572267654885 0
109.72603498167 -12.8916361167651 -21.8420167903497 0
3.10624318723417 6.41734290199241 -6.36981054171474 0
198.456722165195 39.8846296090501 5.92129561265238 0
192.434184970021 -9.61830369525961 18.8775591981871 0
194.70041319448 -15.5942821428703 29.7441248606839 0
126.255880342799 2.11046917510779 -24.7188300212162 0
109.210753976395 0.51360826213436 -25.4805850764754 0
100.124951992535 -7.55554999935754 -25.2063321774922 0
125.388988088061 7.79955902513942 2.50692786132325 0
33.5174493144403 6.45795796143764 -5.83220022819188 0
197.533244339537 -27.2382008605399 -24.9151997285148 0
201.352666519587 -41.9153134279159 16.9671730717809 0
169.046683301923 16.6555897939172 19.382992096061 0
180.400467091374 0.299677430600867 16.8276120308963 0
155.426977486927 19.5775461392495 -14.1573117456879 0
65.6416364168598 11.2469820537686 -13.2631890945998 0
201.339166342824 9.20180818123521 16.9195428728327 0
211.50711513675 -30.5876298141478 3.51736552430696 0
132.276040825628 -19.1567568488659 -4.06354712237527 0
163.466351155088 -14.3011101114867 -26.2936668933053 0
74.0074878773091 6.32444456025905 -3.14507481836555 0
172.486816721199 20.9418241793549 31.4433154074977 0
172.168437046492 17.4454377024076 -21.0741151189243 0
212.355364667461 -19.7442885661341 0.749152570013455 0
187.955486036268 -34.9926093667678 -7.00497076792551 0
169.446662847812 41.5797289822022 11.2411033456131 0
179.173405630278 15.9704295986399 35.4458249707665 0
-32.7490729537877 5.28297403915619 -4.39213926725047 0
166.241364758741 39.7995083123749 11.6849668448932 0
159.23975525214 -4.34475933798945 9.77089893606315 0
152.250712985578 -20.6253279194006 7.51373883235805 0
197.96781400807 -29.1440063300108 -18.6508788174956 0
76.69636364131 9.95063437929911 -20.3041652812732 0
190.407585902059 -16.7457041553263 -34.1501409412076 0
113.613515132228 -2.12689633946554 -25.7426735555966 0
84.0717507425651 -2.01419538798843 -25.9296842565696 0
177.336679350111 -14.8005299515692 -32.6675014315811 0
76.5607487076469 7.67034580339625 -4.22414721863012 0
10.9873739450438 -0.55992117731567 -25.7479829074945 0
171.614752339508 -31.0075121873421 -7.92505271317491 0
156.679176719523 -23.745094649491 7.66734999731343 0
19.6687557847852 8.55597558912697 -10.7791728583267 0
119.688760026084 -18.7051799672853 -9.64028205661539 0
213.042964565824 -23.1623767911771 -10.4550366774689 0
207.551987025556 -30.5130337673745 21.7899631035105 0
205.238737941747 -7.59980901878248 11.8822399846432 0
211.188332674753 -29.0288615427697 12.2989981635008 0
155.721308898448 19.1012763687227 13.380867266177 0
61.1937794227406 -7.55859076275542 0.741213153319235 0
-20.8926851596206 8.07585237217199 -16.7026182434985 0
207.229210549682 -20.4357235910089 19.6355642975972 0
199.588994089436 -37.9269317906517 8.07240837661059 0
191.77873103578 -31.7180414141842 33.9036483454688 0
204.252962896027 -27.4823527344762 26.5470697291056 0
202.928360907459 -16.3797841665889 -26.8235032462812 0
98.1933221608955 11.1308025440225 -5.0452854095436 0
175.142921829712 -2.74217849702163 -29.5150301968142 0
189.47882648094 -5.41031635044466 13.6722274539709 0
47.0056779614346 -8.2064034690616 -25.5826349985399 0
191.400419649594 16.4284060608701 -25.722673583356 0
141.08099719535 -18.8382223124042 2.89614302576642 0
53.3535549228582 4.20296349954752 -24.5086228080825 0
4.38100145985475 5.00901755427819 -4.18029199717293 0
189.199084198855 42.0888547743325 5.05430526693567 0
65.9494874391024 7.45325639292373 -4.88705613824713 0
79.928131182067 -17.5186336003379 -11.5042807137715 0
191.571415270333 29.8219863996017 -14.178951246644 0
189.178866042423 -38.2357535913587 16.0405032654116 0
141.254585322787 12.8696313950529 5.45635181090907 0
173.09555791749 40.7665913143578 3.52492400343588 0
169.599912402624 31.3299037578626 -5.45255278048818 0
210.870653191138 15.1780972430239 18.5725738646128 0
196.636834861794 -7.52121167574564 -26.4023031420053 0
170.333514487943 24.9275604814833 29.1380063347196 0
27.390612960339 6.49482741920542 -6.20168008461285 0
189.765027406328 -2.01366072366118 12.1208732798415 0
209.159753251414 -15.2276331180282 8.42572234976472 0
210.680092130789 33.1055875126514 -0.948052986890122 0
89.4431825362131 5.94870358349975 -1.38932832745487 0
162.73147311142 -29.2140032252559 1.21522232267642 0
-29.3270075921885 7.1603411559794 -7.5523390874892 0
156.560315682406 -0.266842356927501 -24.8837979933145 0
171.23532207484 -12.4285657866183 -30.6881851323196 0
205.240066690864 3.14288785646326 9.21808023638952 0
68.6227440627422 -17.1674952215823 -11.764447238539 0
120.019143946811 -15.6095162729577 -18.7959322182345 0
198.537496615082 -30.9090937677137 -12.8625915936366 0
188.134497746293 -17.028232220124 -34.7921416790406 0
-31.430704689821 7.45275189040991 -8.21430575845281 0
152.730204176242 24.90745143112 5.50078876409097 0
-8.96251953475706 7.9084385116894 -18.599025039181 0
191.585023722863 -10.955179824461 21.7138841331104 0
171.327904605348 35.9672110717964 23.5005396967245 0
189.654434269141 -39.6730995845136 1.24116239404577 0
170.998007910899 -35.5134720292686 15.0315398282552 0
163.301787847877 -16.4720818811599 -24.303175830422 0
176.818765363829 25.7824406139797 -16.9789489793716 0
200.629608805312 -38.0523182127468 9.62178988027767 0
193.790215200507 43.3878819614006 11.2799158230563 0
215.652084991658 27.8179423561412 7.23179119480493 0
179.323732358027 17.9214360174484 36.7070682611331 0
146.582765607022 0.599533747821566 6.50272685337455 0
169.558062415717 25.7002060006205 -12.977289918469 0
15.1255714934481 -2.13308452584044 2.37035116448219 0
162.162874357852 -1.38670912566049 10.3158582918777 0
26.0835221778667 5.62994052795178 -23.2745070979443 0
-25.5013122752498 8.08191684216871 -16.2617656277699 0
184.535680343063 -0.353188554907836 -27.9705442815139 0
186.028223554467 40.7924469402065 28.6460577000083 0
171.932323964935 12.0305103256083 18.9114715962584 0
168.522725802083 27.7970594188679 19.9138419620725 0
54.8096253372046 -9.25153831721673 -25.1955305135324 0
-40.2879466553001 2.30292767138162 -22.5226483299623 0
166.088816549533 -29.8244596116733 15.4287467108047 0
147.497585317561 -17.3245124612064 -17.8763447630324 0
168.235819013171 -7.60226573624452 13.8727182893726 0
45.1601519499793 8.20835691083044 -8.09692550078667 0
156.023887160078 -4.14892547476177 -26.2622472588746 0
187.770311857243 20.37998382922 40.7062370767094 0
-13.5318143871145 6.77073013337747 -19.8662455859834 0
142.459686448909 17.1342873338243 4.80323306824939 0
122.309549743793 8.76856197184431 1.77374255895608 0
176.621920818407 11.8521280458511 26.5617584998356 0
178.477243877348 -21.6127601457733 -28.5605379397704 0
143.702706520186 8.09327507292768 6.43512134745696 0
171.672527629002 -15.7927954378889 -29.7088794306786 0
158.167578563917 6.77220813756531 10.6054661426453 0
149.06744669168 8.96398303826171 8.00103152509628 0
-28.8095996014016 3.06633586782082 -1.81141926364405 0
110.973034972872 5.54736255286953 -23.8081042529141 0
187.069410990485 16.0453343390483 -23.5164282393345 0
206.235459148579 -27.3338048423182 24.1718710835641 0
155.677389257039 25.3172420687471 2.8533281056849 0
189.030573763199 -5.88367081837115 -29.3690009157733 0
167.987785608665 33.1666426139671 -0.170384637851775 0
126.584324792581 11.0569458150452 -20.4778334551248 0
191.338169083055 -34.7568071416376 -6.79477792173226 0
206.747844059461 4.70586153928113 8.83778455552625 0
-20.7907426449101 4.00723738500062 -3.0498600889767 0
196.668466884564 26.0818734068305 40.3840697146906 0
215.151362724022 23.0759197208884 2.24084910022377 0
201.909707812236 -38.7239301189577 12.5839211028557 0
48.9962309681191 3.93497337134032 -24.5337233818562 0
184.951514064083 0.226406662909292 15.0266753546738 0
188.562392502742 15.8710706688044 38.6030232313858 0
166.567805358693 -34.563155320306 6.11215149222962 0
137.257340979625 18.3466136197515 -1.98677616532231 0
186.320763000948 -13.7558708247433 -33.91891766674 0
197.495884910532 32.8932401395603 -8.95009825873571 0
86.0757819537811 -13.5262474643926 -1.63182221357529 0
206.112840212894 12.7234105289767 23.9027709348016 0
189.41098217475 41.1690782199964 2.88049520926191 0
177.833044394698 43.09626623695 23.0664286598918 0
178.679434822302 44.6087779875432 16.5272511414564 0
204.095201731392 -17.5490170891681 22.5888632991798 0
111.909466294332 11.7917712658048 -19.3008653149198 0
26.9328143739351 0.44167376393763 1.54849696456796 0
128.951291785173 -17.971569030071 -1.627816098643 0
-34.6836095932777 3.8942035491216 -2.59594905789703 0
107.064860555375 11.5778124151869 -3.6173728546762 0
124.790807298152 -3.50839152957193 -25.5501744020935 0
-17.9850052257847 1.57448027661775 -0.815679657934025 0
77.8255689165374 -16.111823485517 -18.0798024805773 0
149.946309419779 12.9206850053954 10.0442215560153 0
187.585400451658 12.8991561110751 25.4349555634371 0
55.2620938828416 6.92328012480998 -5.25744508156429 0
168.799788648011 -11.6036625918245 -29.8763753827701 0
19.8260216696956 6.23976528638807 -6.01806630949747 0
183.005182986322 -10.3141081781436 22.6558744154925 0
102.721341868648 11.9273147596461 -5.1509218414097 0
102.468576101954 2.58689123498352 -24.9499691190883 0
-35.5084283119523 -2.78370067763193 3.52522102550016 0
43.7303169710823 1.71053406234612 -1.30747338280117 0
178.988576585443 -4.16799656259064 -30.1691760296838 0
180.926518723386 12.1364289135065 27.9404304617116 0
33.6549179183146 8.54000192753709 -20.2677230413462 0
100.454894499312 13.7478162685201 -11.7607885926919 0
207.991136150643 -13.8987974822527 10.9264293830026 0
205.900792466447 -25.8026765246239 -22.7954222030437 0
96.7727793617761 -7.71443260969556 2.66719434224227 0
-45.8846329060347 -7.46793322825309 -24.1767361202909 1
167.732642426421 40.2489167381902 14.2281408161641 0
190.002895494089 14.3872768448556 -26.0011603698473 0
205.661011656842 -1.96093986861535 5.38663967112373 0
201.829659920309 -25.2363075767783 -26.8905812575703 0
-34.4908543599323 8.0340899050117 -15.2980955393608 0
175.948276090158 -25.1291890049162 32.1447771273325 0
34.0325817315337 -16.9304289811957 -11.7187211855776 0
199.523024909507 -25.3064393474247 30.4928054117578 0
49.8028307930792 -14.0883436252427 -21.7224667194381 0
39.6080069387647 -9.73720992013935 -25.0293345209245 0
183.553235327371 40.1943330326968 28.5762337015191 0
12.9457249883884 -13.0936769726139 -23.1025837772003 0
164.110548501791 12.9504597927643 -21.0808523499288 0
207.854240496564 1.36585775270921 -2.04046117698954 0
-2.85041390590729 0.324767500173402 -25.252283244401 0
162.593659590108 -14.0266061688949 13.129476529165 0
158.239685467644 -14.405097578142 11.3144114128799 0
-12.694238690629 -12.6437311419718 -23.7433834801647 0
59.1499522068885 10.1971005229415 -19.3056918201461 0
200.576348655311 10.5412382322442 27.112044519831 0
172.508154672531 32.6471197880021 32.0797963494307 0
147.247735628583 -3.1174488972756 6.91637324365504 0
200.385343631191 -31.1927293140063 29.8877504106889 0
157.609881389216 20.3008385850152 -13.8327685790278 0
129.407111019752 4.68968838232151 3.68126617264581 0
207.528634298042 -10.2677495923833 9.40462733196107 0
84.1381840977334 -1.78393052025765 1.70178395999311 0
194.968743229973 24.6278936100084 -19.0653502084004 0
30.977142943019 8.22526289447026 -20.5828610428608 0
171.823589152223 3.38142545524393 -24.895650382811 0
179.245384359249 -10.6395558170293 22.4108974581448 0
203.922991179505 -36.854416668557 6.74340003632442 0
165.409571152269 -33.4815071913058 8.94793636702919 0
189.519514289933 -39.29404563029 21.5147664010327 0
52.0242112020476 0.859314521700101 -0.0073474173378254 0
-16.7687496482821 6.32016881720462 -6.04652870993542 0
149.050853280718 3.53244670916905 -23.5818706378323 0
150.104243314084 -22.3307649787491 -1.66085251593295 0
188.727156370663 -19.5701987616535 33.2821710013856 0
144.501882765108 20.4292622484178 -3.79041005129787 0
-21.1931091897637 -2.27760123373565 -25.342614597247 0
181.21653621225 -24.9948590891689 34.1852950652288 0
172.716589132086 42.191483371419 6.99924732746716 0
193.221467476042 -37.7560843267254 0.76427251648302 0
176.522014235569 -22.7007390591995 31.9639776035961 0
68.9267412830434 -11.7090801566886 -1.39863236854893 0
214.834764658109 32.9371088318462 3.94299234209144 0
124.060269048309 4.16292294068053 -24.1383841769926 0
205.532787269241 25.380887017768 35.0848861302578 0
215.666877848859 28.7017484570127 4.33923326164728 0
-16.2200858078022 -5.89934188301113 -25.9228006585953 0
204.279404427952 4.82431305877622 -13.2593876235713 0
179.486929803278 37.9409032198286 31.3796535046024 0
166.488235710273 14.4650119489262 -20.7956475778676 0
197.999439398375 -21.0087027134092 30.4855407373504 0
138.861799338399 5.90918629585733 5.39063871195152 0
19.1469158863019 -16.7743236014677 -17.165422031192 0
-11.1955574088692 -17.6925369948356 -14.59600295821 0
144.848303992989 -21.3013589665853 -5.49014550070992 0
195.54558362177 -5.24482309635478 10.3792587498782 0
172.337512356458 15.0110683863611 28.5782390697694 0
147.040308051995 16.5978249912861 -16.5032352089905 0
117.343208748848 -0.303912701083718 3.24998964570831 0
67.5607280825885 -10.9573772644404 -24.0631113460544 0
-0.914707289608209 0.0915973459902406 -25.3665179582006 0
122.649781851961 -17.4319231510855 -1.99174450584269 0
39.6886950559324 -16.0781879694131 -8.69602330075087 0
163.946795415465 27.3869314707634 -5.03134551364228 0
204.942983008883 -33.7750925105145 1.02441142123997 0
200.899369488172 2.67174641414986 -16.9835406925379 0
180.615441290462 33.038093703814 39.4505476489676 0
-40.5309631674696 6.00412652084662 -5.39234326253168 0
141.854754481905 -7.51845744264131 -25.0597012959151 0
-17.4856664735838 7.36556601751996 -8.21434374182484 0
-6.32369590920045 -10.0966578320753 -25.3807226853475 0
153.588487860986 -23.5738609692887 1.12233810826955 0
203.035820794897 39.6999632849416 31.0563060377946 0
23.0640686217972 6.13813309198177 -22.7437338306788 0
181.398620841533 41.6578055406904 2.20536120608605 0
165.12457250068 -30.243576334416 10.1941030342158 0
196.203187384913 -41.6350051786218 26.636663952653 0
170.67210386429 34.5905093773882 22.4433140458584 0
136.805759994006 -17.494073239564 2.80440178502324 0
206.43902084619 15.4778775030249 28.394386423702 0
155.480106191128 26.2741892107195 6.0009724055512 0
37.2232750766418 -5.66144220620976 1.44952429223827 0
191.416961559066 -29.0944933393536 -19.2810721773955 0
208.137758730991 16.7307230328326 27.5907442149075 0
201.279287859471 -22.2941165638876 28.6247839647324 0
193.993951609916 40.6943785548256 26.5758250716135 0
62.2551670121916 9.03616392815558 -7.79680663282027 0
142.674174060911 7.18997184445328 -22.5637738623815 0
165.645008870301 -6.88028416185909 -28.464398858408 0
-0.00376300214504481 4.48069855025835 -23.2569630969157 0
46.0268209143788 2.33744981460779 -25.1296577451295 0
213.482315713209 35.8010562930891 8.78053560808064 0
163.344742916137 22.8937946582633 -12.6725690818756 0
201.943959931181 13.969518011099 32.0333802670748 0
92.206991102482 -5.27215109790796 2.68672107551448 0
203.197449176016 39.5732331823906 15.8548851611175 0
198.387924075936 -31.8444693527801 -9.25702349848391 0
69.1465851025071 -0.206190087948067 -25.8430039020877 0
86.1325197582857 11.852512423152 -17.8088615770986 0
69.5668974088294 -2.3350172846771 1.7015079558564 0
193.737305592073 10.6855158555022 19.3186345855958 0
21.138181018389 -9.51159807402524 -1.02582938231618 0
4.19282702670798 2.68470853731954 -1.67901020876094 0
86.1033700392248 4.31338186465206 -0.710940041176352 0
16.445398041275 -6.4061914274965 0.799003847353405 0
194.361645592257 28.5908095077312 -14.8161315729831 0
-7.52041826793271 8.19099098805216 -11.1441447456958 0
158.861739912411 7.53248904333991 -22.2168185168351 0
201.927828333061 -13.235571827692 -26.1404859135862 0
105.635237403758 -15.6799041499514 -1.58110754563626 0
160.067412845251 16.6552389730464 -18.6400861653704 0
194.324091831 6.94665129851728 16.1604715028614 0
203.436530978182 27.9388115237405 -14.1310229807338 0
192.491859773086 -29.8982218599364 -17.2395618043723 0
-14.0488969380613 -3.48269738779533 2.73877296186827 0
-42.9719765270916 1.8384859356423 -22.5841290542209 1
168.184643653018 -31.1249713138619 24.8727342762277 0
165.640662225358 -24.116271183644 -15.7247209730004 0
178.187264669632 -28.7771737723998 33.3630523677196 0
186.39871026869 -38.1246044969777 -2.45772224505433 0
156.347967214893 25.2572404932261 0.924570254059784 0
175.54454519221 10.1413991702114 -23.0737156755011 0
160.061754880953 -2.15702286881504 -25.8954942466654 0
210.877334793472 27.6542111560049 -10.5900445043068 0
188.715142851667 -30.5207305321519 -16.563805239062 0
215.486095052197 23.589989471554 5.06873770293365 0
141.948715270678 -2.4255755048266 6.1182635393454 0
203.600661592395 -37.8726555857222 9.49739794226441 0
206.312116585526 5.67849270832041 -10.6035959016082 0
193.789088448523 9.3984411174291 -23.9305594409996 0
184.420540176718 27.9682421894209 41.0344132278103 0
80.9183818230595 -16.3783008587511 -5.8450193323921 0
210.449990579486 -33.598033808495 12.6617901438778 0
145.043614431398 -21.0264514317689 -8.20995401023694 0
130.256891890484 17.1957694826006 -6.39093613445105 0
202.124004353656 36.4372476785353 37.1903490536063 0
-2.1625904890605 -6.92263406490973 1.08066951622285 0
110.099486201669 14.3716371970216 -8.55776567272582 0
148.128632050939 -8.80480960882941 7.80398632194495 0
157.940659546126 -23.7681913942901 -8.93505041352322 0
169.459249866929 0.546290676677459 14.55090285832 0
6.54063889454609 8.50197366699616 -11.9971763168605 0
126.451014184706 2.61727351993161 3.60602689559235 0
30.8671775813 9.56709863879605 -16.1496410640336 0
178.847429525261 -31.6584579710867 -11.9970126586917 0
159.449243123672 19.414169789376 -15.669226612002 0
182.771689718387 -31.7092092511782 34.3380455435847 0
174.239584773219 -38.3963690261885 2.56374327892799 0
103.10965702688 -9.55754672801618 -24.3455228960521 0
14.0509527040889 8.82890827011258 -12.2402158973595 0
-32.079138258261 -6.00194461589781 3.42156785283003 0
173.694136645733 -39.6286509612664 6.00668426241638 0
197.867165983806 -41.794858058929 25.1878222607842 0
66.3391039060262 2.97603975090021 -24.9269008323459 0
180.857191443507 -40.9102413730217 13.1268853951069 0
206.243321741321 -17.8947876133772 19.404987304834 0
188.913188960177 43.8989128290155 8.79780527898763 0
59.3330567334779 8.67121608668024 -21.4718161180278 0
190.932050660328 -31.161916186234 -14.8506189377111 0
189.73108862481 29.733779399007 41.7025843160943 0
172.820596833843 -38.7624170321293 9.1765750351475 0
156.036483621294 -2.13661228444219 8.66479982752672 0
203.983141420977 -29.058656678032 -18.2416171250066 0
7.64959707378711 5.3814628529407 -22.9108651281961 0
210.889247442519 -29.1820472815496 -3.61302791452979 0
169.061119704243 -26.4319309339505 -14.7538465995606 0
65.9010493944217 0.700255358227421 -25.6757041825366 0
183.84230449371 -18.5170339987827 32.7555322080656 0
54.3693721607313 5.42021581343626 -3.83283759063567 0
213.632563916006 17.1450173510238 -1.11600462870111 0
206.63427069073 -36.9515473991453 22.1820162368042 0
122.586450809792 14.0020945043018 -2.09989120281595 0
132.214549674422 -15.0098749302059 -19.767139979229 0
18.9151470740568 -1.25365462873069 2.18357540527323 0
168.926646359836 -1.13862957155949 14.1456681099548 0
34.4990392866819 -5.29517902604134 1.60370237995411 0
168.141892451466 -1.17635967970254 -27.0986248980313 0
151.111337613485 -6.55622951930552 7.81735705171765 0
211.124484325791 23.972370272067 -12.9183198536382 0
83.2264501984494 11.1197105959136 -18.9769123280568 0
16.3956897206384 9.09007943122285 -13.6527008889293 0
199.700931616852 -21.8178019984211 29.6835719181627 0
146.543873914842 -20.6213683992057 -11.0984954184751 0
95.9872713994174 10.9369666477652 -19.6761528725442 0
199.412918544677 6.7299364208116 13.9356496446081 0
158.914132171696 15.2403006102532 13.9995145852841 0
200.987809112134 -20.2094140929627 27.9977345627864 0
195.565035661861 6.50265812910717 -22.349415438309 0
166.826333473357 -2.56217311847098 -27.523585907879 0
153.39171798917 -11.398550265833 9.08038846039199 0
185.275462825114 42.3930482652011 23.6037231428373 0
188.38972207896 38.7267336723852 -2.93180980685472 0
202.254701167443 -39.8792062761877 25.590308589719 0
182.509376719667 -5.83929345815345 -30.5833669646168 0
212.68046008138 -24.1798819371487 -6.03100915102604 0
156.775229410692 -12.4631897362046 10.0039898805102 0
206.251814073828 -21.6291216513911 22.3627529407399 0
209.090351563075 5.61570383371294 -0.818157939009312 0
75.477875844351 2.47817115771067 -0.443025499759045 0
208.951403110438 18.8307326917613 28.2033923753666 0
185.586639128963 -33.3742547859026 -10.2798763342891 0
-10.3650175069893 -7.26353936089863 -26.0000263299181 0
185.41986519918 8.39710186185862 18.4412087354013 0
192.110030861795 -37.6955438210097 33.0333314834453 0
175.544824003299 -11.0972293616338 22.385296497671 0
129.937826214201 -13.8347984495344 4.70336444837485 0
189.560835751438 34.5596338410027 41.7931601908897 0
212.116502161191 -22.9103544494901 5.58222551652716 0
211.7372352481 -15.2193775583664 -5.58669242581122 0
189.322718378494 -38.5301505346694 -1.2171306644396 0
28.098828000706 9.41974796198697 -16.7899181296676 0
192.699718783954 41.0111393073027 29.1758445494123 0
147.235930635044 -5.23172575464873 7.11588274285462 0
164.449252852134 33.1412880853677 15.2862200986831 0
14.0423771924305 -13.3445220359755 -4.3169958216774 0
184.736666429215 -41.0959198131784 3.48317117385275 0
125.754331846394 15.79478957635 -4.41927037369027 0
68.1107834212184 11.1045717842624 -17.9273851059599 0
198.505252919473 -8.18050344400886 20.8541376415458 0
203.992023098342 30.2684016361076 36.6651105073677 0
171.314901753207 10.3731658978071 17.3423974142744 0
168.117878223629 37.2271833566126 6.65871186903285 0
161.971952116643 -18.0567610080101 13.4369458038615 0
208.554577101779 5.33056039585427 -4.16377391631932 0
153.976388348883 1.84181416073002 8.13032383492309 0
70.7728964500894 11.3759475296836 -17.3837039067255 0
152.361685923867 8.85068993531462 9.39108586209471 0
211.427538807955 31.2943464904253 -3.68358621984183 0
132.990184926927 9.66381806890202 3.47089050981911 0
110.826101532883 -18.1198548900035 -6.22290823601746 0
1.57402879305365 -4.77946065815079 2.2097512763057 0
167.306713236478 29.3003729630264 18.5755509854751 0
132.428915301338 2.32602350818063 -24.4485823967058 0
11.9824238925433 9.04579298792942 -16.0518463038383 0
-19.818354286479 6.88906143724378 -7.16569346591522 0
175.714841346875 -31.5696735735313 31.7685023959278 0
170.218881881924 -29.6860006195868 -8.72725888947653 0
161.066019153598 0.669928232493815 9.71024442543909 0
168.47029043854 -35.4663778481276 2.62941011436586 0
177.446055130307 -36.043636997927 -3.55199547901682 0
192.401113902392 3.21931882286718 -24.0336681665107 0
165.158075196905 -13.0051670287758 14.4623576221339 0
196.564297725964 -38.1948357281209 4.13344261681211 0
190.861905747876 42.5516393522184 17.8270030685335 0
198.568028041051 35.0721606043914 39.8776811794577 0
182.147911293789 1.73771626618567 -27.3736709499668 0
152.245873310303 -4.17699585593632 -25.830456183151 0
170.730172394019 -38.254279300027 5.36361294988267 0
173.854699487485 -35.1551200335429 -2.38213285484008 0
62.5320128009796 1.97519353345404 -0.67060490505346 0
181.1628562007 18.9049022706513 38.2318540145576 0
25.6196001024629 -6.87946015961438 -25.9840363645403 0
192.412643817726 -4.82061170481255 -27.244834641577 0
47.5286481916272 -16.4425539350444 -17.7789950861639 0
211.843492325281 32.6847347980712 0.0928672863069259 0
200.531118560276 40.3797395478034 29.2903291344292 0
213.771828604847 20.3450642752632 18.5563785744069 0
88.2895063582375 12.0239184165032 -9.41893424512443 0
-34.5494542377098 -17.0628003501521 -17.872241071552 0
173.687009181304 -11.8129357018167 -31.5810898456624 0
211.170593743553 -31.2789314351128 11.4999738932016 0
211.738054726736 -18.8798399169655 3.01641481097288 0
204.201787274915 -21.4756275423595 25.3119200645808 0
175.57114147911 -35.4544604411544 28.9245110963822 0
-32.7975316480273 -12.5038608351675 -23.2832233354629 0
155.614082725019 16.1237201314206 -18.3579141220812 0
185.000725965396 -39.7539077008366 29.6378757211486 0
5.22095254500656 -10.333888497199 -1.29985335198495 0
-35.7842184703518 8.10514684724136 -10.6785991930064 0
6.90840090433985 5.35335428294579 -4.68656834233186 0
208.828695225696 15.7163850431448 -14.3187420954213 0
-28.0915704136043 -0.867129574965442 1.86055323635692 0
38.3575778735275 -16.9757362689741 -12.1875233427589 0
191.372171349306 43.7101991601131 9.06109280656825 0
181.271832935258 14.2315027511206 35.0149609686295 0
194.446874900342 -39.5230077384057 4.5065225354565 0
214.249496231471 21.5633272204178 -1.98068032957086 0
189.30831231658 -0.180020210850123 12.9735454929125 0
157.918733194108 16.9133016889032 -17.9773338710631 0
152.485205418163 16.8143377997206 -17.1017036040135 0
158.050306539718 28.2143431816565 7.30672974171233 0
-7.49358146088279 7.5883091287871 -8.93184089896176 0
199.496235428846 -28.4006820443066 30.6313405029234 0
177.012523582297 -12.8125227765669 25.8390653211971 0
202.250095535017 31.4629620448105 -9.478139529818 0
137.475386332064 15.3855586720426 3.50572234560991 0
170.940611331616 13.6643314511409 23.8176330158478 0
170.501865767068 9.20413052364867 16.4281413415252 0
171.328100891925 22.530201056419 30.2543193160631 0
156.594522969594 0.383893441946396 8.65312290540573 0
52.0049897413788 -10.0519877595516 -0.917490100084499 0
155.695180016577 -10.5572032395643 9.5372397774475 0
-0.172017127881032 -2.60848063476784 -25.9201743558202 0
199.227693665952 2.8070594770548 -18.3134061457586 0
93.6225775306299 6.85441552923128 -22.9508660852861 0
190.253475657101 -13.7612352155842 -33.0134976412723 0
191.247354423563 -16.3350911714954 31.2981988344401 0
155.177773168445 -14.765800690531 -22.5374170759181 0
185.450209081392 37.9739744810977 38.7125088168077 0
32.5220507644048 -15.9791348015889 -8.54547663914729 0
-32.3652652980232 6.66691159747555 -6.57062729504795 0
208.309884150119 11.5243587096013 -10.9275053059984 0
89.1837042495552 -4.25646442802309 -25.9542873202098 0
