152.047443338888 9.04109560013321 21.4627195504425 0
202.425185915414 -8.21238953302431 -25.6413818009205 0
215.845013405774 43.7760014499061 -16.5376888065194 0
97.666535830876 -0.830189470818194 26.613733516193 0
193.691245688598 -13.6574372375609 -34.2638473224094 0
197.923882610246 12.8252896735787 -17.453526455189 0
192.006517358022 39.2184759167333 5.62368815478273 0
213.131105857337 -34.2504971310766 -27.4646517139345 0
213.03423924284 5.4911490863684 13.4426016518467 0
79.8008394356273 -22.6005223161804 16.0480577287266 0
174.732727624708 23.3456118187746 -10.096023468105 0
-23.0256523514963 -25.7464900071906 9.90272644847593 0
164.863940703002 7.53834008208787 21.3520378317291 0
214.417365316708 15.8450659519148 19.791958659207 0
189.983550288577 -25.4879128825947 22.8988294746079 0
134.357655479768 -20.0491509203705 17.5110469383963 0
146.20219767509 -3.73655453109211 -6.22579791462884 0
192.756519040998 40.8113805920566 -32.8052267882041 0
147.69817534256 -18.548832902829 -4.30068442954417 0
6.52338349713444 -0.821924275435255 22.4506351088636 0
199.892106211375 -2.73565866231975 20.7481073871481 0
-2.39126720256538 -1.99569511548394 2.9094789188781 0
126.840828962287 -21.2935771378933 8.47859647684344 0
181.027453573845 -26.4065882920591 -26.7502111052028 0
31.7635179132617 -19.3335196757806 25.5515581411916 0
29.9109132965017 -21.6701214015481 7.32794839251674 0
216.237448201913 -21.0607658032958 -24.3666714469503 0
174.621633583995 -22.3956780112929 17.2902733336271 0
107.38786123088 4.76406317584307 4.7162386470151 0
98.2548082436759 7.84130833965932 13.6419773667688 0
217.545210079624 39.3117500663069 -6.60274331910261 0
102.995885231937 8.4166805240431 20.094581418272 0
-78.6380396066046 1.15127279054388 1.68485920787315 0
222.833827966019 31.3419669083777 -17.3651878995501 0
197.427931115941 -32.8419037942683 1.03839518729668 0
214.942535743602 42.7469315585949 -25.5477003354708 0
165.05371717323 23.3447714893228 7.00532169808107 0
118.116217158897 -19.5835178082148 3.37833103942493 0
184.923245911143 -0.175021349163999 20.4993220352225 0
167.509501431798 19.672475739814 14.2925178096097 0
90.3332951198067 -21.5846135816008 8.95408600597051 0
145.810450650978 -14.314363245313 -7.66467329278174 0
1.02449003489384 -14.1943503175724 0.602806511151433 0
192.602239525195 -29.5038410482919 13.5471718715949 0
6.3305811015067 -5.79444420195126 26.0521494569776 0
112.284623559314 4.92689179072439 24.4273256828746 0
107.340132181073 6.60593460953559 8.11554906446834 0
192.086953436971 27.0634739852769 -34.0971731026142 0
164.097070293626 23.3974322544356 3.65548628957672 0
183.477659102511 1.44337498663293 -16.7545482572716 0
-90.5262086791434 -4.89053763806896 19.1769942785681 1
208.987722262366 -10.9203300629983 -28.0155291852137 0
161.563774258103 20.1297852106301 12.1463705008967 0
129.845579556771 -20.9867652650371 6.59024262432748 0
177.197297757311 18.1819052068525 -12.0721830611514 0
224.339225786298 33.9569960820992 -5.28912315262291 0
219.769417188408 -20.1005412810726 -1.35433717651508 0
138.419006499568 -11.8350784680206 24.9410706795457 0
-4.50810915260863 -8.60435649523782 -2.59437265478651 0
218.390085548773 -28.0809305143047 -4.20841765369199 0
217.128320353975 -25.6632981719421 8.61184186913859 0
165.729842753027 -8.54927706316794 23.4485031683287 0
-64.5606101362406 -1.60330006563804 -0.713342290002203 0
105.03206050716 7.69513980810697 10.9583630866591 0
213.436029800931 43.4325308255201 -23.8864220046823 0
187.211694190412 -27.7412022554524 15.3805519027746 0
165.544596177018 16.8712502416013 16.1891427610363 0
72.403086654171 -19.2230630869421 4.52450842134689 0
190.257520830468 -34.9971318474849 -6.86510108082597 0
146.695575477332 -20.2259273892228 16.5331924788736 0
51.253931250718 -22.88082859143 21.1439746708936 0
147.324198377913 1.62134059700975 24.0300169755052 0
201.664360504134 -9.40796671296943 -31.2933332219193 0
142.61311348401 -19.5391305510126 -0.186841393283169 0
206.352373565822 22.5653666117495 18.4558686477384 0
219.425242011758 -20.3289600180234 -10.8922804858439 0
59.7051904951609 -1.14714790519887 25.9031739345668 0
118.288256782091 1.11578956823428 -0.605559432655428 0
-51.8913588074458 -26.4591311390069 11.0833537095088 0
181.173159676852 38.216779870113 -1.15038917282602 0
211.285470829393 7.6645661465072 17.5636240487296 0
89.1084291505663 -8.10701734029357 27.5720822910888 0
78.9156730211564 6.3995685420149 17.8208043387425 0
210.835525676484 29.1681233441191 10.6465501561035 0
-82.3908123743202 -24.3602123557548 3.69781089848775 0
216.811184197705 -30.5479921203611 -6.64413084626053 0
200.648234214255 41.0801633773524 1.44432393049397 0
211.600905030577 -36.1007276316402 -19.2765793357036 0
183.068177721389 33.2214003811305 -15.6637769121777 0
171.965341742244 23.8289309516409 -8.47127958710256 0
209.031410398627 -31.4967581943417 -2.14694794773398 0
112.955195385698 -1.47996792420542 -1.82649727772542 0
197.347502525157 -3.11374260725096 21.7430713218129 0
169.728229485165 21.927767961213 12.5035062593905 0
178.868661713514 7.0942059667155 -12.0312963522333 0
212.416202257287 14.5214678100249 21.2594440805405 0
17.1780786030576 -13.3125104206192 0.593458630403094 0
-19.3916698103924 -25.4371594945345 19.130176960763 0
190.168887406327 -33.0835488582094 -25.0663948708634 0
-28.4303001911821 -16.50304505278 26.0305140212909 0
168.141582539252 17.9092555111936 -8.01103827850813 0
135.487340479094 7.09425296256192 23.0639795956022 0
140.795608182331 -7.27919353094308 25.5412385706168 0
197.491755037461 19.052191663267 -24.5420136625406 0
183.830675121844 -29.6607792847685 2.6214129753988 0
87.5407391950295 5.42828111376245 22.6570338899271 0
214.267469728023 -4.88165913926598 -6.79261883964325 0
216.62570228474 15.1562659851157 17.1156049611717 0
-4.97304495405967 -12.662426808612 -0.397966558438467 0
224.233928784604 30.8594917222402 -9.50702931814812 0
218.857904466109 37.8633653807656 -6.13791442293459 0
-90.5814529754897 0.965228180691021 14.0402849621358 1
-37.9278845310084 -25.7525917108659 8.62694029460141 0
210.72921571543 5.92813005481181 16.7197102205346 0
192.992158597343 -10.6782451331524 23.9097490944756 0
194.394530393936 14.5458882112784 22.6012519095149 0
163.273828000879 -2.74796103397981 22.6535155466355 0
-76.3768458470665 -15.5067034628791 22.0803290751742 0
28.0945995576909 -6.69285026919015 27.2020609104291 0
195.204248102114 -30.8192329690259 12.0494978495476 0
170.537994523273 4.26107457428918 21.656916776684 0
185.739617955791 41.6533253402904 -15.0731710942832 0
215.499550736333 40.7641516776928 -9.86686183070217 0
223.19809707587 26.2509022687903 3.3529143114199 0
119.804324657079 -7.89072999743913 -4.9478254747012 0
216.369640738405 43.5620928241233 -19.6325641988628 0
-20.7582360661666 0.094192254935308 19.8033967138971 0
218.020754664678 18.0399870145675 -19.5562064167453 0
142.706263357042 -19.9426865337996 17.4167643894769 0
115.854159513704 -3.11318087199019 26.5811108040281 0
20.7445801883432 -24.9415754744236 20.1362331140158 0
184.503356357791 32.4333998263409 8.64185698704992 0
74.3980692776438 2.06999846025749 5.76086210803782 0
-1.42889505193235 -6.19561837988907 -2.81671458342916 0
212.625183295045 42.9261711340177 -28.5758496847125 0
214.908767216209 -19.5189637828491 -26.0131482602327 0
120.610511930145 -2.18659668605597 26.2618563260376 0
85.8000565480434 -13.3150327045064 26.5764409469395 0
50.5061811136694 -13.5639411827073 0.813703882545721 0
215.329124742922 -8.08370010819563 3.75684712616851 0
-42.6047073703216 -7.40242962414271 -3.90085252720193 0
202.135360259568 -36.5839501679811 -16.068088170129 0
-26.4307316134099 -1.39806956788646 0.992461263143937 0
-89.8748167271947 -2.29332005590058 17.528644967276 1
219.735685096495 10.821240568499 -0.367119161548121 0
135.732882460407 2.83774699268388 -1.95153001226174 0
-62.2543784217987 1.70293913638496 15.4304315668873 0
112.906814530695 -21.5978843232242 13.0856443694502 0
155.012095379948 16.224664970662 16.1473427706461 0
149.772345584741 -6.32956412151973 -7.43599811070141 0
25.3149517770741 -5.25987479259509 -2.29903115916189 0
118.988893828879 9.92258288126151 10.4856671225257 0
217.121982180228 39.9049235760593 -27.2040836644762 0
6.31011172348169 -19.2385465642216 3.99047882746207 0
188.410898579745 15.8900749610179 -20.3176622431147 0
-23.6159200521713 -21.9805285092226 23.3587287269412 0
-39.4131542935166 0.341734107707227 5.50387183353497 0
123.880365190447 9.58058037663743 21.1811825821887 0
178.387416767245 -25.4389467369874 11.3399533116704 0
207.714612089767 -20.2812491251758 21.286211532181 0
132.294513918792 -10.5549551790417 25.6120158371266 0
-59.3646735326998 -26.0235956188919 11.8460753389625 0
-83.9123349706639 -11.9286643163939 21.6722356294693 0
-21.0396880461924 -21.2803300934475 24.1388079969752 0
215.00880714291 -32.7719415818855 -27.1809409496459 0
189.373308810536 43.4596674386755 -2.8185920590546 0
221.579207463011 38.9509816873421 -19.7010645227937 0
123.193606413092 5.89905004295137 3.5485580138927 0
209.218858497579 15.7137236438518 -17.0133707953995 0
113.467658084706 10.3170499396858 15.0855254431286 0
14.10556562358 -11.1323801990785 27.4753541624129 0
110.858925624281 -14.4302364027559 -1.42484291187943 0
183.68558519689 10.2487534965828 -15.3848289876673 0
195.158174409739 42.7805988599985 -0.181566953954842 0
191.544213610612 22.5438275834383 18.2262535003872 0
-67.0281881505091 0.998479135561904 15.9327849182676 0
210.912667174373 -30.9651421778238 -4.55039874854828 0
224.076299525027 36.1987129223153 -9.19664689322729 0
-18.9726506011518 -16.5090855058907 26.4453930017355 0
190.847418259564 21.8715443477148 -31.7270840619447 0
218.40452181904 -30.5037400227805 -9.93924846700177 0
196.914264955809 -9.57194621201841 23.4424254478509 0
166.558786574761 26.9067466830044 -3.67774609137988 0
165.321725919939 25.7764887907573 -1.84046198185721 0
27.2185654790418 -9.35432543211242 27.5521566348656 0
183.348874816513 12.1688887682828 -14.2584070775471 0
167.116017289119 26.8083495846794 -1.43461274037096 0
-89.3369131626405 -11.0623196558544 -11.3122456794324 1
158.415409263959 15.4373548602073 17.2470876140734 0
219.616808679418 -27.1792919204184 -13.0603545903841 0
124.732894118422 -6.03025782060091 26.4640974955278 0
52.1110841818597 4.17819448698851 14.0889937306769 0
15.8354299143694 -2.23955379875617 -0.231770126636526 0
104.830104457611 -9.50556988689773 -3.78926085632322 0
184.768641288529 -16.3969379506235 -31.9598194650719 0
149.81446123785 7.69568278417722 22.1585300939765 0
-19.7387541861081 0.66149848930212 8.62416694029505 0
197.49486728634 26.9480007229591 -35.8302331521627 0
64.8223135661842 4.46059982287722 20.8862520925915 0
215.311476217595 -35.8299552174738 -20.3911500015709 0
-50.3682811540315 -26.4821927440695 13.0576131744488 0
58.2714769427507 -19.9790836910552 5.56141728428587 0
222.602422497756 25.5891402915144 5.52211881269873 0
-81.1402697435276 -11.9850343076503 -10.5695306085552 0
27.1541579475862 2.86625654563622 13.7251916116073 0
-88.7322222223069 2.77253036419837 6.36987249733304 1
185.542298515252 -29.0478643650953 7.71627776245803 0
130.223043698463 -7.86329684254162 26.1597171972531 0
214.999218592689 14.5876965749233 -19.8162172950312 0
211.850271168109 21.531380864041 18.6416057449636 0
223.549596156253 26.7470021055734 -13.8592467226796 0
34.2552780736282 -17.6017643110633 3.21192590070349 0
208.541726122205 7.24194556913087 19.7815690161748 0
28.2534577446636 -20.0206030641815 25.299113794098 0
-32.9334147144177 -9.99219868783205 -3.32298867271845 0
216.661261702258 -34.7431547989779 -16.0435894181062 0
195.07437676135 -29.9104664020596 15.2316703141983 0
171.777758806824 -16.0815027820279 23.0888474879363 0
113.414903822298 -18.8799982604981 21.0035022206874 0
79.8242767732892 -7.15847181941137 -3.23270685713735 0
124.428043763909 -20.2290254768898 17.6958244907427 0
8.12959511493627 -11.3638590432278 -0.746354251130721 0
216.51969043146 36.1789256578646 -1.53586487478315 0
188.821732955767 9.81319482469279 -18.4589392930688 0
196.041489470955 19.0658661382166 21.5064793350233 0
7.91442302074398 -5.10570678849099 -2.17770704927281 0
180.000478890381 -29.0445209867599 -2.65406249618627 0
170.461076364271 -3.05899322734536 -10.8185615386629 0
183.799808057789 -26.5051031044577 15.4665373988006 0
157.91337636969 -10.4249525709816 23.9975698791911 0
33.0393110093266 2.46786465822321 19.6882747844177 0
163.703773908181 23.2044590160358 1.08065258395545 0
16.4450923445705 -16.3337666557996 2.15301383080488 0
-15.7807979383512 -3.83733222719337 23.9050944907138 0
184.981951194588 -7.47443560996062 -21.0775918842493 0
192.218902259615 9.42487940769494 -18.060958729574 0
-57.6766982562918 -24.2413858938736 17.0798609475897 0
215.411241865056 23.4464655340214 -27.9873512543913 0
176.269544049302 24.0955432429159 12.7259405489692 0
164.92287019578 -7.3571793055478 23.0917101440809 0
214.848964751769 34.4106332441891 -29.7247002987212 0
166.819939529746 25.5906590995596 -5.37161256416419 0
212.622788234038 24.6376954029514 14.9298407702475 0
170.924463217834 21.0310394430119 -9.09711878343147 0
69.204974340299 -1.63686832548873 -0.0659115053831888 0
173.616135119818 -23.899254504309 11.6122284444052 0
221.436913958718 31.1963972926752 -20.7429016613419 0
199.018277913163 22.1562430155636 19.475880730944 0
120.066482635182 -8.87773850092361 26.4819878782874 0
224.076412426377 28.4787662590316 -11.5370014027524 0
191.733868266942 10.232879289883 23.0492147582867 0
195.68079520865 13.9683185298646 23.4500259678442 0
171.893736582939 -18.7082073200034 -16.3413590549686 0
222.411642359389 17.503693102334 1.65353164784543 0
193.631152647795 46.2969803677641 -27.3202635275717 0
186.409600209236 -12.8722687949963 24.7347406283916 0
142.199277652755 -21.0663385188838 4.95626808020075 0
100.401414889881 -21.3440578318299 17.2765855340916 0
201.556082712 18.1319452512407 -21.564507005499 0
173.847956711364 -21.3378145330687 19.252150602437 0
49.4334786503555 -20.7917059908252 6.64909096560744 0
36.8677695786876 -21.1964602169195 6.99090186894571 0
201.472523498615 7.02109885663416 -15.0041015960209 0
203.962193872028 45.0998533528158 -22.5924868738143 0
109.040423817953 -5.76493723378599 27.041506792833 0
187.280771226936 -26.5745345425253 -34.183039292108 0
-57.4158464894551 -21.1481043509855 0.785263685094476 0
195.428507015373 44.7001502477434 -3.43108665555381 0
-20.3353708355216 -21.6578342817058 4.62555350950185 0
155.165074948371 2.46999764475153 23.2117362349311 0
208.786862088849 17.9535271315927 -22.1311624037542 0
208.555723266097 -17.2145565978504 19.8579287456216 0
97.1392623611893 2.38047019882997 2.65632014243783 0
17.8875193462974 1.49213359719823 19.9706805790669 0
209.169636872147 26.8836502653354 13.4378380414689 0
198.068531951155 41.4817715145983 1.50048023335087 0
24.5123590905871 -25.6528720393201 15.9130573852298 0
23.7953433699236 -22.3029206379562 23.6510455826633 0
216.984970702582 -29.2994262919329 3.93218040881693 0
146.254778745876 7.02511130790823 -1.33896273062005 0
211.20801686965 -7.53644129561032 12.7635828296774 0
77.0371237603936 -15.8225751153725 25.8022696498988 0
206.639728053987 -6.64198664295144 17.2661103292526 0
220.108842483338 18.440215554354 11.4140466708142 0
203.589070453583 42.2235951991251 -34.3434419797371 0
218.348335267868 41.0106704550151 -9.70376538802707 0
30.4031074127994 -4.24167267526619 26.3673915944278 0
167.383653174359 23.7583002789526 8.17402440572596 0
176.388214301034 20.3380922224518 15.6275920682193 0
210.342464112299 -34.6602892904326 -20.2471353500728 0
203.965151163528 -9.96196193552122 -30.4432238285004 0
195.887924895545 -32.2178500863561 -32.078006869167 0
223.58708251523 19.2806054739491 -7.62282602918257 0
173.936007131258 -26.4289918161785 -4.00973856646834 0
110.089781687042 -17.3906104836447 23.0876244581988 0
17.1620386762886 -0.611100123598258 5.05844585833688 0
203.337297540321 16.375312208248 -28.6782364295677 0
108.492895073112 1.79837384617533 1.25948012831919 0
183.094601995039 -9.97323927963786 -25.7274989267105 0
191.366495136002 -32.230426552087 -26.6042603788493 0
-56.180272607172 2.6223064217953 12.5801451304937 0
-32.8880170515318 -25.4050930879444 17.9933173011438 0
205.508867984892 45.6581180177673 -31.2281206770357 0
159.732405490485 0.643325082261897 -7.0930437292785 0
33.3947495812247 -4.56983464371475 26.631880043126 0
185.842011388067 -28.5713164101575 -31.5280488984911 0
-46.0119543034005 0.723317828980476 5.95078478734165 0
-84.5638029851163 1.30865225131034 13.9506771324506 0
93.6358117651602 -8.88257277884164 -3.21868177215736 0
-57.3063768004454 -16.6644016564857 -2.54842816552448 0
219.381445146861 -26.6983617644349 -16.6872006719757 0
141.097235740982 -4.92625362406769 25.3950519840691 0
176.446786950161 -12.2739726893366 -17.0380630108594 0
134.614051112381 -18.7239687593979 19.9265335126815 0
-9.96455575188886 -3.26364608705748 -1.00820966587497 0
-81.2085653727499 2.19324651053422 12.2936441476531 0
205.507370816536 -12.5543313374114 20.5981602124993 0
-57.9718402623158 -2.58737288324113 -2.26122231693999 0
-64.8925104349775 2.50292704629085 9.71484902850477 0
191.473706476044 -1.21720699317078 -19.4230947967136 0
158.27536923914 -5.82499441781093 23.6581103163809 0
-55.8486012517352 -24.3445918628768 4.83687655144337 0
187.425955851874 -28.9035232259492 10.9500549879654 0
154.624681617888 -21.2279346590054 13.6570926299681 0
-6.631042145796 -8.8824231003548 -2.47547017755857 0
220.723290355696 22.7511344881586 -20.5234215155555 0
37.2440850209678 -15.6995926787173 26.7974213463997 0
173.409157562995 -24.6125344265315 8.36023914428046 0
132.303548540675 8.50735114158748 22.4056410017587 0
-61.3840016953383 -15.6523164339332 -4.09115829651627 0
205.459308827291 0.671161508085444 -11.3514617080576 0
114.430121548829 3.36862637335352 2.28107974664038 0
161.683432334616 -20.1083056067948 17.4831600921754 0
150.684697356071 -15.963439751906 -7.74107657315004 0
222.662372650273 36.5926425663786 -3.37793957648344 0
203.292274174642 43.8946852371433 -18.6122325609418 0
111.744678196737 9.96565886903097 17.8106680857189 0
145.666394671371 -6.45380809443111 25.0376427595135 0
222.154969750562 20.6740208295491 5.20317878635039 0
-18.1408086008361 -4.57134418634719 24.3278159469168 0
218.941380571043 -30.7804948451414 -16.6922079608649 0
186.084319170356 30.6962556800778 -27.8234934460016 0
-1.85699883353205 -15.1324224319201 1.01775321619591 0
198.092657844411 -16.4822991700014 -36.0348765839134 0
79.3565896090376 -9.78117112506038 -1.98438247633859 0
207.277713037309 25.7740624773494 15.1915231674872 0
96.8643716340339 3.98208421029747 24.6012977200301 0
218.029934200295 7.98582465154747 2.33058836941363 0
209.523816494417 -33.4866513290638 -9.74109427934495 0
190.405291678074 6.15818443819363 22.5934035839653 0
203.549873413791 34.4514709564977 8.68488385974667 0
132.137543403758 2.32979178042429 -1.68293648638533 0
222.577996103521 32.0961448871042 4.04190606864532 0
168.155905033916 2.15639964282652 -8.68314168208672 0
148.769852334858 -20.0446429982476 -1.38092635730431 0
200.731434596203 -12.892698815129 -33.8477844564703 0
-49.8191585628239 1.37115450359635 7.48902684671655 0
157.417452514613 1.42437672801424 23.26488672232 0
-67.2469766142271 -23.2459878216287 2.00751348394352 0
90.9798863164629 -5.5182675359646 27.4149190452328 0
128.436756118372 -21.1882052575951 13.9920892027671 0
195.498748990458 44.2232310705958 -15.6890925103269 0
45.1428708575187 2.23522823776997 9.42701123334705 0
203.035558136531 -11.0500004352877 21.5614527414443 0
196.873935305961 9.21017102332196 -16.7728329460679 0
17.1139503458223 -24.7768752438766 11.2560213187316 0
171.652642663523 7.65913877954442 -9.41770729356896 0
204.426786275357 -6.47695438658232 -19.3673287083828 0
79.5161514526008 -11.7592062607687 27.2484566238294 0
-36.3928597972305 0.911947117166845 7.454817811656 0
197.660172054949 39.2536342087131 -34.8292736125318 0
114.239330997549 -21.5054467804796 10.0312853513904 0
199.69320260338 32.9825038381733 -35.447815111506 0
202.026488811776 -15.3788001346442 -35.0625472628716 0
205.710315740983 24.6422526642908 16.5671558716731 0
214.013144134524 3.79549243471785 9.86489399079541 0
200.481651163058 23.9021418828186 -35.7075864260187 0
148.521346086498 16.919757245471 7.53649722663574 0
45.1070505880809 -22.271941028241 22.3492671591426 0
66.5743597399193 -11.5604884598196 27.3905629416172 0
177.026792063126 -26.4884145276803 4.74363135755272 0
-13.0098675232447 -25.508958487493 10.0332796239739 0
107.307727086568 -9.33129976015153 -3.87562324767004 0
-36.592877480686 -2.17957729098217 -1.26837261409739 0
36.271229578241 -10.2392787715989 27.6051527109741 0
107.820304534742 -8.77594156620798 26.9141589007903 0
188.459651347753 41.0009336670837 2.13181264076935 0
213.774796079801 43.2667771563028 -25.6390665698116 0
111.175993743535 7.1972398429436 8.24702522054429 0
-69.5147568789504 -10.088649949727 23.1438761402304 0
84.6240331880659 -10.8752944227533 -1.61814858623585 0
-43.1880573909432 -9.64908441349788 -4.28279133477638 0
2.53980303366906 -24.4334115800718 21.0525916691048 0
94.7581657120547 -6.35065509032968 -3.34397856167703 0
-90.3557982900628 -8.33349263105827 20.3523954575609 1
-72.2074769380927 -13.9891352644014 -7.60637126080049 0
-78.277518187881 -24.8809600715948 7.34896102787487 0
195.130384430836 8.58863505048787 -17.2859149028491 0
216.775220464566 19.7089798585809 15.2566160968221 0
-81.1170806731587 -24.6437806342939 6.83335024061404 0
183.130204310584 14.5918578272574 -14.1187708247843 0
99.8618610738921 -17.0146492545416 23.9648259991585 0
7.00370203039522 -0.377701353232407 6.22600221693628 0
223.459206072356 37.8942913412686 -12.3948017160981 0
143.680993326493 14.1638281298467 17.4629553094193 0
-77.5458900536679 -10.9560818145053 -9.17867649029032 0
-53.0585281973521 0.807767285569214 17.1501532938434 0
-51.0726369327887 -24.7729043761023 5.87772508319791 0
-38.8887145217064 -19.0967197478462 24.5141984977692 0
18.5580975009467 -21.740372054818 24.2495606070365 0
17.501129699628 -5.34148675946066 -1.97854393522477 0
217.844040926161 37.4908407601189 -5.29222740238149 0
45.2372298588148 -0.903147444505899 24.9861379351994 0
166.908199411768 -17.9399998679926 21.2360752035662 0
195.107958664799 -6.14097849245156 -24.9942346312255 0
202.473296543757 42.9212559871028 -1.51808905361561 0
101.968803035963 -18.1692385193317 22.8016228263879 0
-29.0061485788563 -8.56101609885521 -3.7844114987289 0
125.833451417905 12.4843523779569 13.9795526602098 0
-14.759281817998 -18.8153707509965 2.7491447233445 0
190.876864203671 -36.3535876098358 -18.6509402946325 0
130.380417987726 -9.55707274177375 -6.0728015852854 0
190.650801321279 16.8303706582682 -21.5674862283132 0
-0.53698865787885 -2.35769963040979 1.89611282797826 0
33.3111019013583 -8.11962076714597 -2.84124158022977 0
223.349969788065 29.0711875711979 4.2986984163933 0
160.768129680077 -14.9904247862363 22.9949110947284 0
211.267017303103 27.5556323266703 12.1474176840731 0
-51.628855289742 -4.8407758796576 22.4457734707696 0
207.608334663445 -33.2996017320901 -6.12376427369327 0
183.842072588051 -18.6900572937929 -32.1521689052191 0
-47.9550693640965 -9.14013865614635 -4.62707445940919 0
216.551192888957 -22.3961224519188 10.7380970428562 0
161.263554574508 6.29608441121046 -5.99705938830691 0
196.425786432456 -12.3270249395749 -33.750558124477 0
149.465588396357 1.81214689036927 23.7535122459104 0
95.28429280414 0.511697714472021 0.782433919552119 0
-81.2372317545186 -16.099388021753 21.066398413217 0
29.3086258344318 2.84134402540072 17.1272435735038 0
208.846624649501 10.8866163070165 22.4587257688005 0
-16.2328633343687 -20.2523600797389 25.1201652119596 0
207.443862224371 -6.59362811889002 -23.670066032468 0
167.518436973516 -11.8908256518389 -12.4506606942508 0
51.8368438837692 -14.9850249567317 26.8015568612375 0
193.67980135406 -31.0789586298371 -28.8531283060255 0
-91.3437258866105 -13.6872934616819 -11.2219421514883 1
181.066194325075 39.7057641899094 -10.5014289132471 0
182.678150362894 -9.03517205009666 -19.8708453982578 0
200.783044340373 7.49749934205479 24.0483669663741 0
188.376777550472 -28.5864631673569 13.4015044618275 0
176.092057613314 31.6990624012561 -8.83441459761019 0
206.214098829846 40.8552766339615 -0.989341059658779 0
218.23555755658 19.2320770812852 14.1077977347817 0
49.5939972213302 -4.23307136195008 -2.34675785106425 0
-10.335128806272 -12.6789841071618 27.0520072400745 0
209.823375572252 -20.9001702925027 -32.151236146312 0
129.501262598977 -19.521749436367 18.9358944511695 0
215.826976876862 -10.5018799582818 5.4925863557475 0
107.970351821892 -16.1406537485515 24.2723293529637 0
-15.9086880036032 -4.34571656762351 -1.98958346116483 0
191.209409552714 24.3171538261078 17.1111772349781 0
197.175911964443 31.7966756471237 12.2050576540442 0
187.592521334896 26.2046023874795 -29.9918618715452 0
223.634518544711 27.9365299924259 1.8381041238868 0
80.2848643524339 -4.43883137621771 -2.20373502718555 0
-61.2811670243705 -4.6301199003265 21.6806538797839 0
169.108019141346 23.2894477898768 10.2896428900562 0
183.890197836148 -14.8524665721414 -30.804958501414 0
97.1158361433323 -16.0129035269666 24.8579909781673 0
185.519471507462 -31.3152422608254 -21.0512153467883 0
217.224802036481 42.5100637427521 -22.9674936152874 0
134.099707537263 -2.11532703225881 25.6483223198564 0
147.329527545189 -9.20407052301477 -7.58041448464463 0
74.6888577009246 6.00497211133607 17.7145657145347 0
180.406366090943 13.7203330078617 20.1840775220442 0
200.896644277085 18.6699237739998 -31.7411010796119 0
120.596359787515 -21.4742356893761 10.9195419502781 0
188.327759235084 -27.0522125309889 19.4843841958879 0
158.604048190055 -21.2386152861801 -5.45097603674667 0
-56.8000873950636 -11.5083101059089 -5.09962924665583 0
181.574175485062 22.1042645907233 16.1366631347876 0
184.898678682518 -26.2959329587944 -32.7104543270275 0
-18.5642345439072 -23.9989138624708 21.2129385841655 0
69.6516797941649 3.83910856834814 9.68264102869138 0
-25.6222972809294 -25.0604083778161 8.48913058115856 0
68.2482958698485 5.52321217839999 15.4252282800448 0
166.729927008513 -8.39607877716873 -11.2410913138361 0
132.476920110058 -16.9566502951644 -1.81179010078797 0
216.316236519456 -30.0028846281137 -5.05610558199828 0
0.458152609310079 -1.44615906561238 22.8301423111961 0
211.795472484826 43.9851357906812 -16.565569918572 0
127.144772441479 -19.8944994605705 18.3081992052969 0
-25.3599883618478 -1.26123565837253 2.78441023576262 0
5.33530656079485 0.824021150860838 8.95050008860604 0
180.675870349935 -23.9454716525055 -28.2743904208049 0
115.368017811669 8.62768160540711 9.50421152922998 0
171.743917421186 -18.9822235501327 21.3798432658467 0
-9.13754729819402 -26.3275835763561 16.5504681278066 0
-90.8872418420828 -1.42785217444555 -5.02926743866444 1
220.186610367489 41.0427873294994 -18.7131093681743 0
-58.6158493614648 -7.49328110153554 -4.75517385807787 0
62.1329488553761 -22.648651408662 19.848641428118 0
126.957103329564 -0.00250100349578056 -2.40457274970021 0
-74.4156063323284 -17.5161352562925 21.4655003311255 0
127.1563240487 -20.5907671176869 5.13679996767276 0
98.4847757968352 -12.9697174918851 26.2696644910372 0
209.213039968397 24.8488233780513 -33.4416440758028 0
36.964411459684 -7.18961821108405 27.4808660946296 0
210.727737723606 31.8001806699132 -32.7520648780995 0
208.779752450122 -6.02375128817776 -21.2732959688036 0
218.660428313832 -27.9727219963943 -7.24021455385789 0
187.627764934449 -30.2144564181631 5.13908008473913 0
-23.1720282982528 -13.1883262172903 26.6601412281199 0
71.2426331345348 1.86545121719075 24.6219502514803 0
12.476654060996 -4.88109750824878 -1.86561587558509 0
201.003203567847 -32.3526158014203 -24.6680319617799 0
224.032594937454 22.2375266338821 -7.0389021416676 0
196.368107435155 17.1352056097332 22.4873961691695 0
171.915478756964 2.73618967369182 21.6049023597079 0
184.070973370655 34.6958218313129 -15.1638885328285 0
203.175894183008 -32.7476631265541 -23.0669023916261 0
180.826698800357 -34.6126572963637 -15.628848731197 0
179.565076490469 -23.6944589183693 18.8979919445886 0
145.468693609222 -20.7525956582572 2.50943438165066 0
195.569464098885 -27.3669834195912 23.7096110373191 0
185.972340778041 43.7161874771745 -11.5547404830441 0
191.383491452601 45.1878558399708 -12.0193741762492 0
-45.0418550775667 -1.57178990893311 1.07751330851261 0
68.0306905074922 -13.9991045394075 26.7177109204927 0
205.288190620655 -9.47639604160122 -29.0911119394253 0
188.200248866015 -16.3081788074297 -33.7133838581578 0
11.0100745581088 -25.4621398777212 18.7699803978728 0
122.715484903987 -18.7378187249879 20.6290297074277 0
73.8229759468735 5.26643241585462 20.8120059079051 0
191.040309170435 44.7534368627878 -26.5069514885515 0
34.0225648485235 -8.15477023727808 27.5381046700124 0
203.489633063957 31.0286700089136 11.9341740495071 0
216.4906003447 -27.996608958722 -25.6825446473015 0
188.274568968632 -19.5464051293733 -34.7772511015827 0
196.870905880528 42.7202534159632 -0.325570779291411 0
170.576992288246 25.8097843995814 -6.73278272230189 0
198.659399395485 43.0572048036118 -8.86042451074463 0
-2.35329003656109 -20.1038020603149 25.5807959599558 0
177.218844995817 0.687335378866938 -12.6044197890456 0
190.770231328373 28.8549695643926 -33.1891560717962 0
-82.765697121185 -23.3942654167936 0.0291637042200605 0
210.95348662688 16.0786043451443 -17.0547164418026 0
141.493629906348 -14.9812635074012 -6.8764714744956 0
-77.6707078994516 -8.94705496015618 -8.10739379175752 0
217.957830406717 -24.1787918010869 7.30766980624699 0
-78.782416520542 -0.31604671758142 16.5717635231931 0
205.043044915256 30.8526828541941 -35.1220310218929 0
8.26525048607638 -21.137284604033 25.030841290499 0
124.770839918435 7.01787869908678 23.3615516006657 0
-34.9910816649614 -24.9517582854139 7.36680657722534 0
-82.7389918018056 -14.2762314772105 21.4693082567497 0
163.337106979612 -17.5302508523444 21.3365139058606 0
219.495095326684 -21.113403044823 1.43510126062904 0
188.679220043532 17.4676973887001 -24.481910092207 0
196.927081178732 -34.5403184874873 -3.78954057995391 0
190.114381628895 43.0388434375016 -21.5873709757805 0
1.53064502723037 -1.34972530050078 4.5293241730924 0
-5.55640165926742 -7.45376867705955 -3.39898379116789 0
203.541850752288 36.2546914740491 7.03637532098242 0
214.510740495329 43.3495755889307 -24.3307825098731 0
217.427410659943 8.40992792623735 9.01425788342905 0
215.851041654869 -27.3381216809744 9.49224324803744 0
107.168497435923 8.9920612005689 13.6352742850826 0
-32.4648139407149 -20.8459768257663 3.29722242499918 0
216.729878388203 5.37159382636536 2.82371752124922 0
182.646987305912 -10.4160893931425 -23.5216275990571 0
204.463637558303 43.5390017787837 -6.57199978033208 0
1.14832780279137 -11.2300045899228 -0.971598677180153 0
219.264333101391 10.1910248389293 3.55626917352661 0
209.222805798497 22.8829605961429 17.9132754057804 0
73.474736942797 -22.6779355361952 17.4720512310602 0
185.854533639553 -32.9312903833745 -5.38080609482799 0
128.038486063399 -18.2054863413228 21.0323822130277 0
139.969604109396 -14.9969722892583 23.3924593670224 0
12.03469557971 -10.9929454652795 -0.810166380334486 0
221.038541284497 18.524810489065 6.25956809111899 0
118.015201164893 -5.10632423419731 -3.89649197333815 0
185.669510476062 33.7738192365825 -18.7010253307402 0
209.566931104574 17.1135289191427 -20.4456043680151 0
150.424431688871 -21.3173802254097 12.7429584974291 0
131.063425438822 -18.3321423025691 0.121944914154409 0
-36.0997265931578 -4.80716684444883 23.5169393658085 0
156.221791807833 -20.9936917006763 -3.71962685291478 0
217.824425916434 17.524255853311 15.2934659029779 0
187.662936081721 17.5529774788229 -26.734925271187 0
213.263893320053 -17.4294195835362 15.0898541938155 0
199.595350081889 43.6515525605229 -6.81444041203713 0
166.712149605659 -22.6135254104853 10.6247039501739 0
150.470442270657 -9.50146590115788 24.5189896657017 0
113.837419240997 -4.59713351338769 26.8239398764007 0
207.804669204725 -33.5886635387666 -31.5523522473343 0
31.8920809644226 -3.24962565514135 -1.43676347437682 0
211.357293902124 23.6565673809352 -31.7586321697132 0
211.061258042359 -35.2127633525418 -17.3383498536644 0
152.635628208712 -2.62823040158801 24.0102490450133 0
150.389693874949 -21.2615100896625 2.44041066240346 0
-76.7522505851771 -20.5848326862225 -3.27402635125884 0
172.76017107112 19.9522188949848 -9.98510596778624 0
175.344091796071 30.4146456912568 2.21760569348821 0
208.200294142062 44.1644819806924 -30.3196586485882 0
-72.4328335567671 -15.6572593718371 22.5657512887946 0
187.004972236769 43.0176810594757 -25.5775886877431 0
181.975205020492 31.1063675212052 8.57322769936772 0
181.710263731452 -28.0145132293109 -25.6819912248207 0
-80.4475932544811 2.15951497826771 4.9875150700193 0
210.097934020613 -30.8613510377681 -0.39908238151571 0
221.016315767914 40.0963244532836 -17.5649591352842 0
-91.7534990640958 -9.7235970668298 -10.4753811850838 1
76.4125117118292 5.78593884600526 20.1309644472425 0
176.776081699917 -19.1221579291656 22.8214818437003 0
87.7702216210575 4.53149979752761 8.31499931539921 0
44.9491945930944 -17.9009314693116 3.56412008826453 0
72.9830241009257 -1.06681817684749 0.369491567213573 0
174.800940520259 10.5884173435728 -11.2465683386475 0
11.9564095374254 -15.1204433993096 1.30308840187252 0
206.662437044813 42.6348846810189 -7.86948050174686 0
-14.6923767651657 -0.39871875359176 20.7268449030123 0
88.2107511596425 -1.30155673499098 26.7971544246653 0
166.417745235297 19.1092444962559 -7.24252991267288 0
201.138179663514 -4.44229608019319 20.3237985821476 0
186.177134539128 18.3868982846673 -25.1483895551752 0
43.7146621512956 -8.37894105660904 27.654828176429 0
205.515533384351 41.953145744095 -34.0360643467198 0
162.070796135006 0.188626804209792 -7.63925128508798 0
41.3905178347673 -24.5994235851002 13.3929577787506 0
156.652575758802 -19.8775244361168 -6.28653421360893 0
208.95979540102 42.9575966381914 -31.4570714702721 0
64.3123831193957 -11.1842170567837 27.4388475296703 0
-54.0961255063921 -6.27114417082348 23.1479071594588 0
129.024324317245 -19.7832231482792 2.92243479487366 0
204.460110547391 9.39262674722949 -12.8651925730952 0
-2.85106962439125 -2.81928184261671 0.384158944326712 0
158.794282564114 -0.843779789207757 23.2276971572878 0
161.770996025728 21.9020856617064 0.00193103501615882 0
125.117780021411 2.75099031938855 -0.104951037420899 0
19.5014945249156 -17.4596566068549 26.530838053656 0
222.074835362433 34.8761701619328 -19.5527999338601 0
-59.1886805383232 -14.8259163675676 -4.14191516164093 0
202.314434951582 44.0864554478175 -3.06304001336953 0
-84.4396945367441 -22.1974970719168 15.1052548019556 0
185.693555681864 39.3051554818518 -26.0259464250235 0
61.5222137655563 -2.83015944969589 -1.04289483488604 0
173.702235202302 -1.89071436192319 -11.7646547954635 0
147.434365144035 -1.58271744212768 -5.67086700117432 0
-57.7878718299597 -13.1673244912811 -4.96173257630057 0
182.470278366842 37.9681170390596 -12.7007732948854 0
188.861559383652 6.86384212063113 -18.2648207672821 0
130.445849269843 0.0470290310044006 -2.8083533672224 0
220.778809515844 39.8876688836179 -18.8274693102548 0
109.491353458148 -2.10849597707417 -1.92603153463278 0
148.760660158637 -15.2373451375673 -7.76607301152239 0
179.968536505754 -22.0307278870276 -26.7107526226538 0
214.833327957239 43.6520812759857 -20.3748715733939 0
177.109926720935 -28.8306926433414 -8.22468646381224 0
-31.5188122598022 -26.1017600654364 9.90381174531299 0
97.6993524416081 -2.19595338285138 -1.25696171915128 0
200.119932919619 28.0491398028336 14.5767975872843 0
-7.88203782510183 -3.79954790835895 24.2054761826002 0
-55.8794079383129 -9.59662940793241 24.2845959155085 0
78.0707385167337 4.13763579789793 9.07769407760234 0
192.682137297912 15.9340581695869 -20.693863386585 0
196.681197185904 -31.9440765367587 5.66602660757309 0
115.588385481868 -21.1998720684132 8.01661991127479 0
69.0780263031981 -3.69904853039097 -1.58245404485949 0
175.337931948393 -3.99919191705907 20.649595562059 0
63.9007331012452 3.45053484556633 9.54453283879194 0
23.8260961901331 -10.0046763163857 -0.898836060444771 0
-88.329223707021 -15.8258656646297 -8.81309752480276 1
194.105853854799 6.99414959215035 23.3837250613553 0
180.505954156911 -4.82644918155878 22.2078325680842 0
205.69949275892 -7.08657312726729 -20.7113470857396 0
140.50734430154 -21.216134990709 12.7019134285733 0
172.019874194672 -26.1848030632183 -12.406443235568 0
213.175635360128 44.0240799067215 -24.5635785851156 0
189.528846227777 43.6017428814666 -19.3364560968129 0
196.640096916855 -31.5672653272418 8.83800181126542 0
36.1342330467385 -16.2309644624649 2.34877167401531 0
99.1554748361044 5.77960901509905 8.40201315178373 0
197.636339660744 -33.5498073541665 -1.14496803208253 0
-72.5432380939168 -3.37308833973968 19.8977290247704 0
174.630301141361 -26.4165494789365 -1.30236608860388 0
73.9621495998999 -20.4886002613294 6.22448768973312 0
0.0762123109901814 0.224006950497333 20.5851533531689 0
-86.4268737344534 -17.65680856904 -7.77969483608166 0
164.488179753189 9.19898971728369 -6.45004006474783 0
-88.9784304885622 -13.1058862704633 20.7758153579468 1
104.649746886327 -4.16529395773634 26.9900088474992 0
215.270445983431 19.6252585312622 -25.1190114783857 0
212.884315396145 16.6110352034204 21.0775082854625 0
46.3420558003737 -11.2797886221606 27.5264894894389 0
-75.6017926782578 -7.70267470510498 -6.8393625175349 0
172.244567588164 -9.81716829990658 22.9486087932688 0
198.904515579766 41.9442427075302 0.461253091049195 0
200.567318187753 -22.7869562398107 -37.421179269677 0
193.394968971605 41.7664677793059 1.96706141577943 0
175.878967470137 -20.6977921998398 21.2073038020021 0
10.1360144698863 -10.2723324693784 -1.26191552857613 0
47.3993046742368 -19.2054137285402 4.78308177607044 0
201.535135412634 3.98018803353798 -13.6668748230231 0
162.968464637661 -4.36524492726029 22.9456845292658 0
66.2736115861078 -21.4295430502837 7.69976579458471 0
195.032331451075 12.3121452754561 -18.223481381772 0
154.043657464918 -8.79887095721078 -8.62852269707316 0
166.49110451975 -16.5218133421113 -13.3737728402686 0
-25.7746907571835 -26.1102667986818 16.621609380384 0
84.1767434781212 -1.3067575274221 -0.991747916458747 0
111.634699446343 -4.74720751874208 -3.24549674974102 0
45.620503649521 -8.6286366649819 -2.52336718364907 0
120.69883347409 -20.3575491941232 4.87320844991015 0
-67.9994788540942 2.56317232914925 9.33426678126331 0
157.174867901638 15.2626980184392 -1.40635014820242 0
170.87314568787 -24.8364085101772 1.45115143270618 0
185.592154218542 10.3436417114276 -17.6846532070631 0
215.998993432815 5.54968879273411 -4.16483232976581 0
196.86291486978 38.4499918109771 6.22196163193234 0
6.92772223388694 -11.7833481553948 27.3518936670782 0
119.035380454735 0.899885282530746 25.7297707088926 0
189.587774195125 2.27211442181096 -18.5166420273521 0
152.915677719744 -9.04837983291754 24.3473510880238 0
119.27975195009 -21.1989351879313 7.98771095350031 0
-63.6832649705335 -2.49289658180137 19.943389916 0
-55.3039742516147 -9.6356912229297 -5.18865825972975 0
-19.4494018788782 -26.5510709446322 13.6932841103502 0
-71.1912994484683 -1.39858678839056 18.3704059516079 0
-90.339555372721 1.13533470914198 -1.7356530653107 1
139.055999350987 14.5113857625673 9.56686616741698 0
-0.509430969177004 -24.2698619353191 21.2304790673916 0
214.150222692671 -2.0079724943895 4.92718442798586 0
25.7193870951759 -2.41964834060759 -0.0816797789139657 0
89.2663495288002 7.02634533333923 14.8661141653347 0
36.0342816025247 -1.28348553600514 24.7285768350077 0
-42.3832116864083 -24.9454548068754 17.7514953103644 0
213.825990747488 14.5713033425394 -21.0945902520396 0
-79.039404301728 -11.1291597548362 22.3177089763489 0
-81.3121324064047 0.357974253109633 -0.695352044049783 0
41.907265451439 3.12231827320964 12.0698341925849 0
35.5390596888097 3.06732933384302 18.1935217776876 0
-68.6523442590483 -20.3323862239805 20.2988666876181 0
67.6778587232706 -2.87759478114836 -0.878895086519171 0
-69.00788387672 -1.09176782410846 -0.756355002807311 0
-84.2238908937604 -9.03430655996749 21.3700670114474 0
-83.5962482072721 -11.619872015094 -10.948943546569 0
-17.699253125178 -22.2972088721977 23.3550666368638 0
185.144018094791 20.4265157036944 -22.6325780432377 0
15.87119572397 -1.80852623216295 2.50137442919932 0
-12.2135033130228 -5.64046756076193 -2.8743219860844 0
203.612917509435 -8.72151784350538 -28.7421881432449 0
-44.9397879754124 -19.582143007701 1.32295954622223 0
25.3336303341283 -18.1958676596465 26.2275401903161 0
-72.6378655983046 0.329723274656357 16.2163491406513 0
-46.9932575508929 -17.0198443803292 -0.727590839419892 0
220.123946903749 40.8953493273011 -14.316894811518 0
184.465277267602 13.1745957465267 21.209080140317 0
181.776808963901 12.8014863796555 -13.1221809366564 0
218.215996221047 -16.3773185636042 -12.3427399919794 0
206.851050303495 -30.3855351430542 17.4617410278652 0
156.197390909073 12.2487506938106 -2.00038666907892 0
53.0738565744543 -15.3699948750191 1.77124679551895 0
186.848332240088 17.9077079959007 -22.2773342022097 0
66.7004838080743 -7.09617996157726 -3.4011995229616 0
207.204557372007 -23.8535636171419 21.7270286552945 0
160.94670723967 8.13626640989056 -5.35304112560602 0
-83.362966191257 -19.4456992190502 -6.00322903734341 0
10.5190392132908 -4.27652147608906 -1.64070182421357 0
-41.1277046367526 -4.82274901363756 23.1578201091725 0
174.415942011951 -23.5512590594004 13.7782173915126 0
219.523191907647 41.3154893776453 -17.2316468778533 0
195.074063577482 37.9180436375406 -34.5063340769802 0
141.24149915586 -3.52722291469036 -5.53455185125196 0
220.648320443663 40.715782338079 -16.3928362414867 0
197.413932416786 44.8245573425386 -3.61032712627552 0
182.353682688421 13.0486865118748 20.8488444859395 0
37.1825168491543 -12.3107584369066 0.33445538303683 0
215.694673136215 43.1801755894152 -20.9048142780425 0
202.699569886198 -7.22185049207655 -23.0394950032131 0
52.7345026812048 -12.7279363131441 0.323083121333563 0
201.308632157096 -29.1460031988031 -37.2778033728054 0
54.3450386980374 -10.6830161317085 -0.872585936546677 0
132.383842054648 -2.09548802662847 -4.01550016954376 0
194.343765081922 33.5957922340546 10.7182013605882 0
-60.9818618866846 -22.591441063317 1.9815860840045 0
5.49669183672782 -14.7925742857398 27.1134641254745 0
189.105154628864 44.8385590365612 -11.2634668784735 0
160.017922102108 -20.8199090429393 -7.47433705199865 0
178.324532390258 -32.0427837571632 -13.112081225382 0
5.95042006408101 -24.4644215674062 9.2999934164924 0
184.724914313408 -10.3175634562343 23.7407342136902 0
213.562890872117 -29.9222704683589 -2.84599065438682 0
219.091398286197 -17.6825309928666 -9.77690876486717 0
180.232672336385 41.2359374646899 -6.38324492168459 0
186.220690202164 35.8862746263922 -17.4813969544952 0
218.157874840642 40.8290850950436 -24.0516633295967 0
-57.5189646764835 -4.77818625171204 -3.26271747297008 0
13.5068265928375 -22.761201913899 23.5681025569849 0
-68.9046841496844 -17.9198448248232 -4.04631209453819 0
147.202489774193 -15.472435253472 -7.53615582595034 0
100.7454213241 4.87576436533381 6.35752976709029 0
28.2528006360782 -17.2669621223685 26.4738498758392 0
169.899745092005 -24.6665090810292 -0.500842343508541 0
-66.4362424423686 -1.41783874708404 18.7931916131735 0
193.027334874257 24.3132034973785 17.208406059186 0
167.559349014028 -23.6786712572635 4.57343274147023 0
180.534414106722 -28.8021919706526 0.0949155513615405 0
132.19789231567 -12.0165315108728 -5.96442460171491 0
49.2674774284614 -24.0126915959694 18.5095314790245 0
-71.7778447133069 -10.4251379450176 -8.13442815169697 0
200.356994261765 23.7564312192339 18.248729420284 0
199.224500295747 -36.0564070479113 -7.78377495413213 0
212.334745165014 -32.3673590742125 -30.4345089174653 0
203.791300768323 24.47781457664 -35.4804747873087 0
102.773800651812 0.224809662133298 26.2685890802889 0
27.1415297067429 -5.88700746911363 -2.56111555067484 0
48.041790628301 -13.4475433545472 0.810429853479251 0
203.831330349959 -8.45699591897308 20.0057685323861 0
160.213936151704 -1.89200144550629 -7.83502252449575 0
212.709691676733 -24.4519881285249 16.5234671641291 0
194.426517240303 44.2110652450831 -19.173539592395 0
-29.0857738182197 -12.592177438503 -1.47092577681309 0
-69.8574718501752 -6.23834494566167 21.7777694151541 0
177.660494748388 18.4314494845425 17.0607083244079 0
218.397931195912 -13.6465784527124 -4.4028709335233 0
13.8983041334903 -21.4577381219632 6.03945520751575 0
220.688870885892 19.5255782810693 7.88583105258003 0
68.7881851076443 3.3797747105221 22.981236651643 0
-82.5489439480102 -21.181594938703 16.9154545510501 0
180.841087047996 41.1287545391669 -8.72614554779518 0
-87.275674005147 -11.3726808836581 -11.2574391573169 1
139.608214966083 -20.4752399151017 16.2475173779172 0
217.93682207758 -12.5199273368251 -1.99787417337718 0
172.659129976527 4.81992451483961 21.3345716147887 0
5.60730664684322 -6.95330004222514 -2.91746170172545 0
-65.883983240964 1.7815376362911 6.37208873139035 0
63.6750933694145 -2.92544090469128 26.9315012511499 0
194.578691093106 4.38324153909415 23.2322473699459 0
182.02698505929 -16.8021687361661 -30.267608586338 0
111.019337799749 -20.5053495147591 18.2091574811516 0
-60.9531138448155 -10.6923239544406 24.0095557668276 0
210.648443494294 1.19565144839268 -8.7869378709143 0
154.71260901326 8.19339520075982 -3.21409102942409 0
-2.95556693855891 -7.33203556154531 -3.2017337763518 0
-58.4910032326015 -3.29892023023166 20.9811138242486 0
93.15083175008 -10.8298701742995 -2.02509570936721 0
-5.27288897687329 -18.7235306957874 26.2166590072732 0
-90.6288398216974 -11.2822904812098 20.6792300286871 1
161.47337101609 16.4881202646217 -3.46758251581368 0
116.334438210817 3.20992079683215 25.100567862386 0
188.24233901247 -4.19140960082918 -20.6093287073132 0
209.248442916496 16.6462154187729 -18.5748035873127 0
-1.92727062020442 -8.0567305904112 26.5481357379372 0
128.399709241341 -16.6783469601818 22.6663519350836 0
215.848087582821 42.8076058585595 -22.2048611222857 0
187.47037750295 36.9014476779144 6.40882455334649 0
-23.2230437500628 -3.89624056002558 23.662623220134 0
92.2023352522807 -0.524947664460334 0.176674291448327 0
-0.757925960084091 -19.4491268602486 3.86479916581996 0
41.187627510716 -16.2674058098461 2.43020527112616 0
44.6952179317466 -23.7998327012084 11.5296252845688 0
150.630103828933 16.0630036051761 3.64776090423972 0
169.706005268851 15.6303112207674 17.3965409553157 0
175.597722084949 -24.7763108830086 -17.0694603665538 0
-10.3751116553805 -7.18781519717696 -3.46291372696533 0
96.3999742612966 1.46195386999609 25.9016741200014 0
205.567006030236 -4.22038354067696 -14.170443935164 0
-18.4922746706744 -10.6162729969554 26.6135440186147 0
213.35717609667 40.6350011325866 -7.48702889220256 0
153.432447834303 18.5587977739641 11.4096472595677 0
82.6828085245383 0.676382918460061 25.9918777345538 0
203.173584692994 -13.2518834207463 -33.4073535178234 0
209.873973422164 -18.1847206356893 -31.0611085277771 0
174.222654548738 -19.2380182581603 -17.7741193829871 0
-40.6217243074124 -21.3000721662309 22.7937202442992 0
-56.1704737532972 -3.39209122355714 -2.75786511867233 0
200.766397893538 -32.4333575835625 2.73653486503969 0
169.165391024046 -1.56365939288275 22.0049616903812 0
62.8828448367312 -6.19031461777479 -3.22265085299441 0
23.8787488461413 -23.4783975836306 9.67858359189654 0
-49.9303533920441 -4.71989804886675 -2.41782605693063 0
180.239089012268 -26.0154516323815 -24.1142269940936 0
11.1452203652375 -2.34894046471831 0.436230874016116 0
218.722127426639 39.7395428177474 -7.70922881878861 0
151.903473720662 -11.7949790505691 24.2382892824206 0
91.9321800194176 -15.1226196932066 0.235883756990045 0
209.184800589258 40.6883617956591 -4.01525118510651 0
