-116.00687229253 -7.1655206838931 -15.7473494283235 0
-229.314692625247 32.1222835552137 15.7835079626537 0
-231.628415401285 12.7246788730455 -21.3742054322028 0
-205.383128434588 38.9825428487806 -13.3962982921907 0
-225.593870264881 50.8903002869437 -13.1460889190637 0
-107.262278899285 -2.07495890895585 8.10757809040326 0
-229.275211327513 12.1157143358594 -21.5685609930051 0
-156.630087420407 5.5416188589208 -5.04486232169435 0
-182.257343073243 -31.3608320137548 17.079948864791 0
-187.178214152911 -2.65652646077831 24.9805370442505 0
-226.301231383927 42.5462748261077 12.5726124510198 0
-222.469036520806 -16.6310524011505 26.7003110248075 0
-204.670004332012 -21.8482711760465 -10.2422612645504 0
-214.70348813774 -30.6244968950141 9.93107243180658 0
-94.6316518403087 -21.948573214338 -8.67959195314553 0
-191.402377798197 -21.7851662340307 26.3282503961621 0
-72.2250150212198 -12.0911207686784 -21.1932659175703 0
-223.321543878504 51.3298131452262 -7.09313515895473 0
-152.428834177061 -5.97891882890211 -11.0031580407452 0
-225.68477529008 -13.7981901765289 9.11037583129942 0
-209.045263128984 -18.5628131002836 -13.216523758176 0
-218.695926577481 43.6575916317837 10.5206271899519 0
-165.97425022553 15.6303898177943 7.26160724683409 0
-196.097927733661 -0.893130796337381 17.1996030165928 0
-190.552061350215 -39.0603389930124 7.96617139723971 0
-59.3421869280717 -1.10718121607225 3.16391487530782 0
-88.5478494350512 -1.48980137920985 -17.1915721334452 0
-107.545510778694 -19.1589438599508 -11.7013759174226 0
-30.4481912836158 -17.8578511575643 -7.83103315814877 0
-9.48724082339733 9.11192855220047 -11.3319159270033 0
-200.193232050306 -31.8522745378255 19.6660314376419 0
-214.009816031322 -27.5766046558329 21.0346693026142 0
-30.5519041547767 5.26524928641181 -18.5126595528295 0
-123.760309791513 -10.5891691709771 13.3063151321034 0
-20.9675251703793 0.0799875864346284 -23.8580853912478 0
-175.299202186042 -15.717701658686 23.0264949357958 0
-142.087034609175 -14.3017095099873 -10.3413861880636 0
-210.094186565866 -6.60598455990816 17.6406923181166 0
-241.324980274833 18.3197912442105 4.91940952895385 0
-163.397220704285 -24.8139551402585 -0.0564710105330597 0
-117.930589183344 4.60820457300663 0.3672360912628 0
-174.472339970693 0.826031466617144 22.9225957503373 0
-199.533770236329 -14.5865980956795 30.2383320750645 0
-129.900783311482 -12.0580076875504 -13.0579334072656 0
-200.292380596774 3.58146846160918 -13.6945630161573 0
-142.015358806094 2.55702189486105 -9.26468512011781 0
-218.870311054227 -11.8440640828114 11.0502428140077 0
-11.4696874002727 7.81138628921295 -6.7624974279293 0
-194.869708415029 -32.2937260375184 20.6778367112006 0
-221.481192617849 -7.84339258523534 17.0688292890825 0
-226.309794086336 15.2086709359335 7.71191614578475 0
-209.146334180405 28.6188870373386 -21.9591609075963 0
-40.3374945751128 -7.41464292984348 1.60855328822943 0
-245.922941654569 20.8661918294371 -2.46721310090853 0
-100.239361937101 -13.598364110059 8.87514113364866 0
-88.2503186081223 -20.6575885168302 0.0952862942225015 0
-197.54627584058 -10.7229670549866 -13.8291554520309 0
-212.58782696041 18.9260676721445 -23.2294509414334 0
-127.779320813862 -2.45256664570007 10.7418130137168 0
-145.9406470208 -21.2853776243945 13.1562137239005 0
-197.577475897581 -5.77943486226412 26.4802335246168 0
-53.5149680856775 1.02860657987332 -19.7159473393268 0
-217.114974712137 -2.71508979000534 -9.9939058682741 0
-24.556546358381 5.91996455500628 -3.85751315327388 0
-211.672871559824 41.8247008969431 -20.5996670579881 0
-205.151461890513 36.9560201912886 -6.84188708117942 0
-229.981776232424 9.74829530637453 -2.18617804152995 0
-171.288994098898 6.15707793321199 -8.82539303336365 0
-247.967153729324 27.7018905658821 -4.04478836062079 0
-27.6204592629848 7.94779141095228 -14.3561469121714 0
-21.8679011222502 0.0991239588489292 2.31040297673781 0
-209.855665236447 -30.7396044548492 -2.5117769505766 0
-187.249092211057 -26.6080190104816 -3.64547183669701 0
-164.477280982339 -22.9170514884203 16.7836435394435 0
-210.523254431818 -33.523436515322 11.3907034295114 0
-121.937201932807 -9.5043958813583 -14.8215858337595 0
-77.5386975202026 -5.01386978949103 6.57837669004966 0
-213.883675759305 -9.95481343261607 10.0211269642275 0
-218.193936027573 -7.88052370655923 -3.47549251843073 0
-48.1084400082478 -19.4308776337039 -7.4800646128768 0
-236.937615659825 13.3166587481608 -18.3761787731097 0
-177.805520506668 10.0150561559158 -7.32441091914343 0
-158.305289804774 -26.0845822330637 4.63719341830906 0
-80.9167181587936 -12.0044758682549 -20.2860069594628 0
-209.868616762275 -32.6191485511726 16.1107640762186 0
-186.063841546729 16.7523876870573 -2.47345847407828 0
-211.993260027553 40.2154774864546 9.20991815475332 0
-191.555426513812 5.09586012864696 14.4205204043261 0
-207.094081998684 33.0122547379722 2.27708226892562 0
-89.9679334904253 -0.747780409904954 5.69750475298954 0
-226.080851052379 16.7071470963717 9.80685459342309 0
-74.3212347280728 -7.94617734572943 -21.3339742358131 0
-114.039968910819 -10.0036635189126 11.5447877826635 0
-92.2614245157966 -8.53866629967528 9.27937929113277 0
-180.545995944264 -16.1138222646074 24.8299992404924 0
-79.7210111868438 -7.98797669378671 7.04188999225778 0
-149.867297598636 -18.1691015472897 16.3315787126703 0
-23.4549996631159 -16.1152132919408 -6.10199356973221 0
-162.528154653884 -20.9713156001965 -4.48280996109743 0
-244.968972512521 24.0000336806612 3.15640993275844 0
-208.200486766862 -6.67740349110679 14.6229056253191 0
-208.407639561415 37.1513101332037 1.49344808970236 0
-204.800160295145 29.3957124156921 -0.679870537823259 0
-14.2094384685375 -7.49499392625711 -25.0735632588028 0
-227.06395435725 46.517011645716 -11.4462136485515 0
-194.702415007906 -19.915018537001 28.2151238511432 0
-110.65873889607 -20.1436806236309 6.78547162628341 0
-160.179519414864 16.6513583468994 11.3182231793696 0
-203.927073167913 30.0567978553495 -3.52607812762355 0
-199.816083093011 -35.9481259625258 2.95148516476512 0
-158.28878567706 -12.2945276689711 19.0138315633261 0
-203.620519277298 -35.091234107871 2.24180231500226 0
-143.684270858374 -18.3298462519221 14.5320200790627 0
-126.413072843266 5.35148774218296 0.00431499620242841 0
-176.090799112335 -12.2593057695452 -7.84846122591658 0
-219.442507762121 6.92767738517074 5.44124166124309 0
-20.4077492471953 -1.20682930723982 3.04102450144896 0
-123.811229948823 -22.8346148060644 5.51961502615253 0
-41.5381134000851 -15.2636028101766 -21.6974776575934 0
-244.25530171616 18.7553606266404 -13.6765672088963 0
-9.1011514075644 -7.49170864902676 -0.377121270555514 0
-207.425761970067 1.34949566555922 12.2307229561224 0
-164.49132859815 -4.23109950177507 -10.1404509759977 0
-51.2948099128019 -3.72187155769555 4.04351418704889 0
-186.526965104687 16.6671688318584 3.99039821974065 0
-216.620775427134 6.63043529086052 -18.6462497977795 0
-176.079916171283 -31.1241867808211 5.92703177824978 0
-163.846479821175 -21.0519713661239 18.795516826091 0
-243.306476175014 16.9571281844304 -0.0754220446923338 0
-218.881135868134 2.79279276970722 2.06032201422527 0
-174.201933021323 12.9497110450584 1.39200447149094 0
-152.296949661885 -22.8161123696977 13.0226763983174 0
-166.986012506035 8.94531960782504 -5.94099099469992 0
-154.901381195025 2.91536080488625 -8.54895079372349 0
-182.525848229005 3.44280710130889 -12.6827098268322 0
-182.537328079395 10.0972285610975 12.5484847971825 0
-242.887602568386 37.8599367693509 5.28440871061186 0
-216.070755548976 -12.4211772483435 -7.47324012085802 0
-178.484406179861 -27.2164125168207 19.1742616316179 0
-122.571741012152 -6.43163301488629 11.7193765958331 0
-136.220255784036 -22.1626322914899 -3.670825186251 0
-192.198303587811 16.6167304328468 5.43917964769299 0
-207.004990197231 43.327024610301 -8.27051650939374 0
-6.36035381402348 -18.0571701424842 -12.4137456221743 0
-214.842193883048 -5.07051136971401 4.49898786344875 0
-246.122445486978 27.8276934993616 -15.9924464481307 0
-190.015815186854 -36.7853406843118 14.1644997378139 0
-212.601077490018 -11.9888753216685 -12.6371105227907 0
-236.9826672274 12.6035955054098 -1.92524542649892 0
-124.365994628792 -11.4003794379045 -14.0834709668917 0
-208.729501829374 13.5248101051553 -19.0899619742028 0
-184.799670736159 6.46051120885766 -12.3167623680592 0
-100.22387678643 -6.73370478246653 8.93002808548036 0
-187.837733300269 -26.518703988152 23.8570338474358 0
-170.854706859269 0.542877093212152 22.3611408590315 0
-202.363133629618 -26.6034720557272 -7.22282307223559 0
-81.3025605140399 -21.9843874041644 -8.2993695897361 0
-195.859331214525 -36.3180127186849 2.20978784333692 0
-217.218328475835 -14.5856110870137 -11.0038577167884 0
-160.876220164951 -6.0705051138162 -10.0544844234216 0
-190.078484730319 -7.16834882840094 -11.6320203160576 0
-126.979996351709 -20.125537801624 -7.53659841590574 0
-220.792746961103 -8.7833581448168 15.6687736650534 0
-104.105213017751 5.13005906931383 -9.9058139794323 0
-178.643618196772 -30.3558971442254 2.58041656998873 0
-68.8602928599295 -3.60752772698523 5.23259148084617 0
-189.831136974645 -4.02670579325569 25.8210433215905 0
-223.726766592322 -9.10685939555134 20.0087382157846 0
-205.489131851978 -3.17641552755344 14.2917657557918 0
-60.8313988440424 -18.5270880326835 -3.11977519585956 0
-247.014298358249 36.5169170548598 -9.75023491948108 0
-77.8640080307448 -10.9117186596062 -20.8721710368574 0
-221.547244077913 -13.0001575808061 9.20758148899772 0
-219.443566971763 -17.0718033710706 27.5110523474895 0
-72.1105384280397 -17.3740457924621 0.429746845180704 0
-85.7798657924334 -3.08031673167047 6.66817054999464 0
-184.053249984584 3.84711006220724 -12.7155167629694 0
-145.322323831465 -10.3519065212709 -11.1769524434509 0
-183.676729523526 -10.7690412892393 25.9392378729369 0
-210.878611004134 29.1726287870358 9.8136490866592 0
-28.5940365558652 -17.866757441726 -18.991962395134 0
-221.983696284109 47.3082836225803 -20.7392852638962 0
-200.105003505785 -37.4143636598319 11.4571981425223 0
-175.021586000438 -3.84725496350111 -9.75190662727658 0
-158.323291773058 9.32370477018327 18.7717817426681 0
-193.347178370746 15.7805600431985 6.30532316029679 0
-220.059439221555 26.6054795403197 15.4616116233988 0
-103.789902663803 -22.9926331891122 -1.46884885432191 0
-134.55115061679 -19.8537143265925 11.6739654721906 0
-230.672654183143 11.247440298466 -19.7479930624228 0
-211.98209663905 4.09173539454545 -16.1586574487429 0
-189.985177698582 -2.78834440913866 20.532834894856 0
-46.6690938343809 5.60152497926268 -16.1562557231267 0
-42.371182484123 4.50162981415195 -2.41310475330808 0
-226.150143781358 28.2491143858058 -29.750031356453 0
-183.111747261701 -4.05253188611792 -10.4808240223381 0
-234.794316262891 10.5260703877288 -5.64065576652042 0
-215.870596714903 -1.45183902293825 4.63427400201065 0
-90.6644752667885 -17.2682103398912 4.70373172948884 0
-220.072956983273 -24.0908570914181 20.0512835395045 0
-150.542659530207 -1.33119169020256 16.0743460714637 0
-155.831802612326 12.4301103758059 9.2410430115099 0
-206.876143540982 13.9096770755236 -18.2125713499821 0
-81.132859066185 -5.68489324593359 7.41803721029587 0
-10.1744816874521 -16.8876933445795 -19.3338714073171 0
-12.969361471839 -9.04596629073506 -0.966634387158784 0
-165.379689801985 15.5518014008127 20.109255313586 0
-201.907111800838 -34.5229037034856 1.59513794741102 0
-148.062548223364 -16.6074165088605 16.3445038809922 0
-207.282768174024 22.4076636703927 -18.5080715638985 0
-64.4256549040806 -4.80612458402973 -21.7606021688999 0
-181.271683515966 -8.19222189852879 25.2549691265079 0
-79.5642078959954 -19.0150685903186 -15.7872328588202 0
-229.280867734541 38.4691512513541 -27.4900456447529 0
-178.689167475869 -4.84048598948765 24.2596486262645 0
-157.237161440105 -1.0900167484096 18.6484407519351 0
-39.9199908296744 -1.19599303050729 2.77699353337454 0
-38.975214526984 -19.4040369872761 -9.6526716294315 0
-162.855288034107 -16.863037341818 -7.05293274763028 0
-149.701199785109 -22.1155485634036 13.1165458573597 0
-197.804532653667 6.56561816426895 12.1634567756122 0
-172.216877154578 -15.6996860254276 22.0420547746834 0
-174.402915612543 -3.3242326338464 23.2823898745476 0
-39.8148294494569 -18.0133764204558 -6.48636956447304 0
-232.246419758371 8.11194943069705 -9.39989680703096 0
-195.688517382054 22.0792711018873 -4.89123527774365 0
-223.07957383534 -14.4300478857595 3.75393952240235 0
-154.568267118205 -4.43901163121777 -10.9362527742309 0
-220.546698105983 5.51426631051756 -17.3791070087869 0
-189.699943007734 -11.1237887368634 -11.4648811191034 0
-205.136265848639 38.8418544059 -8.57167351546237 0
-243.781452747084 23.4283470451253 -18.7233362801086 0
-87.9962450138596 4.1016702272478 -0.814342755594086 0
-222.724975572856 15.5103099158178 10.1615211653338 0
-232.815872560707 33.8838248942955 -28.0774089994273 0
-157.471361394897 -5.95313728100391 -10.412250720169 0
-13.9440192267189 -2.29990856307652 2.79347318537326 0
-211.215903606783 36.8839875139567 -23.157273416631 0
-200.921796611627 -33.2250457602579 0.422564667319437 0
-12.9568073009601 -17.1050016339639 -8.6217407782951 0
-200.949344877888 21.498974981476 3.61816028805181 0
-198.433243015863 -25.031813537901 -7.36819762129177 0
-189.165377941162 -37.8536539204767 13.168163689185 0
-145.199855312916 -22.8941802680746 11.1920872423848 0
-209.311191001853 41.4650283854197 0.559107992235196 0
-191.830026619762 -6.56333891049894 27.7501752439812 0
-169.200369998517 -25.5044276089686 15.7829690829617 0
-137.632936460744 -3.46320314459688 13.2006727101309 0
-205.887299292239 34.2172684201221 -2.19909273317599 0
-186.668631852301 -32.5266391664585 -0.934271175918545 0
-209.225797865309 22.2865332780698 8.08002485583134 0
-147.476095338813 -23.1407620639591 11.3942817206627 0
-159.684023105753 -26.6251491917967 7.07951763586872 0
-213.127097522026 -11.3729031133974 18.6239727149499 0
-189.958657837877 -0.803883061367384 19.5063464603286 0
-223.227812279801 -24.7962049080238 4.72207455274673 0
-176.506637890859 -28.4488131355681 1.37222735952177 0
-220.236533430502 32.2322472012975 15.6821347039743 0
-11.7909233347457 -14.5069282851155 -22.179514689268 0
-238.81099250419 24.2582266552886 -24.3023840174765 0
-226.106579060861 42.5117615146415 -25.5802593874879 0
-221.382962647536 48.970079304943 -17.9810205061392 0
-86.4082900215821 -13.0191508110045 6.58966746911216 0
-191.908494860433 -32.0530613520022 20.8868721806466 0
-195.529711562283 5.12697354872307 -13.2464470253239 0
-203.76410150382 -35.4169596429841 14.2607735006745 0
-141.057252432931 -5.67484207315939 14.5258409243545 0
-230.036802724481 8.41935635648712 -4.89163127621623 0
-125.619611098172 -15.7844312995787 11.6453194208638 0
-206.027714969927 -31.7285811043164 19.2011712175356 0
-144.352913676997 6.18714556387991 0.557156423605 0
-128.593943488925 -12.7273206070716 13.0729376382028 0
-239.174717865603 42.9082400252308 -18.8039106042091 0
-163.591059410569 8.67633637536902 -5.52153229651948 0
-191.456151995663 -9.35502310142038 28.3340638555321 0
-209.139987956936 -21.2932870403245 28.1688416026426 0
-171.803071639457 -7.54561533190381 22.7766003410104 0
-220.377242852594 15.105310898446 10.1964290169096 0
-42.7558829288882 -11.7467363181686 -0.421952013860632 0
-57.0882119647436 -19.6512539014268 -16.1539158720568 0
-214.464608978472 -9.35196459416149 26.7247196188624 0
-58.0569333520806 7.42095233451867 -8.10767084219098 0
-103.731777753795 -20.6519925292676 -10.4177522600337 0
-227.720479468002 12.6264756429706 3.00156674901779 0
-210.051059106801 -8.71209687971642 23.899641644237 0
-131.643835221713 -14.9086744978364 -11.6435347790014 0
-220.202519736331 -27.6560953444741 12.253182781698 0
-195.938214789075 -16.211301390534 -10.0598206682602 0
-231.720091116841 8.30536939704827 -14.4030587638727 0
-52.0887874495535 -3.97270538325456 -22.842275404465 0
-206.269166152075 -7.44643711063996 23.385408031016 0
-57.5517699241322 -15.0556710111095 -21.0802429155836 0
-193.26836958458 1.45430276865992 16.8743084662385 0
-232.120729526773 45.7802730983227 -21.026696014369 0
-95.0329325102372 -4.2239512759674 7.98779234931401 0
-226.314166634601 48.6721173803713 -11.9746367552956 0
-176.966149340823 -22.8451035330197 -3.95374417303315 0
-157.114606551357 12.6621268117246 15.5614313748986 0
-161.650985781333 10.0205933353967 3.62308351660871 0
-23.6834913456468 -12.6645009200789 -23.4598984022896 0
-42.8548423733983 -19.9859897172006 -10.7990899315587 0
-208.296000776966 40.4810172272398 0.169522532687748 0
-195.296898253584 -39.3628468225321 9.20461028575157 0
-211.959836652498 -12.8973192207052 -13.7216778587339 0
-24.7392206684204 6.64755538395054 -17.4309421693217 0
-101.40273036889 4.37436984418096 -0.617719452202496 0
-113.057110963585 -20.8381858231917 -8.72564227419793 0
-120.087490068496 -5.705526448966 10.9415771142269 0
-213.730865744151 29.214716634624 13.4607878107478 0
-157.76958994047 -14.323326719101 -8.25669017668718 0
-182.178915598876 -8.73240858132184 -9.11051605922829 0
-49.2542140162418 2.99720254336248 -0.768688069131055 0
-192.810411160839 12.5119048875401 8.77896985821048 0
-2.69756644088698 9.37480835641379 -15.6271902631575 1
-232.51649476627 15.425128664016 7.26378667669469 0
-210.033278771277 -22.127324012036 -9.83019310845681 0
-176.841987930099 -21.2128699780846 21.9332869373212 0
-217.560148123493 47.4906544354148 -18.7700581755492 0
-151.009306943261 3.2094813618372 -7.78532459849187 0
-222.242962687217 -10.4694370413207 28.8693667804724 0
-141.688434624071 -24.1103220475461 1.18680579540879 0
-38.2975106588634 -3.72541983586337 -24.0839839491274 0
-113.251956684423 1.4081845175058 6.69178763515865 0
-217.306050118032 -28.2314424460082 15.4079439528022 0
-3.19254369295944 0.404070324443048 2.47600938233816 1
-152.555260247365 -14.8231983214468 -8.74027203991623 0
-54.0777367273065 -0.493969980352586 2.23417216306767 0
-195.676562138444 -27.7594694494366 -5.57698403455295 0
-217.522308247027 -9.73671898243752 2.46251628825728 0
-109.645343496471 1.18078077504493 -13.3583053572853 0
-223.618559403834 3.23304005213124 -7.66482962765972 0
-224.551999591853 -21.7827101614149 0.0811998113577399 0
-182.316832461999 -3.76698170371376 24.845013963384 0
-54.1582248065323 7.28066651327155 -7.2736169946495 0
-216.445132205057 -20.0461763352105 -10.72150550236 0
-179.598957038484 1.80372902028114 22.382992698865 0
-217.366618573621 23.4748969351314 13.7940538476205 0
-153.494218678379 -1.18800816694596 17.2102413013378 0
-207.736626672498 11.8062687717838 -18.1342876685007 0
-86.355658060292 -7.64049916453464 8.37912147414744 0
-246.095248816073 39.1711566190957 -7.86637863656439 0
-174.48903778446 10.0582898279634 -5.61206325168495 0
-14.934004793699 -10.9285892348193 -2.00011729865684 0
-207.164472110253 -36.6701662802353 7.43439508404975 0
-216.21334014285 9.29314156482209 9.37449261382734 0
-5.49016561716249 -7.34307180578425 -24.9838988796165 0
-214.482904644566 8.81249472335173 10.0177852820758 0
-139.958354605852 -24.3832625929412 3.32178800612154 0
-62.6597929977163 -8.45063088378136 3.9805741966737 0
-178.989210615472 -9.77131186998528 24.6197736415591 0
-229.982387808766 7.2396375394214 -13.0267188785016 0
-153.541679114245 3.4088566971934 -7.57967880015984 0
-164.853187649517 7.21639373916635 -7.51382115733616 0
-159.161995367515 -3.03423223766432 -10.6395055252824 0
-209.785472470401 7.67318189183527 11.1977965338207 0
-130.304168702291 -11.3199588767799 13.8235623200505 0
-6.17170067663819 -6.78406984539953 -0.174232926590608 0
-148.930867998934 -12.0255875846874 17.3283632659634 0
-182.740386200706 -37.58688771284 11.8485663339194 0
-200.324570675189 0.528282847308187 15.1197469398671 0
-142.749760910568 -20.570070566468 -5.51246643210531 0
-223.167922383975 23.4578845620436 -28.9462449200251 0
-89.6376492419374 5.69271090729128 -10.7233397385575 0
-243.540368965157 41.104612428652 1.11103845248085 0
-208.609128605087 -6.16587417266587 12.6065978540754 0
-209.911308134198 41.1388361722651 -19.0779073622654 0
-226.263177510704 11.7406450428641 3.83433305514706 0
-202.44430280982 20.3909182950774 -14.9475321588275 0
-209.190877188103 42.4048560224133 -16.7262113536035 0
-209.635237852433 -17.1477184051844 -15.0516944615297 0
-168.080266110346 -25.1843867700579 -0.45397996068047 0
-208.533675550565 45.0479812190155 -7.49861416938091 0
-48.6532150926175 -3.5404188866668 3.98400193433673 0
-189.010451377076 -22.8826465946192 25.3117388945834 0
-209.983605611267 8.76720627618409 -18.3249574025425 0
-36.9574489435062 6.42980921508075 -5.04174053988303 0
-224.148410616351 -11.1420886820605 27.9596245161606 0
-232.859769337359 47.9560782471035 -14.6615755480482 0
-159.446890501971 -23.8907168092091 13.8942200251018 0
-66.7467718046538 1.95498519034846 -17.3965726350346 0
-156.017464572535 6.42653512756507 -2.3844478109041 0
-219.62467594456 35.2421856880803 -28.340560386932 0
-201.721476934085 4.77471458759509 -13.8705516732856 0
-26.739694966747 -14.9414965897375 -4.50139452857138 0
-232.286760374292 17.5525290614657 11.3739940653946 0
-207.674102309467 39.9962539821761 -1.73328327628496 0
-211.591738847323 -18.638761463791 -13.4096494563375 0
-232.35079156967 27.4742083548287 -28.425489486916 0
-228.96925031791 41.2623690835462 12.9641439525327 0
-180.949615705559 -11.161331128611 -8.37411554291786 0
-16.1218016190161 2.5935901954229 -0.305829396417376 0
-138.162690750712 -23.5731314233304 -0.460686468450309 0
-219.119048401651 -8.87771753863868 26.4755658420668 0
-99.6001612293297 3.1067364757663 1.5885789191132 0
-204.461545723627 -18.1112515575582 -11.6747243641888 0
-140.648686979669 -15.5270709321241 14.9299944892254 0
-177.272521142355 -10.365479440323 -8.18121020700243 0
-147.41737685454 4.17562835439414 -5.84931387343292 0
-201.856037589995 9.71447394636134 10.2054124970104 0
-210.750991217855 -10.5679312806448 19.4878896210487 0
-214.764994380424 0.245357222005469 6.48588834059072 0
-212.107571031138 36.4296293298248 11.2472559043555 0
-242.34287841924 17.2954468141121 -16.0732426972731 0
-74.2309855518974 -21.5140030183873 -10.3574055878466 0
-84.5415466859118 -16.613742630331 3.88059622486598 0
-217.846518305951 -1.52933496423496 -11.3195236351576 0
-148.732690608464 7.46473092981331 9.49813050159572 0
-193.852109977518 17.5668783668933 4.77497186908359 0
-72.3371128585428 -5.01148687435595 -20.9763629636394 0
-161.557612643084 9.40223804250825 20.4910016371772 0
-139.92260592425 -2.29579515449373 13.3308332470245 0
-26.3909106238365 -3.22040089146236 3.17781293382082 0
-220.556085330367 -12.2859104146897 29.2837732441842 0
-81.7687334054327 -14.9114661133443 4.49858778087668 0
-202.021424000838 -31.2934794681434 18.0571696005109 0
-219.094016995907 -26.8935164798518 16.4364773101859 0
-200.657831855398 -24.8722075067328 -8.22652848527424 0
-174.944354115984 -27.9136559788165 15.9478124888097 0
-234.516861834279 26.4855171875526 -27.4324870802071 0
-233.823047506055 35.9899683150043 13.684492725716 0
-200.243106104337 12.7473849485521 -14.0688227034444 0
-240.638966557489 12.5185907687291 -7.9130103283143 0
-190.51912827025 16.8894649122999 -6.96112703524953 0
-88.4447513209257 -18.4939885487338 2.99833403741245 0
-172.015197984983 2.90448883874093 -10.2395173759119 0
-222.656316403402 -18.6916080036169 -4.69107305717367 0
-7.5251538719671 4.58505147581766 -1.87424160266797 0
-124.564728115507 3.25908758907026 5.99287222185039 0
-38.6533251957955 7.52993621090829 -13.742198795614 0
-53.1263942162006 -20.4615112139178 -9.68531845327117 0
-111.24236491126 -18.2014011984939 -12.1180423464029 0
-200.32489566744 -11.2416384098742 -14.4793990796071 0
-239.194250078678 11.2671269338915 -7.19982227576304 0
-232.986833561539 8.49837609501212 -13.2227289730773 0
-226.648402517924 -12.6079119586551 14.948206728773 0
-192.690069467872 19.0855778547841 2.64770040755309 0
-182.835954491798 9.69312765931143 -9.67864725757091 0
-34.9911129158722 -5.57256174482402 2.19821722941553 0
-214.981004649686 29.8608531819974 13.6740330247169 0
-42.7144623680672 7.82110538152592 -11.3955643152914 0
-227.824818439419 -19.1674474675368 4.72125202588759 0
-187.766546907729 -4.21197943412437 26.0338551225999 0
-192.173847946296 0.99679330859455 -13.2227572454765 0
-219.733179108831 21.8406334991033 -27.628577856246 0
-150.870886016018 -3.85895163480393 -11.335903450242 0
-183.617501955044 -20.0526949650089 -6.19841371420379 0
-165.934880536591 1.27964057246221 -9.97781955983728 0
-92.4894675234358 -13.6154079519314 7.64050068548314 0
-213.693970843295 -26.687382361598 -5.95658435523176 0
-183.885944729371 -34.1817400913471 2.5176064470835 0
-207.093653140456 -24.6136421144678 -8.44558121429499 0
-49.9966099850175 -20.1960258408654 -9.29065181755408 0
-225.00080501865 4.147031703833 -9.06083507108096 0
-201.511033089135 -22.996277537411 -9.1353454811847 0
-55.5274743351157 -13.3733639712448 -22.1146356473552 0
-225.802739395775 45.295963974229 10.4999220000641 0
-25.7456964625193 -18.5910232333258 -17.1441361940902 0
-187.799882344848 -0.518100429279387 21.2584270880526 0
-227.1175160092 35.4435817560693 -28.9207208722813 0
-0.576023424697322 3.27276574607856 -0.55763304581227 1
-16.7816517497598 -1.64184927962515 3.03754617611968 0
-32.4193401595069 -1.76004340822744 -23.9369390587882 0
-115.970012155654 -21.7331443428276 -6.73317567374463 0
-148.929087586111 -22.2602553272366 -2.8387175488574 0
-242.285435043215 35.9072770300529 -20.6119398581101 0
-158.331106008844 1.20733825997387 19.0049603610119 0
-139.264065754886 -20.646232446493 -5.61819096351087 0
-103.02400864773 5.68257947173017 -4.61118050617374 0
-183.030577535152 -31.7795933216278 1.22387073551957 0
-221.195871691862 17.6561994529136 11.4778392371569 0
-222.916011080936 -11.4527957294577 13.4130673217584 0
-202.589514945913 -37.2167902080412 11.2860822071566 0
-2.98513816917038 7.03560609344918 -19.5587212463388 1
-198.292691132874 -7.81542649843334 28.798679255237 0
-92.3953892922807 -20.4168124433594 1.5346645353743 0
-173.133597808508 5.93471244532149 22.633844571366 0
-92.730753665897 -0.518105628059631 5.60383026611694 0
-164.592479718434 9.97119757387079 0.609307930032818 0
-209.496378044528 41.2554125991571 5.42071611768545 0
-214.340109142399 37.1901770225376 12.4986901457559 0
-216.909557377414 6.98800079286401 8.33762575797065 0
-129.990502556649 -0.105651997313613 9.91539312451065 0
-198.520001271041 -35.8337203751929 15.0614625288959 0
-200.041851511147 -37.6781655842962 5.61606264570128 0
-112.923840566959 -15.8178819554053 10.3263869024577 0
-176.427899176754 12.8450604248908 -1.67842987143255 0
-54.7060153534121 -18.7302924209252 -4.96271550265033 0
-227.223860532397 -12.7372552990105 16.7556793723215 0
-155.503363924716 -18.0795798722366 18.1638570155456 0
-133.922577280831 -14.8102826295348 13.4810279483411 0
-215.095555501358 18.6042371591098 10.8330300744531 0
-61.0524327885666 6.68246853779963 -6.01746822524847 0
-175.38655280356 -0.89323917909318 23.2733362532184 0
-205.419122291282 36.5586193865516 -14.5003359156801 0
-213.158027778205 22.9667612714563 11.2142547799894 0
-199.305074207754 5.1700964103712 -13.4225138134012 0
-211.849593664067 -11.5168323584301 19.6022769269576 0
-166.085214263107 -27.4370915180993 4.4553106915515 0
-160.871365330793 -23.1846466669672 15.1481494953338 0
-71.3166363397159 -21.0552981657254 -5.30703536777585 0
-224.61287407446 33.9006280111941 15.92225870801 0
-65.9641898442493 7.23211685037613 -9.7794280732896 0
-178.740880476505 9.97378356974578 15.5726347821915 0
-82.6298698954551 -0.671943097649507 -17.407773674964 0
-72.8661176216801 -0.0396949340676204 3.20053144779075 0
-216.448615636521 -24.4928269884202 23.2809758401367 0
-204.866202424956 32.923797998927 -13.110113503873 0
-126.893049400191 -4.82166936756492 11.5344076612557 0
-31.7326950885832 1.92281186490052 -0.057017260413091 0
-204.016746536048 30.5159415925773 -12.2395452453098 0
-4.08613099365336 -12.3863817868177 -3.53238992109167 1
-195.208378912371 15.1831402875305 6.9334552519813 0
-193.589944312243 10.5570161160603 10.0678049530367 0
-226.761380737083 48.7320505377217 -6.4210725679773 0
-46.7612226935317 -2.80581172977063 3.76764858224508 0
-210.035607213535 -4.77507984123492 8.66829119169974 0
-209.693124570393 -10.7841182730221 22.1501099567357 0
-222.502970363596 33.4235867234169 15.8622073182576 0
-192.025677589375 -0.134331082925373 19.0683279334442 0
-215.680528059539 38.6312441771433 -25.6811740868799 0
-212.153900621287 -1.41262783585999 -14.5468071363817 0
-181.792587778826 -34.5473439841467 12.7631260465612 0
-243.06034325219 30.0754264758911 7.71595075802027 0
-239.610730720432 26.8518614877005 -24.341216549217 0
-199.163950357125 15.7918758334867 -13.210894728945 0
-200.595319662055 -7.57204331929894 27.3892119408091 0
-209.534161075781 36.206296349304 6.68307259107218 0
-160.238013098214 2.2454762437515 19.7017912114317 0
-95.6171075367981 -11.1468044451922 8.88983823427256 0
-177.722641143734 6.8498346314604 20.6730464831015 0
-85.1626875075057 -8.55448238073305 7.98966671106867 0
-203.280577618257 -37.4775127716687 5.98271593637488 0
-174.239225052537 14.8595827891982 5.61913934824358 0
-216.357839450763 -26.2252525886661 21.699317636839 0
-199.326414493377 22.4362437132993 1.66356186456886 0
-220.31591325936 1.88282922521652 -13.3935870266024 0
-54.4088433572961 -16.5775495767806 -20.170180539557 0
-209.042040557331 -25.4780285333719 25.4330935408798 0
-221.39161219396 -12.908536221222 4.17981913536204 0
-219.012021656307 -10.5182410427834 0.435155869446659 0
-222.757822948524 -12.9535345205444 10.5915554315566 0
-216.933835406046 -31.1531280734506 1.78138910243663 0
-7.21292769761649 6.46071224802656 -4.17819522049335 0
-115.645171648068 -12.8502833433011 10.8749188911279 0
-26.3464106472059 5.39748258802162 -3.23771892120287 0
-208.139073187807 -18.8734022161109 29.0694104102403 0
-220.613048571955 -17.8494272191181 26.695971531976 0
-113.401072147692 -16.8601081261498 -13.0355600331235 0
-207.70626701387 40.0213783418473 -17.3839730750044 0
-208.538189900465 5.4660371609494 -15.6921174064854 0
-188.290143014691 -7.50673679843954 -10.9717531294291 0
-75.3532387853593 -12.6445832018352 -20.7166821641253 0
-219.27505410705 -9.9501393907975 -2.04053293423895 0
-240.588775698442 24.1273005969613 -22.7911010085968 0
-43.4720985583049 -19.8876318979933 -14.7872080260429 0
-68.1308124434248 -13.2126571568223 2.77128981958465 0
-87.2573246725435 -15.7453179271623 5.14914829769178 0
-181.85397127721 1.3825859293803 22.0486085718072 0
-143.73509240062 -8.99939444501558 16.1103098753366 0
-239.98374534708 24.8170731589244 9.82781665872978 0
-187.33703229376 -11.903403218914 -10.4740130157289 0
-146.138731394669 -22.9780872279804 -1.69407942027216 0
-210.889199492531 -14.0376948359782 -15.235923480811 0
-222.071690421954 -8.18929597963276 19.2727592833058 0
-181.076609364903 -13.5910143710133 -8.02992174957855 0
-166.756499172896 -3.88528443716381 21.5010312922686 0
-242.766553864916 42.9117790787825 -12.3936155419151 0
-25.8184702010413 8.25057342124681 -9.64125354170933 0
-75.00933587406 -3.76782869112083 5.85582019196328 0
-146.833445197984 -24.7653794602437 3.30458626538832 0
-222.896973612029 44.109080666243 -24.2765140961995 0
-162.919386344612 -12.7753078184254 20.0696906094379 0
-51.3660764318112 -7.40576113680734 -23.5288538937823 0
-232.935634698541 30.5610538242474 -28.3764188029146 0
-66.6951550368146 -18.8781524533104 -2.27392116282563 0
-164.696763714872 -20.3092227317098 -5.00368453506992 0
-222.775547636681 50.9487382050588 -0.70015167283582 0
-174.150092317653 -22.3754275461356 -3.96674350404007 0
-235.751248456928 11.3816727076101 -3.26701891433701 0
-193.518605553263 -10.0461958643592 28.9453740915765 0
-127.123795029864 2.90822193484243 6.7018267730939 0
-190.338547847583 -28.4363186094066 23.3253969149756 0
-224.190651633867 -18.2564865486066 0.22169193822281 0
-230.981830124859 8.42622784389652 -6.12895867035301 0
-206.513407142754 -12.1539865150467 28.9030386072447 0
-217.655721760437 -22.7143177013892 -7.86462182741716 0
-149.874182879147 5.43815728975929 13.7098074704707 0
-177.937416130329 -25.2496006957777 -2.21698457681341 0
-154.586932597956 4.45211230276194 -5.99922580801748 0
-194.865366987477 -7.06901395590311 -13.3867137074067 0
-122.980953580832 -12.4490082131263 12.4086246853204 0
-218.565871818901 -2.51625892448481 -0.883455748702898 0
-199.960339065538 22.9194400687731 -10.2832265081922 0
-218.014042272984 -3.43598820095334 -6.7853507137925 0
-192.177244693148 -38.8350657504609 10.3289558634147 0
-174.659406927026 12.4908290955547 18.465744363985 0
-150.705266220517 5.93202830318609 -1.89864351741822 0
-33.5962533217668 -1.01148650299614 2.36847585713026 0
-224.745145447568 49.940181423833 -5.98578784415411 0
-218.513206932891 7.43084335873096 7.08154076886103 0
-164.224244286006 -19.7152590528269 20.1781976224656 0
-196.477402069331 -35.1483694729457 16.8045408978006 0
-30.6500979136018 5.3530732887449 -3.28244761524555 0
-98.3107923799276 -22.8245460250173 -3.36346859354634 0
-223.806746276163 -23.6766307347902 -0.0564969546771001 0
-215.872843750987 -13.3325598795054 29.2210275828804 0
-74.6434432346218 4.99740904509404 -2.90757974929262 0
-228.374030294643 10.8068370336356 -20.1556842595651 0
-211.71952304905 -20.1882550199107 -11.4816201931194 0
-237.877958194221 45.7204602966348 3.90040143987961 0
-211.516769868583 10.2817485729297 -19.6724248617728 0
-195.908266522157 -21.8389651157549 -7.76768856944002 0
-144.910881982478 -11.6809518427434 16.5169660564061 0
-159.802406764418 14.4770397002728 8.37762057334948 0
-190.481439384469 1.13358730796234 -13.1809000836707 0
-114.954995193587 -3.12803057760882 9.30632389155417 0
-206.7642027804 15.1280410979761 9.16993522154776 0
-225.731290907481 -13.4273935830986 12.2873806514844 0
-47.4375502891703 -20.3295710095283 -11.0149766919421 0
-173.331230885107 -29.7329883386468 11.4258996094271 0
-242.168315215598 40.9217877940571 3.74490176750883 0
-237.142216257474 25.6837239810024 12.1947391777801 0
-192.893830889663 -37.7345316733003 3.43894795727571 0
-114.882493387118 -23.4060268287339 -0.311836202040193 0
-176.178504671491 15.1317369477527 6.35838399583353 0
-210.879081232466 -18.4754668403303 29.1222849492503 0
-231.877410854551 11.501170777181 -0.00339066549801813 0
-228.022543560659 49.0807516849224 -4.45692634910957 0
-143.439291608716 5.57112414567491 8.52949875755168 0
-27.9099554255322 -2.07705964676801 -24.3823248370049 0
-213.425993863018 -10.4615822611753 13.3946969507905 0
-28.6567184579537 2.63595299337813 -0.561156795293626 0
-189.485761264293 2.42734747507839 -12.9401076563555 0
-183.049513307817 -8.03961703907963 25.7057927069508 0
-112.080481220678 -8.33068553983617 -16.3411331069227 0
-218.872208516143 5.41496684855929 4.08839263522563 0
-242.493950485387 25.8460318886873 -21.3015956833065 0
-200.557622537023 -32.6964227946557 18.3878481909856 0
-143.744494297886 -0.993185450835847 -11.6407010652228 0
-197.61201892201 -22.8510999776992 27.5069148111601 0
-212.104955210587 31.981287738279 12.2730443130069 0
-224.624334593156 -23.2105348871137 7.39631075024213 0
-36.6772764836541 -10.5069901528062 -0.379698152567917 0
-183.421935817034 10.4662584999976 11.2800067645922 0
-160.949793088749 14.9491856399577 18.0627454001315 0
-183.251452837793 -11.9961424733315 -8.54909386821137 0
-76.9049439978032 -11.3590017646092 5.29282371941908 0
-123.575015672208 -18.3967920758301 -9.99613547003726 0
-35.243148278118 3.92060724932572 -1.69480952306397 0
-52.6714556696741 -19.7321724351355 -7.22543227404261 0
-146.602522872414 6.67653468728058 8.25021258763126 0
-217.006616690329 41.8963739689102 11.1279028552048 0
-56.4184591022529 -16.0693097871603 -1.57580971138537 0
-167.951226593871 10.972170267748 0.788785431103696 0
-224.425500786711 -13.106953845124 11.3332113843977 0
-182.979499560636 13.5064013631832 -5.30315575845 0
-169.571626266782 -12.9684283108611 21.7500830061069 0
-184.150954585289 14.7889532381503 6.92118550829491 0
-84.1209398423237 -13.5645233453897 5.75372577867674 0
-218.116733060893 34.4677147929563 14.8090046758865 0
-136.719983512539 6.18665085833924 -0.523911697148146 0
-167.638652029516 -7.60165736123131 21.6305094422287 0
-8.42361485417182 -12.6587425063072 -23.2394882679767 0
-170.830643740668 7.88082836329226 -7.47523546284074 0
-102.017721514026 -8.9096684448905 10.0450471635573 0
-154.510608823047 8.30680062954836 4.18733060138038 0
-158.933243182042 -17.1531539100204 -7.02942726124757 0
-175.059263070692 -22.0855589355148 21.1622008303532 0
-215.753189189803 42.7839400328313 -23.0196085090155 0
-215.789569430586 -28.3847448148447 17.2648240140262 0
-203.727402172765 15.2141153304359 -15.7314161622905 0
-226.67671211299 -19.8291445446401 2.81599998771259 0
-206.389378817979 36.3772339438633 -1.81631364798582 0
-189.101354555775 1.25986545517682 19.1057661334964 0
-188.018608774621 12.0234042736863 -9.75242075484282 0
-219.595735728698 28.5617217061282 15.5946019339672 0
-207.362774323984 -22.3486536707176 -10.511790720014 0
-167.221877923985 18.6438617307624 15.3435692268984 0
-226.844414770345 -15.2336735344526 7.50056269887224 0
-120.722983981691 -22.8906821501307 4.39973709618801 0
-209.838752336144 40.8923413000925 1.63511320926251 0
-208.55318133243 16.356496758157 9.14645751733296 0
-70.1651016056715 -10.8168767126976 4.34502821866902 0
-14.5952237978167 6.95781881716911 -18.27739762471 0
-71.7049123443311 6.95034162695014 -8.0698357230268 0
-168.519383737233 -28.5093045787221 6.3605530704742 0
-205.827743023825 23.7620076939485 -17.4077443126515 0
-225.729608449123 30.2354490689994 16.203248750019 0
-186.713624110268 -29.0405716114219 21.7317770983648 0
-99.425781381496 -6.92739868273887 -18.0736661395543 0
-0.715472288927443 -8.27762565882568 -0.948163846822902 1
-225.476062514137 49.1537791339292 -8.43634113859328 0
-214.812398398745 -30.8863059724436 5.34262861052603 0
-43.801798795234 -1.11853816933233 -22.5149580293146 0
-190.902914744039 -38.2178031642444 11.7673200930269 0
-76.3776807307246 3.7037185754224 -0.789640756526725 0
-134.515720246421 -1.5644201214178 -12.6244513658388 0
-56.0721204124238 -4.22068787871114 -22.5162053237198 0
-183.323288436127 6.81279342631698 -10.9169316485218 0
-0.0419905769737806 -17.8344585756471 -15.2768839580305 1
-52.4700575405729 1.76329717460904 0.371962978488215 0
-81.8016378080022 -17.6110256022987 2.37818912632412 0
-74.5230470328017 -15.0820807469097 2.81723076222947 0
-212.434676879583 25.8724880325522 -24.9834687207522 0
-95.729926110773 5.49063449604143 -10.3039711473604 0
-230.262960787262 11.5216632584304 0.854994153091835 0
-87.2564417622059 -9.59819065842529 7.96439687380529 0
-114.929057810709 -18.5963810756198 9.2743520257984 0
-233.855733679935 43.1212757390644 9.93833098857585 0
-152.005084382952 -18.9851815542083 16.7025802847507 0
-128.625136083271 4.77795939435536 -5.22429357058302 0
-131.320761598595 4.70878887513834 -4.95113097577261 0
-198.736903894367 16.7979422256788 6.48266126077104 0
-164.974936079416 14.0523918513401 6.5341062968706 0
-6.18264848954639 -17.8008083075749 -16.8370381552917 0
-146.274009594454 -15.3761715599074 16.1049639360084 0
-177.94155441639 9.28568037277344 17.5099942674221 0
-1.20849324162959 2.48352373950307 -23.5661001596863 1
-24.0167231282084 7.87530498377285 -15.2081790135084 0
-187.592710697211 10.6188425429167 -10.8470472391063 0
-247.727371787155 27.4872798153829 -10.8750066932372 0
-110.746416748102 -0.543480071891256 7.62911910653567 0
-199.285419252852 -23.9099855106166 27.0228054744281 0
-223.264198520684 -13.5710136511441 8.08429463717922 0
-219.560506212696 14.4032525901022 -22.6008884736802 0
-55.1507037105426 -4.50380673095618 4.06021344167169 0
-109.949048337358 -14.0380642930562 -15.3567783165966 0
-158.424586360122 7.29765523246108 -1.03494170219347 0
-224.113184289588 50.3145002858867 -2.88795955593177 0
-207.067741591854 38.4763977930799 -1.27604528960465 0
-149.478038878076 -24.8520857236747 3.09847686568238 0
-24.8118138408327 -0.212810922265959 -23.7583561820725 0
-240.551661420217 21.5087818288471 -21.7128433726133 0
-9.83619803883662 -15.1021678328301 -6.01493901429894 0
-192.149381707047 -3.29481392198711 20.5255534273309 0
-226.985511795511 -21.8407883362202 3.58297519462047 0
-185.501883061218 4.19527644551388 18.1294064782536 0
-211.874232174887 6.54760890459606 -17.7433263539443 0
-164.631995972771 -2.59042306860659 21.0079632885041 0
-187.43791673444 0.810522191140797 20.3611652485509 0
-233.504091037533 8.39075158634869 -11.1348051106392 0
-216.312827662945 34.5745639667371 14.1472565424598 0
-16.164297954338 -12.2704469155987 -23.6519495203492 0
-202.668861235185 5.01047558298451 11.8632580220213 0
-174.546007652872 -6.53435664066342 -9.01863062775938 0
-223.957381913697 -15.0374333374863 5.18255780173352 0
-118.414680839517 4.26196067521953 -9.37894052169376 0
-179.068631359089 -29.1844961889702 1.14518668300138 0
-107.741778613051 -8.9611781926968 10.4675757219339 0
-107.71745752938 -15.3788084248946 9.8507191764324 0
-88.2598360992366 -4.73319304822772 -18.9815012782974 0
-238.466869137222 47.9355944859053 -0.996038972035118 0
-182.078693931 -6.65974255929561 -9.89144508675511 0
-121.27842791711 -10.0663900175662 12.8177805242678 0
-216.466465712736 -27.3084129295392 19.38025555315 0
-215.414663706743 6.91643636918102 9.2521417634225 0
-118.050054095196 -13.4638075100637 11.0835816850528 0
-192.005725634585 -20.8145437902671 -7.33803651008808 0
-178.890912218544 -12.4106668386031 -7.98905056152235 0
-124.02875785033 4.6144244689919 3.94992541763236 0
-6.93431698968497 6.95293604556377 -19.318838231918 0
-105.868980495972 -9.09969851944783 -17.2390181721237 0
-176.556323254403 -31.6485460800505 7.94308490601864 0
-145.538323778412 -20.2995802938337 -5.74280376107398 0
-193.670497444768 -7.84779838277047 28.5633124775416 0
-196.184375279359 -30.2674003156004 22.2288814705188 0
-136.925705681654 -8.59120802433305 14.8453077583657 0
-150.679396605466 6.69399915482842 0.946413325043691 0
-82.4934586434939 0.142435709592677 3.89951936233907 0
-228.556905255241 45.9881567988196 -12.6051686461318 0
-226.493023706259 -17.2965761866044 22.7751861321394 0
-179.093864748432 -24.6982011667284 21.9723817357388 0
-212.946910924091 38.8733396676488 10.838793809365 0
-223.572392604257 20.0073083463846 14.0479739948618 0
-150.04425003988 7.30883928111821 4.28048954096522 0
-47.9504405779642 7.71178118300843 -10.6656968862803 0
-60.3242787944036 3.12816366580249 -0.667051081891929 0
-193.889510969132 6.1008062978427 13.1688402892447 0
-190.931271654928 -13.0083882721149 -10.8329106950076 0
-153.376633646693 -14.4815600815904 18.0023855062965 0
-177.41005539576 -0.0351997523734684 -11.040677937643 0
-181.158906688293 -31.6253000717951 2.47102547416611 0
-145.635028011345 5.89179687949809 -1.70327748575471 0
-192.170422928508 -4.39048822886861 21.7580474181276 0
-219.982802118301 -25.8395623406543 -2.93174605576788 0
-228.195119014568 -12.1726454813844 19.8443802158531 0
-118.610500054221 -21.4076727356951 -6.93635408626431 0
-170.238882720917 10.9374343773012 -1.91299923148078 0
-114.676827171214 -15.3744410526368 -13.8659059261898 0
-112.580724645094 5.0783080881619 -2.42405389370052 0
-53.6813760279707 -18.351096522694 -18.322830781705 0
-161.325022028265 15.3596676746099 8.97368462522868 0
-138.276557461139 5.94316641289454 1.41330468544979 0
-220.271787457626 19.3752020401411 -26.7848710475307 0
-202.105190343511 -12.8430010436631 -14.6234681249533 0
-183.107789441691 -36.7171175406814 11.0088741429066 0
-213.553984617962 -10.0189357091585 17.2809579252365 0
-224.80469032979 6.67010579481335 -2.44542941086315 0
-87.69527997194 -7.70731142395991 -19.7680930584444 0
-92.128900108332 -18.1588701414103 -15.2067139482967 0
-103.03042321065 -21.9860149524983 1.55485851900544 0
-191.021383851845 -36.801887098323 2.02544577022077 0
-213.352225717465 -5.28689379523689 6.27347690088159 0
-226.816221005197 48.8672053887086 6.05534254464148 0
-81.8286703968626 -3.45211350401727 6.46973017135087 0
-77.4132010075517 -9.23371597949331 6.30219015776369 0
-156.648961397711 -8.67428879286064 -9.85824479304035 0
-66.8747154205808 -2.99434789918975 4.96259675300527 0
-211.445520361439 -16.4866633037237 -14.95299809213 0
-119.868255790329 -3.28094109080618 9.91504797707015 0
-94.9538600512638 -22.6368973341222 -5.09322244570001 0
-247.256647596272 33.6674829548576 -11.6934654320665 0
-183.633576002602 15.8169762634643 4.84272009603162 0
-239.957010770349 12.5893095669277 -12.2432617569146 0
-200.888863036345 -29.3674648904955 -4.23454594390151 0
-228.333616570307 6.7182504444495 -13.1365591411243 0
-208.902516230574 37.5169517575169 5.27126262204054 0
-7.95936089914949 1.29202436249867 -23.9313627803295 0
-174.546372206546 16.831492674577 12.7859355928373 0
-212.251619644096 -8.28450329347152 8.00577578988216 0
-215.69317213172 -11.1872205144204 13.208852002323 0
-200.682725169383 -4.90298644994061 21.6856819077821 0
-217.550747964795 -28.7759544377995 13.3646417124802 0
-242.074138456535 20.4029898719382 -19.2667081093426 0
-218.156428951698 -5.48252494678213 -4.68070328968788 0
-213.454745829604 -29.788202551117 -3.28230552404231 0
-206.686223694756 -5.20784647147252 -14.5137143565026 0
-170.092591197184 -19.8962052277919 -5.43271961423123 0
-202.58345061804 7.07432709287924 11.0914874509153 0
-233.680118374939 43.359331336882 -22.7510167208619 0
-158.802321152137 -16.9688447156485 19.3320071621814 0
-19.0310971870423 0.586175193198997 1.8335431631563 0
-168.250557680532 -14.5884808632063 -7.55489103916461 0
-193.324970565508 -37.7518988648412 12.4449919651932 0
-193.885499444283 2.41451608163695 15.5932993063672 0
-221.180936525542 51.5609318747721 -10.4757432310678 0
-159.872139400805 11.9276561330299 18.8135026650322 0
-184.912401206249 16.9706308074588 0.233692010296891 0
-116.029830123274 4.19911835202052 -9.81411244572871 0
-196.353792204252 7.51552441903734 -13.2062567778969 0
-11.924475570207 4.18540701635654 -21.645919045558 0
-88.4902806408874 -8.28665745199902 8.80604749111938 0
-108.178951682554 -3.96677918444866 8.92062410469726 0
-59.7176313980319 0.248151180653848 -19.4701774905006 0
-161.977578597589 -22.1624749892921 16.7572004992368 0
-223.576454772344 21.807274525068 14.7286944074831 0
-79.3200097038186 0.93492478124162 2.90719731682946 0
-18.2968121312589 -18.6085424249643 -15.9323107931415 0
-107.880664660931 3.06489119393333 -12.1880421507271 0
-176.915411728796 -11.1427741200405 24.2069463034245 0
-136.986129103218 -14.9705372667829 -10.7967985230981 0
-184.292456645031 13.5708062224563 8.47044763571832 0
-200.392206027664 -27.5948162711348 24.6186168946758 0
-4.6522312310903 -14.1257690679759 -22.1167328568639 1
-37.7871998520626 -1.65755791989218 3.05361810027087 0
-233.691499614509 19.2630685304057 -25.5346887448292 0
-217.217979439422 -28.9906401042939 -2.64632436996954 0
-114.419103874341 -8.01261259103332 10.8282207369526 0
-229.571690539785 -12.8269276638205 20.1063751125029 0
-50.7650399414119 7.51030847250564 -7.98785589132432 0
-186.281321677791 -5.60035659097429 26.2412650672815 0
-65.2720719259195 -21.2521732395275 -10.1868618355034 0
-226.269175045007 49.5311337887449 -4.03674988103997 0
-217.572860413167 -27.430422051138 17.5354932932604 0
-183.728445202095 16.1809983407821 -0.949314043766466 0
-145.357304754558 5.654101210609 10.0603976677931 0
-45.6968620451786 7.3240089719606 -13.034183033691 0
-206.120328737014 -2.00449319208287 -14.3050421245913 0
-195.008324321801 -37.9868859238801 4.53750776046232 0
-245.581859001361 36.3550715663691 -15.0875736191628 0
-157.027390676775 -25.2364171532064 2.39469378312076 0
-208.084753921058 28.0054254260106 5.99064780675635 0
-170.944529904612 17.8560935122618 9.13655682047841 0
-225.190076251875 5.10146346698084 -12.5790932438291 0
-215.196104823372 -31.7949153909151 -0.400332941644715 0
