117.091062433853 -6.44630565096102 17.5733351861713 0
-112.932491571945 13.1329383127201 -14.6001112439393 0
165.907910680656 24.3994049824449 11.5760922692777 0
-117.362549088811 -1.11731814249364 -11.1551427827984 1
-7.66900567254414 -9.02096267615896 11.1418521912728 0
176.075846709626 18.0314947345247 -29.0203893842786 0
186.251872185727 21.8069343507379 5.49755860454197 0
177.967619398791 10.6863416829816 19.6818445427844 0
51.9807718136164 0.849674925714749 22.3760909851832 0
4.532698422745 3.79341188707567 22.3387389845225 0
-26.7602959743865 16.8363601866957 9.29120138143423 0
34.078946955262 -8.82378872256064 7.67124367310918 0
-63.0266669279422 -6.49343343666826 2.15696463281213 0
55.4560563960988 -4.35071830583016 20.8695075807477 0
-78.5530877395341 -5.19850400797676 -1.02783625463045 0
-43.0993511700414 -4.51104990974279 15.5156398396198 0
32.6840212500686 -5.0321523090819 2.86471460127766 0
149.391518920301 -19.6452816040335 9.48960946397213 0
-103.892460545438 4.8675117315483 10.496840943002 0
-98.0462169147261 2.01580221861401 11.192672454108 0
55.3558250505141 10.4968342877311 18.8457152249036 0
172.041267434351 31.9399063083171 -3.6922108542664 0
-90.2071496661402 6.54271556312157 -8.76620888147577 0
174.674351266198 9.89958201143274 -18.2750023978245 0
-107.68096584661 18.7444286563979 -9.00821852626759 0
95.0605633012707 12.6698421027518 13.9345312584477 0
106.599808114031 14.5725985572997 6.9997400704032 0
-92.6479362466876 18.5929707950169 -6.3682220163321 0
106.623018498069 -12.7926305873289 3.19989123901244 0
51.2518096949561 13.9389456118624 12.9973292837249 0
123.625143202807 -16.9269642976833 4.49301724443983 0
77.1963733822702 13.4247025968745 5.71095303506553 0
177.931191808282 30.6525777234202 -12.3660125240679 0
87.992166802063 -2.14423142218609 -1.25821234097282 0
29.1052591388226 -0.666996308063392 -0.650174697896205 0
70.8110698164956 -10.1781674737111 16.4197928177856 0
-114.965669653225 12.0780493851698 -14.0767164919637 1
50.6221451072026 -8.58005845428786 17.9017518233793 0
16.0071854956142 -0.25431777503952 22.0913100140797 0
169.984622294809 -8.12350200045175 19.6601979302426 0
-97.8283716736441 13.6675588442464 9.69633266313893 0
158.04735741934 -11.0419786751547 -11.9900172611576 0
159.31569636648 -29.5375105496131 -18.8028980145063 0
-68.6614175731894 -5.26049905520848 10.3676915263768 0
-12.7000073276963 -0.462781512476113 21.1155066019306 0
168.407553559816 0.296763731746013 -12.5670249223414 0
150.980320370438 7.18183225641054 -9.97285696234856 0
-34.2949176365776 -1.68494023318284 18.9914244264512 0
-102.372204880926 4.70784219079852 -10.0105255449804 0
162.087758107863 -4.08835880447882 -13.6184845678128 0
156.286463116818 17.100579022439 -25.8712445063994 0
-91.6283108267916 1.662976211676 12.1268317940993 0
189.785675109882 -16.1089309850225 5.56012313046567 0
102.611268428126 -7.65763787104205 17.7208811151006 0
112.048416934633 3.91260824033585 20.2274883743318 0
157.117763986063 19.3205966552529 17.9139054596964 0
77.2912161187189 7.04259845078586 20.3525198691708 0
-16.0583770404214 10.4872470444941 -0.0561160227588318 0
99.8483592935941 12.6827771916927 13.9759196996263 0
93.1904249652144 -3.33892330584498 -1.20618062733002 0
169.487099359241 30.7787782537115 -17.1972913597275 0
171.824726895821 -15.3506366082429 18.0969297926895 0
184.503486628492 18.2800986481406 12.6958015056252 0
-12.3986334670014 -3.8530949114245 19.3264158861355 0
156.1060882748 -13.0959323494512 15.9139347933656 0
164.450151915546 18.2319359400734 -30.4245497164121 0
-104.567140781779 15.2888639711317 -12.4196182163823 0
-10.8229736202553 15.0219951990016 6.89178388949903 0
173.439052565403 11.5346658150963 -24.4710456142573 0
120.684819018621 -7.14422759430114 -2.10818313322681 0
144.599616641907 -19.7657455381584 7.3797093470694 0
-62.3332462456205 14.9039248630407 13.6637192512803 0
130.591441648419 -9.71972628609898 -3.3186935346476 0
169.447644283647 -32.5018462120146 1.4407230714336 0
-47.8640722938651 13.355652762702 16.5760943225761 0
-89.7980659025339 -6.76816237453381 1.29483594422097 0
-113.119288167821 -6.14373992370272 -2.65865860399818 0
-53.7146310771115 6.28263004519527 18.473800414144 0
171.683207955485 -11.7785522079027 -21.8201838503537 0
179.554432445558 -17.6862685448076 15.2788231951688 0
73.8239913655898 -11.9701850803539 9.72022103601343 0
188.779491969398 -27.3649686004643 -23.1826999459124 0
163.369679350242 5.30315687951566 -16.1431035464288 0
144.735039415051 19.0779842031048 -8.97067577705583 0
122.62869890249 15.6644022661162 4.71732941305376 0
165.803883569463 -19.4104449235221 -30.5443548984255 0
144.171445187794 -22.3433440874961 -2.71649104016311 0
185.701266086913 12.2890849190042 -5.59999337910267 0
164.411039002589 -11.3030779840032 -23.3329967754446 0
147.713888188139 -8.87458863524772 -7.45487662814848 0
59.366388427203 5.32174651138775 -1.52171260678101 0
-85.4014453275542 0.941185772717982 -6.18040132041412 0
111.640495750638 14.3314336838871 0.645581530305215 0
-85.0190474661613 19.1887498586378 5.15886415180859 0
-5.48660468626905 -8.90593287172148 12.5871929610689 0
-45.4947437477561 14.6663756624705 -0.995854788433094 0
-78.6531832918156 19.7410319565745 -1.37203381685975 0
32.4252179501983 14.5852355146114 11.5665273840501 0
35.6038202333337 -9.30426461141683 15.4462271846961 0
131.75108346319 -15.3754913931733 10.8598603905885 0
189.508069853394 -27.145787736533 -7.41251759899382 0
-35.5514133275321 12.9175646188205 17.8979261031008 0
77.0916164658721 9.28413357213242 18.8925199180091 0
156.811034200419 -28.9611047525697 -15.7627443473542 0
-69.6911523178985 19.2692672452663 0.661812889349583 0
-101.206886651166 8.33702197591034 -10.6891574009639 0
-84.8247322870434 -2.04628446716639 -4.07449867455235 0
176.098275666551 22.0729712933009 17.051080795543 0
72.8752580780254 -1.71865865098262 21.597585782762 0
162.843546350708 31.4812809031083 -16.1510822839238 0
25.2269926128202 4.80680656237977 22.1562521475166 0
-82.0764977640692 15.6142146711777 -6.87192125914038 0
162.970372396983 1.30010416952892 19.4884112005397 0
29.2754890891592 14.1792522839068 15.4665756878933 0
50.1529625951357 -7.47826787135895 4.49848143064163 0
-80.7279690593204 18.4263012295609 -4.61237578363583 0
119.790260404546 11.5580288964535 16.2414683808533 0
-94.5893960556199 12.1315399449954 11.2084829707951 0
164.833236705587 -11.1750495055816 -27.3100772524198 0
167.515269242016 6.84628039102622 23.063399459211 0
20.8113984643761 -2.49274718125464 1.04303359179161 0
-17.1339173399697 1.13904503396928 -0.904085521005233 0
149.817871340086 -1.24423635735273 16.8699292561754 0
172.145961921366 1.36567814953263 18.4794627817713 0
103.310408218697 -13.7551590403192 5.52059277501126 0
157.161777935198 -0.710078054201078 15.5943635080135 0
103.883907016745 2.02357710999427 -2.14544818278648 0
192.4310409322 -26.638826154156 -11.2478591624265 0
166.661494665197 -34.0316844635928 -22.7915199474414 0
5.52904134371945 11.2273112847861 2.21818289593464 0
152.292221946923 -8.82962947094156 16.2171057779527 0
-50.6031822293098 -8.05131776842147 5.96278783002518 0
72.2019183901846 -10.8518617339699 15.5133687558363 0
-110.840400476506 12.4535280882878 8.50980787622245 0
45.3693210861749 8.29531576661213 20.5973774241661 0
101.417349157222 1.25774728376452 -1.98769393952603 0
85.5597453235884 -7.99061752558963 18.3859305634859 0
184.228140136549 26.4958031434761 -1.40831220193792 0
-112.575782218281 -6.33934907134841 5.16677775075084 0
-105.229771454953 12.9786783137442 9.11794638203083 0
184.346019587242 -17.1198075297353 -28.4214407035756 0
145.090080248966 -0.92327468399136 -5.85379092819623 0
-65.7163660914114 2.99430070221423 16.6210700677021 0
52.7110847514535 -9.27295116685108 16.9818849491536 0
-82.3546910728676 7.1954695463493 14.1860210004361 0
106.424079341508 -6.66425409608209 18.0788754446068 0
-111.629244902073 -3.11740362008231 7.6789089429411 0
160.44990071504 -35.9863362732591 -15.3369523492355 0
150.21037119034 20.6249345098187 3.25555718850117 0
160.390112938017 -25.1672986940575 -25.5606638535595 0
160.195005774886 -12.050940632871 -21.6801762212174 0
102.380270927843 13.1404922417021 12.8904651354916 0
164.496666590973 -32.5229209629967 1.36335101222108 0
147.523855764277 21.7105366288932 -8.03866696104936 0
165.678025156775 -17.1743104962963 -30.2039545091334 0
158.55695084541 20.3766730656427 -28.1860849736143 0
98.9232730911415 -10.3255320037757 16.233386340147 0
-103.730337918146 9.36021521916047 10.3275726842907 0
34.2582330981195 -9.64257885773667 9.39768129748273 0
110.094432438572 -14.9797201132005 5.85444285765833 0
-102.978183083834 16.0003775708777 7.10814335618669 0
184.63044291165 15.1574131126754 12.0753363105808 0
54.9958629665123 10.267576877292 1.9354866806394 0
166.310624222108 22.1521555676873 16.7544054922804 0
146.270964862389 -2.78698830150572 -6.29794425759386 0
173.319356325197 -22.6624537713132 -33.3445105769716 0
185.472916004471 20.5401653328862 9.61351327475857 0
185.974846468056 18.4371742114096 -14.7901890806484 0
183.4629039685 -19.4765456249575 -29.9708335970864 0
123.864619594155 -5.20763959916106 17.7230603062457 0
-8.66967190693068 -7.69943980305318 15.6717361669334 0
168.276616748791 -29.5901864904348 -30.5642891699219 0
-75.6000087521564 17.9130165889298 8.60449237874904 0
182.794834016662 -32.3088276409815 -12.7462233473146 0
17.9456470179872 13.2969194423861 5.74657731668403 0
159.116044000354 22.2906496539544 12.5926560644521 0
164.072713807458 27.2996543277917 4.8388651633638 0
154.308800846368 -28.4129239477601 -3.97095265124425 0
-61.062955512783 15.5707494120119 13.0371809240745 0
-24.738941462354 7.0962199471843 -2.62524524789735 0
-45.2688928088635 -7.10584711670769 4.43500026283486 0
-66.8894481528402 0.870765715809869 -4.18660055397798 0
156.69573077165 3.1040229212601 -13.0106611244826 0
186.534904125154 -22.8143663839096 5.98342237879952 0
168.230171724797 27.7123412463321 4.73996464250752 0
50.6324894887049 11.6087264300443 3.43287691553139 0
145.821768265679 17.1620705270513 -11.3057827398734 0
82.9582033900731 13.2179925921534 12.3708969224494 0
-46.0247214813495 -5.40780260883411 14.0361237892029 0
-68.7034758016046 1.74016262032931 -4.84004600879536 0
-78.8500630206777 1.30623526621268 14.2290329980417 0
135.086305844976 12.2388038185755 -6.3077628455539 0
164.282562363537 -23.9750061659616 -29.7969175666145 0
-63.7798460826092 2.39676671414422 -4.69013704635481 0
166.624821451314 10.5403369091607 -24.0917479455691 0
96.0998773838198 11.4202596848661 16.2907469392432 0
189.564923114221 -20.1745090162 6.92548472218345 0
138.52835879016 -4.13069200576883 -4.63306902825818 0
178.612725764338 13.2584104251124 20.2948963740268 0
47.1292523159336 6.62623096368415 -0.34151761086389 0
9.75512894043154 15.4353436238113 10.497978768152 0
-110.709997769056 -6.67952179934552 4.77647145401052 0
167.189945781639 -25.2772566832515 10.8441667854941 0
175.358257799114 -9.82636737075319 20.0182454646309 0
136.846143041096 2.66482528192865 -4.72368645091334 0
129.564739554542 -17.7415000681927 5.77114954264686 0
-17.618387493597 2.71545493918143 -2.23133861730953 0
34.7355768594491 -6.26922017833881 19.4258765945928 0
146.921568407694 18.9826918072634 4.73595694881129 0
-8.55475838059088 11.1270069022255 1.10245491199958 0
143.440515448114 -22.3962581198922 -0.849283791106604 0
163.769167171939 -13.7136115002344 -28.0831702726846 0
76.2744732656894 12.5526703150195 14.3724449541049 0
112.620613278481 14.6183914147654 8.33163250211601 0
116.916085896197 14.8612108563721 0.474630554734734 0
159.598112685578 0.822919233067692 18.09241988802 0
156.224888912696 22.3433906761896 -24.7434083428879 0
75.0365454892083 -8.26842954011465 18.4220343373331 0
-97.0985501654635 20.3765799108775 2.50826906624424 0
143.05993098573 14.2300688474241 15.5414342976969 0
156.951589001541 -33.404697334744 -11.6911547232168 0
168.608985378563 -31.480671188353 -27.0923380781154 0
181.095990298701 -27.2390115193009 2.07358255868675 0
-100.434485048896 -1.6793404606787 -6.60245109596693 0
139.695575752754 -20.4744982170139 2.79569340217928 0
148.103042856925 -12.1344027291092 -9.99565941782383 0
169.345925700346 -23.9536994828003 -32.5355480000228 0
154.209773679832 -27.0931842454324 1.75951526822268 0
68.1875794043737 -7.23407262415408 2.78002360338246 0
43.8776646610528 12.8110571664353 16.5247828235308 0
83.5000874771443 4.51106840428922 -2.1043408017542 0
172.066666369978 -26.8312800916767 8.51366781552666 0
145.429228125293 -17.3629214997367 10.3268672753267 0
169.174843432998 14.041141392072 -29.0593912844544 0
161.794392300332 -21.9173328886104 12.9995970178711 0
136.03645828522 9.58305964924911 18.3312924672654 0
176.105601365068 2.1631665275689 -7.98640772278129 0
143.311499062658 17.3148701812102 8.77793711575552 0
132.271114921654 14.9427886399379 10.7718133907137 0
-4.32031793464201 7.89731617000398 -1.03956816039087 0
125.615854148065 6.14882603470945 19.456658404931 0
33.8190525824695 8.28319876075288 20.9334519703854 0
154.741015281913 11.4777404148119 -15.3738864060011 0
-29.9392563684532 -8.03882947114644 6.74041574922209 0
-1.97714693506319 -6.96306991596337 17.3606823790651 0
171.487218263066 -27.433895126449 -32.4266615546151 0
123.248485932352 15.720080930627 1.01496085079327 0
-28.0995463847476 14.1968153428868 1.62883003079015 0
-44.8826488612642 15.8608500705174 0.854968136640492 0
147.729792821821 21.0839070813317 -1.16186717796761 0
189.458472248482 -14.4012790637227 -18.2833928892926 0
158.699333673805 12.2609907508901 22.2274425806989 0
132.355060682114 2.5583057574027 -4.09007277175081 0
73.1058238861161 13.3554650373908 11.9970456039263 0
91.9122013076237 13.5445901124606 3.38142719108584 0
177.505018850571 -31.8693002071958 -28.2519338427541 0
-106.642816267556 -6.32706312894749 -1.40326284430572 0
181.108644101442 32.5178178658071 -18.3729099598818 0
8.01969568044229 14.4010157762012 16.9995814164796 0
160.232788168039 -14.3776513785802 -25.1824916046646 0
49.4465849286697 12.3165393945007 17.0299446263639 0
156.799319607413 -26.8700023682648 5.76108218352319 0
171.858418881673 -33.6849898504535 -1.81318156683462 0
-31.1123679188292 -5.34394582701278 3.12750803918063 0
159.786785932309 -13.9077359020819 -17.0498765051065 0
188.647678520468 -26.946486474139 -3.29545164012511 0
53.0455535141453 12.56927105457 16.3887333703042 0
131.774818233076 16.2961438154062 5.76089081679171 0
153.592140313403 12.3098229454293 20.1302591370174 0
155.162590487988 -2.98657561509318 16.4098390168241 0
-102.508522432594 2.38351514202347 -9.40414696631132 0
163.872375288472 -37.2847404340075 -16.3158055821698 0
26.8130429130869 -1.38944205430809 21.8535867470852 0
9.35179600509977 1.06892226683782 22.258292646426 0
8.83002575511537 8.03520403274417 -0.00746102328117023 0
-66.0661229892412 17.4181129119668 10.2082587358606 0
67.645318119945 13.7968541859398 10.5481312640993 0
87.3675615972158 -1.8074155220349 20.9650864976448 0
149.187922978625 -23.5429740297944 3.78644855521152 0
184.633238749634 22.7040418015752 -21.6117939846455 0
17.3257500420969 9.94739772109797 1.66393610495691 0
119.835742553227 -15.726104274658 9.35191851095554 0
151.575883411452 -1.43187508822981 16.4043617737712 0
0.797950906963166 -6.45304612777079 4.88769074468103 0
166.330119412627 22.9534961418666 15.2122021454637 0
83.7057336030047 -12.4734309645804 13.0787322864316 0
-94.3539260915243 3.33271709598554 11.9614732068819 0
47.1907552098396 4.69587311490442 22.0623268994231 0
167.930146635021 13.5809976273071 25.8298864898965 0
-68.5173972027135 12.0571243433014 15.1080418780396 0
172.954768667826 22.7176745176517 -30.6699020827999 0
177.469900426482 2.30866064989021 14.658690455496 0
-87.5010483299155 17.2859205370296 7.78204761209855 0
59.9161983915714 -4.78383832228725 0.820614817187162 0
-13.0166459508153 -5.23669470714228 18.1911666964516 0
126.586817879052 7.80191243020792 -4.39319634959084 0
177.97168431961 30.206115492606 -9.20966889912205 0
-67.7198691175243 8.49573490110366 -7.02326685551562 0
77.1402692056123 -8.28319837455849 2.8584882760355 0
181.16920090184 -20.429944228787 -31.5141997098211 0
-54.5279999062107 -5.90713000167991 12.3027148862481 0
181.844709665542 11.0127365722947 -15.9819428145288 0
185.419196171999 -8.84768784189453 -15.168974589944 0
190.805791003904 -27.3342182583153 -12.8255498974704 0
-101.110725739924 20.2081836921475 2.23646878614403 0
158.384701860199 30.9857375933543 -5.29832064000548 0
151.878871464162 21.4753320635031 2.63715269305157 0
88.8566784940999 -11.9495359394241 6.01389890983795 0
164.663003940026 -0.265681017891016 -13.2928650015442 0
156.381004677073 -11.0426098279793 16.3638750437787 0
133.242952741204 3.20769755383624 19.1061689534441 0
159.27454122647 -7.92638508395598 -12.9518325165173 0
144.619793582015 -7.72860291576085 16.0121223855813 0
46.8177397379024 -10.0686611759293 14.5631312043025 0
171.745575890289 11.5528316624512 -23.5824728799701 0
190.531765212372 -27.5878450345908 -17.8202603597405 0
-49.3989564763541 15.7885918776727 -0.394256730168682 0
-111.753255477658 18.6009542782409 -10.278365508267 0
88.1473978236981 13.4335789582323 3.81385691457994 0
-84.098335031996 -7.16247465682842 3.71412030868905 0
117.782301474588 -10.7220435418341 15.1341109267599 0
-83.2408239708412 11.5897677761675 13.1477635888797 0
-58.4123508650473 0.16190509830013 -3.04359744765822 0
-71.9201865846345 -4.74717272531521 10.6033880452316 0
96.251230183198 -6.86223686077563 18.5694635274799 0
18.2266248314715 -9.74747326575825 11.9175414894449 0
47.7125947773911 7.76486813449506 20.8559486543675 0
183.774313167441 9.44296580807872 9.09679548302564 0
-78.1541974843671 18.0450584176523 8.01707939131385 0
156.288225717807 27.9321144092878 -15.917439138766 0
170.09167713364 33.3303766913704 -5.32351644432077 0
147.524832861154 -10.645775291857 -9.4662881480308 0
57.5808763868734 -10.5399095251991 9.27953529751569 0
151.629911219441 16.9575914574371 -15.0279156613423 0
178.410018259567 30.2704144678476 -7.42972348644978 0
167.900677100241 -36.568169519371 -11.5554194824668 0
114.582261491103 -0.119543246927552 19.8643173484509 0
-81.4815211474033 6.94917867277461 -7.7648022201488 0
-112.769268603717 19.8618430512861 0.49523976358288 0
-51.6226134463137 -5.63305776901278 2.05085294487603 0
88.2654420935898 11.5551123438638 16.0335843946905 0
-72.388669728321 12.6102440992348 -7.52988232344464 0
149.791884414116 6.50423155539066 -9.03413733902836 0
191.612073423203 -21.0138242210543 -18.9322386607454 0
179.438029630243 12.2862724842827 19.0002956152969 0
178.905928203578 22.9965823371904 13.5710253971139 0
-81.4429136841071 15.571051111866 10.6467446488157 0
159.825099041104 -8.5790134585084 16.961307481543 0
131.66795450021 -14.3857528921387 -2.04314544588189 0
186.5771887163 27.5945865661828 -11.4986862473668 0
-61.1679960869712 9.57201251183943 16.9709138442862 0
-4.92923651155247 -1.34147055589166 21.1569827354 0
-66.6306414262769 -0.134992009235643 15.6522094235294 0
87.233393175138 -10.8338948209029 4.67522425155093 0
174.169492339267 31.2508231082398 -8.30915878930458 0
184.196375245622 30.0844518311034 -18.7452898125155 0
57.2897632759957 13.818083638849 10.6046966371182 0
141.384004565203 7.86993253178891 18.762915027635 0
29.664123601766 12.5591236381985 4.85135361017622 0
12.1519765967279 -1.76644609162238 0.626953080033977 0
159.953606695199 -15.837444961045 -25.0844447215289 0
-90.5034417546714 11.5953244445498 -10.7105340589879 0
-6.42714637034991 -5.05485039110134 18.9404380067493 0
24.853047827588 11.2169353353805 19.4977342637235 0
175.931206469741 21.8234924162975 -29.7776307344343 0
130.950494402419 16.9203429783338 1.05558409643113 0
-42.729341943865 15.6493450847777 14.6132060191062 0
170.993016263347 -32.82828387084 -23.06337417161 0
185.754286657955 -26.6117992115958 -1.29548750992322 0
65.1969652648689 9.87566845285773 1.16137386907614 0
-24.1236713532523 -7.30090684118447 14.4516846315269 0
175.994808870169 5.39545770079375 17.7349101615041 0
-107.570170643125 -3.6043517861317 7.63401928056609 0
-63.1406390771439 8.17184171967116 -6.35043845346867 0
173.539568232527 -9.53433828372129 -26.1733315204212 0
174.416496588803 -0.533755549063417 -7.01576509342657 0
166.286873450657 27.6755789350001 -25.1147586916253 0
4.18248370763429 -2.90272929854256 20.8487438081528 0
147.073671545054 -0.95834608070771 -6.53421159942235 0
85.3817152452137 -3.53270046038835 -0.865570237905398 0
-108.150103371853 1.00040133534722 -9.84540892325434 0
157.59120610894 14.8264689919311 22.0963282245317 0
188.224808845393 -28.6649311616535 -13.4813360769832 0
136.166699197197 7.93013668847304 -5.6566894919494 0
-117.461502116581 5.08752541944617 8.29062601489239 1
156.269984738588 -11.017069047521 -11.7665790319958 0
89.5334739957662 -9.23058355713899 2.15501366620656 0
92.9009992474535 11.867494048352 0.223354141886729 0
-87.7730388613897 20.34963988075 2.93472399211328 0
-79.9662241344939 7.74036967985163 -7.86980667141783 0
147.797998235378 8.43253405770912 18.9069925590558 0
-23.1886970359867 16.3961456541698 13.6058782527836 0
133.077702958896 0.866987387127155 18.7960617143838 0
158.184787730756 -5.51058092206723 -12.3914968225258 0
-114.243795630353 20.6885174171201 -5.23188399694558 1
-17.9707485532003 13.2648602112133 18.5148289859212 0
26.3912168341281 13.4638929780812 6.32579359256265 0
-9.63898463629503 15.5989973969806 15.7408443077869 0
-115.571610911243 -7.06003475219564 0.778764021308856 1
-83.5351983482897 9.57954373071703 -8.72234851080082 0
153.23864548535 17.8833891286199 16.7602821329896 0
166.24678125725 -10.2420631647039 -17.2932386251641 0
156.363091253029 19.7560520693598 16.3520764545929 0
88.8098878700884 13.6119507229423 10.6926545480822 0
185.487918873866 16.2046604392405 10.2640770474121 0
164.060191158115 28.1365630899769 -21.4254376687214 0
176.00696818737 -11.1596098021975 -18.7310969440296 0
191.767186621259 -15.0504320184763 -11.2197880535206 0
169.527468591549 7.20943052188528 22.7717203519988 0
-64.1702674694407 -2.78490870127538 -1.46752625655243 0
136.410590273245 -19.4995869806719 -0.147413916921666 0
-85.2564513903941 8.6833126602938 -8.58592122205308 0
123.302218640698 3.5980355423273 19.7177394904627 0
104.809609644168 12.9274984950037 13.4046545941514 0
-80.7950311205959 17.0962122549084 9.02356415036271 0
49.414703553659 -9.59559518527462 8.04802899763808 0
165.435046498041 5.7040511141243 22.5560739685338 0
-6.7907063260565 1.15881253330279 -0.603843101540592 0
191.268647351716 -18.650677962666 -18.9208207343687 0
21.6707414312265 0.417506388217639 -1.16287576051799 0
175.591896036364 28.9736581434096 -28.77048347369 0
150.847961197814 -21.5706836058792 -9.62026365301558 0
-87.0133720517798 6.4689985315473 13.4071620930681 0
142.949397960658 -17.2197251976707 -6.7323481405535 0
158.868946051609 27.3656697996745 0.670029139541393 0
74.2342548101306 13.6663703282941 9.57606266996291 0
169.724012701116 -10.3616477697089 -17.1766599893546 0
62.7207058738676 12.4846774147564 4.52248771485368 0
-22.6691692464624 -3.46425157892189 1.73292847635931 0
79.0702811582311 -10.6001795896791 5.74315268717346 0
180.497270498203 -3.14612129694045 -7.83633666570799 0
100.255676046035 -1.98553270129258 -1.63323660700961 0
-91.14314658951 7.80769543044961 12.6451455219328 0
-18.542974580751 8.16159402577206 -1.75743536845757 0
156.367644488327 -31.3574169935052 -11.3034685276671 0
161.33958207153 -36.4905055941459 -13.3515037851603 0
-27.7380369804363 5.97387829181894 -2.70034237463323 0
185.41234476221 20.4028354177845 -18.5909346093941 0
-69.6097206946053 18.4596432371616 8.02300421203486 0
145.217999714628 19.9827933445663 -0.994122957893105 0
1.91990373875559 3.69091605819124 22.2952826226028 0
-25.6829413060216 -6.73482007130447 5.00772435462265 0
-26.8479237916089 -8.04293282541822 12.3168164925762 0
179.993612577125 -31.2700395482037 -4.83061293181381 0
162.659229512293 -27.6978883789508 7.40698385716165 0
22.7290325667979 15.0120319701192 13.8497789424537 0
31.1850181844905 1.46302590475867 22.358338398134 0
161.206792596632 9.32480170748687 -23.2868278099314 0
156.815351177557 18.3562971785214 -26.7278544312492 0
160.813453255528 -11.8098009250298 -24.8767005727067 0
-96.7405626451776 0.481414533269356 10.902746387417 0
189.559198532307 -13.4321111420614 -16.066771439883 0
-72.4819025402715 11.23951938588 14.9529564940765 0
22.4673746790158 -7.0237401727506 5.22887887271338 0
177.683457833708 29.4149561780016 -4.07478134413046 0
-111.858170157167 12.1462138739637 -13.8216649896629 0
166.52375918594 -5.01483933763192 -13.7961028649351 0
158.847690176805 -30.5791623358504 1.39874302362996 0
144.707992454654 1.0601915713363 -6.05954555208911 0
166.561909033813 -26.819753714521 9.12710333600289 0
146.372100796477 -9.7583076224826 -8.39753763564378 0
59.652358197877 10.4743064589177 18.692520250071 0
163.941320458996 -35.3717491714739 -6.20174144421798 0
-117.064060243418 19.5460914620337 -10.2886848540997 1
178.6771806779 6.61135456367886 16.0844236756969 0
117.137404286803 -13.0933943749067 13.3168613583616 0
153.000503522077 27.8025043981077 -11.2635250049095 0
-63.8797612629484 -2.48060711262125 14.1546085528417 0
178.153662822177 -33.8254048509134 -17.7729274427901 0
179.442049643783 32.8864878189856 -21.7330362945538 0
91.1135885842862 12.6203732382988 1.41384309731659 0
109.65092885346 -11.1046860637907 0.845705299909278 0
188.344691224201 -27.657991495495 -6.15616786767061 0
139.275222195192 -2.1574675869953 -4.77024631298631 0
160.538784826839 -35.9637215543435 -11.2206983329875 0
191.4448972471 -21.8034773559936 3.02787574968219 0
-95.2383029222537 16.5132260420813 7.566339501483 0
-30.834593990305 14.1134825919632 0.982297356718448 0
180.115467977646 20.6404588396677 17.8348967065393 0
29.3112665829596 -6.54643362179527 19.1525206227525 0
-50.0805150579095 18.2635914429663 5.50327055602462 0
-54.2575264298281 -3.92377271472537 14.2253090812657 0
192.945205063787 -18.4506849104191 -7.16318442249406 0
152.926053977238 -7.04561243233423 16.5703032677917 0
-49.5146263060122 -5.99499956730785 13.0313193370612 0
174.544309732378 -34.2209966444363 -16.0760578389057 0
-45.1358069508082 15.3051499298493 14.889484080908 0
-88.2748135666402 1.12320073064479 -6.53575478905263 0
169.671766916787 -23.1441864800152 12.7096819497256 0
181.535045030676 -25.9793543832811 3.61932021054998 0
-81.8368821547294 -1.17043733040474 12.7659929198055 0
171.336642427678 11.845798420029 -27.1532579376336 0
92.8727396718592 0.110382398456887 21.0278378197875 0
164.230885126992 19.8594384020378 -30.5385395903688 0
73.1141090552606 -6.64428644814318 19.5114862693694 0
-115.233136577258 0.439531086870052 8.48099536013069 1
170.917813051023 -0.997753004308247 18.6637511232501 0
183.182724026909 21.5644534677359 12.903156717997 0
92.0388478513043 -3.92229946658269 20.1444963150936 0
159.623405141329 -9.34509778215363 -13.2794678091841 0
-83.4497857884394 18.7723786818969 6.09920646352485 0
124.04432203998 -16.1992472509458 8.759534216041 0
56.7570463409004 -10.9322757436608 11.3379260683947 0
74.7109706704698 -11.5386020311462 14.3575902530779 0
-62.3660849603439 17.9746268993323 9.44098479628756 0
1.77272707816001 14.4221432446116 17.2700778983183 0
180.615353199739 29.1443369380468 -25.7560716992297 0
140.165181682622 -19.719641449099 5.25516127041263 0
26.2983298370387 -1.97027645948 0.977204017916538 0
-27.3228131516233 10.2502570361892 -1.4349522747487 0
55.1288119422682 8.55134951486697 20.4095333186609 0
-7.83437714461309 6.5305877906221 21.832495999375 0
-95.9127937479441 9.63197079178466 -10.531969784976 0
57.4730706325577 -9.40711368261486 6.67976794182488 0
154.004505312076 20.2861896783077 -20.5230836362546 0
72.1134427474866 -11.9277646870623 10.3723445816934 0
-33.1491889474314 0.753571147324954 -1.53957166598072 0
135.601524548323 10.1291036116723 -6.16870639078646 0
166.508657115847 27.6372187470424 -27.8007368468556 0
88.0784944770665 13.8664382262843 5.7693155191989 0
183.986747240034 12.8378599305147 -12.540178038056 0
-106.883487614525 -4.95814452230469 6.86349782854851 0
107.38511079447 5.93165726708648 19.9705876804041 0
165.448849313342 -22.2802761900364 13.6807261324881 0
59.2560273253812 7.32643650481522 -0.0803910179031097 0
162.893873053287 -19.3720840614721 15.5462430771864 0
176.66393975122 -10.6119094604864 -28.4946734754375 0
-0.228031892724533 -4.5746682570382 3.00941276920658 0
-43.7868677880722 3.12522192507867 -3.39233933635945 0
2.7023398649144 -4.8923460084583 3.3614762011922 0
126.811988180332 10.1580936785995 17.9093911319407 0
-49.8685861357047 9.31199114239302 -5.12286919765254 0
181.789420450553 32.0066574345267 -14.0054112421348 0
-111.433121200943 17.4475665981177 -12.2874944601949 0
87.1523194495307 2.50076599249476 -1.94186477494084 0
155.338422806635 -0.908025794161703 16.3440644565074 0
128.704532398898 -1.60505405292616 18.5589501108563 0
-113.085840921122 -4.68261312571235 6.76323927851277 0
-68.1616413815349 -7.6522555212421 3.92718245074164 0
85.5630613727432 4.51816980934588 -2.16332515489319 0
181.540638497591 19.2074590559871 17.2038380491425 0
110.7213728912 14.7957301090026 3.37292699754306 0
94.1819709507396 13.4735384239338 11.8020965168249 0
144.328822606938 -19.438985356113 -6.03116788951953 0
141.867562784426 -12.8534912749381 -7.4562294955743 0
156.858074777713 29.2930955339119 -14.4728266329924 0
151.755525030336 -2.60534824977078 16.6009964201821 0
-106.347967696278 1.53093526391213 9.76024850817905 0
176.997516359839 -3.86263373775473 16.6064320451546 0
54.4750880394081 -3.60553368057731 0.564261213430524 0
4.21455264250598 12.0301719272416 19.535549693726 0
42.4538232147322 11.6029398836231 3.51656058338091 0
178.178086395698 27.4636100181326 0.7203439712932 0
173.584109554685 -20.2977003127369 14.256553094222 0
19.8179739407863 -6.41385214799563 18.7385625612789 0
-72.5833588555744 -2.17209866617356 13.3815953014391 0
31.5839684903286 -8.99858644767043 8.18840123463545 0
85.2818628480339 -5.73930340038708 19.7161424721064 0
100.810821331869 -13.4318843339939 5.6684044280013 0
157.247372381748 23.1495054894599 8.69099158027085 0
82.0764717723442 -6.65728716290496 0.680103828209139 0
32.5759758713002 -9.35563567650292 15.1551221023392 0
-86.4220679202345 4.24107287595127 -7.68188602688078 0
-85.2853190289783 5.19542164488783 13.7212504508347 0
28.4590343897924 -4.03835669162465 20.7613195339196 0
122.451207944393 15.0666614082097 8.34180547729243 0
-105.231280067244 -0.491238496905238 -8.38714179398864 0
167.48781391409 5.89113941869447 -15.4661200389959 0
-86.5560390972951 15.0549175737113 10.3161936525465 0
192.296335095734 -22.2668025763514 -16.893137990125 0
-117.734340279587 8.66256275453901 8.10068511777815 1
-62.3864742612447 11.1096547357275 16.2905249151447 0
70.7008541487691 5.243683512435 21.2833486871897 0
83.8862396482745 5.27794395628564 20.8595422909305 0
-77.7876311985071 15.762359189944 11.0788605243755 0
176.213361985305 -27.187528235836 -32.685066471447 0
157.583967386326 -27.4223814074535 -17.2968042298607 0
59.2963939017211 -0.481867122297295 -1.30425170903437 0
-93.7786273977974 10.5360019318493 11.8806667996818 0
-71.848546331507 -6.03520988542927 9.24811818478809 0
162.857839663595 -1.69757753662509 17.8172438058231 0
-53.2771705727372 -0.529432239423678 17.2018788346719 0
173.468094368696 -23.7763797429493 10.9799685316411 0
9.9973072416632 11.6692662456728 2.92617118105328 0
177.221355673222 6.98797478702838 17.9951545195403 0
79.4688219189669 -12.6369374526719 11.4360917232261 0
-62.5899663227291 -7.96855099517721 6.76628174168595 0
143.250297076068 19.136374924499 -0.396606736188449 0
125.410112098207 -6.538670828959 16.9980867283929 0
138.369479994136 -20.4780499473579 -0.0917840033052424 0
38.23684979288 -9.13246498664742 8.17034343861735 0
108.262374157571 -4.7922141856138 -1.58640511473817 0
80.7497761480558 12.6406082375096 3.08440478947617 0
-110.191270329923 14.1865877001098 7.68830144149605 0
179.556946444532 -16.4034059567005 -31.1177745132351 0
-90.8633122253603 3.44350873985944 -8.06450767466624 0
181.681850726824 21.7536705814871 14.6679158203137 0
175.404262603096 30.7984530776885 -18.0567451818414 0
136.933061920828 13.0688567417866 15.7273716814805 0
165.659543770615 4.72718640115925 -15.1051306696624 0
182.04394326192 -31.5247535845009 -20.0240701684972 0
166.993460475687 -30.6014944587801 -28.9651510755692 0
-54.3011377354001 -5.56826061997488 1.81416676144013 0
165.376044827516 26.0702177557783 -29.1964637409849 0
84.9797813734239 -2.71711421355149 20.8625199470989 0
188.301515643935 -27.7109760667673 -24.3660868146718 0
-81.2991763697775 19.859669147074 -2.00895240268538 0
-11.2205791638135 -7.57815826059633 15.501035356316 0
160.778228746897 -31.482576888531 1.25471851963581 0
128.58000573344 -9.243430347933 15.5926165502697 0
178.963110969444 -4.48498029678879 15.7536972124204 0
123.58445395344 5.33407334052921 19.6809091315787 0
124.949763990882 0.93151660380586 -3.20710431239718 0
183.561685385878 -16.2622755096225 14.4742678971747 0
144.033351564662 -2.36780928279021 -5.59847229740987 0
-73.8687805817093 -5.43794592499769 9.72267661623782 0
169.40711950302 -17.4375656322445 16.7727988731769 0
-100.111020128297 1.9740393495441 10.8761171630851 0
48.81829411619 1.32933612243569 -1.78202901710198 0
18.4041604693171 11.6199998149979 19.3343651510575 0
75.3811299223364 2.05254188526523 -1.71312551272409 0
174.202489205446 -10.7233518318254 -24.5431375929277 0
80.6424777132928 -12.4441053204644 9.07322875167512 0
155.725301538382 25.1562687442842 0.100933646415533 0
-67.8240989263004 -2.08278006710356 -2.39793206867336 0
-67.0417005032128 -5.18295097002852 10.6781190308651 0
-36.8514689299223 7.71660792574578 -3.74414574067385 0
187.080867934237 20.6136072051117 -1.54851326615713 0
155.874128914764 -2.19437056366068 -11.0493356564281 0
169.301599376792 20.1938590241062 21.3581807610359 0
173.664477548055 -5.62562877477087 -10.8267174179399 0
132.703429799398 13.4224631185207 14.3692370696852 0
148.552095104268 17.5420442007542 -12.7036102514438 0
36.4824204595282 -10.0088725845313 10.9832409097099 0
-72.2977380090353 9.99474978863898 -7.88961240538749 0
174.050668004345 7.63570565586269 -13.9629944690882 0
145.44258425476 -8.55129005762552 -7.08328232141224 0
63.1353041545167 13.7116097264764 10.3275626885376 0
188.699754467814 -11.9137997432074 -14.371931284584 0
25.4017592233847 0.139710617019534 22.1758276892606 0
175.282726255212 25.7099341618244 -29.6557009575799 0
162.59415577254 -9.79686320167366 17.4340943545012 0
-112.031438679804 2.43174121381882 -11.4121840302307 0
125.188865112256 14.5567161911815 10.4692986872075 0
110.462418096084 14.2563290834431 9.54653824189941 0
135.543709277288 10.8815007701173 17.5890531537757 0
156.472563680231 23.6333880124208 -22.9301075386786 0
161.850787602424 16.7895470860457 -29.3722016243379 0
179.538618492319 -31.9678496577883 -22.4948316278286 0
183.86401616688 -18.8210302154844 11.775652587746 0
174.461609287026 24.9205653621043 8.94578663600296 0
104.978431576945 -5.32445811909277 18.7832246348509 0
164.465981116856 -10.2178950529629 -17.0088612450651 0
162.119171797508 -29.0936911396831 5.64016396598671 0
1.9667754208582 -2.25047609256961 1.11446488937713 0
178.240919446515 10.3827371889939 -21.4805505389384 0
22.7193286419053 13.4535138868996 17.228701934141 0
157.483944205674 1.74376011336154 -13.128605800698 0
157.754966638005 -29.1377932898308 -16.9575158405871 0
-105.64401716039 19.9749313698756 -5.92031037973228 0
-39.8100711042129 16.1216657099003 2.88398009205098 0
-104.450563051339 5.05274868289637 -10.4290349782497 0
54.5711555316465 13.8731049238318 11.1669466226617 0
160.894725400549 21.7313591896639 15.606807057114 0
146.87537812927 11.5926353382498 -10.2728599114845 0
148.838072528721 21.951249807837 -2.79612601116381 0
186.799338796478 15.0714340640691 1.0327655033791 0
-115.083795388215 -7.21037829432255 2.33458433598511 1
174.768959135603 14.311760911647 -27.7407606876099 0
184.228025012356 8.52974367890896 -3.65740408225698 0
138.768720753135 -12.8680288236759 -5.74963317881931 0
179.358265606679 8.28112745168961 -15.1059196207074 0
76.0277329602576 -9.78925354160399 5.02917362153025 0
135.208746336086 -5.29060993541511 -4.13659200247633 0
166.21843197859 -31.6208233898572 -24.9255278273046 0
84.9475234233866 11.9852999291125 15.2799092472707 0
121.842820959731 10.7733707390804 17.2669653840261 0
136.497333287766 -1.17482517345961 18.1504797013915 0
108.558528769312 7.83754147443803 -3.21325121371314 0
192.69987528266 -19.9740068138833 -3.31765524306193 0
-108.829087489192 16.6637822327924 -12.5464925826928 0
-44.9119550637448 4.19560742733868 -4.00035708382585 0
50.8236844078854 -7.20839428367773 19.2934176721609 0
-96.9977338062295 15.1511735421712 -10.8902455774402 0
190.793125072264 -17.6441656819363 4.22650265402419 0
-22.3739142735486 5.14931309571939 -2.47456560817116 0
121.368906135397 15.4788936468948 0.963665182176823 0
-89.7713868631528 1.64443466066537 -7.11898300977783 0
151.92175295768 -19.5535229415763 -11.5326061176173 0
-32.0499178228305 -3.42989193218347 1.37401805566986 0
173.637262686152 30.9609363079559 -13.3224984287722 0
2.93587562036878 10.1452258562924 1.17276416297503 0
166.267495300963 9.38008386929328 24.2745416076466 0
136.950958399956 14.5767188971959 13.0242760767173 0
151.451837600779 9.3831478243283 -11.0765471350685 0
-76.8022368642206 14.5138941351928 -6.70150732636766 0
185.536040128396 11.3971455874392 3.19357964408327 0
-18.6461493699657 -4.56849026826783 18.2245247511845 0
106.111191850147 -11.2529247528352 1.59557865750971 0
99.0277498486382 -13.9863331012529 7.95728302660369 0
118.394194012174 -12.5230171745466 0.154199495445505 0
152.576637528982 26.3296682849077 -12.1956872203512 0
180.801928010281 -31.5608594528274 -23.9723846359121 0
59.1881333358705 -11.0928914352665 11.2887371820109 0
-10.5516072461439 1.64424141609225 -1.08752549477003 0
9.13342202954435 3.65120094556926 -1.51227470056392 0
14.7495738437596 5.4742685010962 22.2251599463389 0
-110.664319789117 1.91633802579471 9.18813765942139 0
-102.236121220352 -1.68916834087409 9.1184244314097 0
-109.832480165644 -1.3081580510593 -8.61216572159683 0
145.836584095696 13.9529465219505 16.8601660396187 0
173.314422608826 6.79835873885585 20.8503465614755 0
-97.8285832225012 9.95724603028548 -10.9564840870876 0
1.74935328649269 0.703254704459099 22.0377645247102 0
-31.4776932442941 13.7050393213366 17.523867197783 0
99.1135155253706 1.03371502865761 20.7991627718402 0
184.078044570973 7.6143158307419 -1.81526246339873 0
172.570304709692 20.5256421071258 -30.8049923572076 0
189.410087305949 -28.2771489760831 -12.6646278956092 0
185.896764199427 -29.0027437320378 -8.71554926662547 0
132.212677581369 6.0969586742634 19.2598350388041 0
185.148358061503 -30.7355152042445 -19.2539631545897 0
120.607774488293 10.3056737016317 -4.1360912278893 0
149.542237335699 -24.7273822223818 0.0689389326931523 0
146.767979861366 21.4274890283209 -6.07727050325011 0
151.092943213195 25.0262415993539 -8.40887402840485 0
-25.2714098585592 15.9327726516877 14.9482351719332 0
180.528424395431 3.22243888133356 -6.96923112484269 0
8.92340865074116 -7.43558584596968 16.6802005294987 0
166.384364361416 27.486262888933 5.00271950697446 0
98.057235604897 13.9700350488787 3.48523849267078 0
-1.91951686541209 12.6925697151992 3.25443181575421 0
58.7819323316029 1.87318702031842 -1.77821710804275 0
41.5328634675629 9.5705177715232 1.60638777534227 0
-86.9758141277452 13.335430008757 11.5720880472564 0
156.103299151917 -26.5175942869699 -14.0712496671073 0
183.421966683759 -9.77849358719599 -20.2540769297628 0
77.7645015099224 11.055216453299 16.9648094699169 0
-91.0942381873757 -5.92287930849262 -0.636277985897869 0
96.7209755151162 14.1594998805334 7.93207656437474 0
134.48004070113 -4.94774043236985 17.1851241651884 0
23.6703843577442 11.8803006181829 3.70674336296033 0
-42.6503059713317 -6.47149362713259 13.1610066895383 0
-80.3957844812855 13.4258774982899 -7.82873437334898 0
154.449530720092 -21.7858779645342 10.0637022460269 0
62.7883192433636 -11.3720893072822 12.3167189261206 0
-106.634219092899 -5.14782629630472 -3.57859119833512 0
142.58711691926 -14.5269255651854 -7.80450361093154 0
175.488735589077 -3.65030574253959 -8.33594191946293 0
-114.606971621384 19.4314910334698 0.937257449833107 1
-31.0754669488394 0.345716023573523 -1.21767923466867 0
187.479663407835 -20.9542678148394 7.84965996534179 0
18.3749563153619 -3.06474118531216 1.51189652863851 0
174.403172368104 -2.4282812634901 -8.60120987432945 0
60.6339427665804 -0.933323907041676 21.9538442732978 0
162.161863902863 -5.82038587535103 -13.9877173127451 0
-107.226654255201 15.8686868868545 6.67138946439451 0
161.745183940872 25.4190537929649 7.53540032406632 0
173.188533984705 -35.5742290067843 -8.51042698415053 0
111.206672029203 -5.72241955706184 -1.57475626137284 0
62.7129265992107 -6.16436857232631 19.8978744165964 0
-102.846461702128 8.05288434294485 -10.8235631867088 0
-28.137054908043 -7.430055715432 5.74597158509846 0
-37.1652472854127 -6.76360575069087 4.34314366430141 0
6.79984665170196 2.05923309316513 -1.17361705900391 0
154.611919487467 29.86325770214 -8.88607113576735 0
45.1112997482562 5.95885967168453 -0.839897108585981 0
144.927596839895 -22.5094140931442 1.36598737019672 0
100.217731952005 -8.97742015993528 0.647420917993604 0
184.662421919954 -23.3403776102676 6.04548565137725 0
125.7550556205 -14.9670407757136 11.2295440805326 0
179.590769672206 -33.4059848287411 -12.2935151111426 0
138.849616721628 18.1778259114382 0.0275361381597303 0
-62.5900359697696 -6.42819718467996 10.2365878916831 0
91.3820622483619 9.50885015042135 -1.32348954650076 0
182.59053742501 -22.2035562841197 -31.0313579149632 0
167.272850047635 -11.5392716137813 -23.4095080469636 0
156.537901290388 -31.4317515179064 -9.03984715375652 0
56.7853140371452 5.9412432895543 21.5643605656215 0
152.679318043397 17.9163013208836 -16.9225682293539 0
192.455453085897 -25.3332195270143 -4.23927702187963 0
-72.8882332777512 0.529317607249043 -4.532533946464 0
123.819423689874 7.29371888588457 19.2505474638754 0
188.983215983456 -28.8517113557991 -14.5554472669673 0
161.782311710675 23.3769708055267 -29.4654282154084 0
15.3773024553055 -8.08347638056048 6.806294319122 0
51.6094782646735 12.9217036040246 5.68441591283886 0
129.926266400983 -15.5976532712215 -0.616255869487113 0
115.819891699246 -7.66572847153108 16.9910554213718 0
-34.288832663631 5.16439698751385 20.412356588939 0
191.217360049073 -17.0512342499466 -17.3382379684325 0
68.1131544046408 -11.6196774926598 10.2189558555408 0
-64.6141561321672 18.019491824387 -0.86330613640391 0
166.094923698572 -36.7075374707209 -9.44564784631905 0
112.994125921463 -1.32144777722662 -2.18154900481873 0
-0.938260719132508 -8.88539322748991 9.52287393510344 0
128.480593761721 13.1523309806061 14.4048178744289 0
170.032386061815 13.063191565361 25.2874552310819 0
164.166259970412 12.5309850676785 -27.6889168891413 0
164.500967206345 -30.4270459792641 4.60671378711427 0
79.9913808430789 11.1505448625123 16.8174265566921 0
173.879574067644 -32.8722168725429 -22.0458704213607 0
40.1553158710442 12.9453962590141 16.5407501971129 0
172.375313591595 -1.55906202462348 -9.09081668362012 0
120.80130648161 -3.0468658493836 -2.56035672171902 0
45.5096969181175 -6.27111786294103 19.7558755496845 0
167.265837534967 -11.8110064043332 -21.4110887212497 0
24.3607721782455 1.09800319165196 -1.75320431896812 0
163.267549170711 6.55531946397075 22.3131851060136 0
150.512773489545 -22.1846240946111 7.4180276490889 0
153.069192978718 -27.1130862780891 -1.30019931882265 0
187.6260088348 -15.155896856061 11.6135674213212 0
-60.1932803737915 4.70310288044446 -5.18929281842017 0
181.656891644343 17.4330434934699 -23.7461824344736 0
-45.7607883040134 -3.4638574757839 16.0784954837598 0
34.176149475669 -9.89921186005041 13.7178284746133 0
26.456931948913 2.12474354813509 22.3683935818043 0
159.520371087449 23.7491094381056 9.52965936659146 0
-100.281202317833 12.8016920323323 -12.4839836263587 0
-4.76342475721166 4.55361349175277 -1.45871252533537 0
29.2360170962265 2.97420215852936 22.355564083138 0
18.7124053095198 -7.9032937060142 16.7390158864231 0
170.612355517359 -26.0382546979125 9.67026710598748 0
181.165575010101 5.93862312016597 11.8353025748749 0
-108.219421146212 -6.92569484047239 4.57200328074509 0
159.899047325481 -13.2637157710771 -15.212526691553 0
179.539007217899 -30.4401197199517 -2.70258451282207 0
104.135337303341 0.0896871642674519 20.422748039991 0
-99.0046642355369 9.95059409686816 11.1273814191414 0
-49.0090748367799 14.1996095020896 -2.11651496513355 0
0.740873381970163 -4.47900274849971 19.7560476144296 0
178.02431507297 -10.127388988376 -23.4978239244615 0
183.353175088291 27.8527257978321 -3.53589585894944 0
40.5465640838879 -9.65569728574703 9.42396068887497 0
158.915642248691 30.3904623610078 -15.230486012855 0
1.45528903756451 7.18657221230759 21.8222991794714 0
26.130286151594 -5.47064705221104 3.44941802492189 0
112.844446793383 -15.2748964555474 5.56847597332739 0
80.5634145106433 -7.58451144130784 1.36441274818559 0
128.150916320659 14.4517889608371 11.2124596045505 0
-82.0591177174092 1.4565843806121 -5.96739227332235 0
165.758099754642 6.93355561055517 -17.0069362440204 0
164.142659675271 33.6541343500984 -10.7249016550815 0
162.535263154942 -35.0645849802118 -5.33816271744151 0
-54.240793961966 16.964114902682 11.9533801287088 0
-106.534447446271 8.6411977499673 9.93672471740908 0
-34.5911447380363 17.4279958141967 10.2755040144327 0
121.511190141747 14.1556638959689 -3.37248080271695 0
-101.978870214579 -7.07629226964602 2.52824621972677 0
170.832316385024 -4.17915967885049 -11.9099520325297 0
165.304391367428 -15.1065388068034 -29.5170986933974 0
81.5425482133846 -8.61818463302336 2.55518061036889 0
-108.220303622707 7.3977466228985 -11.5864215152207 0
-81.3924842103353 20.3368319925457 0.539176413423225 0
-65.2380660456276 19.2042380709309 2.5097830744726 0
126.467301944249 16.1580492553092 1.8015648830002 0
142.371076323974 19.3654449946408 -3.48757769005731 0
101.306670946533 -9.14253147371772 16.9558091819482 0
-78.7480428964574 -6.18587224624158 8.49922863535246 0
175.299967551353 30.6253330324163 -12.1047766003444 0
-71.8538826333817 19.62273920567 4.09725133575067 0
45.1621734900908 10.1190810075367 19.5018064093912 0
172.486735297411 -29.3960094932092 -31.7539784549045 0
175.804412529842 -8.66770112534893 -12.4565982642019 0
181.312420020173 -27.4503961757332 -30.939521670426 0
183.232156376739 -30.6351203733444 -9.81915187372987 0
121.805580493395 15.1332658951836 -1.43064543582857 0
-47.6809462454425 0.432804651055271 18.3765333863177 0
-64.4682411598426 13.4818969409558 -5.58777396662146 0
-107.877362951894 -4.40796378124092 -5.34284533232993 0
35.4226455831351 -5.29668815955931 3.0921585266727 0
135.789858458092 -18.350494584759 6.43732037255309 0
165.961158971225 -3.01115214806319 18.7475888400054 0
174.151825469752 -33.5017473277784 -3.12633892667669 0
163.780922870528 -7.83689127940526 17.4912759906923 0
-99.7334429363238 9.57700285076973 -11.0370538840792 0
163.317221502728 -32.4879801977392 -22.8048967236375 0
179.228280764276 23.8992653549336 10.3587545563535 0
188.269913092278 -9.50484321549248 4.57114206942109 0
174.287362754223 -34.685036005498 -5.95345105304095 0
-95.5652927247187 -3.65609955932888 8.79950110428588 0
-114.076875042487 14.6151760775 6.79252927701928 1
-13.4884863292124 15.4296888047704 7.52621033992516 0
97.0714322184523 9.79817760251266 -1.78876941630052 0
14.6878729142871 -0.126811877955232 -0.377508579556885 0
154.645492374689 -23.3858237187714 -12.4483942894258 0
-46.9960587491924 0.385539187856921 -2.28321569407568 0
-17.6754797604542 -5.68064275992876 17.1926732068548 0
-61.301084028528 18.8163791332347 7.42949915576271 0
109.32817960964 5.36299345498351 20.0853767629058 0
