93.9160023093227 1.41518141728415 -0.97027019583666 0
-207.136892505287 8.48090079032906 -6.69853316550752 0
-18.0433663306018 -10.6181900228129 -0.173111673404962 0
-149.130262595681 7.27197279766616 -26.3321940101614 0
-183.315799180225 35.597374859227 8.07863722034638 0
-173.937766497439 -33.0995598806947 -19.0808996598192 0
-179.707844460228 -34.7691870650341 -2.51653178100086 0
3.94132289065485 -14.3789854723355 3.82831277161338 0
-191.54576371603 25.9173641148037 24.4443716906084 0
7.51759391156356 -21.9634180220906 12.3061439701204 0
-157.543645864763 4.73640174047077 9.75884748190607 0
-196.141502821556 33.8244912347382 -17.7042513490526 0
103.242292265032 -10.7350972570371 23.8826590070559 0
-133.977497106091 -3.88112035794526 10.3914188679536 0
-27.8059673479301 -5.64319058601055 23.3878338872808 0
-97.423292465484 -10.4232375803665 -12.4656077426107 0
79.2826521772189 1.27908635192044 -0.361706033110686 0
-151.602685622136 12.159151807474 -12.3139811909543 0
-111.883337965719 -0.72549412891837 12.3422723869999 0
-4.37775058876553 4.07922754493126 8.3146731947114 0
-102.746711325784 -17.1599897966286 -11.339331459909 0
-123.251726032149 0.0788654979264203 -11.0354517881367 0
31.5522553091415 7.03418963903516 13.9936815531255 0
-185.246178946751 -21.2729118184202 8.48630789925254 0
-3.57894376909916 -3.85945904883424 -3.12955165220018 0
65.6783678079207 -17.9758536795212 17.743208176118 0
-158.2425482294 15.3496401344835 -12.5154601892511 0
-211.708474919073 44.3016650183073 21.8521390536342 0
-155.492496632023 -23.0947272791669 -19.7524965867551 0
-183.790941809662 26.5842385619095 0.987206580719733 0
113.499638880285 -16.6080575716721 -0.724208321332569 0
-204.804534197941 -30.2567855656275 -2.28359544626443 0
-178.787669345486 -3.31700241211724 -28.6896934620716 0
127.185245497745 16.3825374115216 9.24476046846612 0
-46.0047504977048 -23.73569430264 16.0591599783614 0
-228.240199260631 28.3253658188067 3.20279000104869 0
2.44218131709018 -12.4218148580529 2.27809851406628 0
-170.156727198659 16.2482047443036 -4.57094132301952 0
-92.8877418193692 -9.59957744046795 -11.055477526962 0
110.64781757479 15.4554770730008 11.8713026679455 0
110.396315132493 10.119031043334 4.2495574557163 0
-183.929175563918 40.7529299381518 -2.86830661406399 0
79.1219381947358 7.6639611454773 7.10973683845444 0
-97.0797589788665 -23.5043258423402 10.7190913001327 0
-194.069046342336 36.2991110991371 -16.212806767063 0
-210.95891929648 24.0351219713497 -17.8094055066023 0
-205.497898076316 -29.2465550571228 -12.5965793035704 0
-184.101995776983 -29.892755238754 -21.5720083517226 0
-184.97657602951 24.5996053187663 -3.01035746948174 0
14.5091421628766 -5.1803617291123 -3.80630385097979 0
-42.0328685742876 -7.46516741119367 22.7684321265359 0
-213.025582748062 5.31578909840547 8.12253129875185 0
-192.169596508605 8.18341759765167 15.5949366821156 0
-175.601586127316 -32.2399675176588 -20.0535614184181 0
-188.004915929007 8.3124091489394 13.4545583625294 0
-3.28694689206998 -21.4784431119827 18.9614779257624 0
-200.589044149205 -21.0593909349951 12.0121411525508 0
-222.486496237894 32.5607464004367 20.3326935534041 0
24.9023790251545 2.23138242616216 23.8905818338934 0
-181.594270148709 -28.3130794173137 -23.9864227679329 0
56.1445785467532 -1.98765825058034 25.297826168027 0
-100.899502430377 -18.3928829499577 -10.4096556607094 0
17.8657378384116 -21.6177093153939 13.8245316569577 0
-220.513362555406 24.1891959741096 22.2565333874475 0
-199.876568173933 -12.0446063554397 -30.0370572407522 0
-218.975532240081 31.9817376964961 23.8148931554981 0
132.916017129317 -5.86535866142529 -7.23535067291331 1
34.2409655773004 -7.78737870541983 25.5649104830393 0
-193.731163868983 28.4289100546668 -17.0177416383723 0
-218.000829315198 -6.4260277794789 -18.6872706122923 0
-51.3939617211286 -8.06673321242052 -4.96652383832915 0
-111.673600690123 -25.1164859078686 4.02697774728168 0
-156.319872199566 2.62186370883702 -27.2842635658921 0
-192.167162094737 -35.0774277335023 -5.78316077522051 0
-78.3855653020001 -3.21689525683486 -5.6288488721408 0
45.6323885665611 -7.40275308187323 25.6408624733524 0
4.08126687121333 -8.12329205780168 -0.776837173599517 0
49.9040755175189 1.88523606352561 0.690922474802061 0
-174.211391733793 13.1539715621697 -10.2408487892198 0
-88.8753213335754 -19.5765788335137 15.9145479439681 0
-193.756954402692 -4.69619947094252 -25.5757371730449 0
95.6117295891319 13.8270142363366 12.4418140272736 0
4.41105492096529 -10.5736057007101 1.07766643770439 0
-50.8451607873861 -14.5445459404642 22.2938707135678 0
-215.957892150761 -21.251986923624 -9.00436079949179 0
132.252674069691 -0.1714951460602 -5.22953338361492 1
-185.04707994093 -36.0057048400733 -15.0747203863035 0
32.0003776282037 -20.4289955817423 12.8495375836868 0
-205.482029566541 43.1117254760349 -14.7998989958755 0
-204.548509592343 -14.8883489689516 9.37463703056406 0
-149.659399318243 -8.36429444501609 -24.0239637039471 0
57.802131535733 8.98097472973236 21.0742978760495 0
-187.035428577379 46.6364338462928 2.43796045960177 0
14.2778114685566 -9.77043531595433 25.3748724040139 0
-92.343636451387 -2.29447410281879 -6.22716119908771 0
-192.785451060211 16.8722065379476 -11.9693180310212 0
-90.3288661352102 -1.62760028030872 -4.71421165737486 0
-226.235374368253 29.2643335574126 -5.13245537106649 0
-48.9419433042149 -15.1766386447021 -1.11686070666063 0
-126.741557262436 4.65070647426366 -1.52832854899513 0
-138.242349586073 -14.5220482874004 -21.9123200572812 0
104.116126276682 -17.7014650585038 3.25844920455833 0
-225.530616666578 39.9977890399206 3.8405781019078 0
-122.809890211747 -15.1724742675155 -16.6843031319828 0
2.09331249640107 -22.5837449018187 13.13024256908 0
-176.698481388315 -24.8121094982576 -26.1285462171493 0
-200.661494472684 -3.28031638312547 12.0854515827089 0
-140.654261650743 -16.0761532470787 -21.3394702516249 0
-205.596621399987 -9.07806190452785 -29.0752741659191 0
72.8720028916072 -18.4683064759737 11.0229658122271 0
-176.682739594513 0.984913426524941 11.1771057508564 0
-140.913550326514 -14.6589419266046 -22.8800573352302 0
-172.804244697658 -34.2476178767373 -12.1279318243938 0
-156.525545815642 6.05442932173115 9.37141099568322 0
6.8513556005999 -5.99144961191222 25.4572622921378 0
-197.191328912209 -10.7166420273608 14.6048337570278 0
-222.752804735104 36.7978509297359 -8.00503227075086 0
81.8403332814759 -9.16291819974476 25.0695110552271 0
-40.2512620196422 -4.26991479923571 -3.43129828945447 0
-133.072192552656 -21.0623485960141 6.78811628568898 0
-32.7795002288479 -6.30598769261514 23.2059349848388 0
-200.711415274817 -7.92469018878403 -13.7284953120252 0
-180.630737002327 -10.8781216906562 14.7301908737554 0
-179.640802676032 -3.0422416133722 12.6552145648226 0
-139.275426101601 -5.90533679567837 -21.0832801602676 0
70.0010265881883 -4.42324938802748 -3.57679430434957 0
-200.393604443173 16.7296360158359 25.5243800988071 0
-203.303164914947 -26.8264453766499 -21.3016926549241 0
-165.353152410245 10.2896312877671 5.51117567142381 0
62.7021308218622 -5.83819780273958 -3.72012842306401 0
-23.1542852067493 -8.49581059134974 24.4081180274233 0
-186.98315274185 13.8182057913357 14.6423050215353 0
-186.305210558951 19.9596770443678 -7.57036831989378 0
-206.352014460685 -2.27729084743892 0.68575834687172 0
-218.864272717683 18.5700381357064 -11.7993994693379 0
-171.946235718613 -10.2545597565921 -28.8783341005075 0
-107.536206743169 -16.4676538825792 -12.5716363433352 0
-187.102707729792 -36.6528706890275 -15.402093181538 0
-183.750116600716 -27.6728980961332 -24.3199536207583 0
-193.804632357443 -29.3453523862096 4.23078894029198 0
-118.329865061687 -23.8782663353924 -7.7735436631821 0
-185.765687086987 -5.87083173950045 14.0181138549313 0
-93.4102408562852 2.86009889072312 12.110077508046 0
-218.674960364235 47.8350528196663 4.42772505174189 0
-210.46814051746 -14.2392784013286 -28.6521322082358 0
-33.7101303825892 -20.2157501361023 20.5233140320916 0
-223.35971748198 26.2950563998758 -9.6608278671932 0
-153.862622987667 1.03217354529427 9.65239052404558 0
-191.564166879679 5.52228270817736 -11.6401543293698 0
-9.51321403371667 5.36511882755243 12.1159613706525 0
91.601938970957 0.570420091177262 -1.35792640817673 0
-187.522418648009 -8.6885158442359 16.6703364269392 0
-158.572512440948 -19.4553055813929 -25.336761586506 0
61.5717362284348 -16.101629459935 4.52146152458023 0
-220.602154411836 11.7707623277522 -2.6219985072766 0
-186.359932302141 -17.210890288583 14.471309632581 0
-39.9771456664977 -22.0784362843014 18.4860374281803 0
-157.355435863794 12.5930170964546 -9.00553683662152 0
-9.05473548726887 -0.458581760065247 -0.286421716897639 0
-168.439624085012 8.62120459827098 8.77984038737402 0
14.7372383405927 -7.98464998985328 -0.388085736848126 0
-37.7574696477685 -5.61773552503258 22.5601029067787 0
46.1940605504227 -1.71680360345345 -2.26117673301663 0
70.7642889038276 4.43159914542742 4.0702251172341 0
-14.3355063222001 -11.0097619968252 24.7570993954441 0
-122.912251041725 -20.1016032397364 9.05903100363726 0
27.9450554395955 3.30773221678743 5.35800772346376 0
-205.280660399886 52.7131835504263 10.4213323572218 0
-24.5091759698877 -17.2935275858183 3.92144450645262 0
110.090471303265 -7.03039484901887 24.8377497026916 0
94.554930218447 5.9196194764765 23.3868815540699 0
70.5578484394968 -15.9628807903933 3.35876580580272 0
-82.1473437818006 -12.2270641466408 -8.92238469002809 0
-203.452292598789 -25.2276102967722 5.90751134465881 0
133.718618703021 -2.74802286947431 23.7030620140224 1
-208.561581373927 3.62020618139615 1.08863364210288 0
-159.610815512156 -12.8483192826272 8.10647074336052 0
55.7071885076129 8.9909730352588 13.9742550350613 0
-206.139136117433 -29.9017878447907 -6.12040293933646 0
-37.3668175869433 -23.0654881272137 17.2921223375986 0
92.958154130257 -18.0481044359834 14.2313420181022 0
-203.577329081055 -15.7353887988967 11.2806107781198 0
-197.778372588445 -6.10852839206953 -26.0352842887231 0
-63.6898504777668 -25.2080582391135 7.98898774066054 0
-211.687062076163 6.44544204395778 2.38930341749164 0
127.381100835617 -18.8248273005216 5.33129810744281 0
-168.42393167268 -19.243258445423 -27.1976124471503 0
-200.317513977488 52.0775961054274 11.6373084361295 0
0.472111959786229 -14.8527700276553 23.96442438345 0
-58.8209386330417 -5.4207680514052 20.2527963514451 0
55.6188058111505 -18.8379670249845 16.8629042047458 0
-169.095881955306 -24.3095511122055 3.22511684794253 0
131.463295626796 -11.1794414324219 22.9350731022604 1
-87.396097947203 4.39929687014105 9.10129821157582 0
8.06895287996027 5.45589193391747 11.3104555164989 0
-193.889795779619 43.8192704766511 21.7012904416026 0
-119.391225184794 4.19292245290053 6.43512620750798 0
-206.922327565652 3.15270666598475 12.3008833702763 0
129.172758567791 -18.1972527469832 13.9044406998909 0
-177.657074340938 -4.12352100765974 12.8494657930918 0
-167.586848378064 -29.8304597997424 -16.3489109749931 0
-193.693106524197 27.3009322619082 26.5343734259283 0
-201.13254913636 -1.84156040567846 -5.60043540317649 0
-204.006065576522 2.91946015913914 -4.85039666931728 0
-153.202164051823 9.65079493193191 -1.88401829648258 0
-172.854060101919 -33.3094555728332 -17.2298274337262 0
-4.89446160628781 -16.2134644761627 4.70932810055276 0
-194.782207544159 17.9135683247015 24.4608205823613 0
-174.696370679417 7.0145377113652 10.5829285280395 0
-139.205151773095 -23.0162571281442 -13.4967154763634 0
-199.073619968858 -25.9597576333124 -23.9465689435308 0
108.751756034496 13.0997873848385 8.03820617248122 0
118.470826361455 8.6306761606741 1.13231358272313 0
-223.578589759439 34.6259540479802 -7.90914757503773 0
-39.3015863513854 -19.6618095236719 20.7883891004451 0
-57.2042644380689 -24.529550181426 14.0912602964236 0
-41.0808337754228 1.86943754917847 17.9113676763758 0
-98.7412503204893 -14.344801242709 -11.6400236207261 0
-223.198520005341 18.3563535739194 16.213961532658 0
-2.33353396562264 -22.8868172706855 12.8389359790289 0
28.7344275011003 -14.8644109340093 23.8048843455653 0
29.0274001863851 -5.03548171346748 -3.8008688825222 0
33.2086969304523 1.90037785323477 -1.32670854276749 0
-206.931957888113 -18.9223933336596 10.37169140509 0
-125.085522053141 -22.9152779893178 5.60508547227855 0
-161.698797339026 15.244765576992 -26.4165467468842 0
29.8218939918112 1.7321084733485 -0.664428388725031 0
-167.33532820941 -22.1185000122952 -25.6529490160383 0
-198.245729130377 38.7649619833419 26.6935927197672 0
-191.152219395851 0.184031603758633 -13.0901770052077 0
-186.273882561471 6.32681694984791 12.6299389175642 0
-110.075564098285 1.38116681791833 -4.17619525226646 0
-163.105383433381 -24.4939490747739 -21.3758718061172 0
14.7720914444558 -19.4090454870114 8.72951499520689 0
-200.028351574936 -28.889674113416 2.68590797096851 0
-110.130773074928 -24.0710420187969 -5.74002050920175 0
-155.889704935845 -8.47129566305378 8.70243123600127 0
-153.217947922858 7.41780770582765 8.41266868859184 0
63.1647964021807 6.25399809567919 23.5576030313308 0
-113.943620948219 -7.35745124815027 13.6588959334359 0
97.254940152211 1.35077919324291 24.3810409246212 0
87.5183824988004 5.65826342711483 3.21746285820402 0
51.9707995292084 -16.4422760210833 21.5642441038815 0
-188.825399803676 -1.14783064922606 12.4972665426182 0
80.7981619003459 2.44398105740503 0.436407125174481 0
-196.477525017617 -9.75120285771347 -16.2928733592743 0
-209.528011306982 50.6807581150102 15.4918218168083 0
-188.554272779223 31.91982249812 -8.47648181097395 0
-90.5672042112553 4.21121489022899 9.9103125135126 0
-186.53754336952 -36.6846575948274 -7.81881140476572 0
-225.932117713606 33.7814800521549 13.929751099319 0
-212.205441809234 29.2077440081807 27.732730908411 0
115.257129294533 -13.0007440010624 -6.326714913752 0
-109.477090417319 -13.0413078706871 14.4860018604815 0
19.9993621212457 0.713313265090547 -2.32128253077028 0
-195.960600342732 38.911283420933 25.9654997559006 0
-176.367163804042 -29.4522062739181 -22.1173909377679 0
-178.768382667938 -31.8663519356809 -20.6728585540941 0
-22.9548014553179 -20.9917268039852 19.9327065654126 0
-115.261790711246 -14.5327904613699 -14.6345622402744 0
52.6075953033041 8.98326703086377 15.2113311462995 0
133.690186315749 17.679314258922 11.1518609586607 1
-159.445611197459 -24.6275404657202 -19.1994010266645 0
-32.6259113636145 -4.94245250306215 -3.29797368488659 0
-204.295380843222 -1.296741811085 -4.10139300748054 0
-104.109735156779 -24.7116689458925 6.1893294606658 0
-216.441788702299 47.5686327487182 -4.49679033157838 0
-96.0450116265209 -25.1772368203038 6.84763868100021 0
-26.6604700849363 2.58763422835563 18.5858890059016 0
-137.311467892983 -0.469209997557482 -19.0021760481089 0
-199.74634610372 -30.6297325312156 -17.4172678121327 0
-176.618679938884 8.41731794658765 -12.9653038529151 0
-93.4723640324785 -24.9292224645109 8.44253142680994 0
-205.895959398657 -4.89189974591197 -0.37068525600915 0
74.7566994610929 9.35181337397617 10.1328499652283 0
61.755748140733 -9.26687567161504 25.4519275301236 0
-213.115261756601 51.4475964980431 10.4298234452475 0
-212.755680073482 -6.55722892570215 -15.781324437971 0
32.9677954608718 3.78743857489908 23.4903653088498 0
-220.00423952593 44.5268448369876 -4.57584480038357 0
124.612189008001 9.58628721782673 0.647417023742813 0
-168.977522886446 -16.5481843999812 -28.0394699064157 0
-105.988849338277 -12.3112080828414 -13.631816026766 0
-205.799903949847 -9.272695344451 -14.2869523285073 0
4.26092465588558 -10.6869551383068 25.101790860438 0
129.149998102815 13.6591965776775 3.93512320030499 0
-218.053692048579 41.7482502301703 19.5421454428595 0
-80.7570045030508 -5.25519277611515 17.517857305565 0
-9.43555757839233 4.77009632315336 9.93701330082121 0
39.0714691222893 -4.90845088861718 -3.68512605405145 0
-179.684321401391 17.8259372772092 7.89127798756999 0
-144.947394806911 -4.7162019462241 -22.4926033445417 0
37.6002125583991 -10.8738561283866 25.2859499169744 0
-198.182829077501 28.5522963582272 -18.806197945304 0
-149.153432397934 -19.7354722928599 6.2641457579683 0
-202.709169310075 -11.3356678148262 9.37601620116961 0
76.9170244372578 -5.63446864087513 25.6623536160382 0
-180.014325896311 -0.342932412682998 -20.1133961582645 0
-202.615440460411 -12.1760019525641 -29.7353037546993 0
-78.0254373502216 -14.5369749248856 -7.86106515351602 0
-200.848454995564 -32.1876725532515 -2.977798477461 0
49.8360926561915 -0.673948097123607 -1.66205082926024 0
-6.66810973538527 -18.010355540865 22.35105556845 0
-182.802574028267 36.3534656352229 5.42617385178886 0
-212.6148533061 -8.08776920295794 -14.5479514099476 0
-56.0460148385646 -22.133846520076 17.7731486112703 0
-209.665513235552 -18.8546066071616 5.13266015580783 0
-211.137448232917 -4.77032669966742 -27.2214623249843 0
-170.098718610769 -30.0226691883547 -18.6615088914305 0
-187.157918968503 -34.7368415401148 -4.52385173222477 0
-184.093702290414 7.02426962242138 -11.7118319100387 0
-205.489854382793 -9.60950222318697 -12.032101917096 0
70.0184449039902 -3.34069779215892 25.5014771203939 0
-59.0484019793451 -20.2129385658876 0.870025776458463 0
-66.1171667848668 -25.3717546931504 8.45040020385119 0
113.461733580433 6.96089003149525 22.3854997741276 0
-176.548493614272 -21.0770829264691 -27.8895160883191 0
-190.853512320799 2.33107269160631 -12.4198940664878 0
116.645787104185 -9.85713531048589 23.788354017162 0
-162.753305709812 9.59862866585147 6.9548373995321 0
121.47384501565 -18.6558076654625 6.62952931633977 0
12.75342354936 -13.5464785812416 24.4769868170674 0
-157.954804883455 10.1207613114761 1.56822728625107 0
-195.331220791205 51.6776894199405 8.05266436156768 0
-205.388366953034 49.628682301984 -7.8616639447959 0
-194.264279690687 51.5851015159948 5.68586741531643 0
-98.12223152151 -0.0585398415905341 -3.03592905307664 0
-129.629809596449 -14.9427290627748 10.4644042011107 0
-206.809964631738 -25.1156690983891 -19.2578004173957 0
-199.559833429758 -6.03487950442687 -7.15295322190734 0
-102.463454369773 -25.4710891305616 -0.0918883650773747 0
-182.011254546325 -34.6695307758398 -2.80121341265362 0
-28.0370618298856 -11.8764716328097 -0.158285271181774 0
19.225162426769 -14.6719374588371 24.0850193210577 0
-114.693866948398 1.22474425467607 10.9040809111538 0
-188.200704545896 9.50137347664074 -10.9756132054579 0
-207.052760432606 -22.4796007263948 -24.2003491181087 0
-143.106601520359 -9.05830628535176 -22.5334703337489 0
-194.322423307977 42.9241009156992 -12.7492490087643 0
-186.441626459263 41.1062442421148 -7.26972103725139 0
-68.152465644951 -9.40764519126272 20.4070715371091 0
-198.723375217726 -6.06313238154899 12.5827020608098 0
104.013444991901 -16.4208887746106 0.131588585944944 0
-171.84451898649 -26.8135375242256 -23.0291827576967 0
-81.5257221626079 -24.4929354014686 11.5356496500984 0
-69.1838043652021 -7.47319706470728 -6.69056369505446 0
0.368424798980786 0.422301811881132 -3.26026474731162 0
-185.163575884976 -34.687276385647 -16.9053232881619 0
-102.846508946712 -7.76933931462043 15.1750420275222 0
-188.336551649569 -3.13891243587793 -15.9801990429934 0
-123.85351328755 -6.87434686881037 -16.3724970119331 0
-126.2070737034 -0.0826092396961132 9.70024943019376 0
-87.8366879711465 -14.5581884593162 -9.17829220005257 0
-123.899913091941 1.81697328095069 -8.70810993366892 0
-112.324108497381 -15.1982340849816 -14.0001632869871 0
-91.3837637603151 -18.3139605767065 16.1133803236555 0
-195.084629886963 48.0596647868524 17.1003992598225 0
-223.558486817866 42.5769932094796 0.361711290345006 0
-218.344286229083 29.395961328171 24.4855006835013 0
-71.4531395789643 -20.7443053242902 -1.21087866519946 0
-73.0362659528987 -25.5161592091492 7.3456526864164 0
-163.811059541544 -26.0151857305797 -19.6397212809255 0
6.94128483304359 -2.98951729536606 25.0577856705242 0
-213.000153526454 40.8628281096335 23.6128429719196 0
79.6539572615113 -12.3585826909126 23.7932158314154 0
-164.602449569321 -18.9370021978377 6.32162447047892 0
-157.305506637566 -15.1824616622366 -26.2604824689396 0
-153.832906966523 -22.3464860359634 -20.4306050760808 0
84.001997180971 8.33432324532493 22.9652960869925 0
-167.892007610058 10.776118562088 5.98738212314832 0
36.4789102643421 -8.23851908131396 25.6256889809377 0
-86.0396162327379 -25.5524398068226 5.91079724172401 0
-11.6797232846054 -6.18647988120913 24.7808076735419 0
-117.657666124315 -12.4081899575121 -15.5787825266357 0
-56.5919701204487 3.06620069998937 6.11616004638246 0
-157.401021904486 -3.61318552965802 10.015248942462 0
-203.571559249758 -8.54258051136379 -16.1507086207036 0
-57.8674143618528 -22.8241160207113 3.93947962300917 0
-208.658310145792 -23.841958442963 4.1988678381428 0
-7.67780905299345 -23.314131719441 13.0834880975367 0
-208.232872999794 -23.4236369316427 -20.6166347131565 0
14.8054304318992 -6.26174550137065 -2.46469529816644 0
128.914376756981 -8.97635033201709 -7.68575820931108 0
-216.833552906654 -17.6233850285876 -15.8186299944984 0
28.1287450744601 -1.87076346785502 -3.00847611682875 0
-196.292285650686 -11.4094939307504 16.628573190795 0
-188.929112253258 19.0448745224012 18.7918921137073 0
-129.609860319478 -25.1851833655227 -2.42135048951821 0
-162.650957292529 3.07230550041391 11.9708409749385 0
-195.459418443316 12.4525456160421 21.3167826394722 0
129.956652818381 -18.814803659252 3.33528384502705 1
33.5180724318955 0.35762928582223 24.9086120972015 0
-216.234946575167 49.069349245112 -0.891591933698025 0
-57.542586595165 4.45173812509275 9.18627672729735 0
-122.602763386662 -7.37408056894151 12.5080468584589 0
-101.503148361386 -4.54297720203276 -9.06264904374206 0
-202.175474705814 -0.15571259643578 12.5810538659759 0
-134.630638025409 -10.9730616377534 -21.5837617170267 0
25.7627982240247 -12.8486264372399 3.0909137923532 0
-156.972355996296 8.1320042179062 9.42866148794568 0
-123.544748335044 -11.4294198237119 12.3452651663368 0
-63.3491495926241 -8.24617459778974 -6.34061400004748 0
104.688491046628 -9.3566125062758 24.465193023239 0
45.0386276281945 7.98063287070492 20.6375398162383 0
-193.269670403759 34.3063671311845 -16.3875800398265 0
69.4152033622294 -10.49747325206 -1.28299614022351 0
85.5439470985064 11.1037305706189 10.3012652408482 0
79.7036228370301 -18.2864304187322 9.77026482786628 0
-206.114990955266 10.0444904853914 -9.26152905712956 0
-47.5060757668771 3.88840875275152 14.6045115770827 0
-77.3571030054655 -5.79468140233777 -6.66957538283954 0
113.220495897203 -18.481134944507 9.50739261900607 0
-99.2284908029023 -11.6532425177666 16.250073655148 0
-185.711050376012 -35.8117769107981 -5.5078388954041 0
45.8618831366365 4.33918490511689 6.16401964748721 0
-175.84079559425 -14.5866187716925 -29.6125162997411 0
-189.461497802266 -17.042400190568 16.8316785232936 0
-158.701675570216 -11.107081077643 8.36372421975413 0
-155.604020337142 13.4404638076177 -28.4202539236681 0
-75.510538597247 -16.8934177061385 19.0597320620896 0
-54.0376719396293 -22.6492138910227 17.3148889794232 0
38.6442626964731 -13.6580391445513 24.2429001237428 0
82.7885501363355 -11.6253201943002 24.0625053712594 0
-90.149919686665 -14.0783531355054 17.5912257845515 0
-205.603430026325 -7.44248838501717 4.65245432106549 0
-140.412956350229 -23.7669669926979 1.93990465595927 0
-80.1043982279676 3.96541840226017 6.69584007175184 0
-194.344278631098 -15.4651158684511 -30.2105283753502 0
-167.732999091529 -26.756692985079 0.616732212192174 0
-187.579854431855 28.5356422455486 18.8490773777803 0
-11.7983041568439 4.70006472427312 9.85172933512936 0
52.3055900887398 -18.155677383876 19.1572486457454 0
-191.264615789395 12.61843738788 -11.0221457136739 0
42.6630464893513 6.85284758869954 22.037277597002 0
-207.808031912624 22.8651527467671 28.2284890916513 0
-143.155767704369 -22.1351736920382 4.75369740627632 0
-120.384929297114 -25.3877474785551 -3.60000418936541 0
-29.3460153177812 -24.3289105335483 11.7438982508367 0
-183.724998843754 25.0606089080207 -0.816927173079248 0
-75.6163970925966 0.789557793250512 15.4909190373406 0
-205.619744365733 -26.9781333668401 -18.0568737537955 0
-190.885609094631 -3.33118776202044 12.9372978372759 0
-214.634868694788 43.8731079684588 -10.79802830977 0
-9.8690099188318 1.71419014006981 4.32120008108128 0
-60.1970585484061 -17.3033778376258 -2.00353935686909 0
-151.826337438276 5.87375572304078 7.61853283444698 0
2.20962975277383 -19.9088616823033 20.647000938994 0
31.605140465811 -19.4260665954636 10.3154630429484 0
-88.9938168679952 -6.3981638618522 16.7368630805933 0
102.673201655524 -7.70884269837197 24.9890319849842 0
-204.260847787 -23.6655641950714 7.14182238965138 0
-95.2764638596618 -9.79689048378054 -11.7925812320312 0
-181.154207982317 19.0691712075696 -6.25345776876488 0
103.100964764549 -5.24476667427784 -5.11880629022163 0
-208.67350942116 2.53587637822497 6.87510821944708 0
-37.6132424868527 -21.2030063301501 19.5742224396912 0
-53.0761058079384 2.74189868501312 5.67474002710975 0
132.258088521931 -18.9973010422511 8.99733635175944 1
-182.584991478778 -31.4788386020596 1.96078148939144 0
-24.7064586206968 -5.69154500478646 23.6831009292105 0
119.230779031485 -18.5245009552034 5.50669421873285 0
-190.240577311285 35.3687075887589 23.2026913168569 0
49.4429965157434 -2.77730429971066 -2.75177896710171 0
-109.557354916544 0.400506394431332 12.3596004970255 0
59.1806665806453 8.88352648233491 12.6372464472047 0
-196.728784283755 -21.2476950167317 -27.5338236136851 0
-223.775087902341 14.4739957617189 9.08619266183971 0
-202.971038254993 50.4695940568991 -0.11962781545356 0
-208.569128712839 12.4423788635681 -10.0946146420013 0
-216.799728804374 46.1442835286679 15.070959898222 0
-214.458820144914 17.2072829794173 -14.4703932884499 0
-27.1838055958952 -20.5777504077541 20.3189158477287 0
-192.945963451541 -31.2552518076921 0.979379952382484 0
-6.91707152243899 5.11646429081381 15.7549688168887 0
-145.771052410967 -0.0177869345081206 -23.0615363559594 0
-221.783319716436 44.5005521455828 -0.798737129574465 0
-8.38476520814836 -14.9989488640607 3.6616516577151 0
-211.287643556702 5.22426160245386 5.05800358296677 0
-80.0616230220916 -23.6895658542591 13.2122566579954 0
-43.0549685191849 -2.55313089162248 -0.538171667955481 0
45.7829926169044 3.42782657699184 24.2685852058772 0
-120.617923965411 -1.95150038492074 -11.9379291078493 0
-211.212819678708 -16.5757632884963 -26.1227725213158 0
129.562944620294 -0.517556883198338 -5.0052620755601 1
55.054877316154 -18.7915399877582 10.4204536726151 0
-199.972016069452 9.12858073122594 -11.2401388193993 0
-36.4669302649878 -2.29912626339716 -0.605245136755908 0
-224.712314598458 23.2548910659181 16.4279108705077 0
-74.1880322083152 -8.48302412394686 19.4466041805604 0
-70.7362808188349 -22.2252853518215 0.573159991502707 0
128.210976250219 -16.8697166431343 -4.61391156000881 0
76.7982974902751 -9.86505405865517 25.0237041982189 0
-204.527472720796 44.6247594258024 -13.6788278133177 0
-193.494914410679 -25.9798839050789 -24.8916874512152 0
-226.4685588511 28.1030238570514 13.916183720222 0
134.026441527883 -10.1846818544677 23.2361103413078 1
-0.832301350651576 -1.39569924499126 -3.75471912240471 0
30.7770980968419 -6.09267934423414 -2.86960257780586 0
-84.6687977475794 -1.57377161493434 -4.48969140280966 0
-111.384228569903 -11.5604070007705 -14.5386839271217 0
-177.116017849068 -14.0403796600484 13.9021536531375 0
102.242697843189 -7.0533766796301 -5.68043157902081 0
-164.949701950986 -22.8873671208219 -24.2811692965906 0
118.321978881901 1.61891954222327 23.6678808013648 0
111.522892958247 -13.0580497959034 -5.2535320425862 0
-180.326485845245 -35.8682628886334 -4.44808779830089 0
-47.2886490156509 3.85902089966969 7.92644809271135 0
-156.99239411343 16.9325967945101 -14.3410567089432 0
-189.702933718696 25.2556076231594 21.4513937854385 0
127.607643976098 0.4118417595098 -4.40857170286909 0
62.8473622124593 -13.7533296576502 1.87067134088887 0
-84.5139851912723 1.93155996830536 13.8127953761065 0
33.9038803510492 1.8381714966215 2.6160699953347 0
17.5218685418212 -13.8524731055499 3.57059923118148 0
-214.965919903512 6.31079379678818 9.74278101777472 0
34.0199155878586 1.95060641905626 0.609073989769923 0
-110.03137764033 -0.20581711140205 -7.07373907531317 0
-11.9929948815635 -22.9970357744984 10.8469665688229 0
-40.1736387350167 -23.6611144145105 16.2732560668497 0
-205.293464777422 -4.44255890328977 5.82508948577568 0
-91.8772863512851 -0.702264069067191 -2.73785341162326 0
17.5586050831911 -20.0171914481717 19.8580522369598 0
-175.877062570017 -9.95890020595695 12.8802697977146 0
-183.76906575432 -24.7045412222299 -26.3948846047089 0
68.4658376530679 -18.6688253450671 12.4760269928093 0
-183.984477144923 34.5547130079332 2.26039229347473 0
-224.42371300026 15.6081936743012 0.712440470962029 0
56.2633281872467 3.83219353041495 4.71256771534873 0
-185.817237983325 29.9394164160784 0.0545081372348516 0
-147.532713339058 -5.51207774727551 9.15257165478721 0
-164.525264609995 12.4035121522383 -26.022792971998 0
-223.920433508301 39.0370727884292 14.6754365670858 0
-185.795354263084 30.1633477493473 13.4954921740855 0
-51.7112929093934 -17.2108170250501 21.4256434687811 0
-81.8693990330346 -19.1096479142707 17.1823903760882 0
-199.973312141717 45.0173651418788 22.7403250619579 0
22.4680947348599 -21.1388025631951 13.598823964902 0
-192.091074624364 37.6449654765633 24.4559274313077 0
-195.839691910044 39.4990679842774 -15.5917047806261 0
-150.563013053366 -24.8541033645962 -0.90942236388089 0
62.9739592807139 8.61123882630874 22.0527067534567 0
-205.765663885659 43.6280389606588 23.9166265835765 0
-155.493107016729 -4.32320335132464 9.35285854602313 0
-225.100733706785 28.8421593545059 -7.34817413671761 0
-196.074822877196 37.5426557947627 -16.5676561979515 0
-102.674131464342 -10.4266622733898 -13.9544133464299 0
72.617078420791 -12.1724622628523 -0.600130088297264 0
-98.4366209003988 -18.0343705138814 -10.0903183147505 0
-121.444984639427 -12.6403247399588 12.5242607879594 0
131.583829139013 -10.0540104444253 -8.18264489411227 1
-109.621155952115 -21.3350340936351 -9.85249291384682 0
-99.0622805664715 4.81104111983911 5.90799349035718 0
-189.707081873786 49.2424243488935 4.71297014836467 0
-224.333792779225 34.8782095863192 16.898505482178 0
-201.307606080184 -14.0240992867292 -29.879615889168 0
-62.0325397978822 -24.6996710248719 6.60097239660287 0
-137.221245421339 -16.3364371038038 -20.8432051469014 0
76.6335886223564 6.45101304780523 5.95558588338855 0
55.6716068742258 0.987834418661065 -1.14959979910388 0
-182.043475431166 -35.6710113221332 -16.0211651687549 0
85.3751139850804 -14.3113007451808 21.9967301640221 0
-223.480766807957 41.2124411887761 12.2111748354441 0
128.016400179437 -10.4239057466155 23.2841613814677 0
-77.4535646995113 -1.00950019748138 -0.901485000006091 0
-196.079714918737 27.4607784920724 -18.0282498285311 0
-201.989452485559 2.07535565888591 -6.6623395433419 0
-96.3994419780615 -6.02951045367782 -8.93868853673056 0
-212.179521358642 -21.1220801633349 -18.8045661101396 0
-194.37965109285 0.120210858604029 -12.1267410500871 0
62.7141993613891 -13.044215628383 24.0844183461302 0
-202.632912691576 -2.3279249415848 -5.1380005640343 0
78.9244013459699 -5.17305512315234 25.6213003918599 0
-112.411679914602 -4.63029469042921 -11.1323457862119 0
-61.3270225024141 -25.2762847250634 8.79302127385314 0
-207.743397939201 19.3115130965431 -17.5653322569882 0
94.2511088628276 8.19155650327635 5.22852128819245 0
84.8835451473938 10.6802671405468 21.5979146465075 0
-176.119338960186 -10.7138762717215 -29.9340218219857 0
129.937892353252 0.858461713676836 23.1854390678135 1
-220.968166137665 10.6362635488877 6.68933554019379 0
76.19121116186 -18.0907024685028 15.9010865999955 0
82.1662725844426 -14.6907353308883 21.7572802250412 0
92.8627261472519 -8.62938714387022 24.9988299737981 0
-78.3946173928426 -24.0304863603542 1.51232534158832 0
-41.8087849267214 4.80842650644326 10.9472853922723 0
-51.7271747545571 -24.8405262332286 8.76940259932086 0
80.9884218671244 4.31104613548576 1.66694033501415 0
-202.723799812965 24.4086398002741 28.9323257028669 0
-32.8500779020987 -24.5621222458706 13.2624733722681 0
-74.1229095867689 -24.6223871987209 12.4163462819501 0
-100.543735963764 2.71170342127231 0.205614315553038 0
-176.712704811243 -22.6354386801584 5.09273916987413 0
-213.576583091148 48.893763324947 -5.21433275488098 0
-193.744567941947 -6.74177913265436 -16.7548757932433 0
-167.871940434325 3.07016228915471 11.737965390279 0
-158.90666098193 1.0943923713929 -27.2633409158747 0
-154.869614300957 -7.10429982408228 -25.1403514740762 0
132.153572402529 8.22449482411334 21.2947079697944 1
41.2538347801015 -10.7196863775642 1.16528163906909 0
-11.7547997071589 -12.4621463543457 24.5319282082261 0
-160.247136477802 -27.4366047337687 -4.97321290888708 0
-176.93714351118 -31.6130143974945 -20.929048925438 0
68.51806188804 -8.47312521562126 25.4173505818244 0
102.039360542888 8.52477984878219 4.09312678767684 0
-88.9979450904443 -24.8614914222343 9.54235266569413 0
-214.520748595189 5.81685911504949 6.49081898304728 0
-126.716296884134 1.76961598886788 8.29743309879862 0
-102.570209024571 -25.4316539348143 4.05647980098679 0
73.1306415953464 -17.0656869848983 5.04981691960607 0
-102.838126445962 -24.8558431832951 -1.80996367545839 0
-203.46718577128 -30.8124620113215 -10.5318150532484 0
-87.6221257167708 -19.639387591243 -6.58339495154067 0
-204.926523742561 -15.5079002984155 -29.2096574301489 0
87.5955821781881 3.89651503480861 1.12554091028017 0
-167.845648144389 -2.40430888244284 11.1141677848432 0
-174.49957014994 9.17591693621026 -13.3697658261093 0
-171.175822537266 -13.4671219609587 -28.6509613452342 0
-204.384564947396 -8.12521797377778 7.08314224139252 0
-126.110403042745 4.76908041046823 2.85614622517419 0
83.6971306556885 0.835482421419545 -0.91458138544234 0
-11.7229295362112 0.332729278937878 22.0460759894375 0
-202.345637616721 1.40325936643928 -5.26296304428506 0
-106.011703435102 4.93438574704291 3.79816186173116 0
-11.8797935313841 -23.5571281043689 13.8366722785097 0
55.0185712560728 -11.2470757562581 24.94713020318 0
-197.993118162456 -18.414444392596 -28.8990971671307 0
-34.3573970550846 4.30039484371261 14.8281020542722 0
31.025616913842 -20.8332874400942 15.5596450324967 0
72.0868086471339 7.86524797593775 8.51023082969204 0
-157.710141695141 -0.866350971261611 -26.6946764208777 0
71.8651513423992 8.61930365518998 22.5081701022664 0
-137.019778190275 4.922124183516 -17.1731182293917 0
-210.804284671679 -8.20580809536433 -29.8543336844735 0
30.1456056490974 -7.38500667833712 25.5763416615542 0
-171.151393367317 -16.3809204917896 -28.326071559972 0
-112.735980488066 -17.1023710339705 12.6918165452503 0
-210.743819438079 8.96928340048806 -2.75450683242764 0
-206.552122908697 -24.0038920095111 -21.7493619161573 0
-153.702991455229 8.55101002637237 3.83857509822462 0
-115.595142734806 4.49735102035279 6.46338756707404 0
-17.4312465264406 -2.68911987995604 23.1467994026472 0
-157.956026420967 -27.4649134445757 -8.43281545557478 0
49.2259492371467 1.39047910691144 -1.32438066349059 0
128.677554890886 15.7385122538573 7.15463624341377 0
-154.864269821582 -10.0644620489161 -25.4346953682904 0
92.1811459139221 -16.0586326491625 19.6320706452618 0
-208.233123067773 -26.3631643871708 1.49702140895078 0
126.293131719788 14.8195793162706 6.38693989826193 0
-214.105527022555 -18.1684459066952 -5.09366032002827 0
-78.1412659265616 -24.9131273619359 3.59358335236973 0
-171.01878858435 15.7227745320768 1.27042627047942 0
80.1622142803539 -0.254474243771444 24.9336951908773 0
-187.246100474362 23.6835885779063 16.5804848572243 0
78.4431591226822 2.90841278740205 1.06088579442619 0
-147.252088784086 17.4734358184106 -16.5431175303381 0
-209.652453070707 -26.2070221563283 -6.58136426780392 0
-197.615892145125 -23.1915605490003 -26.3525203291311 0
78.5401031022917 -18.1694628974968 15.1180699242587 0
-17.519176886314 3.71916186620393 17.9669414617394 0
-153.76906100658 -21.5154297741257 4.60667565957536 0
-187.025830711951 26.0850956231137 -4.11112092755719 0
-105.456460829201 -4.75651502106432 -10.0910073949151 0
-217.476544924305 19.6807045397782 23.2841544463198 0
15.3591739280226 -17.6240138848364 6.69254832275992 0
-6.29908660070219 -0.525991298276756 -2.84879397084493 0
-127.720498243624 1.51668186827782 -11.3136613303031 0
86.838613187452 8.88613283116234 22.7463579778257 0
-29.6019469437835 -11.7537744285012 24.0890590405626 0
-152.809413582458 -8.22478355370375 -24.7836908916308 0
-62.9418602764093 4.63337622500042 11.3560911611292 0
-190.220840367415 22.4718629557678 -9.59255468692577 0
-178.212124403082 -33.09700546129 -0.124812240406964 0
-136.237554083585 -15.0538242620529 9.4478774815048 0
41.3888853262203 -8.36876084227129 25.6540819422743 0
104.907360618462 -5.68758701183021 -5.29420506687573 0
88.2593298960635 10.7871210418768 21.6455133860593 0
-81.3893113733315 -7.57267947904171 -7.93742673633578 0
-84.3161957889861 -17.0095553249612 17.7798850579383 0
-187.918793145944 -24.7344368979969 6.90091999518895 0
-135.033366893718 -0.0424520116512563 -17.9459488585252 0
-188.112464311148 27.4098461179844 -5.22973920077387 0
-188.756738305955 -14.6437321103987 -30.7356138379096 0
-186.524709586265 27.7791039505762 -1.51401736351989 0
-211.133695065195 -24.0174835485018 -12.4343412771925 0
-51.8750634632965 -7.09642851317523 21.5335158550596 0
-207.467391134231 50.4853712785753 -4.48642810447642 0
27.026872047723 -17.5918706489652 7.22332421038886 0
-131.100532075417 -3.87943454727982 10.7090926539512 0
-205.993135870519 -22.7307069200431 6.87459881838088 0
-185.096032771845 -37.2589647043949 -9.46525191049121 0
-124.396593794558 1.14757741978434 -10.0688340217653 0
-171.183119690529 -17.0020510141173 8.70793929360289 0
67.4097193806942 -5.92155886764716 -3.92058275787789 0
-189.703117659039 -2.3173451228965 -15.0538931457328 0
27.477665010944 -10.0592587232613 25.3757603195519 0
22.3877157644586 5.36645554072775 9.43900674580894 0
-159.52595626813 -9.07931988933234 8.8997720243205 0
91.2028424993914 13.7298105848199 14.0640053486615 0
-132.408448697731 4.77668523103213 3.62196729604847 0
-132.45062860293 -5.78391419862147 10.8363696119935 0
-119.02312596001 4.66593730323535 1.77616039881486 0
-178.558549749768 -16.6029541128391 13.1714949709766 0
-154.329594603081 -14.3626502855132 7.73267561667102 0
103.628878955232 10.466877402219 6.07544372929451 0
-162.37920782067 0.693952652656933 10.1205748429245 0
-54.0627578764629 -16.7515561883257 -1.06085435782972 0
-133.371268970141 -24.6967101137725 -8.19250711368757 0
24.2431782324961 6.76537506007346 18.5189020520643 0
-204.406561568568 48.7917097994591 5.67965960296151 0
-180.215794009397 -27.0414232655186 -24.9555601295345 0
-188.558806013442 44.1039040921965 16.5379932287051 0
-18.4458497680348 -4.95580635908352 24.0106615684733 0
31.9086825639298 2.92226785593459 4.60858765203532 0
-198.965687705277 -13.8047594287427 15.3698400829165 0
38.8481146089066 7.6581113177675 19.9652970486878 0
-161.263022809938 -8.09886143309988 9.42276554569731 0
-188.541637768478 33.9706602825124 -13.1276128828867 0
-44.0453934496156 -3.11297562697094 20.9089123178832 0
-167.616888723933 6.29477104145518 -26.3868394951935 0
-224.890473691442 26.3209494782621 -7.61046244786986 0
20.2930611710313 -21.4428758705091 14.0110773873832 0
-169.183556726121 -28.4968332160333 -0.507273831119024 0
6.99288011089681 4.87792378274328 19.7399708363147 0
-9.97509711247743 -16.8190689231449 23.0720367056877 0
-198.173249012819 -17.3768112114767 16.2864980627899 0
-158.485687617207 -6.63622837645541 9.03736828214433 0
-132.839268227533 -23.1559541436864 -11.6076817019211 0
130.817495146341 1.45187139843996 -4.48397282392697 1
-183.628927289122 -11.3790988930088 16.757898698528 0
-221.995904906482 16.3610957871591 16.4649970778486 0
-101.437700942452 -24.8927415304611 6.1223734850282 0
-110.239739177044 -16.3455952081612 -13.03625493754 0
-149.874791545656 16.9671742356936 -25.6791570635908 0
-150.498344526176 -4.47744921596655 -24.1200116477429 0
-193.146379780674 2.04333883726585 -11.882137393464 0
-24.2473765520422 4.81976138414649 14.186950542703 0
119.651290331162 -9.58017246580975 23.7135214517739 0
11.7696940043548 -2.30002139796274 -3.28850289722867 0
-130.646580002681 -7.9349109511455 11.3776306051563 0
-171.494958183018 -24.0583768100062 3.54764170061338 0
-169.277970131744 13.560312995988 -10.9837696763817 0
-198.309447939991 21.2402471357739 -17.5122873232418 0
23.7404436217024 6.41201117723401 13.1729091979377 0
38.7929741314491 -11.6227290371073 2.03325452570676 0
-226.462657699851 37.8331064911407 2.86170028016138 0
45.2806993796964 -18.7542809428334 9.67247733684105 0
19.0905887507965 5.46611760665538 20.5876401921614 0
-221.155617345289 38.8746808845867 -8.6712891599826 0
-39.1211049867081 4.84782907606514 11.7160032095286 0
107.478468045902 1.61359389242651 23.9978595146627 0
-196.768490949688 -15.2415979350355 -30.1632504554967 0
-45.9886624084625 -1.79449072676525 0.266135556894579 0
-132.162616538542 -25.1311013392422 -2.8248693809587 0
-131.991125176473 -13.4048082715246 -19.7210675346414 0
-195.700327339136 45.6599988397294 -10.8921268221484 0
24.7107359603845 -9.52814889883209 25.4645935066746 0
-42.083530061187 0.637861252767845 3.31576990453555 0
-80.3298394706985 -10.2654377050359 -8.68185528716508 0
-169.346172268462 -28.2746942943733 -20.0506960291692 0
-208.42311722685 4.71594746987734 -1.0525212898853 0
-200.801891754879 -12.4048198509483 12.2826542589518 0
-175.499342718672 11.0499825636991 -11.6434671606062 0
-141.948904506631 -11.4522876997639 9.49388667773539 0
-140.802150219081 6.12096182670597 -5.4427837778516 0
-196.886585235484 -33.4273056669267 -14.4785408536925 0
-72.0625834564307 -24.8330661545023 11.9218695959143 0
25.8025525126457 1.3621207185513 1.79443930189842 0
127.141720435735 11.6077669669933 2.06737233975031 0
-104.700369885298 -20.7688009335375 12.1198822084229 0
-176.846759228937 -12.0739936393703 13.0911352653039 0
-31.1265246191046 -13.2246160594215 0.315189314661261 0
-148.310691023155 13.0507493007579 -15.182467520711 0
-184.464856391724 42.9042640227971 0.850013172970474 0
-149.683855740757 -4.64262536706158 9.01255163187487 0
-210.312123575881 50.9601034039005 4.43050739710807 0
-42.4207341833633 -6.75921921150563 -4.06643882680147 0
55.6176939591764 -17.6426112429351 19.6699759679045 0
-183.617314431887 -8.22623743455898 15.1863571619243 0
-161.376884745222 16.096668915387 -24.7469215095377 0
-185.56959901827 -10.4337828335409 -31.0088142189714 0
-138.885312856607 -5.37871863829189 9.99005737818997 0
-217.668929976434 33.0684463075121 -14.4853138269149 0
6.26461986812604 -14.203895771412 24.2931913553015 0
108.578445070445 8.93236970872464 22.2157982489383 0
-48.128285823855 -18.9885661838079 1.79092151222921 0
-188.927095013951 28.2029619994339 -7.11703968684131 0
-194.267972933966 -35.2190356688458 -15.4082813498677 0
-161.065817209657 -27.233410440631 -15.7352557013605 0
-169.439853212995 5.84023105915811 -25.1272660226076 0
-156.703401860944 -13.4818051105814 7.82911736418024 0
-61.0410857404308 1.82921015374081 16.074252284204 0
50.9304714619052 8.94579362997334 19.7454931820806 0
-186.691191097173 -31.7593313271771 -20.3243723821448 0
-147.090731117433 -13.166630358199 8.58520583951551 0
-187.311054880588 44.0991569729598 -5.21218898860551 0
-213.788465210033 47.7142944014582 16.0914240353045 0
95.0305654490525 -16.9710148420198 2.29148883552475 0
-146.776848063696 11.209815617921 -14.8296262744232 0
-187.765345072993 18.8215752381643 -8.70908347396857 0
-135.4764733994 6.01560974748961 -1.56862433881631 0
-193.40784450052 -27.0347251050369 7.17548191653238 0
62.7482506062199 -8.48326241250356 -1.8648393582357 0
-179.44117147549 -0.248844185965177 -24.4084538858419 0
-46.2008404745784 -22.8668696442853 5.9338007040113 0
86.8712935276755 -15.8898759314285 1.38780118625894 0
-115.556893569466 1.85577527203499 -6.00749878670823 0
-112.769379636709 -25.2985636475112 -2.37958232543717 0
-153.69622565767 -2.94807207008357 9.37161334815875 0
55.3970781070004 -16.5179868557533 5.67888782397494 0
-98.7667772999798 -23.0243260625532 -4.99228374572692 0
-118.754248776 1.829088678753 9.56049480584831 0
-163.124420897153 -9.26091061687649 9.56627326953557 0
-157.689271119075 -5.58809868890091 -25.859466943222 0
-91.7875936426269 -8.10306792339118 -9.7741319145427 0
13.5285841226864 -10.7867334403953 1.44506335283387 0
-113.498855897119 -13.6462512601748 -14.8250876020075 0
103.576929559506 -17.9633800019192 14.3198819494762 0
-218.863527072831 41.6460961083075 -9.1114166412743 0
-20.9093483658202 4.64252945479404 9.46442258312443 0
-188.109747517927 -30.6970677679887 -20.3003817398779 0
-191.079273080835 40.3253434004623 -12.6317262747011 0
-209.863877747239 15.9611440683209 -14.6741283906802 0
-198.897514437092 -32.2893730003274 -13.6832833975525 0
-90.1442099282722 -6.27214817937781 -8.75565634894233 0
-216.181933401245 -8.72697951767558 -14.405304348625 0
46.1650466609433 -17.2222759661813 7.01293612415524 0
70.5181323638172 -17.3212743692467 5.8875078156046 0
-56.2232208244338 0.0582371163682616 18.0186198799894 0
-122.653203439217 4.74827159038716 2.0767694176685 0
109.72305585541 -18.4275146874991 10.5214593390795 0
59.4618907729687 -6.5990152340602 -2.79766588400417 0
-191.841768556813 -9.52546640261826 -29.9562674442639 0
-198.451041175099 41.5475749178581 -15.2239641384581 0
-165.513981305121 -4.0772259085807 10.9080094983263 0
-182.705801410223 5.0957185916797 -12.9107363389465 0
-116.915419494173 -8.00270228672936 -14.9683880418688 0
104.337665396251 -18.4146793379181 9.54897583346246 0
-176.143540065817 19.0668104922407 -0.935571439259285 0
-203.587171490161 21.520160334466 -18.6415949681559 0
-184.670764423281 -0.912829440244351 12.1453582567355 0
-202.233473465273 8.39941006603304 19.3874630229766 0
116.154848778201 -4.93825037170889 24.7342490830937 0
57.5770419329544 2.65899918864843 24.524416315412 0
-29.4374587539392 3.67244913086366 7.57833834323359 0
-13.6976613146692 -8.15178185504248 24.9557846144382 0
-125.858629284497 -24.3149898244042 2.57484819528064 0
-54.1052639069731 -25.1469323263356 12.0657963758582 0
-202.655195382222 -26.3987210748734 4.07306131427187 0
-227.345570204153 27.445009433915 11.2694612903054 0
-82.8175921296406 -23.4974306435741 -0.156744531679258 0
-201.809882165944 -7.66880518826679 -16.4071872856921 0
23.8769646793844 -7.44683025500549 -0.821540931417356 0
-153.078607464441 0.0330912223712095 -25.7669898207881 0
25.1012219074583 -18.6169544707878 8.49886557981848 0
-190.222618643084 10.4055260790054 -11.0300439826571 0
-180.541902725164 -29.9948066716797 3.42395308744878 0
51.8779177575493 1.41651002747928 -1.2136781283122 0
-46.2118410689848 1.25089095252673 3.92007646662621 0
8.7388207098963 -12.6256584064251 2.70575089700661 0
62.969315324081 -17.6872267012303 18.7742634003784 0
-202.765498244255 -31.1325102493341 -3.51567260220434 0
-83.0071365205832 2.65964722493531 3.49129940837178 0
-202.645129233242 8.12482297403445 -10.2535128024972 0
-23.0214642307247 -4.11765672335926 -3.1308186720768 0
81.8822900038271 1.46657028676663 24.5529751437992 0
-210.99837923263 10.6675226278068 -4.015361078829 0
-74.4006910018777 -23.4162260519544 14.424339571953 0
-143.210727024253 7.68184719167118 -22.8666306631326 0
99.0729077241019 -16.9282931116772 17.7876689395208 0
-150.481909560623 19.0103968816065 -21.512318943334 0
-58.2260193979162 -23.4600870905874 15.878531552761 0
120.277484497025 -2.36788073128386 24.335143009498 0
-146.335449809033 7.4246202434103 -1.2513658954272 0
94.9443261361343 -7.71295394876692 25.1439247393267 0
-202.265054720755 -16.7850582773899 13.4369422289203 0
-3.87796842365266 3.67274840025115 19.9257124661215 0
-55.5919060378053 3.95548020982484 13.9119025393068 0
-199.571848022589 -2.03698968748267 -9.87226385795279 0
-189.053917135483 30.587643681884 -10.3139315348292 0
2.29950779611334 -10.6018766855799 25.0896398993728 0
