-179.480606763493 -11.5536112814159 12.388920617076 0
140.299643193231 -20.2658668971785 -7.68236167888907 0
-38.5605010505104 6.44619930353297 3.64810821038398 0
-244.397011414106 -17.6951179007585 20.563789523281 0
-274.404211875707 48.7345187999439 7.24031437180585 0
-28.0089782247754 5.27564343628963 7.18698063499617 0
-210.791815336485 -2.45354010151183 19.6489487494122 0
-268.529768137809 11.209694456273 3.49697845064747 0
111.302261472964 20.861815656406 0.00207171488358574 0
-225.668893057866 1.20316470668765 15.6377653875721 0
-30.1392559416327 -1.93497822061166 10.5452524829631 0
-1.4097481165371 -15.826372296037 -10.315350928917 0
-267.036107179777 14.7569285872632 -16.8607057519295 0
-171.428306798995 7.25963253936696 -2.93481662961744 0
37.2632238092167 -13.5038685397287 4.64074268676527 0
87.3626202267183 -13.8074340392257 10.4286913893555 0
-90.6017442343874 -8.76253519508848 -18.9379830250469 0
51.6911195412136 8.53941987901609 5.75834546350469 0
-278.916333757025 17.1172908361895 -14.4557984524424 0
-266.437316486604 -19.2175097747858 20.634969202239 0
-277.478366214321 25.3378518593737 17.370503238265 0
-282.956480180808 43.7347005091013 -3.3799375944558 0
-214.12394154751 3.36692791851363 -11.0863550824827 0
-272.091808256072 49.9993408029415 3.4623926447208 0
-245.327656276061 -19.39762270429 -14.8462405543687 0
-112.626931966192 4.27500954012318 7.11735354254829 0
142.006738289868 -19.8779491699552 6.39096680039958 0
-161.756618856484 5.59840023465372 5.02261716844007 0
-167.750686975183 -18.3952944804005 -11.3629486730726 0
-282.913131237171 43.8900290746913 1.17752790025151 0
-209.877962313401 10.0526872055302 18.0338977791045 0
-247.665602233928 -37.3274550887697 4.93513502111975 0
58.6695306114221 -0.288070287547185 -18.8344207298042 0
88.7450713789594 17.422416916465 1.82936960297513 0
-57.9587401992792 -11.3920175541909 -18.1694355927492 0
86.6024453799113 16.8065128755481 2.23886544503631 0
-24.3443596629486 9.69244036197887 -14.2067473594782 0
-20.6368865170215 -16.2828322741209 -6.95858044319054 0
42.4154171340648 5.51929239091136 7.1482394074213 0
-277.008607215118 13.7022444149756 9.01504031933774 0
-174.005809224925 -12.8603773826387 -14.4055053952135 0
78.5414058327615 0.705619745758044 8.98363570843477 0
94.497808219726 -17.7934136891474 4.93674653003757 0
-95.0628984392707 0.3721446139402 10.2764902882689 0
-259.358189713737 -34.6788693016009 4.93338678820758 0
-213.003865317602 -1.79923584202548 20.2852080194245 0
57.3222814199297 11.0428003490763 4.43315688238296 0
-105.863838320961 6.00452800113209 -3.10935808664031 0
-18.1984964566998 9.63456757777579 -4.71508411837881 0
-282.238750770697 40.5785367600584 -11.1084949419077 0
-42.4340224414159 7.23473938043685 -16.947664945418 0
59.4143278631822 -9.49460071803102 9.59479976740222 0
10.1415248631165 8.5753442169459 -15.9755842532757 0
-264.425004081557 0.958805793826744 -3.76404067068873 0
-249.121238391381 -15.274288534713 9.41078115288704 0
-268.95179414791 10.8530428091688 1.56999182969024 0
-232.174291126629 -33.2422712622511 -4.14387813739662 0
-257.670527096243 36.957702798726 -19.3045237885358 0
-198.273389370954 3.81846845582404 11.6426062410504 0
-240.761257646244 11.3098509842271 8.75132886603545 0
-275.289337804571 12.5345112535852 -1.4935171442553 0
46.4540416417111 -14.3026465137463 4.72291360888383 0
-14.2188861555112 8.07427697018825 -0.0312138508721741 0
-177.907530554866 7.64643721294709 -2.09726489904233 0
-270.082111098739 -20.5945798826175 -2.17401343535157 0
-229.653019846746 -25.5890062633833 17.0363624947869 0
120.38247832337 -14.0254743405929 -15.1968478182111 0
98.7228654863862 5.36724660593184 -18.270445409036 0
-70.9995417713467 -13.0805213579695 4.80802411809289 0
-233.510010552259 2.34983472330691 -12.16811589735 0
-265.316505314752 -15.3647087777362 15.756130206023 0
126.730028217801 20.3226623074503 -9.77916277528927 0
-266.257764807195 7.13871138241799 -1.62958855311846 0
-233.755439631146 -3.47305433140749 -13.4188888324996 0
42.1360622897042 7.85172669075734 5.86563571058674 0
-110.327356261113 -6.02585312374431 11.8811960963423 0
-198.800721220853 -2.51007694012984 -11.7409714987847 0
-254.272000110128 20.2264941760784 12.9266094827435 0
-205.818427205058 7.33003295946908 18.6597610006945 0
-38.9133043890002 -0.146488321015308 -19.5644917241996 0
-263.829563974512 11.1747060499359 -13.6274013581747 0
-263.78956243882 -9.09157510587821 -5.72484241269948 0
-270.139719120276 12.5629875461288 -2.94809851045648 0
63.3651802718452 -17.3178379089448 0.116562926000744 0
125.846104784103 16.9113807072203 -13.2945857451323 0
142.709983905667 24.7609543040141 -3.64977838990156 0
-226.739021821111 -33.1637656893239 4.84983389035193 0
-219.161206047848 -28.007610573646 -5.01815687963552 0
-201.950994197606 -15.1684877834449 -12.62450177847 0
122.310931704995 -18.9154216475311 -6.50107944374635 0
75.9666650110401 -7.90970850398057 10.318288586072 0
114.535103747886 19.0999639497364 3.38093667539499 0
-269.163580628452 32.9202915413046 20.0887046105674 0
-283.422112644654 15.7354372935423 -2.65975987888611 0
-36.1467316017874 7.6104038703238 -0.687930023787574 0
118.183562507669 4.23231409519151 -18.9062690132967 0
-257.137023164693 -11.9636324213519 3.95259002943979 0
17.6949401267274 11.265827180937 -13.8216172642725 0
-60.2470735936662 -8.06025087804946 8.14447650249017 0
-29.0127297380559 9.50321587420748 -7.04874544643545 0
95.4608480125309 6.62274198560893 8.01948007987672 0
24.1042539339242 4.20692819204422 7.62194674480061 0
-205.35174968562 7.89804430518078 6.13823924157842 0
126.779827136722 -14.5221033509205 -15.3566767510464 0
99.438819902551 20.4679036367038 -4.51855699810282 0
99.8171948209859 0.849827798590169 9.1570328236039 0
145.455231085951 12.0671728201479 -17.2677935877746 0
-287.579732012653 30.5437573310707 -6.34717790746078 0
-266.426503542887 46.338783882501 1.81565175611486 0
92.6690889629525 -17.5988222318456 -5.99659119869126 0
-159.670205927582 7.05730343639275 -1.213076492079 0
-145.172002355099 -7.18907921251048 11.8904986615436 0
-172.413653673096 -23.7454198626167 3.9829758503213 0
-277.968694713172 38.8077404631333 14.1960323623755 0
94.8518395419248 -17.951647370964 -4.56448286703981 0
72.4141331024126 4.861201247349 -18.1133472138248 0
-255.735730975067 -36.1125602794273 0.410192748872078 0
-104.922151420794 4.65944321397239 -10.9110791112326 0
119.796900456904 2.56694198178857 -19.216177808323 0
-269.623089781615 38.9492102469033 17.7282394122179 0
-140.551163609002 -11.9063206671042 13.1653506995784 0
137.213037377928 4.04158498375158 -19.2320293462318 0
40.3128554443416 -14.1873122019204 4.2154850992982 0
-271.230198452795 12.7707592876873 -3.55694328086238 0
-288.356622872893 30.0168446845696 1.1202071245544 0
-151.021508983213 -10.5398102709421 12.9397613264499 0
-235.486814967116 17.2606673688684 -5.93559456734989 0
-44.23366727125 -16.6367539100922 -9.58183888551071 0
103.419987364208 -12.7377691285591 10.8895205810853 0
-280.563997925856 37.3657660251626 12.9380297610528 0
116.068721497143 -1.26170973292294 -19.483721833554 0
76.0539653391751 13.3338290954402 -13.7301646438475 0
-227.175156535421 -27.716295587532 -8.88171437970983 0
-283.610406134279 16.0844851852526 1.42238969709064 0
-150.157014198585 -12.377645739334 13.2060444410639 0
129.02019892921 -10.8780687384082 -17.9375776385103 0
-219.183501073268 -8.34862744520301 18.0410294988146 0
-130.700086437642 -18.5142738422618 -10.5010883367014 0
-117.562730789043 3.11697560857872 -13.3631540173981 0
22.9124896878332 2.51419239550872 -18.1841689734818 0
-207.93466883814 8.27549716953657 19.3866722391887 0
-199.659778817994 -22.9713933424184 11.6106954412843 0
-172.285163920727 -23.1172860680641 -2.75170191390479 0
83.5188110843089 4.81548635798462 8.27168489069532 0
83.26516111919 -17.8204970683739 -3.67939246060176 0
-264.597599196895 45.3481106878264 13.1989125028556 0
-257.663630584407 44.6516055494859 11.2713521312566 0
-207.226893218079 9.51541895840483 17.2640109390815 0
-221.919514683328 -28.1855504182685 -5.94763122929933 0
-76.2904959525055 6.30984350215948 4.27183470922965 0
-160.441901496033 -14.756909038852 13.3515229745826 0
-22.9699302004717 -0.136489681566564 10.6112039408516 0
84.6006650408104 -8.56459245150184 -17.4468300027855 0
-69.77197404537 6.97313816399789 -10.906391686785 0
90.7596927228935 4.38621552637162 8.42330805906734 0
-24.886262085848 -13.0819567825449 -16.4372151616764 0
-152.613836147526 -20.6743996414008 -7.40022516894071 0
-239.89477902445 -19.2345029875845 21.7447826607289 0
100.162673820942 6.61290986718166 -17.8645049123523 0
-10.0931907502754 -11.7322182275293 3.98093534970683 0
32.2095599936495 10.5446349041944 -14.6290171347952 0
96.9187028980685 -14.6114000626869 -12.7448171790869 0
45.8244481275069 8.12457090472206 -16.289013265535 0
-255.058395004125 25.2607480927412 -19.4285282677009 0
127.876901914596 21.3331650738631 -8.18826290591336 0
-263.182995707853 36.4090474990969 -21.1866794980365 0
-3.13866114774466 9.73403462830555 -1.80790067667308 0
-242.821754367055 -24.4185299570866 21.7719502559152 0
-271.607357802521 34.6744393867347 19.0665995474421 0
95.5451326100129 19.6697049678537 -6.70011200981212 0
-256.711559799976 22.8668532194664 -19.8991344741479 0
-146.04337204913 -11.0887711367708 -16.4032357094926 0
136.53484016837 11.8345473992419 -16.9163044085993 0
-286.683165666426 21.8062495138095 4.23636221894482 0
-272.44544707655 17.8564410774278 -18.9405299581255 0
50.466748895565 12.2443520681586 2.46148185709097 0
128.025823018378 12.1699243571505 -16.318026311082 0
151.758334987859 -20.8541176544459 -11.4333201440025 1
-43.5957078937185 -9.22149355285402 -18.6721553761549 0
-279.414031966757 41.1990936847267 11.3436238816566 0
-47.2742466851909 -2.10853772239936 10.8272603761204 0
-143.422829926624 -5.01691712625955 -17.1223080544992 0
42.8939494626825 -16.902155202596 -2.57467333945326 0
-263.044335433458 1.15442040273331 -10.6500468826993 0
-251.892487517572 32.4159865516719 -16.6700760576778 0
84.0328440328435 4.00390432411948 -18.4998012425351 0
-253.737424027668 26.922442585292 -18.2618667606837 0
-264.672521067937 2.7096754600523 -5.3572298449941 0
-287.248654476061 28.2148161313726 6.13168228943115 0
-152.392774336542 6.72220179083728 0.0619638878339143 0
-231.515780752313 -35.6908615118531 3.96655631738766 0
-161.054428621963 6.88164936005774 3.32555064007532 0
-234.128263850878 -5.25176117485345 -13.215186365025 0
130.833520383448 -20.0353979694583 -1.54770670005736 0
-274.009747417147 47.1437876473584 9.89190169105725 0
-96.4148112966832 -12.1488246564485 8.88196638521849 0
-221.730390706635 12.4397042271964 -1.79506113972097 0
107.57018925372 21.0132048521701 -5.12329181803626 0
-288.469103643 28.4559869871666 -1.08839242557253 0
-110.454820789988 -19.8952615570465 -2.29945351350082 0
85.548345251441 -6.06149721263224 -18.4819741188471 0
-166.520954921317 -22.8641790677287 -2.07965571959409 0
4.25824159239262 12.2310256949729 -10.5302243119597 0
86.5965770549765 11.8056681718983 5.86183915958757 0
-205.747760212296 3.63794359902965 19.4070242570082 0
-227.020447927384 14.6512673524371 -1.21021580906375 0
-49.6876772020788 8.03537859224548 -4.74406137103583 0
69.557813617817 -17.205435576492 2.3304713161227 0
-46.9086164163603 -9.30572785046083 -18.6844445071979 0
113.188411177694 -9.50975473638593 10.8855373940189 0
-50.9256175331622 6.59110734251328 3.27396106793559 0
-252.336140988921 34.4302613146154 -16.9314745609481 0
-71.4660664658459 -4.09628970351049 11.0595878622294 0
-34.6144365694939 -3.38168273475544 10.058458736657 0
-30.7317305521577 -5.09324045504979 -19.3374565751043 0
128.638240040645 15.3404214277239 6.27329159407952 0
-245.154369048912 -9.1383452970356 12.4454643715351 0
-258.192570509369 15.5182085077636 13.1952464767899 0
-279.540146454346 47.8297906397547 1.83899388445796 0
47.7320060296753 -5.50489341089123 -18.2897426869178 0
-245.717422470814 -10.5828640418529 -15.7872604272043 0
-228.612373845985 -2.01743102847792 -12.1466692671015 0
75.0500534046374 13.5244193274494 3.88573586228386 0
-283.87642590381 36.1812092773149 9.35709454499764 0
-182.762950525643 -15.5201367775363 12.8964255405094 0
-225.30784104017 6.53040301736817 13.0952194693681 0
-129.775863196951 -11.4395832162375 -16.9446689934781 0
-268.52911945734 -20.0271720581682 -5.9130382433466 0
64.8164276046238 -17.0692634176449 1.94264063171797 0
144.174995260667 25.3396174998296 -1.84584196967328 0
-113.112626551705 5.48640583067486 -5.84433232202757 0
-39.2226221367789 -16.2245092911423 -4.72180436948902 0
137.108063490805 -20.5405535064901 -2.34723007085023 0
90.7281514305606 19.6841268399442 -4.56741191413829 0
-141.146825830388 5.7208761693026 3.64483018009355 0
16.1853764421244 2.01467183353991 8.7342462312026 0
-91.9118369127835 -5.04447467399328 11.7759165115099 0
-70.3773509807558 6.86699671940232 0.562752410111519 0
-259.984640165624 -32.1033247831944 13.0036696364291 0
-252.168592478111 25.1809577648486 -15.6368716027408 0
-251.717175471111 8.44011482859667 -14.281198354605 0
-263.884400063725 -10.4160374690399 -8.61377132982077 0
4.88303628513396 -14.9536867782549 -0.0654556930260213 0
-180.677660162992 -0.370272627256273 -11.7920851457468 0
4.41458084643177 -11.8705261193678 4.18045174944304 0
23.9583568645593 -16.5119831618213 -6.30413378946543 0
-263.290376631771 -2.38641919774525 -7.80984202105919 0
-2.19342631233822 10.2462894740786 -14.4841334975582 0
-113.190425373751 3.47051698982586 -13.0384136417477 0
-270.293897803779 10.7547625136246 -6.17603678891357 0
1.35674593107021 -14.6618552728994 -13.0911894414764 0
-233.908605819215 -32.7444193858294 -6.45350915336853 0
-179.718575440049 -9.02193315998027 11.9874051015261 0
-241.041896237367 -32.6867623161333 -12.8263354243235 0
-245.140210152133 26.5657890096961 -5.98715648782752 0
-88.4142686603711 -6.50532908213645 11.4419773447151 0
130.765026152183 -14.7849967971458 -15.5099289835488 0
-245.395235116978 2.02932410391119 9.68735517231577 0
-234.743138219174 5.38868332764029 -11.5228465916349 0
-58.8977792000747 1.9421643347984 10.2217507444452 0
73.1187611916199 12.2509616289292 -14.4117025673707 0
-250.662173886364 10.8270856838323 -13.9966774881961 0
-199.658950523591 -6.67967119009014 14.3847519199855 0
-204.830747200453 7.08794533726506 -8.20078759685889 0
137.137759927557 -18.2148236571684 8.17184887535497 0
109.188066876683 6.91681705672778 8.00212580371952 0
-55.2271515770497 7.16776383407301 -0.556921639058915 0
-164.168713926812 -11.8699190663779 12.7923685827253 0
-88.2308725502717 4.10691506739786 -16.1867169567939 0
-275.853058198904 48.9619038938865 5.49659513200401 0
46.9563309440808 15.9008005854355 -5.5845605969002 0
-195.492402800263 1.94286720628445 11.6617459188109 0
-215.118841432609 -8.67021921475811 -11.4267754735838 0
-154.302986232511 -1.85884757208052 10.0712207961704 0
-277.186402673876 40.6616904952436 13.5618026506368 0
82.8396422268731 18.0896212186715 -8.11473397404424 0
129.47474908839 15.2930454351483 -14.6647523950397 0
143.450380041014 24.0914078926304 -6.19897602660155 0
2.54386758395407 -14.6793980621975 0.459092163480776 0
-72.8611069116313 6.31691800967597 5.91913397593847 0
1.43920762879401 -15.9098363716325 -9.76967167970762 0
23.2821612336868 9.81262616755121 1.59440191321702 0
-44.4118884406401 6.57153683067065 3.33544189448475 0
-277.37923727598 48.920000246634 3.67204229592913 0
114.402350282317 -18.0217989499082 8.1052342972326 0
-160.17642762221 -12.3193050608027 -15.3385142025236 0
113.108118463706 -18.9249121443242 6.03174763233224 0
18.2144555867732 -16.3279043990888 -7.45837489356357 0
-126.786979724829 -13.638046513361 -15.9053452369027 0
-125.029099252509 -19.1618609368125 4.62345771508673 0
-0.340298185143249 -13.0817041785721 -15.1595087468597 0
-54.4457637638136 7.76345577038855 -4.14939115595592 0
-113.039372074856 -16.8067892459274 6.49514938930861 0
-235.429436198597 9.46855436924936 9.35689346298 0
-211.316432078982 -1.9036581162961 -11.0942167221364 0
-252.904350076398 -25.0697191660759 20.4036721060915 0
48.1209935435781 0.150637258159963 -18.7658887528442 0
102.178524374086 2.6343946771276 8.8716260862531 0
61.2964302850037 -11.5978564299035 -14.9243670830992 0
-242.31466458754 25.9516251744132 -1.50410431657898 0
-129.076889804852 -14.8662227746607 -14.9467714692337 0
42.5468389158175 4.63755905392654 -17.627758756295 0
-163.583608912445 -2.65211814450076 -14.680956034353 0
65.3301558916858 17.3488396832497 -5.99006434744669 0
-262.716632374431 17.0655646955094 -18.9979181773522 0
7.1725765488113 0.239202169063058 10.5848504545518 0
150.784170678256 21.7957400696982 7.56658425855382 1
-253.702005550301 10.8989044506555 -14.3901012004601 0
19.7825884940978 1.64661578526204 -18.3513313930248 0
-98.1277746046084 -2.89053311993445 10.8098046994092 0
144.847600185013 -21.1973714529142 -4.25916138431582 0
-288.253420610544 26.1418220458367 0.136761279656638 0
-148.432814910161 -6.78896467847654 11.7470065042421 0
83.2404523369405 16.8341336775038 -10.4508557898185 0
-155.360385115272 -16.2912835957596 12.521051865464 0
-215.879329206369 -20.298500922323 14.9899401474379 0
103.625784471273 9.91502959408317 7.28243774352797 0
-234.215911356642 16.7461067816346 6.25815048607144 0
114.230769768031 20.3395951769617 -8.20970971373995 0
117.977055027766 15.7042212306072 -13.7056496178579 0
-62.9014021591901 2.30428944189588 10.155731128639 0
39.6936194805344 -3.21495683986226 -18.7437135366515 0
-147.533308620366 -19.9507740264909 -8.86476426948817 0
-30.1019516985662 7.30464754960423 0.63329947199094 0
-222.60992525247 7.26321256706438 14.89844685113 0
-75.728985204117 3.25026376038986 -18.3725457056772 0
-192.753771058696 2.19248442741515 9.78084723097231 0
-240.945349591162 -23.377263773013 21.9529152656439 0
-251.920273891591 44.5590037843004 -4.93794943749829 0
-214.514281165581 4.77955524373586 21.6142565385123 0
-141.517259259005 6.24074887055547 -0.989002448711081 0
32.0991449158209 -7.49334486820492 9.11774227023381 0
-6.80842785531587 0.445637332439244 -18.8472681322899 0
-13.2938985494541 3.38793736877574 9.00767387922631 0
-156.201781356426 -20.7251634941892 8.95854930114588 0
-253.408566629385 -1.77897635888056 -14.9823132952005 0
-173.724264387901 -20.7322573210124 -8.45011349853722 0
-221.85104792678 -17.9916125202259 17.1041024976679 0
-1.19367532141636 10.8033125943135 -3.78750453463051 0
-214.035175452039 2.18226474574576 21.32228669369 0
-246.477174881743 -4.7790485984153 -15.5491220783463 0
-79.039656055647 -9.63315087123589 8.67018702667214 0
151.296948776246 -18.1573701619846 10.3251186238796 1
-202.188782345781 4.64468843922905 -9.79919339028682 0
-250.722470381156 -21.1946721666442 20.9271782558963 0
-140.359545532355 5.73852270573094 -3.8326238258525 0
-83.8050104629722 6.55997731024204 -1.41235860900624 0
-260.402201238722 7.73833675437367 -13.556182044221 0
139.761798952419 -13.2349607239128 -17.4690955644255 0
-263.263351842166 -29.0702014175912 -8.62158509494757 0
-55.4889983213235 -14.2723774457877 1.41536355290811 0
-179.502307660707 -6.94780218010464 11.7133241079295 0
-265.252594569902 -12.6099734539743 -1.20854954698038 0
-96.3265262152291 5.74018820541773 2.82178409270187 0
-245.58022613052 -26.2695553683291 20.4186962308378 0
84.7579788915053 -14.7568506915613 9.32348816823425 0
0.0583035939117948 -12.0311546944884 3.90331004951719 0
-267.380212299669 -25.0361915165955 -1.07650304976091 0
36.4428826266758 1.71877099664647 8.94533387849383 0
-23.7600116346555 -14.8215402622096 -14.456776273831 0
-208.049299815806 -6.31781119671336 -11.6329089885943 0
142.631878146748 -0.64281038453911 -19.7521413766333 0
-208.452758032705 8.79138392095557 7.84396326233335 0
-64.4579194403477 6.58585639432935 2.87103670132109 0
-257.132296798941 11.2463345627021 10.7108829452843 0
-205.273575311373 8.81780762422711 12.3492376460417 0
-60.1935001217631 7.79945454075678 -10.2248732792018 0
129.064384452992 -2.65362811517198 10.1943867902298 0
-231.518026898135 3.68914065900641 -11.5422753988267 0
74.2942080113227 11.685710677992 5.17087042143635 0
111.998031856692 18.6728582524363 3.39648705249556 0
-28.3823567760928 -13.7888284049049 1.04729672213859 0
-213.809548879985 -29.4155925461297 2.64782247631321 0
93.9361904821847 -7.2639280410936 -18.1720869327858 0
-184.565292716399 -24.7567323811814 6.28167699728377 0
76.1194615181504 -0.0434711378760969 -19.1549503749433 0
139.790757226503 -7.76814655200485 -19.3610416726398 0
-258.803644190912 15.0483983533797 -16.3753851110127 0
37.5940338762566 15.0647291102547 -7.72526599515316 0
-223.060168432385 3.36736044351983 16.320209216334 0
-257.62873239144 -18.4651526261324 11.3374431162 0
-88.9499443741299 6.16683336850472 1.07646106765481 0
-222.968617117734 6.74546438737485 -11.2409121835602 0
65.7206427797654 -0.88787451296324 9.23282471213603 0
88.2101018170949 -10.3299265231692 10.6986811859734 0
-264.047926452012 5.07504102155458 1.21014499198114 0
-82.4620219844418 -0.226345787629451 -19.5352781564731 0
-181.091478271801 6.4778053235268 2.09834738780104 0
-221.056496718269 2.71445170264861 18.2066165439179 0
-245.17072302492 -26.541724111854 -15.465850066325 0
138.715614116881 -20.6907403608464 1.44004132178662 0
-280.103143715903 45.4800057885901 -7.31169022092301 0
52.8528681889656 -9.18776820778618 9.16957687273514 0
-63.6596219208078 -16.3436685846966 -1.59931981983025 0
-35.2852364511579 -15.7349775483069 -3.02999647627227 0
61.6849860942974 -13.3588990179011 7.38243016842367 0
-34.2104793457863 -14.9824732158851 -1.16467791548947 0
106.439259661011 18.6213626822641 2.6378793386559 0
-258.203818002146 34.3339030702691 18.5444236606324 0
-4.53898358765761 5.42046391062397 5.53384325948987 0
-271.819594692145 45.739354303237 -13.6265430936255 0
65.562219905976 -11.1833960870206 9.36501878408353 0
-75.9455944634322 -16.9903575695395 -1.22083080821434 0
58.620529713109 8.28883066151742 -16.3697920850146 0
145.019309774596 -14.8168183444891 11.5279590223253 0
-100.460448022881 -19.0867941895603 -1.0322237859726 0
-275.188116089973 42.5260337261462 -15.5898873498054 0
-156.531976528321 -3.65553196146449 10.676968803088 0
-160.771209164299 -21.189591955347 -6.58343421871448 0
-151.262591351455 6.34987318855279 -2.14640846534517 0
101.427124588876 5.30470680046891 8.30300896339684 0
130.014138905562 7.06530471036785 8.27565852040147 0
49.3748225779536 -13.2438249879291 6.14410222163845 0
68.9623423426634 12.9131240774039 -13.7675791594305 0
-23.6636966864855 -8.47746270929776 6.38525737388829 0
-92.9776453066455 -6.21733554440697 -19.402415986449 0
109.33661934574 -13.7605190062432 10.7233159843287 0
4.11386188308155 -9.42660428131028 6.17462183872441 0
-110.952608486232 -16.4734217517702 6.48709536888472 0
57.9230436309714 16.3721211828813 -8.22099550437138 0
-202.688720043533 -21.3507515791472 -10.1846452901808 0
117.109311685255 -3.51082902643806 10.0868211040779 0
29.1322782905243 14.2009658621793 -8.98978816772452 0
144.942725899108 -15.2827954968951 -16.805027125765 0
107.154175829556 17.1295338761222 4.11118935209839 0
77.550983864876 16.0985068512433 1.7011350430079 0
-276.813373386361 12.0465833588283 -0.402796173514839 0
-211.642193283906 -27.0800743026646 9.56822726339494 0
-132.845153899651 -6.13478104970872 11.5488626306763 0
-249.566538587381 -19.3287610271141 -15.6707001425488 0
39.124938455647 3.73772907202691 8.06149713054148 0
-33.9661095428206 -16.5607863670221 -7.9294180215631 0
109.494209288435 21.2714287530882 -4.3462360405152 0
-65.3583071514421 -0.357087290939722 -19.8917364545249 0
-220.860649537629 -25.4891029260818 14.1114802042857 0
107.698141060455 8.46814406876516 -17.3317252175711 0
-252.389731912243 -18.6276323208295 11.6630975036459 0
-185.36093732912 -16.4834201677038 12.9439296839217 0
-228.263234987142 -21.2561253100536 18.3058715669095 0
-148.442616603894 6.24088381519758 -2.18539644114909 0
-280.290270131718 39.2194232905737 11.9501633492857 0
-264.968177270076 5.64392344985158 -9.84607068357612 0
-239.136778606786 -4.68942234962981 13.1470415310929 0
120.076706969835 -0.223072263975039 -19.4867405944917 0
74.5595945382748 17.8645680921773 -1.96714849654982 0
-279.031988363376 39.6497178646547 12.8672021721399 0
-199.727988991011 -27.1130934861638 2.91617955310259 0
39.8771823997796 7.7617631820871 -16.3575362194896 0
112.528628436301 -17.5146421444118 8.72568322469235 0
140.196636317261 -19.0831627699559 -11.4781269242666 0
149.828097872805 17.8219783123724 -14.7557956205707 1
-160.304889379336 -4.82037549198831 -15.5637916823272 0
-221.535111115937 4.53754624971147 -11.7442632734516 0
81.2557454159486 -14.5397235414922 -11.8907772037692 0
-215.469929472528 -14.9664785514013 -12.2225030582661 0
150.033652130514 16.067092750124 9.08586370960829 1
19.6118057269414 -7.90650364966652 8.1505503614724 0
125.671033222692 17.5057257536805 5.39774783478768 0
74.2857424827428 -17.6921039593221 0.419735382822999 0
-163.362659472781 -19.486948823806 11.2845067092599 0
-65.261428327262 -15.3300254618481 0.732993254832035 0
-93.6627317097432 -13.0269397108765 -17.0549760883704 0
-91.3006314006206 -11.9447188753623 -17.8147880684933 0
-22.1434531370069 -15.698821975147 -12.5336986939208 0
-20.5025955294723 -9.55463785890289 -18.2919189802946 0
148.662437770266 -7.63250083493697 11.8219323858162 1
-30.8331592464275 -12.3821004191558 3.02897334342394 0
24.6573667727837 -12.9487945013426 4.21245198747209 0
-122.219596890617 0.974405689358038 -16.7741149918279 0
-138.411059425947 -18.8602952187527 8.64119668428913 0
122.998578164779 -4.47598094950283 -19.473057710488 0
-92.5277517637671 -9.08623894119447 10.5160826800824 0
-280.859340158997 34.1934496300798 14.1917336836798 0
-102.388899621593 5.92556969082337 -4.86023759873401 0
-96.0124491475513 -10.4590124942804 9.85621014863071 0
-199.859031174984 6.93635388170183 4.55498766568711 0
-206.267560417441 -0.566372198635887 18.9126422181191 0
133.963138472387 19.4984720523558 5.10460539471446 0
-87.5280933128002 -17.9708045824134 -0.983420637588961 0
-60.9238635167121 -17.2331210283315 -6.52164666542274 0
-286.755910262748 37.4226635069577 -2.11497205262168 0
-224.868990952547 -17.6972621042105 17.9021984673969 0
144.568967015649 -8.1551211049961 11.5427680815286 0
-273.953566553905 13.6166023796782 9.99720080262295 0
-275.419785482369 42.0420297063968 13.7932625078027 0
-237.192861912785 -23.1283762880476 20.9934656809542 0
136.815966564749 13.5314760222204 -16.1387559940884 0
-242.942769759505 -36.6942718068063 9.29236823691586 0
-260.050329048335 -28.7374677294021 -10.7085713141108 0
14.5772214024779 7.96209447400497 2.87440501340508 0
-246.000298188137 31.7107461192149 -1.33390865237677 0
-249.071593543596 34.0212813246902 -12.4114271456803 0
-238.834399306007 20.5575420928879 -5.01769191606944 0
-260.083244076237 -3.90495863074024 2.16268998670707 0
-87.5237760938714 -3.72656010029976 11.329305480844 0
-39.9370506678832 -13.1144941698098 2.31141262482042 0
-212.437998290709 -28.4501560595023 6.80524057254095 0
5.57395571224292 10.0235662789671 -1.1740120403176 0
-157.577898716927 -13.9817084340789 -14.7794023836445 0
-2.75137622036518 -16.1510041222168 -7.37461947651413 0
-220.437149208763 -0.837306598880798 18.663731637069 0
-52.8728506012819 -4.30301472265095 -19.6542831873151 0
-152.987421844491 4.53666627276406 -6.43980136575933 0
-234.101128974717 -4.02972760151031 14.4012196406396 0
-35.853556674927 0.169027507340879 10.1468331024467 0
-218.239660314927 -28.8112685247193 -3.24814523760139 0
-181.392837973953 5.9904129916193 -7.11031633117959 0
-160.707444809092 -19.3725963823171 -9.93824264993973 0
135.561604514343 -10.2665636342628 11.4494055747324 0
65.2655638697233 17.3392105852534 -3.93108383806584 0
140.781439619397 21.8365562975592 -9.46952378637507 0
-121.402690602429 -6.18496457843375 -18.5172075255349 0
-17.2297670949118 -1.69918656559566 10.8974804157069 0
108.491223951547 -0.972236042600636 9.5985034138748 0
-262.983617235515 -12.1374444326753 -11.9601845097456 0
-263.944930098599 49.077251252941 -1.44652498580928 0
-257.60743252559 -14.1768025603394 5.2570779934452 0
-154.195627813565 -7.53866050181199 11.8074198281315 0
-202.085587629966 -12.0745604123629 14.0617030051754 0
95.7983777949996 -17.0333124126147 -8.2264269197401 0
-235.557020131423 -31.5094198556633 -9.51130309783068 0
-279.244577181534 48.1206214530912 -0.864085451720518 0
140.389465565996 18.7018844281103 -12.9899744622213 0
-67.311551893025 -13.2774616986608 4.17114575497125 0
150.789178735199 -0.887444443715182 -19.6394668260008 1
-30.1864877239357 -15.8101858080621 -3.29533510437349 0
115.452369851999 12.7156453400518 6.93197701755732 0
-236.341604088105 -33.9313196988276 13.9944799206717 0
-112.821364208005 -6.05536568708334 11.7754712388526 0
-239.686914752909 23.5932030104289 -1.05375238472971 0
145.650326637447 23.3267780529148 -8.37419690944774 0
-269.836322248196 -23.2065395853195 13.698117855586 0
20.3036255340877 -15.0669240296933 -11.8011015179836 0
-94.3238735183382 -17.8242283823294 -10.0375866348724 0
28.9876777215684 -15.4011589119538 -10.9709911240362 0
-247.362220547709 -12.7166804046772 14.433181564257 0
-106.67344237607 -3.99330572101736 11.4828812834278 0
-233.048917486565 -24.8211260966396 18.7887723701932 0
10.6830130163655 9.36381746493862 0.544835620957497 0
-222.337865473368 -12.8807186194331 17.7207269633173 0
-4.59818259234765 -7.76861286109135 7.2181502820531 0
-192.430285944741 -15.7640735303751 -12.8635988382277 0
-225.557995191825 -32.6693857947669 2.63693939182477 0
-253.030353796166 2.99810466022824 -14.5668983923491 0
90.7682617591568 13.2525351938749 -14.3761837282593 0
72.6121150864965 17.765497552832 -6.75285338817131 0
123.412281032577 -0.0613485339478633 9.66427572885621 0
112.96205081606 21.1624885473608 -0.391172298940667 0
-201.148656371562 6.45473823656928 8.96906821744424 0
-266.989428617971 47.0262673977026 -12.8913599596427 0
31.2685710799319 5.27574652355509 -17.4180716314139 0
-258.178655239493 42.6754034483029 13.8721936391104 0
22.2683135878705 7.16635993960769 -16.7218036999558 0
-119.112985049459 -19.1023636860881 -8.58863512877727 0
-34.3239651523273 -15.4433731477426 -13.6457974422035 0
82.4497574692029 -11.0685904229657 10.7217010643061 0
-246.662858738903 30.3052879251096 -6.68154799983331 0
-96.808986885645 -5.48063622475157 11.8011265217489 0
-288.192080905803 27.542914806636 -3.39899969451647 0
152.630209917204 -22.2670553227843 -4.35511576116175 1
-115.863445956471 5.59953057651622 -4.717096329997 0
-21.870088845338 -5.82449653301944 -19.0607623064416 0
-108.416005904501 5.46411360621702 3.58285071075481 0
-254.758684000093 13.9510030881267 -14.927855425754 0
-41.9233570938433 -10.5056722207939 5.27371813856262 0
-67.6522975249439 5.63030830340793 8.28760291644121 0
-278.981494524139 11.8168211871008 0.356562260973307 0
65.6076305155893 -13.9903261847782 7.27687354429039 0
-226.115796338454 -7.76587779614943 -11.4875359259495 0
132.660954912254 10.7701126104365 -17.1733069955666 0
-210.578920937438 -15.4683286192744 15.2284334902353 0
23.878671662507 -9.87038884123526 -16.8960692300939 0
-229.580573373118 -4.16792334794662 16.1980602525935 0
43.0227697321849 12.6376712971081 0.716948134402937 0
-258.638405390932 -33.1342896640473 -2.36774921495513 0
-274.678859366178 47.9773207437139 -8.57227453238769 0
73.797022643118 14.4944869509376 -12.5314491932989 0
113.482037628592 -7.14694280380188 -18.7556655857617 0
59.7554798599393 -12.5463883159422 7.85233890886992 0
-260.885174263682 -11.7796909609915 1.02208723839618 0
115.643095205153 -15.5361967753136 -13.1370146819443 0
-245.036139195106 -0.481823432488122 -14.2964487783832 0
-272.083589889707 12.0297611343772 0.838415924863162 0
102.268654287854 15.5438328947798 4.72886847307972 0
-162.943048443236 -13.0114162676565 13.3694732104775 0
-262.632311655987 -7.84355677184572 -8.18379414714052 0
-251.813928666895 36.1362096840052 13.9980376430642 0
-210.194310728351 0.994451528113483 -11.0755987599896 0
-281.234655279351 23.9848056402938 14.3913668696263 0
64.7850562348825 14.0523795322436 -12.5684914865977 0
-152.791108192608 -12.3481159281162 13.1941351091358 0
-141.178358914132 -21.3525475118183 -0.322515577485562 0
-159.110537786438 1.87622914152163 -10.8984914789585 0
-35.35096762658 -13.7323139111549 1.20635043997501 0
-96.2160168189664 -16.5688001714036 -12.6740913387348 0
-85.886256598078 -15.8925049509765 2.82431697907772 0
-161.463063524309 -16.3158482907433 12.9295526902438 0
-207.58017129373 -28.3096312377723 3.41136162622681 0
-36.542729309721 6.15590451958133 5.39038734353354 0
-284.418443400662 40.8408329962384 3.64428682775447 0
-134.916065417979 4.8478982771623 -6.5546436052566 0
-123.938738461331 -20.563515119883 -1.61756236028671 0
34.2974967188361 5.17813582657548 -17.4437746559149 0
142.371846261505 -6.83221249557051 -19.5687138636903 0
-212.261009578924 4.2116023704556 21.5428041006793 0
106.019035788981 0.531017808872654 9.33601253383871 0
142.297016743738 -13.8473923843682 -17.3746085192645 0
-249.906940056926 -1.75114454091942 9.05175460545231 0
26.9814849169086 4.92291803199135 7.08331193660649 0
-266.249309782695 -15.8664822188208 8.17614098037557 0
-73.723198465475 -3.34755229322564 -19.9010609997449 0
59.9206824170848 -7.87618133119676 9.95423231471894 0
-253.368614913802 19.2471255068391 -15.0389869365635 0
110.262000823925 -11.0595020214057 -16.8520669165955 0
-217.099066732251 -13.2305319977048 16.7356333185385 0
-182.313937803239 -12.3280643286956 12.4396607955417 0
-82.6835054816538 -7.01028922451247 10.7405275417531 0
100.291144923313 -1.75734040921732 9.59015900854362 0
-222.264344302716 -21.0224271713241 16.4763044433199 0
-115.344926686035 3.83352770450374 -11.431412495181 0
-270.33854112997 10.7469507456412 0.114589365521023 0
-284.07996922158 42.391569396001 -1.78807926804819 0
-212.675904324855 0.499437289273479 20.9917777525785 0
-47.0638186859038 5.85587852689754 7.25536915602011 0
-195.790188733973 -8.7507929935263 13.379895773427 0
74.3995755799571 16.2686365166719 -10.3952971775527 0
-250.429274044039 35.2338926401496 -14.7772177383571 0
121.997986809925 -17.895054998655 7.80505113376332 0
-288.02561144638 32.2571331073204 1.17386363826736 0
-282.666829688174 18.569019729298 9.39683673618216 0
60.3629604307608 -14.3272743546165 6.3269625390793 0
139.180452534004 13.6641374407165 -16.196530455364 0
-148.850793056975 -15.9031021423943 12.3020267807102 0
64.504933855831 -9.00780435310872 10.0078262535633 0
-251.330985033841 36.7707640987696 -14.9878588210938 0
-32.8547318527384 -14.0286606798893 0.698629105923089 0
-5.60180222809538 -14.8720844527019 -0.377883276973217 0
-53.0502764056425 -3.81621742457791 10.5784675101616 0
-262.130579350836 -32.6349070807153 0.0194874919180871 0
60.353462226233 -3.68289002682786 9.56072058386368 0
19.2401480248811 -5.75996410746221 -18.5707563947484 0
-287.944359080897 24.821622732632 -2.46044263558943 0
-103.450173381328 -15.1809438697396 7.01111233009625 0
16.8280757553144 -7.64416147832488 8.21959658647556 0
-122.574256948253 -19.5804253949497 2.74549431634408 0
-150.810141170819 2.20219626978209 8.24863398975414 0
-259.174460075032 48.1345360492532 6.81198421234918 0
-261.708337748143 -10.3524814342314 -11.5036839064777 0
102.220318667583 -0.946751095101392 -19.30978807552 0
-100.705280433393 1.37280436362139 -18.0649839241924 0
111.412823399756 -17.5275711935899 -8.90938633288513 0
-2.87562016948902 -13.4482386356181 2.30830382347577 0
140.750471291852 10.3912641259618 8.1465993700567 0
-201.147869859201 -16.8922730909951 13.2761523785877 0
-213.747306522524 12.0617062865579 14.208385930087 0
-218.495850191819 -22.9870492044964 -11.0082839267273 0
-156.823034792894 -2.19295693754949 -15.1062421347093 0
-255.584789991202 -1.33331418144723 -14.4328141175098 0
86.947558284996 10.2516224445304 -16.0383037004567 0
-89.6083986013072 5.10789845433918 7.04438866137435 0
54.2435516143645 7.85401231984097 6.26647834755533 0
-253.859564968836 0.661762366539286 -14.6726622592796 0
21.0452835507806 -11.711335796682 -15.7252829051201 0
115.746474186447 14.4396118869758 -14.4635715784793 0
47.2816708204836 6.52562620793061 -17.0452469689225 0
-20.5318023051058 -8.59378323476431 6.2950295557573 0
23.7020986575284 -2.06262640661886 -18.9206677933962 0
-255.445883297882 9.43466810583265 10.3024014671506 0
-172.247982369385 -16.2400853852157 13.4815066278852 0
59.5066172409502 -16.3313967047652 -7.72040726026989 0
121.000740506396 11.5259815503787 -16.3488009397812 0
-254.208319980218 -36.3512289260577 5.20168796495138 0
144.215053087973 -6.84782120223136 -19.5984900294644 0
99.4138708758756 -17.7115307913455 6.36669979811991 0
-229.962854245283 -1.23411487146819 -12.3642485295513 0
-10.5134634883062 7.52753023263052 1.43913363093761 0
72.1454266017638 -8.35712217827961 10.2537219109972 0
-261.457627659059 18.6602905185274 17.5854481445864 0
46.0046224880045 -12.3536063642989 -14.3502766662565 0
32.6864064318376 -5.40813198119356 10.4405092143793 0
-254.302574175532 -18.4288776900486 12.5945612814792 0
25.6523672077533 13.5630593728626 -10.4236216869488 0
-240.828118840015 0.308749376114869 10.8333447054519 0
-242.882639625711 22.1053092960771 6.23436590413313 0
36.5069120048711 -4.1724667348951 -18.7033967123933 0
-211.87066972637 -12.6891832006586 15.6960622838266 0
-254.676533407985 -1.33120030413485 7.62936568824984 0
-215.067610622546 -28.1381918852163 -3.00967669535041 0
104.813078185753 18.0724801365071 3.00110564882714 0
7.69893136616384 11.0005678584806 -2.64354118441261 0
-57.3728745458992 -7.06233129935373 8.65035648723236 0
18.2745674415681 5.55298339642314 5.82301481058791 0
-164.152976931196 -15.1040182653687 13.3538904822361 0
-251.444082109998 -4.47162764225178 -15.7494001221706 0
-269.118648090864 -15.663563948878 13.5949440340381 0
-153.676288240294 -15.0991645211529 -14.2708754862067 0
24.9612517477134 -16.1504397427913 -9.06527129514969 0
32.8671946296722 7.74240410156911 -16.3707622640976 0
72.0881073588678 -11.1198819439355 9.92276362292605 0
111.669091057738 3.68433766344451 -18.9072144974034 0
-258.338869374443 5.0779045258913 -13.939356127281 0
-76.0053861342122 -11.6224756847764 6.86778416809343 0
12.622812162437 -9.37234031475965 6.59484873276169 0
-147.081081189509 -13.977201386792 -15.1063650015651 0
85.6870874947647 4.9455096111501 8.27237761220693 0
-167.914639123532 -15.3162286384723 13.4620728379376 0
-100.30192181978 -8.90431293831425 11.3219309934136 0
127.479422619108 -19.5322917557619 5.67975917776152 0
60.2377220251423 -2.14188043230154 -18.9193525908127 0
-282.065591916818 21.6062424244567 -14.4572313488859 0
-219.663259369228 11.1586079511529 -6.01109045447738 0
89.8377729811911 -16.5799391834121 7.54252118830106 0
-5.81790473969149 10.7485034430179 -4.62614619444881 0
-49.632442209856 -15.12711351408 -0.660760165575695 0
-132.197519693299 2.39599307420229 8.63170674019919 0
-128.334164287146 -1.02692113348008 -17.5167618450267 0
-24.6151873436886 8.48188041931101 -16.0964022787209 0
49.7117831620938 4.27952698849546 -17.8171751376469 0
-255.298644692975 22.0719847875965 -18.6519035948897 0
93.3214917505432 -14.7885533740995 10.5049805561614 0
-247.79985113087 -10.9705272571055 9.61147153503737 0
-61.9765837398712 5.92401085236537 -17.0297787712861 0
70.0681350568675 17.584137525966 -6.60700601438374 0
-203.162804169786 7.62312870730135 11.0968966782791 0
-202.628257245115 -23.2013111077489 11.5394872484447 0
-186.416632935031 1.84106263714486 -10.5699609901546 0
-96.9124057175132 5.1478115385995 5.92977542079337 0
38.6029558110194 -16.6285330203893 -1.46858003423373 0
-248.910126965985 -35.4000113263343 -10.0769799977667 0
-272.613951404725 12.7318825353968 2.5084258168215 0
-97.0194434330265 -4.05304274518888 -19.5146725394535 0
107.829444635878 -18.6639783183431 3.8346425944053 0
150.215973252925 -9.08890203810535 12.272003177673 1
-284.47240833765 26.556928076998 11.230544081063 0
-55.1570550290118 -1.53306282547477 10.9105804243303 0
105.629177625103 -9.66149745746996 -17.4851531370148 0
-60.4018474268419 -15.6740155240779 -13.8138470596171 0
-196.962624216075 -5.79579626866177 13.6971009609772 0
-282.31317499284 34.3662839077294 12.396325347066 0
-241.689174006124 -22.7051326891248 -14.278076439272 0
-217.74709395927 -25.3175831392202 13.1910556020577 0
-227.638704003725 14.9515616079537 2.36653158524265 0
8.10731764080626 -2.06407605436527 11.1059208878573 0
-261.97692792615 16.7212615571606 16.0274083339754 0
143.643255285738 10.4389007141813 8.36516915659626 0
142.197746654186 8.23335289722844 -18.4370402453051 0
147.31115838344 -18.6323163209032 9.21988926387291 0
-136.782939976338 -18.2813313221385 -11.1401479135455 0
-161.63989231154 -20.8410916801447 9.83212100344637 0
-160.571973997459 -6.03781899078462 11.3331800305846 0
-231.977673370728 -5.86661849358216 16.078705784655 0
-285.639259968039 38.0865391115191 3.89507071471022 0
-119.47020262992 -4.16054686666905 -18.6983826995248 0
-252.014371486453 -17.4878907977232 19.170048515103 0
-268.093082251026 -27.2053088447429 1.5987711426147 0
-173.910586224794 -10.5037291103772 12.3091924790725 0
79.9780742819432 6.5796312222902 7.63495543090121 0
1.45466373388055 4.90880702812897 6.33985561219122 0
-117.539703883961 -1.89517932029955 10.7962187052044 0
-124.438560367734 -13.9558128300591 10.5993607883382 0
-246.725030906611 26.4619688577058 -8.29389827964133 0
48.6126071042369 11.1610568111529 3.41496120118111 0
130.677753907684 -17.6937919663622 -11.9924200518407 0
-179.836157037816 -4.67271783772488 11.2047041011942 0
-216.737808400901 -15.558257599796 16.2445885600037 0
-223.559232686273 -27.3652968901447 -7.78009929839407 0
-70.2378259860405 7.18985550934262 -6.56759690017183 0
-114.518652570478 -20.0129268705948 -1.8811657203781 0
152.917645823791 -1.34476719261849 10.9155651545508 1
68.8059395155717 16.61137900233 -9.06352989126765 0
-80.6126332014376 -10.2496185465785 -18.6038174656608 0
-267.169932634381 27.8161141959885 20.6855232596932 0
-288.157937646608 29.9592101465376 -3.91167307239095 0
-128.4721209726 -17.7836527059171 8.27091148256518 0
-46.6804775676367 2.95413169515471 9.25855318028063 0
35.1035985846344 14.5817783037992 -9.15892306342626 0
96.78228356075 -8.92733021037516 -17.528450167377 0
-229.691797721197 -29.1392149224088 14.4459737433177 0
-176.671888590928 -20.8453693733356 11.3715182425865 0
-244.457010147873 -37.4092677713139 -7.6828574305383 0
20.0952572987492 -10.7348265710762 5.83363601991532 0
-245.082910148213 4.24654192039806 -13.3966083696421 0
32.7311160945014 12.9765757681633 -12.16760039651 0
-173.607849427 -22.9867470811091 7.75991120919913 0
51.9319658695767 -0.415241086647395 9.17594347088405 0
-229.600928044684 -31.8136171070482 -4.69005023598624 0
122.410119821978 -1.99262657036222 -19.5987804719093 0
-225.417551905984 -31.3914728267735 -2.39772648144306 0
-117.182855813071 -9.90622854232485 12.0518427023352 0
-219.928711302115 -5.74310441948873 -11.1775590075479 0
125.120673211324 -5.54495134806161 -19.386323311511 0
13.8741163735659 -4.75487807666922 -18.8037141825487 0
-82.5047030568003 -17.4351290485242 -0.852356450012464 0
-260.306880107578 -32.7384730990883 -1.43536134513994 0
-266.561446429285 -28.6355385264277 -1.17397965325574 0
-260.367771019178 -16.879997628377 17.7142530900757 0
17.0013295547861 -2.60523336769494 -18.8306859160002 0
91.2340332471717 -18.2665952571684 0.03271974991593 0
-63.8432252432545 -9.67078151846308 7.19855949499056 0
63.3409158487967 8.54208053674679 -16.3424434005453 0
-276.541178704795 12.347196894555 3.85870503008171 0
-93.2754640497928 -15.1641941811566 -14.9868352957245 0
-53.6666750716809 -15.5029330343085 -14.445018968567 0
142.205587141846 -10.658461215803 11.7979014754543 0
-206.35677889292 -7.80240169545192 15.9612823632518 0
-238.915672018731 -10.5600017388477 16.4840844703459 0
-29.2801753496432 -2.0881905229133 -19.3928435679105 0
-53.4281756384195 -13.9045513986418 -16.5445076995147 0
146.371530646236 4.7291272448591 -19.2500602374555 0
-31.8025515297849 -2.62052605387631 -19.4761425840622 0
117.888260237127 -12.1666213599012 -16.5172505555507 0
120.874445250517 -18.7584464655722 6.64745278970848 0
29.6180830315245 -10.0733313574528 -16.6309747827715 0
-185.035087269215 -3.43598151444757 11.3921367550062 0
146.135459934357 -6.19333497527366 11.4357660798689 0
-159.029038577463 -13.448134193224 13.3165134813646 0
-254.898600286935 -35.8347804681155 -7.34855704017267 0
-228.778585356704 13.5154400955621 7.3772592099425 0
140.271673743721 15.3118208219931 7.26134073812905 0
-213.633073537243 0.246247734799772 -11.1947934172438 0
-170.188953186628 -11.1536108802346 -14.9184845459041 0
-287.466916329344 22.6516273988994 -0.942575089130453 0
-275.722613137181 14.4908372887898 11.3769458229282 0
120.532213332854 1.35131057336574 9.30928146669314 0
-194.290383671297 -19.977682040762 -10.8771987765777 0
143.734554156529 -19.4472036865643 7.52889025678836 0
-144.417073822403 -20.7492657019841 -6.85426575954065 0
-168.002364760197 -17.2502202176326 12.805196780115 0
103.656499524744 -18.0435500699035 6.21270629690044 0
-255.786952510939 33.1034553777346 17.7133479085398 0
-155.641557479239 -5.81016917439638 11.2438016798618 0
-285.926164346102 39.2073615895603 -1.79969375907727 0
-190.253932402797 -13.1007141635912 -13.3566993240273 0
-227.065388239096 13.5594297363465 -4.90693917582125 0
-61.5057624494863 -10.8770667388017 -18.3907404758348 0
-206.110381165656 -14.270234793382 14.4622597527303 0
149.805498552341 21.1115573845285 -11.937630285501 1
-244.602799680519 -12.7408530261391 17.5692695652883 0
81.4554989190238 5.26816056836271 -18.1299757581853 0
-205.494276151473 -19.2973868593844 13.2879594687024 0
-245.729596943124 12.8893497111328 9.31379411747907 0
-15.1501710432909 -0.343962655606728 10.9214310698974 0
-69.9021491227001 -6.3876916493987 10.0421188851349 0
50.2360462720873 16.1390882659871 -5.06123927180208 0
126.680809962462 -9.71923698157063 -18.3336049466981 0
152.786778926911 12.725682184227 9.48184617200898 1
116.459816953358 17.2307513982098 -12.3876135217157 0
-171.842058676462 5.40316603974071 4.10205728618008 0
-137.018789663363 0.551884790021618 9.68278086924316 0
128.072889165409 -19.2642189652406 -7.09266604752631 0
85.6149734178302 -18.0440510721401 1.25126764340765 0
77.3745406376172 -10.537048730576 10.4792908833443 0
151.080298197273 -21.3720481009592 -9.17620335521622 1
-174.075329613197 0.321659383451178 8.26617241804855 0
37.7878420052974 -10.8049730265841 6.99797896560529 0
89.641022340802 -6.47359777528037 -18.3842036187964 0
140.496036204781 -16.8402451570945 -14.8343593999258 0
119.466623268148 -19.2088635932342 -2.55222386038467 0
-258.175294805088 2.42680224174796 -13.3419798641202 0
-213.949821697062 -29.2219289793459 4.94212798047117 0
115.375430493145 6.71557455729325 8.09544418610767 0
-188.397676797643 7.50753150366976 -0.735592213376054 0
118.487696763206 -1.54820095414283 9.84190546868095 0
-6.89082763507276 -1.24355176299483 11.1509326622505 0
-27.8762480919372 0.302467781214972 10.2983998456519 0
-258.993725825917 -6.66751286573357 -13.2463836841336 0
-146.052967103483 -12.5319099874189 13.09521058907 0
73.9569357888447 -11.9901963700848 9.74347102865362 0
100.124701887449 3.26427379913366 -18.7848118776273 0
-2.67380441265441 3.05846596968075 8.95347178087277 0
151.058761484967 -15.919380349433 11.9865250663537 1
-262.368827632939 -31.2374386376928 -7.24954372840174 0
-250.364203985481 -37.8800912178173 -6.19510583361737 0
74.1221468189523 9.2097490835744 -16.2457366798546 0
-282.285392306593 14.2159585396015 -1.62585465869446 0
24.0260105353928 -16.2834331377471 -2.5022209313528 0
-272.793397067973 12.7520217788395 -2.30125133008829 0
-168.596409772882 -20.6790210875221 -8.22143929105422 0
-187.257554682541 -6.4853209381415 -13.3785646765196 0
150.816739364195 -21.4028185106696 5.93545544959078 1
-100.109643416417 -19.3423606950805 -3.89507924150584 0
