-203.215400022251 13.0955446509948 13.227406177978 0
-198.609760296155 30.6183185649835 -19.1408756132777 0
79.3713747774532 13.1046203562541 -0.577931310185481 0
-205.110557963823 32.8032921552786 -11.972226126068 0
120.19960229787 8.51475058429591 -4.14144047950425 0
-208.130496057668 4.3954547659337 -21.1293819721564 0
-233.891457795744 -38.116936629443 16.1427635083054 0
71.7821073158601 18.8262452691166 4.78501103175126 0
129.554992088681 19.3331431895164 3.54231683565383 0
-134.695076603331 4.44903465235899 10.5895358135343 0
-201.33775604833 4.61605646723429 -24.1418663401478 0
-55.357577328884 2.00411418450184 0.668736881124048 0
-192.876804267668 -37.2940524198073 16.6924600053525 0
64.8381599341837 16.8826111102734 2.65150306552747 0
-207.952569489539 -55.6268463496201 3.56858666002498 0
-192.394868671544 -30.7443664213508 11.2068308539349 0
89.3834231513401 4.47138008695116 26.1145346742153 0
19.5712832347142 3.17660915947509 -1.51042132992389 0
-211.46002476503 9.04861010003439 -30.4565493880387 0
-60.3529980316586 9.32219348946086 -6.38046019114235 0
-194.949693816719 -28.7096557082119 19.6086667256784 0
7.7052350237065 13.9873128441667 1.25176251020235 0
-60.893510065048 0.509371470868622 16.7635403398258 0
-195.373317668346 36.132201202619 -14.9365472836357 0
-173.843368953663 0.261789296434298 9.23924719675705 0
-120.704243619325 17.2149427416878 -14.3485992184138 0
-224.206090151007 -44.0446038393136 21.7718175446561 0
-52.5975068463657 24.3494495870945 15.8233796439489 0
-204.951890680976 3.62010555106453 -24.247757361494 0
-150.41266113969 0.246674970936608 9.26811782337805 0
-56.5427304613638 4.826345908061 20.6880129445687 0
-200.723614530044 -52.5334640718436 -0.0318083377428776 0
-50.5523949202892 22.7227066860149 18.0191624092298 0
-229.404858761336 -21.3469001173615 20.5115706458094 0
-188.864077389619 -20.4303078015595 -7.64091541240849 0
-71.8279192655008 25.2873817029851 -1.63104264585094 0
62.0017535749101 -1.92494848683665 4.37239183059888 0
16.3085666041544 8.5432581907533 26.0216910382688 0
-236.226284472202 -28.2224149569716 13.3198263645615 0
-166.726468642843 32.5865843162272 -6.64651773602628 0
-30.6941979317857 26.3375536162163 14.4287239958079 0
-44.898579306794 26.5939124044724 11.5028902708795 0
71.1243275655943 19.1790069938397 20.3520881922407 0
-200.892277136362 32.370171315339 2.10823620255753 0
-218.983841832718 -15.8279330888024 22.9982178446886 0
-122.53966568064 -1.28294017564283 -2.33750014007509 0
-213.90584623377 4.27568094918403 -15.4349458348805 0
-184.242471229481 -14.1198276985294 8.75516536547048 0
-132.419797458071 14.1102185780701 11.3347481634742 0
-20.6861908134404 -3.16317816608783 11.8422418698603 0
-226.822360973761 -51.0663151774532 10.0685503017837 0
-158.448017223616 2.84544988693983 9.78693231514968 0
-222.852060024922 -10.7393464513194 3.14312445354473 0
26.1928175661975 14.993715994541 25.1024812762178 0
-227.493954300451 -45.7206504154868 -9.57938947333808 0
-125.867557360538 14.8649558451092 12.0651196975981 0
35.9471184284436 23.4744304894241 12.7720205027131 0
-209.983456763137 -9.63007683942383 -9.00612312126698 0
63.5206246435948 20.7682794288178 7.94802489523194 0
-170.049975878076 24.0345739076969 -22.7344719137627 0
-194.769301272531 -8.04679010329099 13.2873211827027 0
-203.294524884408 3.26857441275392 10.7766758303128 0
-207.599637813545 -18.0239381755379 24.1820118492331 0
-221.568530940951 -53.1829430656663 -3.7484676994799 0
-169.181068531379 1.39668297024282 9.06059509054593 0
111.91377380409 19.4479465045115 11.1511810258873 0
-180.25170979329 -0.464878487405685 -25.7721538291642 0
-204.418137251918 33.7558126371418 -7.25288878428842 0
43.977035911778 -3.02463193433485 6.46372911327651 0
22.6558777208827 8.2977250220834 26.0198007469232 0
-117.662152095567 22.9868748786354 -12.0500774915023 0
-169.434198050284 -10.8463596208597 -12.3654791327729 0
-215.138405124716 -16.001405748386 -12.48724541705 0
11.2935010602149 23.9899914968789 18.8893362852068 0
3.29549680526161 16.4107695757167 24.6139773813101 0
-227.288251561259 -19.7837380906932 -11.9565280728071 0
-212.744378242277 -37.6496663705828 -19.0550699984944 0
-214.18212400111 -43.8370869089111 25.4578038825889 0
-88.0240226956021 26.8119836055837 -3.60991148186978 0
-54.7920453936789 -0.454101807259409 3.82954896638945 0
-234.665451841916 -28.5590926794898 16.4149018283833 0
-165.439495673441 5.457226104126 9.70205560330852 0
-174.275682684121 -13.1106954535721 4.18622476345183 0
102.324141656164 0.300408083123706 25.083617053259 0
-213.779673818995 -7.33371507332162 16.0255715950932 0
-211.945901611602 -11.1143037652759 -8.54311230620049 0
63.9989664754704 18.5914205670023 21.9023932976398 0
-86.4933698864754 17.7806205327873 16.9194909295462 0
-221.821552650504 -39.6979396239895 25.6903652834997 0
101.541935520752 18.8110929759274 16.3221381467726 0
-166.943853883004 29.6427982590572 1.99800139124911 0
-169.369372374786 -0.53400037185311 -25.3994335061273 0
-110.069269664326 2.68033937528133 11.6184751240822 0
120.884635341171 9.72142968323472 24.2919495631273 0
-233.555093155345 -41.5605632845011 -5.23926364800671 0
-164.343318179586 28.8460285346277 -15.3170384934881 0
-184.124393235779 41.2423212857853 -8.11313653241932 0
127.689577955658 5.07454938786072 -4.05187298969835 0
-201.737163510866 -17.6208835534341 21.2618159523486 0
-214.84176921811 0.075208254925992 -22.555881850534 0
59.3221121542375 2.99577646433386 25.5472683072615 0
-219.97572311423 16.3851624091091 -17.8802878490711 0
-194.541985863913 -41.9458666277749 -2.54611600224142 0
38.632430496286 0.591779506398783 2.94318844090915 0
-217.928644461657 21.8654303819677 -5.80940687401589 0
-160.254272612326 -10.083422380654 -20.7964184921097 0
-194.474419743463 3.92730475128433 -27.8524215099498 0
-137.60479723534 -3.46951402807856 -15.8207483340259 0
-205.061509834879 -53.0978822928831 -4.27146917116568 0
136.689153155603 18.527354447029 12.7079357784429 1
-191.887683767769 -15.7290139524511 12.8964801121388 0
-60.3955175745474 5.50454678548165 -3.68243037917583 0
-229.886138418535 -14.629153867124 -2.40971675368498 0
81.8414342340794 -9.51372356791297 17.9032631363308 0
-213.554742579198 -53.9168841056032 4.85145392295691 0
-143.606252952748 -8.65746009067812 -11.1480907046022 0
-119.994069761597 25.0535559841494 6.13074911909976 0
45.1621609782671 10.5892938440698 -0.0948494906239466 0
-144.384380872017 4.01466029500793 -19.1876598239412 0
-226.703878175735 -27.0952947242553 -15.539148561701 0
-80.4996639272975 1.14068172734739 -0.0350793376903805 0
7.65093936739799 2.43014872295548 24.4810535224203 0
-58.1365408275636 22.9682969032271 -0.477761466909318 0
71.4013974029261 -6.65642563704361 8.29949170764613 0
-215.740206958748 -42.0456705110826 26.2830904685932 0
132.301878133405 -3.92476283990446 23.039018492299 1
133.855812347033 -6.59718538348543 -1.49630019572034 1
-213.363388499331 18.3173590643896 7.71633606795074 0
31.8011445969123 19.4971552049064 22.9025128113246 0
-217.216895259271 19.7803387929056 -17.7154780867225 0
-146.429824437085 -11.5274430212265 -11.4172127614591 0
-27.9545314502879 13.572887150354 24.3753564604788 0
88.1859953857478 20.2736054650866 12.5022044087139 0
-81.5111684679153 26.7677879587918 -2.15183057409593 0
18.1623462507608 -1.14573882065377 22.7082500106713 0
-31.475389234382 10.4815209310909 24.271737718425 0
59.7742328011997 21.8788819383551 11.0613787865818 0
-219.882012254721 -35.4860063056995 27.5908587209556 0
-165.407380694744 10.8135172964063 -24.2818383947158 0
23.5691148566934 18.9686951345907 23.3387093271941 0
-232.545944920981 -20.4789567795416 -7.56246204533744 0
-235.28681117214 -23.0868853522971 12.6719022036987 0
44.8973962121421 4.58749788021473 -1.9195884632597 0
-231.029681514558 -21.0376304097262 18.5527759468757 0
26.8186681890282 6.54344036307442 -3.21136125848463 0
-165.225711875847 20.950708665427 -22.5819637037943 0
-9.8060298042946 24.9417979409531 18.286020589612 0
-144.925088847674 -2.88681032857388 -21.1927940253455 0
67.8154655357276 4.99515926801999 -1.17527346402085 0
-194.432892734591 -34.2613583479786 0.991862751134889 0
-112.100812498751 16.6869012685963 -14.0111934487312 0
-183.481589579502 41.2009497319726 -5.59343058698361 0
-160.823772832703 30.6951218001653 -6.82016863410043 0
-215.191655947392 24.0071046878552 -15.296356961659 0
56.7568896640634 -0.6439846292716 24.1918361752639 0
-147.553217614308 11.517994788698 9.27023799991857 0
-191.417763522501 -21.6378862001325 11.5037989538784 0
-159.861722819759 25.0522432335644 -18.5954625901788 0
68.0674419092791 7.81654558976261 26.221853877787 0
-156.89152651204 24.6964558617109 -18.0975824067071 0
89.0528710585014 4.37165364021257 -0.956485988012248 0
37.6947889601381 3.56604460422852 -1.92545479468862 0
9.61879082374377 -2.01523902743216 7.50726554499621 0
-169.779324331942 1.81702411660727 -25.9465526462889 0
-192.142090389926 -43.1641285978199 7.7356330553735 0
-159.878049710807 -1.05691798287609 -24.3560844614434 0
-15.585017280094 7.68598768781763 -3.36399553142848 0
-149.194278628735 23.6909726776751 5.5563186865927 0
-188.404035556048 3.11561872353996 10.7568610551244 0
58.3424477684338 17.8550163742966 3.64783864792616 0
-110.331705589306 -1.74002327093223 4.95289300312306 0
-208.321179147425 -51.8141559255928 -8.34132742436551 0
-157.691306518971 -14.9788758639243 -15.7148750269274 0
-225.721780641469 -39.6952639014823 -15.0588757114265 0
-105.568228727566 28.3996397652884 -4.4711904335804 0
24.5032559499009 24.3005164845752 16.3137203018677 0
-211.418209222072 0.0183446819812636 -23.4942295912585 0
0.642181208591438 15.5312372829974 1.72731795380814 0
-212.330777388776 -15.064505418585 -12.4298258053745 0
-223.248095800625 -41.2367619911227 24.3553191505679 0
-85.0682070557167 -1.44919734216276 10.1948589813258 0
-176.206391999604 34.5627262451875 -14.0757410726375 0
-152.594176499103 -1.83758475577105 8.93224967951627 0
50.2576134615728 14.3134444498788 1.39815772105492 0
-13.7828375467296 1.31788868451684 3.26326463487691 0
67.4303307509033 18.8747546072489 4.79339919353381 0
100.110550578666 -5.92331775383111 3.26326552541873 0
-151.25776476122 25.3343668646717 -16.0288585687391 0
60.2830483617386 10.7014223683656 25.9356625888839 0
-216.973476950985 -51.84745593315 17.5296997668911 0
-156.792090568519 -15.5673863291061 -13.1456442382834 0
-223.174509580693 -50.9625908415364 -6.83888770624014 0
-187.421655003323 -2.08991480230669 -17.9794802224887 0
-228.91769725189 -31.1260916432251 23.3456222789418 0
113.656125373971 -8.23535517311055 2.63866747975696 0
77.8882526818191 -9.3562470352417 17.3886036193242 0
-40.5525293107422 12.4049013697613 -3.60746291423198 0
37.27309785028 10.7904594353545 -0.0642498321945788 0
-202.160467398834 -10.9619633274689 -12.8133291143636 0
-211.318840560716 -32.7520352465511 28.736267110853 0
-111.335923415078 8.37726199878779 -11.7554941956839 0
-234.80567081779 -20.4335316545991 11.2181265277697 0
-75.2995410599874 16.9724192374894 -7.64561141586205 0
-194.404451215813 -20.4841761811053 15.0281221181276 0
-111.058523497542 28.9104619104534 -3.80576949058692 0
-12.9686735955826 25.7439860968909 16.2122425716573 0
95.8729824737334 -0.809866399700148 0.764667385409556 0
-200.663274862816 -52.8760725885628 2.42497763666896 0
-229.354167069552 -42.8465111124284 18.677171036303 0
22.9234414577721 -4.98282392683714 16.1450789834127 0
-209.141180613848 -7.33134813840638 -7.83798349623012 0
-51.2651594708722 5.64218367652027 21.7076716363889 0
-95.3249099819461 4.29564671715481 14.7666901030124 0
-3.79682630281196 11.1336979270944 25.5496762662298 0
-196.494089618059 -12.4275142033436 -12.6235002360569 0
-167.176098959821 -8.98273850608724 -16.1798993056692 0
-18.5979287642801 -0.0909487212086861 5.20624978692866 0
-15.4382580475498 20.1022280636009 3.4682075363162 0
36.4088440005597 1.87044648029407 -0.259846518105332 0
-172.229214651423 -2.38403073433969 -24.0013476680703 0
-2.85253261363164 23.0768753514328 20.6447721891044 0
-182.904985777313 -7.72261464979261 -14.324873026751 0
-135.509137166345 29.0950873684734 -6.96590574366095 0
0.658888628958334 -0.357980645933559 5.40791176200644 0
-222.83055779844 -47.8130371018471 18.4777176440823 0
33.1870143339527 19.5832785371975 5.10480518360838 0
12.834001123466 4.39076179193563 -1.94626216322051 0
-196.004305726366 -45.1959872777542 -5.26109591345184 0
99.669999169892 -9.22614548339831 20.2243252982403 0
-174.758452884878 24.540399092813 5.40483386828882 0
-99.8416369406787 15.3566130644943 -13.0459718393341 0
-54.9642770682772 26.8062944801784 11.4820036169649 0
133.124965192733 -11.7486822953975 19.8589480298143 1
-164.456279274018 27.8386643806954 3.02167018109618 0
-131.700231767978 4.44164860072768 10.8549799954459 0
-172.715152464861 32.2463004974864 1.6128862555153 0
-11.8312196019705 22.9245354907226 6.15144441007451 0
-222.210623653184 -36.1471105003979 26.6273619441077 0
-218.20145084604 18.4554838612221 -4.76210116467163 0
-202.964500771323 3.71087526821745 -25.156764920451 0
-224.492663827286 -52.5848150349061 -2.91172550928619 0
-159.404006302266 0.820741622358515 -24.2351071922289 0
-11.0652150027195 8.41673604584085 -3.17547994497701 0
111.534192525488 -0.411278585868243 24.7701798933856 0
20.7062315765369 12.5961820010585 25.6793435986115 0
-79.2936752384262 5.21716836122975 17.7835721016314 0
-195.965810372805 34.5702993058854 0.0740911383942595 0
89.0962498094128 19.8496073643842 7.69962871350152 0
-136.79822538204 -4.17916785415462 -13.0381147130359 0
-121.849062502234 -1.95047043044857 3.23441250261467 0
-109.161182866162 17.1082085583003 -13.6078338650484 0
37.6236644993366 15.1709270577305 25.0054917970695 0
-133.522536953744 22.8474867463076 6.91596062686312 0
-206.348125357959 -9.1720560916407 17.735503312033 0
-157.227595176662 -13.3159870637652 -10.536855719754 0
-155.860237471502 -14.7247803954493 -10.4994390829276 0
112.830470390395 11.3043944771593 23.9979280241007 0
-24.3587622781365 13.2804551851203 24.5969456585866 0
90.3814993237861 20.1235611048807 10.1337910813565 0
2.07599131821437 3.61242296595126 24.7035554124957 0
-178.760880241138 -9.03624404364545 -13.4682407869249 0
46.7049654124479 17.6127934418411 23.4837517898608 0
-224.219487714746 -30.5950158180018 26.3079130316955 0
-221.350485292397 -33.4697170607595 -18.4308179797541 0
-197.771377617823 -31.2702878019566 -8.60447584338366 0
106.311500718837 19.3007881483239 13.2243552623338 0
6.03703445708102 25.3888277970745 12.1143691007356 0
-108.239483414824 3.77990538308811 -8.62508702381864 0
-234.086735894454 -30.1546185292001 17.409134969273 0
-211.658869067799 -31.0939505459852 -19.6645266816601 0
60.2666391903966 20.9234443343789 18.647394560478 0
-210.824620273966 4.77345608503886 -30.6976503873506 0
86.5977487630103 9.50941490250584 -2.77169677795121 0
-155.84085729899 2.57727912692761 -23.4407233636278 0
-191.519385946344 1.98180914786393 -25.5035651731132 0
29.4562163144842 23.4745320722431 18.2539124633515 0
-211.235431508301 -54.2557173852482 13.7660058136148 0
-149.925330509694 0.63032060400912 -22.5661494613007 0
-138.045998342676 -5.67083202476617 -13.021494954746 0
17.6514749758672 22.1071027894501 21.21680819828 0
119.491822810832 18.6381574028066 13.717758826723 0
-101.079716859747 20.1802340664433 -10.6922535488865 0
-49.6684376740304 6.0184321712319 -3.80253451728349 0
-142.958854183653 19.1285030235436 8.47629639075882 0
-219.84701853291 -40.4756409922749 26.1273202680317 0
-89.0712249970512 16.3464591481898 17.1659777691488 0
-118.90505092562 5.32236094892042 -12.1983990839753 0
-139.036490493148 17.338760098536 9.67678377502293 0
-76.6074601061665 19.5598600293582 17.415526537777 0
66.4993038737876 -7.60309316890929 10.2396448061577 0
83.4074753476055 11.6652140504425 -1.61598949325936 0
43.3556576781909 16.8391288878541 3.05908404522417 0
65.0398680949864 5.30446874733949 -1.38058070689465 0
-143.16251037744 4.03529027494102 9.70821968703624 0
-236.201347256042 -26.6146853969452 12.7879376236049 0
-227.022513275091 -47.4147405192857 15.2423556853283 0
-199.241918934318 -45.8150736394763 -9.02546184066431 0
0.846669504558034 16.3773441645301 24.6275221918014 0
34.0909076993779 -5.22042819037647 12.3285188567369 0
-205.798133618181 6.44872232229537 -20.8754944969173 0
-210.87232132856 -35.6171123725356 28.4236822254685 0
-161.344485210281 5.03304100973478 -24.0591655453106 0
-185.861126457059 39.4877069699613 -1.87355358563739 0
10.0183151074784 0.534095599997866 4.15212559608418 0
-203.213318284845 -32.0902177638407 -15.6148426032933 0
-100.239185991702 -1.23752088453653 0.969691406271752 0
-217.244062731726 -17.1772631102101 -13.3013204442576 0
-161.834366119136 18.3412510192188 7.00181380267397 0
-204.18625547484 27.0986323899165 -22.4968227385841 0
9.02828768492709 -3.47986830098429 10.3488839807284 0
-206.741674742214 -3.1021321988336 13.7010309770974 0
82.5909164375342 19.6052804077301 17.4396638910462 0
-204.131858996443 5.77752353745787 9.8957851218218 0
63.7123093296657 0.112879667887463 2.40562363062913 0
-194.856464784341 -44.8724753444624 -3.33756871432559 0
127.130033546909 -3.65530057809734 -1.39640636449452 0
-127.522402162569 6.211260725611 -14.459111873969 0
-181.249845565546 37.7372176400479 -13.7741948902206 0
-206.250856604423 -1.38860604779438 11.1910473458309 0
-210.070550113033 -56.8625047203 1.7462740904481 0
-115.991711812062 3.69796038821197 11.8310703065859 0
-39.0419843961113 5.72948919411155 -2.44647109908105 0
-220.677729565181 13.8803850069481 -17.2645575181191 0
-11.405391177796 23.2199065685644 20.4470327091117 0
-158.105171995847 12.2721481682545 -21.9711153926054 0
-210.648416531811 29.2161705021936 -4.73643111137384 0
-207.428534965931 30.9366455606756 -13.0181690081983 0
-208.287919141098 30.9916457493698 -7.50456363772759 0
-190.806253534151 -24.6079103953769 8.78571631795923 0
53.1224754462166 5.11911882476502 25.9285522788521 0
-216.988025384365 -12.0286020166532 -4.93378546444685 0
129.120642877273 -13.9810807951536 18.1527424148608 0
-78.4723057283209 12.915988880083 -10.0931471876247 0
-133.164665275589 7.8406579687125 -15.8903326562228 0
-214.10065752762 15.9995758826852 7.84960678531382 0
-93.9189759965241 13.0192048471102 -12.0436492172293 0
-214.917731177618 1.31070024065712 -20.5725068835667 0
-61.7719058143949 18.4923001942423 19.8015852172511 0
-175.786000528571 31.1130461010354 4.56580163791768 0
50.6858845108097 14.190470132997 25.1091828558618 0
-226.260237949959 -33.918624086798 24.9561416371841 0
-25.5528864405448 22.6456896814941 4.57354841083068 0
-208.308104034185 -54.2094559857812 13.2671412709367 0
-157.695874716379 -7.11704182594154 -1.3774325375336 0
67.3330552576867 -3.47449558716025 5.21857671587516 0
-114.591073649406 12.2836873750435 -13.5819036294727 0
-109.497798181108 -1.651752241912 1.7965492039543 0
-139.570928288493 -2.81164646272261 -6.60138402893895 0
-199.151441849066 -49.0667143036214 14.2877549875943 0
-123.915805355919 27.680043153598 -8.97576187451886 0
-85.937048195267 -2.41019570627509 6.05361388440221 0
103.867722489148 -13.3785461526288 11.1710295968268 0
-187.495188456938 9.11676351620116 -31.5962862542579 0
-177.268678503389 0.463837237898876 -27.1575551478907 0
-112.805827134795 24.3752423161899 -10.7570038502065 0
-229.288561560182 -18.9015638871807 -9.01957945567427 0
-93.5019238644386 28.3811104942736 0.426052966566371 0
-54.2491758768554 0.749658781149429 17.6722239165052 0
-84.7539862568515 2.74933305882884 15.017906473675 0
107.077616561972 15.7995731917399 -0.806111087780501 0
-208.903861468426 -1.37969751081124 -4.85994954402772 0
-100.275687927398 -1.53961968502213 7.80476112152627 0
66.4582707502562 18.6041471735019 21.6376862888044 0
-20.1543120275588 25.0987184346359 7.85165718977523 0
101.852569824635 -5.02143639961793 23.0285194518003 0
56.5675406621291 -5.06996260284607 7.74416339473562 0
-190.008484521103 -2.41193919887446 -16.9787288883015 0
-194.884665495263 6.04111400608487 -29.9438310078722 0
-210.26923104744 28.1966552294157 -1.05380562548381 0
-167.229583576255 2.05541097585502 9.43498606683153 0
28.9872081847073 19.5638509914879 23.0435816895948 0
-153.424835147446 -7.79903948546744 -8.12448091938606 0
-155.694663875898 -12.729267888856 -10.1254330971577 0
125.233435690078 -7.79626074299697 21.8989885729676 0
26.334263735649 19.7338894374712 22.897144709436 0
-212.917518782209 24.9898816244142 -17.1277411622625 0
-206.404467522686 3.09094170054333 8.09725052024848 0
-225.613768752972 -50.9824113751052 -4.49111742134811 0
-162.661612536901 18.8693833903231 -22.1921021208689 0
-210.102133277983 -45.7436298657091 -15.2561730856681 0
4.9261942665357 11.8859288467217 -0.157450378751522 0
29.084676592128 2.37721456143483 0.569994816354573 0
-227.599908258378 -27.269588162262 24.1123712643746 0
-219.326641573151 8.28791335581712 -14.1970579310802 0
99.0104956061623 2.6634651277425 25.709549042225 0
-208.242396113378 -55.6456724522795 6.07062517245728 0
-162.612930880455 20.9380511960516 -21.6890543289149 0
-110.662612947655 0.470159618543152 9.55468701415915 0
-193.868125309129 21.9850890235186 8.2154375352164 0
110.288514195157 -2.77730507846232 23.9235543827255 0
-165.047921175045 -1.45145465713946 -24.7347866331127 0
-64.1409126259777 27.7360809915898 6.83136980041099 0
-235.092831917647 -39.8579399857249 -3.53830924126911 0
-41.3345579517597 23.0616893111195 2.77987762997451 0
-66.0546149853816 27.0862027051907 9.63320895320879 0
-202.057763914471 31.3529877400365 -19.0618322753931 0
-173.096807062848 34.9089791050433 -9.56813583719269 0
-15.6565905687863 9.45891720382614 -3.17042782880677 0
14.3932971697197 1.26644376602945 3.39546107526018 0
-122.397946357756 3.19878102947881 11.068952376481 0
-202.212031279439 -48.5145250623777 18.3510007798865 0
-167.819317658987 -12.5054095806971 -6.47198788825819 0
-74.9449955240541 7.20335985063705 -6.53676259610839 0
68.9665964478172 18.6041823199486 21.3680664360324 0
-145.399037230667 -4.11152215128892 -5.74779502772486 0
-15.9488688548642 15.5806148741184 0.564228893475352 0
27.4474736206544 13.3385814379085 1.2827506559671 0
-145.933113618458 26.415604188477 -13.3671970674484 0
-201.115244337742 3.90597752702472 -26.2822465457725 0
-45.8461380347838 12.481284220161 -4.39586198004558 0
-141.287922339767 21.3511420035521 7.51904516255097 0
-233.759590301071 -42.5754340557684 12.6248722998672 0
-69.4410912706567 8.61509849423915 -6.51035307579606 0
-148.024668156489 -12.3356652133177 -11.4543089116714 0
-8.94302190067057 24.1102819165272 7.59327338048888 0
104.521752632207 5.53897586575248 -2.28187849438998 0
-233.097592937259 -26.3710716209636 18.4476466235518 0
-34.2045228400448 2.27240809877843 21.528464670123 0
-211.368104043263 -56.4614758878368 4.53744538935237 0
75.62179632867 20.9271293640938 13.8246140745909 0
-209.112645624972 17.3154696114357 11.5781633290829 0
24.5884500741243 21.6407583908867 21.2613377965981 0
-167.650497416715 -12.0570603672775 -4.12414352491675 0
68.0984667566404 -1.33982428876901 3.26634305348945 0
-202.538267901381 -15.2898850200977 20.2028451978826 0
-23.2749891554491 15.5950800537802 -0.073925186673099 0
-227.722560937523 -40.0035691898718 22.1263968028637 0
-8.63306567731863 7.69734828299429 -2.99565766228927 0
-193.317849361308 -29.1593513585789 14.9815777751999 0
-204.01431428336 -20.7834200984591 -14.1341989078827 0
-200.069492882752 10.8171328729798 -17.0604156161399 0
-207.310216759253 1.60779946203403 -6.43143841922219 0
-234.968832471859 -37.8672131952755 14.4884188714404 0
-147.469886896066 2.61725849526382 -20.8854686740776 0
-165.790519034173 31.134116694726 -0.854264742950033 0
-205.311767271322 4.24414377578685 8.85689269323698 0
-214.463972301557 -6.66985959505127 2.25559768988776 0
-192.344773852699 3.49286270187937 -28.0040898275691 0
-90.9734448948164 1.27981137582616 -1.64026174282029 0
109.616524105081 6.43670600717329 25.5561266050435 0
-203.902815750139 -39.5026586975538 25.4017985622453 0
-222.586251695061 -38.4157438141164 -17.0658520116812 0
-194.790679434352 -40.8480174680885 -1.62502711176389 0
-170.503267775847 6.39040812503954 -26.2164437855328 0
-132.276535190834 26.2876529289618 -11.4976218651952 0
112.665685302104 5.18799086068661 25.5723759332536 0
-169.385715703337 13.5693803652196 7.38107241719705 0
-146.244145306885 23.0584393450387 6.11579070616497 0
32.9132669218756 17.1063915471711 24.2590917914876 0
-22.2757811644564 -1.32533574093347 7.12868917047235 0
-129.347028932177 24.3568721888992 5.7090285552596 0
-159.363567032455 28.2506438679115 -14.1666532539517 0
-1.88310374734303 18.1583336856937 3.08109351249324 0
-21.0507486123132 -2.38024332436041 17.2273328805177 0
-145.260931051703 -12.6254857139754 -12.8899872401707 0
-195.509102798751 -37.6032138520893 -1.35432255279422 0
-110.477444579433 4.99682878508346 -9.93443077075057 0
-154.487313155218 20.7681733568857 6.9783244562731 0
-163.320235166065 -5.60270918211068 -23.4992704787779 0
-187.109168490102 30.1360406556247 7.51370519392536 0
-115.94748686567 -1.1365816960354 -1.48494157618564 0
-223.506801265346 -8.97461718611022 12.4127802763006 0
-136.179515820595 12.17978805155 11.0705974538587 0
82.6438577484269 17.2045484755642 21.5968846961575 0
-215.065001749289 -7.32230748999678 15.8369119083992 0
47.9267234917728 3.10899858653561 -1.10479140209959 0
-190.85174938119 34.8060753612624 -16.6050512515679 0
-209.310746036857 0.939224588469763 -25.8880923912588 0
49.4551028272057 17.9915819428852 3.87639564689864 0
-182.771351699562 -5.99933106714212 9.72392213973355 0
-229.491731145665 -35.4036076961123 22.3211234015716 0
-14.7022464414294 -0.156280461583976 20.908053560651 0
-226.539993326348 -25.0329742134654 24.2571018471436 0
96.905758176327 -10.18895360901 7.55566089186328 0
20.4872366990348 18.1709858229997 23.8291390000775 0
-195.579350794739 -20.4455845109858 16.8183694360048 0
9.56778289165436 4.95058624772114 25.3130732624302 0
-99.0144355864071 23.966097024991 -8.9414793812502 0
-201.298189788128 2.78369470609753 -8.72878038958286 0
-223.499099370087 -52.0542709710941 -4.93388920741457 0
31.513615382941 22.95452768604 10.3347924273563 0
-156.903020663603 -10.6782488934188 -22.8423981632247 0
-31.3742650873973 1.88126359796493 21.4920068686188 0
-220.223810745658 15.1697976749609 -13.3486065036218 0
-109.227686507992 14.5871652647084 14.3678049900007 0
128.071661306471 -10.214185200224 0.68442846865701 0
93.7555169243658 -10.3032459407429 8.48472362865924 0
-214.471163264285 -52.491872951924 8.11711407918769 0
10.3978158920862 21.7354410486544 21.8164500596877 0
-152.476027231539 7.9987553035044 9.07267224050002 0
-143.130033184712 -12.2968479705719 -14.0869409466738 0
-177.186631070637 37.2867592178696 -10.5117946852739 0
-169.042707638723 -3.47139013259511 -23.0980400739687 0
-140.724290293199 9.19186635790446 -17.6886510752985 0
-208.277622076837 -32.8826131849031 -19.2387870489043 0
79.1776717031703 -8.14864797504902 19.6366534376397 0
129.159961851095 11.957374348021 22.7942078642523 0
-224.636971094082 -44.393092862637 -13.0364441145753 0
134.930672675858 18.8975498617185 11.5757776297651 1
31.5642948777563 11.7538352250704 25.8723272449705 0
-213.244285333992 12.0047239076355 3.81003715485671 0
-78.7293994470638 11.8612304922301 19.4332917775117 0
-166.807964910674 -0.551685428367965 -25.1047527290698 0
-187.407839310007 26.9922696525438 -25.2357546120815 0
-63.3118237820858 14.0376638746711 -6.74144783320821 0
-135.09341688896 -2.72708179900799 -0.156287820253796 0
-133.220220442917 -1.94441351269044 -6.5006753661226 0
47.3831830492153 -6.43061742959972 12.5339354941408 0
-193.138586249719 -34.0714434762025 4.99493194219182 0
-228.096306471583 -13.4050490001787 -0.76593039429441 0
130.839121252715 -12.4283086727499 19.3833919088269 0
-192.268032395174 -23.7378301643586 12.3682650418628 0
-36.3405622030532 24.9792946152234 16.9674676643671 0
-116.970085023193 25.9991536047424 -10.1203213713182 0
-179.522101762942 30.2864009263472 6.98099957486171 0
-214.631413913062 14.2010054352648 5.50615538765597 0
-33.6813278452875 13.4787133768447 23.9897212986763 0
-89.4472187749353 26.6655485554595 7.83413496897186 0
-178.616131183227 -14.3297678071461 -9.50560640226354 0
-185.74873320446 0.560851404468965 -23.4629749998862 0
-220.448143173779 -9.66422495316117 3.45626735935322 0
110.732607347207 -6.19022683907977 2.04041544902973 0
-138.441764446841 24.9795396421407 4.57656878797445 0
-13.5907328813703 7.52517225307604 -3.26218025886196 0
-97.1480368897659 27.9361719203563 3.92627966755973 0
103.75718627523 -11.1605149187153 6.89413962462743 0
-212.268078530776 -55.5529906225961 3.35323867390622 0
4.09798141065572 7.24445815460322 25.5482545968571 0
-27.3076393581422 19.6136603117111 1.88495164973193 0
-171.984908771205 -2.3037432394151 -22.4494758984942 0
-206.806502296446 -13.3347126364678 -12.5705344380471 0
-224.205036329317 -53.5329389793191 -0.781839701070042 0
-117.01344596441 28.9278360587993 -5.47840927908016 0
-60.1547518970407 26.7465176155375 11.342186271661 0
-146.699010059354 -11.353374382319 -21.8445874752998 0
-189.732803253022 34.9156616643994 3.33228146801999 0
-198.329047875058 8.84475491153777 -13.4604249410837 0
37.7833969876863 23.3578387511314 15.5952555985729 0
-201.900429814643 -37.8182914647636 -15.6535805718942 0
133.948417569673 18.202156022476 13.7793318514187 1
-77.4055674296363 17.7309524234828 -7.65591273205407 0
-183.743143657725 -11.5295436883397 -11.9198143220337 0
12.9587816351429 11.4570793150435 25.8384922945886 0
5.10819142612413 0.706957785706111 23.2301037565127 0
6.14224255133023 20.7589797694019 22.5476560165143 0
-237.892927603921 -28.789060771836 7.42641762095183 0
-215.339249696923 -47.6244731228377 -13.6359137055587 0
-58.8852236968938 -0.624507563586349 3.61142683706184 0
-146.779291785949 -4.38198364605684 -22.3941911964728 0
-192.255092359349 5.20419643399889 11.5262632892321 0
-106.368881486788 -1.20019684615576 0.33243586461337 0
-162.566682518276 13.1502303547442 7.50512224260382 0
-160.720697115806 -6.10795077360207 5.82839293479503 0
-198.766763395032 -51.715830738164 4.12176920559631 0
26.6834703563532 22.0956418506941 8.1209081738228 0
-7.82138110780718 13.99786624483 25.1067736348351 0
-167.850045073678 -9.65505082896547 4.33941012230966 0
-175.798186007883 -4.42835415680679 -18.3495404962749 0
-86.280753549482 9.10599954983447 -9.00152169499677 0
-46.7381272099219 -2.36097305526559 8.01614319434783 0
-194.525304303622 -44.1173407778149 12.8232626741578 0
-142.011423355825 29.4859616206928 -3.62892141489986 0
-226.403158286292 -20.7829951397979 22.638502267626 0
-217.874167862719 -18.9791261104858 -15.1835682428744 0
-126.946685281222 23.1476914382967 7.18066810209626 0
18.1149700728671 21.2502107515092 6.54729443319904 0
-211.370941297916 -12.828187910571 21.535067611173 0
99.5294821937372 -12.7044759131455 14.1678374546903 0
-183.950047637524 27.9724210026346 8.04063332315655 0
-103.384023734789 11.2490832522835 -11.597969321086 0
-41.0340021412898 18.7523348880552 21.8270162269592 0
-183.825001973507 -2.99733562880404 -17.6535301349899 0
-170.637228892736 27.3152228391416 -20.9840580258029 0
-56.3278104597663 9.86837960996111 -6.21082080754692 0
-147.617771390581 29.4644287659983 -5.23432142701914 0
-169.853016486512 -6.02061780882928 7.56197859866783 0
46.9802234436897 1.37251113857011 1.09665887328637 0
-175.704398434569 10.4998813046159 9.38037659999057 0
-214.887916624312 -24.608912712513 27.75430467978 0
-226.253230790361 -38.5358901761823 23.8951331894572 0
-205.122851436651 -4.28608128274097 -9.94303148475014 0
-178.666977976347 -11.1414317546015 -11.8859329750722 0
-189.789955822768 16.7835140941483 -30.4006688233209 0
-207.50229686019 27.9856240448314 -18.1527116348652 0
-65.946812679086 5.52408133826657 -4.01779092633359 0
-195.874166657175 27.9768299558526 -22.7566458700266 0
-217.273087463448 -9.37006650989277 0.327854370419715 0
74.8782787966165 14.5710732636417 0.535723448819868 0
-89.2930441330161 16.6336119520064 -10.8367664794056 0
5.35206970179676 -3.43887472026981 17.945298557434 0
-201.160200535644 -7.97873390445247 -12.7818722480042 0
-185.260042451978 30.3778489618436 -22.1318123966637 0
-66.2243168603663 9.98967603015102 20.9927990840184 0
-196.863135211347 -42.7960296029371 -8.23248329578001 0
15.0883225676929 16.3982421792463 24.5941752084686 0
-196.451966595838 11.3067134122468 13.5133843176841 0
-172.099481495544 -12.9241176748768 -9.75198867284365 0
97.0369623242443 0.66989940038073 25.2584128772973 0
-234.363711239761 -40.4121170811459 13.8010079811236 0
-197.00062199509 -32.1989156092759 -7.57755988123415 0
-127.228640287695 17.589522489251 -15.3076635510477 0
30.7192019994069 -4.75024567771106 11.2101495953634 0
-61.8054961964473 2.72925374196079 -0.696309689231519 0
17.2582115530306 -3.52983366365607 9.7290676628589 0
-71.7427488117437 10.0955621441226 -7.22686290267298 0
121.684845463792 6.28546312427037 -3.65143622120909 0
-139.279610762416 11.7782425859097 -17.7072551243376 0
-227.940286534555 -48.9111611602233 11.3070394036023 0
-225.824030731809 -18.3197916419486 21.5151869401439 0
65.4779308338448 13.0060180286138 25.2515235097889 0
-176.348964128641 -2.50208612634966 -20.729037473253 0
-203.12425441757 -50.4477216022175 -7.51271210773088 0
-48.902679161762 -1.3096197347858 15.8103159437071 0
-139.574693674112 -3.12651332302595 -2.007702061072 0
-222.406617997574 -31.4793368635616 27.1306996527622 0
96.9627576505549 -2.7593395111398 24.0817531017604 0
131.120215778764 -8.29979934135579 -0.567271362427865 0
75.4267173094151 0.0322467317058993 1.69602241766185 0
-218.61093991897 -50.3410883960046 17.8764951146781 0
44.8281076758133 5.68920207941826 25.9624855353998 0
-122.864886015518 1.07506512804897 -10.5267018385828 0
-25.9871422292664 15.8724903060354 -0.188893089613774 0
-177.115200251235 -10.5928167919614 7.53508221521085 0
-211.23827725066 9.73777712940125 4.45972616735112 0
75.6676078902232 -8.36031930867559 18.8945160166732 0
15.9959333454217 24.1066611174499 18.2264419521267 0
124.649062398386 -5.30977752775825 22.79497753077 0
-127.19131930323 27.7791145632052 -8.93693245852475 0
-183.241892153328 -1.09904941310739 -19.391929765952 0
-146.950591004451 -13.7639068644941 -15.8304803112988 0
-232.290353720562 -44.2553820599643 -4.58702741294945 0
-3.92513242336578 19.100191460423 23.5442732191916 0
-87.930104817724 3.93124836246925 15.6143613260622 0
81.5710625519603 6.54144507713389 -1.830529716968 0
-140.391789060635 15.8732502715784 -18.5786754340117 0
-3.85220956247954 25.9773478498649 15.0495519048234 0
66.8595563105371 -4.53242888318689 22.3019690402142 0
-193.550519452381 -12.6846895414294 14.0405624379918 0
-231.320138948745 -32.3156509583735 21.0860209899843 0
-236.883550320866 -31.3463831878008 11.7344902227421 0
69.344059758138 -1.08056134579375 24.3141468113284 0
136.159299993203 -2.88929984299205 -2.76155709301112 1
-151.558351453794 21.9350362536171 -19.1574265338955 0
-66.8834337504195 8.94059604569937 -6.46172553027862 0
-195.124024817887 38.8432750255341 -8.28981048398385 0
120.798726126638 14.5750126865048 21.0515566186336 0
97.3204510822228 16.103384881175 0.32441583316635 0
-91.2974601925745 17.8847390711394 16.1355105350611 0
-59.4849559478945 16.6723391592835 20.8716262205658 0
-79.8410212508852 25.5896224110046 11.050104028567 0
-214.54662032419 14.6932981223987 3.57542533135539 0
-116.516426797627 13.7041799124103 13.6291454311616 0
-174.413180879433 36.4141270851863 -2.53813376344177 0
-189.369577715941 31.395064563289 -20.1185444367399 0
-74.5329897579711 9.57143989299313 -7.69137119797055 0
-205.801024416845 -22.1495560462809 -15.270337730005 0
-135.876906125244 6.71072586011734 -16.5484943110796 0
-186.795573970167 11.5910707427882 10.0770191388589 0
-200.009013190699 15.4725688837424 13.7378858412992 0
-170.190748300942 8.73050655998989 -25.9940183485843 0
127.660710297761 -15.4883238594174 16.2457266070159 0
-145.397423127299 -7.05201863735906 -22.0271299363994 0
-108.001427324287 10.0693128682051 15.0997566456176 0
-220.798098941439 -30.8243647614538 -18.6524439208491 0
132.415077624209 -4.55372774141287 -1.81700361953782 1
-118.767785314012 18.1343708553729 -13.7118730004662 0
15.2886657532337 21.2431149366574 22.1729167072046 0
24.5265459633871 -4.57567119743023 18.2976108268845 0
-205.896093523524 30.8465612147061 -15.3072327291934 0
-88.2086434949992 21.9459025818268 13.8639667484727 0
-79.9930043577639 17.4926937746347 -8.28864438174169 0
-4.91037220429146 8.31431071535467 25.392915609545 0
-136.340459032978 25.4819402555083 -12.9397887511436 0
-153.379523626633 29.1511781748973 -8.07634529291176 0
-212.064678147815 -3.89839446980672 11.0125177537554 0
-202.951047480371 31.9077999234201 -17.4346873525973 0
-215.152184758554 24.2642878697421 -6.31481237848146 0
-143.58619274866 -11.3841948345515 -18.6585131544694 0
43.56706197882 16.6708590884803 24.1823208859296 0
44.7119466837239 0.868992726826154 24.6946213193336 0
-175.095504486459 -15.3235317681502 -6.51417421420345 0
89.2490546343417 11.6357829610708 25.33532780591 0
-209.381508407335 7.30472230726048 -11.5376643576807 0
-33.5688353292132 9.25234175148111 -4.19219653584604 0
-212.386621240236 27.7355178626231 -7.00378065480807 0
-4.13192427600444 16.4264534608736 24.5755977059693 0
-212.755805610456 -4.90831124497912 6.34086823534289 0
-208.531859763492 4.94358917583735 -30.6879167826575 0
119.765589154163 13.6007082809657 -4.53517828103077 0
136.068474558998 -5.82153863236223 22.5112541454293 1
135.109588656454 5.06957681448595 24.6349352518691 1
-201.501481783875 5.87172661710907 11.5149179011048 0
-160.672369756868 0.319609852970832 9.9437980464163 0
-178.575612792125 39.3657137996423 -3.87100476099782 0
-166.065701713508 -10.6156909713135 -14.1172050912103 0
-105.119613314088 0.360438890130966 -2.83623733422665 0
-214.077501608437 -4.0941799333174 11.5322450405236 0
-86.5300816060731 20.3778487574716 15.3813848010938 0
87.8420249310124 18.821872177237 18.2670356272005 0
-193.441744038588 39.0872700656977 -6.40244102299485 0
-216.329891876708 -47.0153735476053 22.2652795902424 0
50.9550537493384 5.77100170366953 25.9996633319086 0
-108.400248430433 28.5216436744623 0.357133690547133 0
-202.246201092229 27.8052163623155 10.4714110550268 0
-210.095849062849 23.5684319438001 4.72531922112391 0
-58.4840648897659 25.6936010098472 2.28271509177981 0
-212.653802183439 19.6418041231048 -23.0590159902677 0
-152.957350290764 17.1599582360363 -20.5503978810068 0
-54.1638348937248 27.2513010255558 7.46881879218182 0
-200.81622401321 -28.210003595788 -12.3391649428784 0
121.377546194808 15.5540905901255 -3.64485669008803 0
-235.476664844979 -28.6952193045166 14.794694464373 0
17.7292199499173 1.67960391358716 2.97043710086026 0
117.916747991139 1.14746679622976 24.8315720315808 0
135.268456831951 -16.6429785432266 1.82217654539506 1
104.609979928983 1.48879875016728 25.3500625890225 0
110.62728052341 5.45837751612055 -2.61783736771299 0
-161.948094242794 -4.35785831810163 -24.1966850642115 0
-188.952827080636 1.18407929459225 -22.819095260816 0
0.588071477547095 3.40822274207428 -0.640720123341243 0
-81.3340370880124 13.3527677456264 18.9393942975326 0
33.5216434936249 -5.57120029274159 14.6819853755497 0
-112.354099410498 -1.27651063540539 6.72131430838211 0
-75.5223001808174 27.3057736496323 0.680940093458391 0
-153.82204478311 14.5937820216234 -20.5227818226886 0
-178.021147255342 -1.04735365170649 -23.7076950830476 0
-41.2762235198012 0.0613902983199082 4.11923158812914 0
-197.289588817761 -38.0764156458907 -7.32740144463424 0
5.67819882097709 4.39134487537678 25.0428878320532 0
-49.5579220750614 2.60019958507822 0.406243754816939 0
40.4426296334044 23.1538193363116 12.6683484236044 0
-84.0413956721242 15.9515984110233 18.0422161320081 0
-222.785592830158 -49.5420987277162 16.6499593110705 0
-7.14965493470327 3.40925642877132 24.2403453021225 0
-85.0364859895831 22.60165888922 13.7864367775197 0
-52.2219044865814 -2.08749001553057 14.0084825513799 0
-190.777017679058 -16.5394052729789 -10.4310699718813 0
-213.395836556091 -29.3305143052041 28.7477402142489 0
-30.3779174502732 18.1230969636687 23.0575434808845 0
-236.090257625542 -22.962425971803 10.2038610070591 0
107.12281063295 10.377818988861 -3.86316231946449 0
-5.45216542184304 -2.98106671193214 17.8265646074499 0
-179.601790758406 20.6192012877076 6.48844978183213 0
-160.405490914531 -10.3887494222308 -7.80792385725194 0
-43.0470575657518 23.4184894930228 2.87119960380296 0
14.5380588901841 8.25815625238073 -2.43195138138589 0
-190.319110375028 8.51402970358682 -31.5040319696948 0
130.86305529723 -18.9631450084687 8.76325329761521 0
-0.81577743245013 21.8159000333581 21.8122900658221 0
37.5609004473368 17.983680255229 23.6055235490271 0
-207.799603120915 3.04958867816489 6.12579857040219 0
27.8621335880401 21.6105077776403 21.2745168358137 0
136.410576013481 11.682550004048 -6.02400004973592 1
-36.0959635278817 15.9147666286253 23.3211280596416 0
-234.584530529069 -43.0775507943584 -0.306226943030305 0
-180.337269837874 16.4516995755268 -28.6607402662945 0
-19.6184646815875 26.1925405028299 15.4115313867433 0
108.242586640828 13.4773599372397 22.9281240613137 0
-196.454607592976 -28.2652968395627 21.3615304763333 0
-228.292875498036 -45.7892341306058 16.418780797843 0
-115.292887140477 26.8493623615035 4.07747048955641 0
47.936298388802 -6.60425989094138 16.4116057651904 0
122.297901850983 11.1877843579353 23.5460830885292 0
-197.705754324944 6.6778205641206 -14.8080009480102 0
-214.78344389724 -54.2414168974522 -0.607500540723136 0
-210.959444395475 13.3139015151728 8.85844402148085 0
-44.8572145044729 9.98047983872314 -5.21516715499546 0
-182.570715546474 31.4315241067051 -21.4706044053894 0
-16.6410899411527 21.8360854253727 21.6577587760458 0
-29.1977185030299 -0.129015660181776 4.88194258109353 0
-201.139612898685 21.2092100828437 9.43427999404443 0
99.6940174476075 3.27866469629686 -1.09394147161606 0
-131.907767866462 29.2677404918904 -1.9964965789639 0
-209.835582114962 -29.2490009887382 -19.6403388453789 0
36.8297388110608 21.6558260587908 20.4306952196622 0
-191.743153857151 -40.0078671968132 11.6470402664995 0
-48.2851381331467 15.502125466461 22.3617280533145 0
67.731518713147 16.528780635514 2.27471046842848 0
7.97389780357991 -4.24795440711182 15.7813919861794 0
-197.875940318749 14.7622833341012 -30.8349069592047 0
-205.256264372369 27.5102839650249 5.89706187842707 0
-32.7251291171705 -2.14460735113167 8.48524179194537 0
-213.033746950366 26.9633096392125 -8.14738019640733 0
61.0475323065363 0.544956727729701 24.7402801962117 0
-200.408600723119 -24.8485721040972 23.8038894004941 0
-159.861241720345 -6.66740846824148 4.40647658559288 0
-162.401146157371 0.695817179024453 -24.5346478630514 0
-235.332081581694 -39.1860762732175 12.8021764196297 0
-158.382412864802 26.4603896482465 -16.4798447401892 0
-34.4029900984591 24.7496978533126 5.60742819554274 0
-165.361332338438 -12.4035085462903 -11.3097254934752 0
-179.481939624588 0.0390291774377973 -27.0780248974459 0
-118.20158668324 28.7189188835421 -0.299501671614925 0
-192.876683965848 1.13649272993232 -18.9877180409543 0
-204.621343165993 -2.20428367923794 -8.73610359129396 0
34.4527379771458 2.87791517026768 25.2369881532706 0
19.0950668740103 7.83692905116631 25.961483889243 0
118.886240578715 17.22622411637 17.4467705560911 0
-221.21216215889 -40.7562322912808 -16.7270277044026 0
124.630585168566 11.4732556766879 -4.91129548765309 0
-43.1059323769364 -2.83751791137855 9.91768790258644 0
-47.455802260803 9.75361674342689 -5.39361880442562 0
-144.094632496542 -3.84684277228688 -3.51458630750355 0
-67.3144730859488 7.28961526658713 20.3426620819432 0
-69.4204384796258 27.293206191225 2.48875944092274 0
-213.58850442732 -5.14699167365934 9.16444602831412 0
-231.142422419461 -41.2291072840723 17.9696590455966 0
-13.2159053196574 15.5809819689275 0.777360047703229 0
-214.679897523266 -52.1818392515027 17.3939591650218 0
-198.939391065032 -35.2713753645491 -8.19951885159859 0
-196.819208815945 31.533503272711 -18.3445755499791 0
-214.896896667933 -52.3600329577256 10.0357053210423 0
-196.997284605496 -44.6047656310654 -7.42673203807145 0
-198.355676645379 26.8722961807458 -24.5426327311885 0
-185.558841163036 28.1402745279822 -24.4115238530923 0
-200.512109380512 20.2008961820871 10.355035284681 0
58.9400608640405 17.1401232633488 23.3842283964683 0
-199.556933895242 2.11229623254486 -13.2990587649131 0
48.1829107426538 8.49116584651788 26.1563146505823 0
-225.252032854648 -15.8979761883359 -4.91555850400046 0
-165.819271979085 5.19444945147208 -25.0986091694432 0
-114.056516992512 19.7118599512568 -12.8485198969249 0
-156.328519151197 5.21403638913285 -22.9460778806387 0
100.985385259731 -0.935040589315525 0.401514731675545 0
-216.202650533208 18.7017189386978 -19.7298253952512 0
-214.549962819909 7.23999355655135 -27.8590796038075 0
-204.619493682595 1.13357657847429 -7.51590779251309 0
-103.012173209769 17.2688258847579 -12.7249483128956 0
-173.835827314279 11.6360365047171 -27.1338858705716 0
58.8535629693551 8.76914054396058 -1.69707781187489 0
-147.376379664741 25.6903736872761 3.86210824139826 0
-211.40780133684 -49.3382633676696 -12.106207014322 0
-208.646475722954 -41.3489089588447 -17.4428468174994 0
-201.023256428011 -31.2982495251223 25.0577865122765 0
-185.179967120834 35.3053968232068 4.50828072894214 0
-226.091289218749 -41.4108217920369 22.4821478887582 0
1.57618717526577 23.0993071459238 20.5928879944704 0
-234.27798850168 -42.2799472571421 -2.70442665365459 0
-168.738246322744 16.1144736662902 -24.4792800159882 0
-190.320797018376 34.2258623470996 5.03362428070126 0
-179.146446080584 11.1442222611354 9.54786821081675 0
46.254988332382 8.48084992662466 -2.27656851604619 0
-131.326543512634 9.4981274516503 -15.5654366485273 0
-184.914363605013 -6.22229067328839 10.0012150984417 0
56.2113801462386 18.8065758774655 22.0324879067704 0
23.2111843807093 1.7032849899333 2.63972122777179 0
-196.15321320546 4.19322157185706 -21.6251370898421 0
-16.685978044327 2.24833041445968 1.96580693988725 0
-215.137795252983 24.9413299316576 -13.3621126119183 0
-104.604311060842 26.943162276858 5.60302323435505 0
-192.628097830289 37.5646604725013 -13.2376775021062 0
127.655842054554 2.39439005353937 -3.19941382373084 0
-1.80411848656418 17.8752351046165 24.1182620296568 0
122.284542214237 -5.75754669149689 22.7604047226569 0
59.1926534227446 4.31165539733747 -1.29212388969159 0
94.0413823531385 18.0296385799662 19.2399585552154 0
130.863228460983 19.0117469011221 11.2001826703016 0
-46.4307828704693 -2.99276472996812 11.2462171337247 0
-31.5482280566042 3.96333726369655 -0.391542546475401 0
-195.306030529904 15.6916836261807 11.9645960891248 0
-223.656683304376 -30.7944046832946 -17.6351939336349 0
113.58447256847 13.870467241547 22.2551035731014 0
-196.086016075045 29.3215496648885 -21.042675325619 0
-210.756563710843 -43.4313136497105 -17.014621993624 0
-95.0771733130492 18.5687720837496 -10.6974904204293 0
-111.872336474054 26.5182386381424 5.34966647890629 0
-194.757315720646 -37.6787085432861 19.2235210013569 0
-91.2432516708722 7.57464899077691 17.0987811369955 0
-6.04184110570583 18.4723889906577 23.7057266675132 0
-115.713862685201 28.042421427637 1.39649474740077 0
-155.736694065709 -2.40857270220426 8.72200277477137 0
8.42596555162895 20.9028270705568 22.5020675215273 0
-209.878238743633 3.20922544583363 2.50707312812241 0
133.639246316159 11.5720251574883 -5.72169895660365 1
57.080531963018 -7.60528411811821 15.6145468887561 0
-193.304369594074 -41.6085077308724 14.2011782857197 0
-122.122117693283 25.9749651828549 -10.5945040812653 0
-210.212501715761 -16.8813336864963 24.1707676039928 0
-195.277697064631 34.8119369011621 1.3227929456581 0
-111.847281233391 27.8621757040796 -7.36287406287542 0
-207.014304710154 -48.9014395759941 -11.7416115711512 0
90.1713374519025 -11.0075628588218 10.9960515567195 0
