-147.633384228325 -6.47127759863257 -17.4798674668329 0
-176.086970427376 -3.08013972696271 -19.9905321754879 0
-154.554760030971 7.84400793842709 -22.4428763337294 0
35.9485518876964 -5.41332739390163 25.9071813271848 0
-210.124430811053 -13.5758165200859 -9.47607960565944 0
-121.68210470978 -21.57228372019 5.11527387381873 0
-206.218144874391 4.1909070960947 -0.0888023821279249 0
-120.715802481595 -21.170373569528 -5.48844151897609 0
-212.106890329292 -22.0423850705633 -15.705601533972 0
-215.340233377634 43.8781167739852 -7.1352826449097 0
15.924736150983 5.81630679964842 -0.230667596541702 0
-221.556879224474 22.2825135880621 16.3867095542063 0
-155.542276956052 13.3670545924209 -20.4879810391151 0
-119.945029906382 -10.6754867434992 13.6980296405104 0
-56.5098186924529 10.6295488535051 12.0186333370752 0
-198.509692212199 27.4456887934519 -13.9609143033978 0
-89.3423224158857 5.41364145215221 -3.2357644831873 0
-14.1390955334369 -12.0189007830379 5.99706991395836 0
-125.914890101696 -17.3928271522856 -14.382607582978 0
31.0260698473124 -4.67291025042189 -1.36125177972429 0
-208.508428948354 -8.55096169573408 -22.6105818641852 0
-223.884299821588 14.6087071189718 -6.31540421617383 0
-128.848479442272 -22.0404598295281 -5.33521988055632 0
-128.877004178667 4.99984779506648 -8.66407375296343 0
-209.158806532048 -19.6272218568228 0.965629319131862 0
-223.155034305198 40.3333393143736 -4.49035208211529 0
-149.902015443106 7.51849158196235 8.45831447229418 0
-173.658304984814 -11.7932662664057 -25.8367085361998 0
-118.748446261385 -12.853342718332 -13.7261780755527 0
-95.807907725889 -16.5999998970146 -5.73456240769867 0
-204.34503571049 17.387657061034 19.6725192754882 0
8.64862490878329 -8.53138941788325 2.84662985611096 0
8.76029577689914 8.1271942009368 2.83041396883375 0
-9.29233634294802 12.632795304794 13.5387943994974 0
-103.135334504017 -18.8599901668226 11.7781655987819 0
-33.6061188445896 -15.557293109706 8.62799345248716 0
-11.476325708555 -15.1210615893119 15.2693743580763 0
-167.056612963189 -26.4999456080346 -12.3550557178362 0
-153.728203981015 16.8231927243375 -14.750559615502 0
-182.692836723674 11.8522408648376 9.5538120284885 0
-22.5620851543315 9.9951499595842 20.0719331180631 0
-83.6793404214621 2.26943106730266 19.4625925373646 0
-15.0602998384534 10.9810980319032 19.2870036757433 0
2.79280516447324 -10.0569999387251 22.8859295224128 0
19.9132683271045 6.85710144163427 0.559909310501276 0
-188.394099011076 29.7089423868971 7.18319283480033 0
-177.402648630573 -8.67193244737624 7.6021283124795 0
-143.414925857845 -17.9335472285606 8.35611177523886 0
-117.570249031807 -19.4746665193455 -9.06960950715022 0
-115.641626915492 -12.2456675587945 13.8671339605467 0
25.1663250502548 10.0787370706563 5.23104205601248 0
-193.489035181043 8.77596732252018 -14.6052739699216 0
-188.729278354185 33.1163700766475 6.47718222994949 0
-206.156289337792 22.1956807499222 21.4255305530358 0
-51.1073371490742 9.65614936611235 17.2976054261952 0
-193.311023249316 -29.3872997166381 2.1944917172995 0
-213.386759183942 12.8092714103441 -13.2794284983302 0
-92.934172577054 -16.9365995993997 14.3151325108462 0
-147.236278006757 10.8945217403331 0.880641140429408 0
-60.0324994995681 -9.91388867985091 20.801875450025 0
-201.390118367342 1.19749537206477 -8.01427451590676 0
-124.553450982687 -17.4332831929913 10.6163607450034 0
12.4446928799419 -12.315272226312 7.3609491581441 0
-154.036871827328 -16.7105676636561 -19.2283213052326 0
-184.277031650716 -11.8428904177828 -26.9180931293697 0
-2.54115271055192 12.9093800600556 14.918463706838 0
-152.104875042943 14.7307221666636 -8.76218568645239 0
-210.012159054179 7.17847660931301 0.337903356201592 0
32.6796460568843 13.746609018274 10.480994426514 0
-178.782531301707 6.97699925589535 -14.9802995189595 0
-212.110584701532 43.7937256270166 -6.06576449546503 0
-149.296394313959 14.3973884404001 -9.27317205453532 0
-200.02200085362 -18.0272267224001 6.30775341843327 0
28.3665799798022 -6.04730673921167 -0.031813185983744 0
-193.529115281504 -32.5094613961227 -0.382063431254052 0
-93.3316278900412 8.38602670570712 1.43265402232321 0
-153.801027249387 11.093850488501 5.15868301424154 0
-194.086717403768 17.020912893515 -14.0641698075397 0
-196.910481678281 -6.42955916539212 -8.72766753011556 0
0.0226995608316994 12.2314226032451 17.9245534967063 0
-103.188638960146 7.38721790280848 10.9475207594367 0
-194.279400935246 28.6492762035426 16.4985325886556 0
-85.4571600621944 -19.1332023317864 2.47181575875574 0
-39.7615146271797 -3.94805943249459 24.2111633652108 0
25.2033080995323 -13.009543656031 18.6404861750636 0
-196.713093094826 -31.4999023990702 -9.0104391029475 0
-129.573270207683 -1.8508723537014 -12.2904987645239 0
-207.099827963233 46.7592545403384 5.25143742435436 0
-178.889466623304 -3.39610411713188 8.66681702151976 0
20.9631181044306 3.98615516578928 -3.06330043285068 0
23.9701218947147 5.04860617767784 -2.18363629037016 0
-75.8099131039423 -5.94651231351232 20.8237215190588 0
31.7580710194867 -0.362924325520276 26.3673262873244 0
-175.673723025371 -1.13836234310862 -18.9097023955491 0
-199.992208547561 43.5977260255881 -7.57762247233919 0
-173.400169978479 -27.9875103436049 -18.1521694886071 0
-132.775009941853 -9.84625642145341 11.7754788011918 0
-199.995644770087 44.3565035601422 7.70457962928393 0
-226.200563962015 33.793387509799 -6.33016296527454 0
12.5052950178797 -9.44939900085855 23.500664962781 0
-192.933773759519 -31.1346114563006 1.00801576086101 0
-183.751182618477 19.1972184886679 8.74479470702547 0
-94.2508511686066 -13.3576189114833 -8.65650697717091 0
-32.4981626493236 -6.66586807347868 -1.13270332672608 0
-103.572719479678 -20.275526536283 -2.059502003851 0
-198.014798474992 7.73136020233461 13.1377943479563 0
19.12395908535 2.32457173468485 -3.70683523089516 0
-105.741530739924 8.9250309623575 5.94818410111107 0
-190.055771409164 18.5527617305749 -11.9047723357973 0
-34.9430235952135 -4.93766159488007 -3.73709436998739 0
-198.944098059973 8.93198119728134 -14.2960765046948 0
-106.594101255027 -0.783164678437236 16.87318168362 0
-52.9462559082247 1.10490612837508 -5.42822941660998 0
-125.830042505985 -21.4701337848028 -6.76629351678687 0
-40.2077159981219 -0.607703596680865 24.3959888008113 0
-211.804905035711 11.692670448075 -11.276669609682 0
-5.95817962794954 11.3048904243382 7.80849754396418 0
-50.2115169914712 -1.93958629867905 -6.08625636021161 0
-174.500071277645 -0.188085584694669 -18.4215789693877 0
-204.871398448507 47.1520737202376 1.54687296553678 0
14.4929575838508 10.4292600050413 6.44129073377703 0
-130.482652924899 -6.50848473777656 -13.6843683226723 0
7.45880521572333 -6.55022330633427 25.332670547979 0
-169.718674163375 5.2145622391715 -17.4166180274285 0
-218.853673629546 32.3345127450041 17.5866639056907 0
-203.419416326636 -8.11985048122976 -22.3560863759592 0
-201.554497920835 -25.1761149391922 -21.6874876908002 0
-178.033074950729 21.8575969895325 -0.0807536565004501 0
-51.9277216478844 -17.1463773265614 8.03543505780845 0
-218.881502728997 28.9879511248843 18.3692061984641 0
-171.106794951801 -18.7921972883506 -23.9511317487763 0
-214.574795461159 24.0316546619295 -18.4570790719826 0
-95.2485191854464 0.520156391747294 -7.70813988845736 0
-205.008027045788 -11.7541346053495 2.85962700530398 0
-54.3500695413477 -3.77019855358903 -6.12253151719445 0
-56.6462390797469 10.0657185568311 8.87627740748506 0
-153.578868372562 -7.05255558997358 8.50133245312564 0
18.5961394028189 -0.547869532695888 -4.69193410526937 0
-165.913807493106 -0.0848738086354659 8.13443007178325 0
-211.108640094335 10.0109455666236 -4.29359749843854 0
-54.9597660430906 10.5969132649774 14.1878108061787 0
-218.757992183294 22.9161974676947 -16.4305446787767 0
-211.01533576138 30.9998592518212 20.9551084223856 0
-214.612947245337 12.3420079791477 -11.4078278912772 0
-156.22617848489 -24.6560583164692 -6.47870713255944 0
1.25940703745415 12.3641365079406 10.1159042508678 0
-172.325352315981 -27.4255780314963 -17.235883101797 0
-115.968915024399 -17.1658690768738 11.6236775358848 0
-198.810309792739 25.8419255496435 -14.7531989988503 0
-192.675282945305 -11.536250651032 -10.6215323241887 0
-183.396204351201 -23.4115039119649 7.72221298721929 0
-51.6688151981274 -18.0837701904046 12.3408100384281 0
-215.232229005976 11.5046892704461 -5.38073049985076 0
-62.092369803804 -18.6273684192486 11.1936326874315 0
-24.7152610355612 -15.9186945765426 14.2691260261162 0
-183.243326594882 -16.9083671599997 -27.4073761086912 0
-77.8612495630168 9.5005328751651 5.61260488832174 0
-1.65198947609839 3.86722540933479 -3.61683923285049 0
-187.521983751614 28.8404250110713 -1.79972316186959 0
-99.1504108837414 7.39986419262558 -1.11519653297212 0
-188.087840857142 0.357996570723929 10.5791263564408 0
-183.810102068573 -12.3909920371717 8.33246218548619 0
-160.840138442161 -4.52718917377273 7.52256904679421 0
-219.48387993487 12.6719338016726 -7.31271450400127 0
-17.0049151331713 -6.71186425391018 24.5352923481721 0
-166.147964444137 -12.7544196920825 -23.3633975038235 0
-222.1974466432 21.401208712734 -13.4152239624463 0
-211.414718857758 -21.6960603794675 -4.52396277753093 0
-172.202757403188 -25.5878319195649 -20.622614535444 0
6.90263846039961 11.8152295985298 18.995588751656 0
-200.128360830463 -3.5382065074693 -7.70984250619953 0
-133.976341064844 -15.2530462318692 -17.5120871427098 0
-197.014949464157 -2.60281914140782 -10.5088430151065 0
-137.134172820198 -22.4907216225835 2.10361593356661 0
11.4865714952081 8.7623094552054 22.2104844191734 0
-8.19693033026065 4.72073842466393 -2.88561168774573 0
-197.266377130514 0.140925338590512 10.1608054607298 0
-51.106561801781 2.96483688182623 22.754507861079 0
-113.530360923485 -21.1934164425809 7.32971207867799 0
-210.721177611724 -21.5141250614067 -18.354243967204 0
-140.498896082411 9.71802024083776 4.71760429257709 0
-192.756588046499 31.9082235605843 -6.23652574169987 0
-34.2045253548034 -11.4124071676557 21.3311203007228 0
-8.57090706726886 11.4410801412731 19.0880278676212 0
-154.134664526221 9.67479193870224 7.36154110620603 0
17.9800819985185 6.89178578559658 0.746335245602227 0
-99.6082584292195 -21.705273283362 6.18426168214276 0
-200.970382248514 13.7647487812403 17.3395015005451 0
-192.814845432147 11.5402651591531 -14.4175415911814 0
-196.408821298793 -10.6119051954672 -24.4057162406392 0
-101.407027620561 -21.8508176254998 4.83018386025934 0
-61.5585780122497 -15.6307146869441 17.0795749453304 0
-181.229186599341 -8.96131785641722 8.36264970927659 0
-193.294079313259 -33.0405891782992 -11.6871306361513 0
-215.791181586975 29.0177510302825 -17.9440645058596 0
-205.05419601317 6.84854478351196 -7.79146869542143 0
-199.021343901643 -22.4267726403027 -24.976982464738 0
-193.220652733667 -13.4011346817565 -17.8862861192442 0
-97.2583695610557 8.16613499137714 0.45308701339974 0
-167.446912052664 8.25314826836533 -16.005679512055 0
-7.05617617276044 5.91091952300771 -0.922399474183389 0
-25.0082811856719 7.74734533711859 1.44251215451701 0
-172.11817372556 -12.3423914016647 7.55811605749884 0
-225.212097360484 24.6874576112801 12.5200891642868 0
-194.807825515513 -14.9384541291979 -17.1278057580659 0
-168.495999586764 4.18898573852531 -18.4805331360214 0
-122.824900316179 -13.3981866552827 -14.4179137639155 0
-133.978955151365 2.80241517533849 -12.5739876903104 0
-227.378463401302 22.7186925539778 -6.04431393151973 0
-164.037846878988 2.96221257612549 -18.5473084292012 0
-76.3025554329321 2.34603750965692 -5.50857654684965 0
-203.539832284331 9.75485561200536 -12.6824249296096 0
-13.1049407954899 5.65632919319162 -1.51642439954677 0
-165.381123509853 -22.9551900898574 6.21529295403264 0
-45.5625083202499 -17.744286706245 11.3129849845547 0
-88.2464449658204 -14.7107867034151 -5.14690959347223 0
-69.2450762385096 -9.94880796259762 -4.0382158016868 0
-98.5200240104682 -21.346875398685 3.00343219735275 0
-123.582743341781 -20.577616305722 -9.67892583367031 0
-213.550443406135 36.6157424553116 -16.1589286196376 0
42.7980545509665 4.84436503981549 -2.06303882457525 1
-195.622187839565 -25.275901712203 4.67204581230417 0
-33.8239699148999 -14.5798886949561 18.3140654718057 0
-222.099226354394 26.4516319469235 -14.3435437877031 0
-85.3339708221958 2.54233405633354 -5.73639727113151 0
-31.6780834159136 4.18736004783713 -3.9189956179871 0
-151.237181779451 6.47849460360446 8.94135144302274 0
-59.6972982283703 8.70650620824878 17.6484079589276 0
-70.4192067880243 -3.91764269314209 21.8170754368335 0
22.3220697880729 -6.96582677277096 25.3257304686467 0
-154.354020918091 5.05928156394877 -22.3090841188566 0
-44.2657909166003 -8.16397260472514 22.7806685337603 0
-210.527137235003 -13.3832114310726 -11.4172448308151 0
-210.438832266636 7.77469286982416 7.6920690773366 0
-29.5214263428301 -7.83847383648652 0.573708594489799 0
2.23221356597874 -0.262296585133435 -4.82591599825725 0
-205.35164761187 -27.1870126207892 -4.51404941361365 0
-174.530922017357 -3.43753229927047 -18.451968323849 0
11.0141268891804 12.1418640317032 9.39181261767498 0
-138.552611818873 -21.483860007318 -11.72185611236 0
22.5083618336661 12.4066244610507 18.8178486191591 0
-185.461167197548 26.594937552379 4.42678394744648 0
-77.5907979932537 -13.1130043697757 18.0764005842712 0
-26.8896334025967 -16.0433314339836 14.6346864400439 0
-188.600517138723 -30.1225906032758 -16.7326770871428 0
-36.4639262870844 5.18787421645479 22.8071303161238 0
-171.632286060674 -10.5770663016866 -25.1229628352003 0
-123.805027654425 -18.8087952742025 -13.1861574222923 0
-217.948503117982 14.8176818964713 -13.8040079512523 0
-92.6070481676921 -14.6679677006866 -7.10253801575695 0
-62.0992652457298 -16.7227189101516 5.5355819152299 0
-185.680152878872 21.650409697764 -8.63218572111628 0
-184.533348176635 -36.1365368595404 -6.77252959407003 0
-78.6525059583519 -1.81622913772508 20.9574207895011 0
14.8153852498707 11.863352575513 8.60799938842741 0
-225.691823573862 26.9421032134001 -10.1531101653206 0
-63.8092563515814 -10.5765531142336 -1.3253493009507 0
-211.89585234441 -14.5141204730266 -8.63588325205746 0
-103.353688379793 4.64758095423277 14.7198374441811 0
-12.3627531623815 10.1440372250232 5.65017706613652 0
-196.717378248354 -12.630176692841 10.6710983326837 0
-90.1560126469268 -20.4895673123518 9.5781856933713 0
-204.759038526555 -0.221094790113365 0.127677659441843 0
-188.744289507731 -1.90108519469664 -15.1748709392342 0
-225.212948552335 36.2627510620765 -6.03094220414884 0
-200.986159819364 -29.2623185448671 -14.5358159415474 0
-172.862038870415 -28.7170239611101 -14.5468598766642 0
-89.0555230380065 -14.2065954204565 16.3629797570655 0
-7.11772812373619 -2.05564724083482 -4.35240418512976 0
-174.501025858331 -29.8718206723634 -14.5973942240472 0
17.3353069011508 13.5335098273806 15.945279202383 0
36.3472239931929 -12.9948608465656 18.3377201388089 0
-3.70986881867436 10.2601377009937 5.85210417528679 0
-42.3673863562734 1.99033406928423 23.7313534356854 0
-187.806544979258 -26.9223497389208 -22.0730677736339 0
-223.240315093598 38.7466544285765 8.78687291821764 0
-199.406152157995 1.04372722680414 -10.5555415026952 0
-164.079318060192 -13.409147758984 7.72341801263179 0
-191.940978217324 -14.2712940077504 -25.8759808687995 0
-91.315125939119 -18.4643675530843 -1.01955051407367 0
-12.0581521882116 4.11425265427272 24.6192661993493 0
-191.274615467629 -10.7390689411946 -24.7054727416045 0
-116.952575604736 6.83158304645153 -3.26793562418596 0
41.1791443833526 11.6007325859816 19.9329818347319 1
-178.72827929564 -25.5708472339065 -23.9370230069993 0
-206.709103590904 47.6967955978338 1.52736526039529 0
27.9424318332672 -9.78121706632534 23.2841663652847 0
-63.7591834714217 -18.3601196242356 7.95833475121611 0
-159.741845733423 15.2439685450242 -16.0008972511634 0
-203.559430128037 45.4396432937081 -6.19058875721501 0
-204.855125423822 -10.3463138806669 -0.783604521713428 0
-77.1277140815195 -11.5658650603231 18.8136947151455 0
-113.39486904782 -9.14175348716302 14.9637749315497 0
-184.67973849724 23.8073477174932 6.8033551725407 0
-176.548781797488 14.5585155821351 -11.0174680932112 0
-129.920615142972 9.36524923954323 3.74022036671211 0
-205.081873257509 34.9253620358882 -17.7103310835974 0
-195.987868945444 17.3670875873466 -14.6669773481965 0
-188.035570539809 -28.8847966112428 5.72704746579114 0
-199.690987668881 12.037641550225 15.4375566278578 0
-207.98557219641 -21.7055177849047 -20.8311536148256 0
-228.043087156702 20.6573116799533 -1.73701416373838 0
28.9605252374441 -6.7277619221182 25.4619374130167 0
-106.912991368733 -19.6621371729066 10.6125245875223 0
-71.6963749601781 -5.33697008431775 -6.75336051934518 0
-216.298811949973 10.1020343129693 0.867077383308475 0
-93.7522792873318 -21.1576590594301 5.53830018190659 0
-141.644375704696 -7.01984968650576 -16.0031655558612 0
-191.421884453562 21.6991247581542 13.7160130809792 0
-169.398560410838 -4.50527628865832 -23.4889449617464 0
-37.86621271894 -4.6141923153266 24.1769840346657 0
-138.513527510685 -20.5665827699368 6.44297121007932 0
-46.1764154192833 10.9482918430461 12.847559292751 0
-225.316724189334 30.0841917946672 -10.1595492219898 0
-13.9653942166228 4.28600974453372 -3.33689419481218 0
-68.0886840899747 -18.9063613784771 11.8804585574522 0
-174.012350010214 -24.7009024718492 -23.4682077563422 0
-131.867208105946 8.71896977941361 6.24597648149612 0
-182.345478984887 24.0849972484311 3.62973458408295 0
-128.994479350112 8.10392856824823 -3.58800348761048 0
-61.9012108673152 5.89178020054138 -1.97232806038802 0
-47.1920732935426 0.411417657294133 23.8026314749967 0
-204.426911895397 -12.2671863695676 4.25269585896471 0
-31.2330624875716 -11.52299935241 21.3063993684861 0
-190.629782703878 -33.4276815581761 -11.732553660171 0
-204.403601162689 44.004941693973 11.5105654559863 0
-85.1307548606529 -4.00107569347967 20.0308249189263 0
-17.8014299637389 -7.12372735888407 0.579307151537397 0
-56.1812734010328 5.51530826255475 -2.39857551380971 0
-67.2709349402975 8.73984347633709 15.6211238500662 0
-140.08509771437 8.61665825906087 6.65409853567034 0
-218.402898023038 39.4319120536467 -11.7546648914247 0
-216.737788826958 43.7430208143769 -5.6800220693519 0
-181.201232856644 -35.5714697158174 -1.31756880449458 0
-140.838614990221 -4.952710300661 10.7732669642208 0
-168.785993069627 -26.8271558487003 -13.7798332433482 0
-64.0057490814758 2.45983397946275 -5.28982141958056 0
-179.298362493018 -18.1372105855745 7.41617503469981 0
-121.597675195384 -7.93429862302916 13.9272566138446 0
-88.9721742684553 -20.7391836179423 7.11199541362743 0
-168.104726852921 -25.8624410338982 4.78449635822673 0
-13.7288713580333 9.02326004666583 3.33499725196607 0
-79.3852786461874 -4.3119476543098 -7.30464973185243 0
-186.645588155564 -5.38646246499382 -19.0525148674715 0
-116.850694620586 -5.93192247022693 14.9595140541706 0
33.7166881985825 -2.92175707088616 -3.49855541319879 0
-9.9576600423434 -13.8287027963001 18.9175626852324 0
-191.657159385012 13.7310200314601 13.127835087432 0
-202.880450855875 9.33903792148386 14.0917299034328 0
-24.2124271673851 12.0560198774572 15.7222923327663 0
-26.4784759577865 -1.28171684974654 25.148872239551 0
-208.527482905695 -17.2287703466186 1.96455104870555 0
-182.813691302658 -24.2046655191857 -24.2492012573738 0
-214.63934988722 9.88371303521916 -0.559238702050659 0
-98.127309950965 -14.7893917042478 -8.61326002456159 0
-179.876327705953 9.67722097148874 8.37047180056639 0
-225.252224315399 37.3816478160551 6.47596253205008 0
-102.520550424785 -18.4137278204788 -5.41744252993895 0
-204.243859677193 -16.6728320090847 -26.2954289532937 0
-92.2983207735789 -11.6300259503762 -8.99755379855972 0
-136.607671330332 7.58549419929092 -11.1465450477325 0
-19.1609898667051 2.72700707519496 24.8187165216817 0
-123.409067445181 -21.7886034045986 -4.18136802014776 0
-197.091204778528 4.10249960352114 -13.6505489328859 0
18.5908750230542 13.8256226024166 14.0054311329265 0
-166.685949232968 6.54319518996755 9.42251483292768 0
-131.938420837358 -7.22775213696628 12.3365559882339 0
-42.1106203486864 -11.7745162921201 20.7926072053654 0
-56.8087783585014 -18.0278520765479 13.1444610640818 0
-128.876856060086 -15.3019341437513 11.0647935073222 0
-84.8191420667633 -19.7495725165745 4.28598075082232 0
-105.445422289444 4.31228608795501 14.6238015534658 0
-65.066916256461 9.97985033679934 10.9208323214468 0
-190.536573807662 30.5676302469257 12.1223378081468 0
19.6030224905405 8.65147896548892 3.66978398144976 0
-165.065835079161 1.93202156098054 8.77882292406215 0
-94.9113521743445 -11.6513208441271 -9.48917525041868 0
-46.201023505916 -10.6063389949398 1.54525703330064 0
19.7328206183329 5.0004083114318 -2.36625419371859 0
-46.7069598004796 6.21409109342488 21.4256623563368 0
-225.012836307189 21.3870689912262 -10.1496993110901 0
-203.507146945882 -10.1604305503542 -17.8668433204964 0
-209.414027972514 7.75694014513487 8.99640029799476 0
38.9148714117459 14.1335095869665 15.9753102250934 1
-219.635470698882 10.0939936996134 8.07623514798121 0
-12.1525598171638 -12.5134962059899 6.77020490998513 0
-40.8562690056299 2.26633233333091 -4.97547349108293 0
-184.784929837156 -8.48681481846405 9.26975595396354 0
-217.945235801421 24.5448295217768 19.2242554092339 0
-81.4352679483489 7.39643304462942 15.2736107221952 0
-105.848187800296 -11.7930611623929 15.3242872313806 0
-161.948493650279 5.45916197499628 10.1863981758812 0
-198.053876440634 -20.3126949550184 6.12427809466525 0
-216.200155488207 12.411715198976 -9.8458719601167 0
-174.438858646625 -6.22037333060645 -24.9221098648939 0
-45.6178135058969 10.9265047969159 16.0213460689298 0
-194.276123557808 -19.0736671311638 8.27325413216929 0
-25.7658946295518 -2.05811160566374 -6.1248141041908 0
-159.030655692259 3.44685146550004 9.41959832902864 0
-195.116092106301 11.2841537220134 -14.8011055612656 0
37.8443260711616 -10.5335437638917 3.79434084870841 0
-113.502906907807 -6.11885107187231 15.4268193618445 0
-134.699668568516 -20.1611016074451 -13.5404879915575 0
-113.773730395857 -9.6952890570585 -11.8053609296176 0
-219.783620052501 43.2809026933115 -0.725569770947476 0
-10.0233182565553 -2.59874364752784 -3.99257079526326 0
-90.3817039366829 -7.94046657429951 -8.4567086955504 0
-175.446207868511 -30.9345576596271 4.86939774588333 0
-159.900781785299 -1.00354643236535 -21.4920397778759 0
41.2670626153926 -9.79830770405611 23.4476303372169 1
-8.27242695548407 -10.9976543171834 5.22818975402813 0
-174.022297662227 -1.67689383171235 -18.5406809401897 0
-194.914293258949 -32.6319279562751 -8.06721429290823 0
-106.074119929308 -3.20649538506475 17.0205567774401 0
-16.9268951043006 11.2263332900498 18.9453988098448 0
-121.28413000344 -9.01039495172152 -12.5338939480958 0
-129.2560876345 -22.2858777753909 -2.36943003335269 0
-71.7074671911545 5.41545918796837 -2.77434391535963 0
-184.008805424485 10.3075816048674 9.70558069747294 0
-200.349721888364 35.3444029697073 -16.1928455654537 0
-145.265664236972 12.910629116835 -11.3275120119354 0
-185.214235144021 -14.4913626267628 8.38988687293553 0
-204.534948447019 11.8924787610862 16.4643563310442 0
-217.039530563305 30.8257791648974 -17.1107150705749 0
-149.969811842519 15.6589636465244 -11.2240826196395 0
-188.531042329626 -16.8626298161994 -26.2209077633477 0
16.060995164695 1.7874359911061 25.9834920737017 0
-207.234442886967 -8.92194574625657 -24.5300635709624 0
-197.376913471444 -24.9287428651833 4.4557108317909 0
-151.735047081217 15.9257225843878 -10.0255701696167 0
-0.253520065540539 7.54684957497937 1.43050998880884 0
-122.390990759957 -10.4432097228368 13.3840673197557 0
-63.9927834000164 7.80765894819537 1.14254274362798 0
-8.12514851538604 12.6383395691425 15.2548917467389 0
-191.320208627379 35.1815374391757 -2.41296833232711 0
-177.580582477823 -2.45818827677637 -19.7400223721948 0
-201.090487166744 -22.4061343489438 5.25141102594911 0
-39.5780197646052 -2.0598633506161 24.4046298407904 0
-195.450637417744 33.2192128731481 16.2480878901329 0
-153.361905052372 7.09260584439094 8.83148382227328 0
-194.361967649933 -33.5638094593453 -6.39916028685177 0
-139.600688276636 -13.1059137091815 10.3358074963337 0
-166.334325799924 16.571575639888 -4.23158599947232 0
-128.305991505441 -19.6590854734368 8.48945456415755 0
-198.645101523444 -27.8874499633815 -21.1688631089198 0
-160.130364006194 1.58601722074513 -21.0789559266608 0
-201.419537802423 -17.8427720490836 -26.6514828247947 0
-80.1161990103142 -18.5088221905241 2.98804296099491 0
-191.793784995556 30.7024980000478 13.5583024586675 0
-211.870536043915 -22.9543167495986 -9.71758046689338 0
-206.166995339377 45.9490982843184 -6.97133431643673 0
-214.620166550049 10.302721441245 1.13026784452775 0
-25.6695264611081 -10.9885464614593 4.02992079258751 0
-10.4682801816465 -5.42207983378724 -0.891472787970909 0
-196.087131213932 25.7784304711731 -12.0132313103718 0
-207.993343538765 -25.7986811071241 -7.42394645362242 0
-213.764264050631 8.63976053841898 7.95698219578464 0
-87.5764871502059 -17.4519478698685 -1.01633923180125 0
-42.2657677485052 -1.77006222621468 -6.3702410950016 0
-93.700428642895 -20.211859488343 1.76338135866535 0
-117.728666812779 8.38752378453025 7.02184167868079 0
-117.237715461579 -3.08930336931897 -10.4421426852557 0
-13.0050504157719 -12.478143008545 20.7099504118796 0
-158.475311700682 -16.0297210426376 7.97756730431171 0
34.5783440609473 -9.36939541668914 2.68051052642247 0
-89.4175061016763 -18.0311634909716 13.6194872286568 0
-67.7278176891819 -12.806710159656 18.8994372157886 0
-216.417882572658 27.2290234870087 19.930079989732 0
-83.8565562349733 6.71466724516058 -1.25272997336725 0
29.3893086918057 8.86517012194645 3.6518666626526 0
-176.553964854614 18.9061711996697 4.50926042933173 0
-188.221194402299 26.1581747712042 9.35034576250039 0
-176.795427384756 12.2945530390911 -12.2816906768866 0
-194.985530892238 -14.7365518778805 -14.8519745644016 0
-176.189846985412 3.9358369572453 8.83131670940331 0
-137.966601521418 10.1157033662359 0.852435299561606 0
-133.218588819937 -19.366787732391 -14.4300453288149 0
-78.364974292128 8.2916580511366 1.73058045111407 0
-12.8935914831438 10.7271589734191 19.8416511993271 0
-154.321965875871 -23.921248231839 0.797591785181858 0
-221.539812031909 41.9850539130792 -1.09197057974946 0
-90.9180621094397 -20.9007578606302 6.05527156048945 0
-101.093546082157 -8.87035927706284 -10.1711863161203 0
-205.634874746763 22.4346621947049 -19.1140051632656 0
-104.90185551184 8.26633820339228 8.49277819149868 0
-183.253613698424 -32.9798540012215 4.17058348441039 0
-109.110753950614 -17.9033563997491 -8.47541096505257 0
-47.6893403562575 11.0159482447004 14.1378158753853 0
-126.058313241012 -20.0074375061014 8.31241406042171 0
-79.2913040289719 -20.3032201375823 8.33365001012852 0
-54.1996978966421 -12.5491921525309 19.7156231729936 0
0.0180390548607496 -5.6944954136318 -0.0788911949275525 0
-186.342397622567 -30.2501879069871 -17.8029200681244 0
-20.9308239140508 -11.5013149448319 4.81295766859526 0
-117.54544258205 -16.0330223616467 -13.3287725703553 0
-94.2907274663343 -21.2282000572337 7.0505189723924 0
-116.307551194228 -17.9127577872814 -11.2308274662031 0
-143.977738513032 11.7961360844531 -10.0593652248043 0
-198.03775802285 33.5158410851565 -14.1449032188618 0
-214.990876019217 45.5710045046583 3.70411258486311 0
-162.251463896141 -20.7935480875247 6.91780302943649 0
-109.204794522431 -20.356526602131 9.43842047631066 0
37.3105677775159 1.93893784664503 -3.99514491199118 0
-142.439612342399 5.45535617458869 -16.2217374106919 0
-94.6558833788396 -20.031828311933 10.8088610910509 0
38.6856269674042 -0.663303650716621 26.3351978790809 1
-152.069465238939 -8.64346508874736 8.62982814931714 0
-192.441497248245 28.2211887572986 15.06009432961 0
-81.1270755163815 8.58635858433327 12.5594317801902 0
-48.0840863486717 0.585987415988224 -5.65907610879867 0
-106.31453842923 -17.5141274786731 -8.2037726616506 0
-208.862333304052 18.2356777171202 -18.5607169374054 0
-188.661243670799 -23.3567206930327 8.14123313112519 0
-50.7863707284954 -11.421429787517 20.5716782093017 0
-74.2158089073544 6.29561909313287 -1.57746601714066 0
-166.344061793254 -25.2787847765701 -15.2772984518919 0
-33.4447188279894 10.6818220895777 9.78112834419587 0
-115.487438176217 -12.4706457467944 -13.3350987375187 0
-169.134297943528 -21.7126671360873 7.02027262855434 0
-221.826122870149 37.9773233993984 11.7375565890793 0
22.2126831281524 8.25499726433628 3.25315320511337 0
16.7334000392017 10.9125895947374 7.00424794016022 0
-214.294241257994 21.7351449209519 -18.2458761761586 0
-142.801173472876 -21.4193074330594 5.07853445138232 0
-199.778665007206 -29.6402404887968 -7.20960263900615 0
10.0291206842255 -0.0264625527875717 -4.65697595309136 0
1.41305180789188 8.86782620032334 3.83042465356081 0
-0.641707777698601 -12.9160240890058 8.74079732422588 0
-165.816431179494 -27.0644316806506 -7.22871491879629 0
-82.9287779841266 -17.3492723085381 0.31636129538324 0
8.52410556065536 -13.0072615099923 19.5586969339771 0
-194.416434015152 5.60678219891503 11.5902766504176 0
-41.5060548819488 0.285558941759071 -5.76418821326001 0
-103.459786808809 1.98108594420983 -6.99105687488801 0
24.3403533712326 10.8716176963822 20.5623353256123 0
-210.449730030718 -13.1428968340313 -13.4318460520801 0
-38.3056906285964 9.84149448603881 7.48243812250206 0
-195.119511850928 -1.88983245961376 -13.0968047874175 0
-227.067792916441 17.1011864711905 1.09264281519926 0
-201.535203167141 -4.31472597028564 6.27625228610912 0
-20.5063848691317 6.72471816782418 22.8007961337689 0
-110.949918033885 8.70843705308138 6.54777063100565 0
-153.710305943887 -19.5491585138078 7.1628616873412 0
-195.502278020417 40.958089476551 -6.82527660495701 0
-180.08127521204 -10.3360466742784 -26.8051805416391 0
-7.6740109496986 -7.38940174742613 24.5171090072412 0
-152.627674133249 -14.0148673403168 -18.9461586147276 0
-190.137591003076 38.3664019049349 0.943794905860458 0
-15.8386263986213 -13.3351173240337 7.69844103196394 0
15.5481567410046 4.98115128258357 24.6745457443534 0
-38.3309537311828 -1.15178990186431 -6.36562796073633 0
-179.851367482416 -12.3313073228046 7.81167503997844 0
-170.556472387124 -24.2908081447833 -21.2894871933856 0
-24.3993643450044 11.9363803583148 13.8123869762168 0
-192.851011518781 -27.4893136374306 3.90056697905145 0
-131.905079744084 -22.4359652471342 -2.88097744092874 0
-155.504066456918 -12.5654400842121 -20.2078785178381 0
-209.858707404355 10.5061730360832 -8.95077120709726 0
5.56074563698033 -13.095009774639 9.00621950015539 0
-217.725475353156 18.8427936056898 17.9011496249558 0
-60.3859948850352 -12.2128462330104 19.5928460862889 0
-32.3725007174041 -8.83549011176498 22.9811606142593 0
-16.9647315760473 1.59855957456207 25.2124503469189 0
-55.9555924543987 0.513901855069491 23.0982482315499 0
-219.996880433187 11.6137427526289 -2.84631181811902 0
-159.793194762276 -5.84263272835534 -21.2506870056182 0
-194.393439583527 23.0872089394059 16.9957865643645 0
-200.324735084715 24.7448675353769 -16.756115537612 0
-161.33395533523 -20.860024688057 -20.1864006483519 0
38.3557702803651 -1.75973303790269 -4.3842662013222 1
-209.761844024184 38.6105998122481 -15.7947086302408 0
8.72213279238855 11.0274694876099 20.0221934128526 0
-186.660037666395 -36.2033169295866 -5.42402096752949 0
-95.1617591014196 3.18740368981283 -5.58622351928168 0
30.8857867859174 -12.2660999133619 6.61153567666981 0
-38.113346560012 6.67086775576571 21.8350850838934 0
-115.571897452906 5.33322267495821 -5.15007010696903 0
-36.878930046884 2.64696556300816 -4.82600542172157 0
-106.635511623534 5.48379945387913 13.3453912870549 0
-106.498629876644 -21.2651635866506 7.8181189640485 0
-166.253562088908 -12.3895422341366 7.55359496061923 0
-226.581898214316 18.380848606393 -4.84206246382436 0
-194.897580012174 -12.2929656171227 10.8289988999195 0
6.11928077614013 9.8355727350057 21.1644871922033 0
-37.5576961231155 10.7392699606173 17.0621444500772 0
-69.7219091835599 5.20188068154737 -2.94269846246443 0
-53.7591148013084 8.61573163136188 3.68399476321999 0
-94.4060225742202 -8.26854873144185 -9.26037654612437 0
-212.565011347254 -16.9868100449943 -10.5435392938792 0
-209.355470883468 38.426496367362 17.829204696981 0
-164.566650828448 9.50867527120212 -16.4802218448728 0
-170.675108190975 -0.135507456924388 -20.0915684217661 0
35.820666003717 10.5709920328128 20.8032086403648 0
-89.4623522672894 -8.36713174494806 18.582531395019 0
-63.3142921770506 -5.07946904335027 -6.45734160217248 0
-75.5832473930216 0.299778900929817 -6.41461964585875 0
-146.974257862538 4.87579493157765 -19.9285799958899 0
-211.82740686758 12.4570096466519 16.5094300654238 0
-215.323301299273 18.9954860780528 19.0455202682746 0
-211.873799332144 -14.4422126326584 -12.3064474119406 0
-199.091008781034 44.3443777899417 -4.92730634745345 0
-210.821525344737 39.8153649637784 16.4906418148825 0
-103.818215881444 -1.28512883017311 17.3714451760416 0
-221.201039097005 17.1727108979408 -12.3193049334033 0
-166.743745521961 -26.8038358637116 -9.80949720104855 0
-211.303595180065 44.5568483047092 -8.01275927968033 0
-57.6596543998986 -9.34579440552133 21.2507448004349 0
-185.4448743796 0.610489617820788 10.2723660367013 0
-212.196562673977 16.5991197476743 19.1814742621428 0
-113.50557397399 -11.7489971351521 -12.6461144596074 0
-167.663568588201 -0.424365591210917 -20.085527747883 0
-84.4390999869725 -1.19867438712597 -7.2626765684678 0
-102.983533994504 -7.15879446451628 17.0604720931793 0
-183.470444137126 -2.14134640770795 -16.3365701732058 0
-189.028209531674 3.90424520998481 10.1291992170973 0
-47.1413156760272 -4.78641362894397 23.5984011049073 0
-116.923014686678 -8.53486647941657 -11.6990021220503 0
7.60995339504311 -9.50378145736034 23.4136213105984 0
-181.640477672426 8.02367124536643 -14.4603067039347 0
-222.910539051249 12.6229655082836 -5.02535027952467 0
-127.572242514522 -13.3181560020753 11.8372080110116 0
14.5744516811004 -3.20724427583515 -3.22620296146764 0
-159.945113897381 12.4750015681739 -19.2774774142014 0
-159.692382657481 -23.2165007865623 -14.3964798013512 0
-76.6707112317876 5.57065522431502 -2.62971501037583 0
-203.476350812061 -8.98731847658731 -4.13303899931387 0
-144.975747006679 2.62800487124822 -17.7039892205043 0
-81.9170598544895 3.68457762537326 19.0568287497984 0
-57.9552167472687 -8.83673111902699 -1.71911149424774 0
-170.896414014788 -28.4761819692732 3.37792413916368 0
-25.3253259073431 9.75018402145977 5.72508534069335 0
-200.595753352147 -6.62830996067892 7.40537534528395 0
-149.276489560155 11.3589263072211 -0.879706306248108 0
-28.1098346534586 3.56999505211774 24.0479362590411 0
-195.682521952208 -30.8413808923404 -16.7907368057851 0
-25.323050220449 -7.36168713229209 0.362492650675136 0
-112.245072877065 -5.69244629599521 -10.4084923902018 0
-158.684794180679 -25.1225729507832 -6.32447852650626 0
7.42189752718484 4.46395135351299 -3.24251973834306 0
-181.640582671841 -24.4588525863753 7.81377860776741 0
-47.8297438314315 -13.4543269323072 19.2559931370446 0
-70.581803121214 -13.8078396399551 18.1312838367099 0
-199.777536734973 -13.4427469645654 -12.6644618595321 0
-191.649937417337 30.1504739413543 -6.12907601268425 0
-126.527603499272 -21.8069492546023 3.43987686490354 0
-92.2717661434165 5.7700957533928 15.7080378113732 0
-9.47971952566803 -14.2675739091726 10.2489962417931 0
13.7383003262587 -1.71213939513275 -4.29228111878079 0
-208.995796643385 -12.8622180600823 -11.9644062291257 0
28.3960173788728 14.0786763152217 14.9014054889702 0
-198.491148456283 -13.134583297625 10.293569375596 0
-151.773231425735 0.669217477043259 9.34814590634215 0
-227.303698026541 34.4327675792596 -1.85559101467666 0
-220.265407924 24.5832821223256 -15.6671453482217 0
-140.284442894379 -10.069340893791 10.5486772544342 0
-204.46503823474 30.2325159776246 -18.9641913965996 0
-162.411503501503 -10.0954596940087 7.73809276388574 0
-22.9091295303388 0.572850743809379 25.1454517478732 0
-104.114657726038 -3.58599109863963 -9.03749452197047 0
-54.9751426043177 8.81261774413711 18.1251358777636 0
-188.772630273163 -36.0729053883849 -7.07967871965831 0
-102.218738749204 -21.6227622210193 6.97846186368575 0
-46.2535436252622 -1.65154534246574 -6.23849298340106 0
-103.403989738382 8.10052022775602 -0.0718669453174972 0
-6.88542037004563 12.5290773757964 12.3357816775206 0
-127.991199597481 -16.3689171502017 -15.839757856114 0
-29.0899602890403 -12.0543972326623 20.9314461518183 0
-207.700624393592 22.331215566312 -19.3173623650472 0
-196.039660415738 33.496909439839 -9.88946121154572 0
-86.2521870950634 -11.3563519782452 -7.78667180335923 0
-176.146889255551 -3.70237813625262 -21.9608235395292 0
-193.39274348377 30.5479219345872 -7.77337772609763 0
-190.005563663148 32.9603730528197 10.2556241739341 0
-164.217231268018 -26.7125817256096 0.0239075876592306 0
-190.578235752703 38.7292496231845 2.82082333717781 0
-36.6717619178687 -7.53611876394814 23.4274455353329 0
-9.95050219726752 8.18757008958733 22.2264614695243 0
-199.872159547615 -30.3652732470042 -12.2851151026656 0
-3.47130683837223 -7.48931100434788 1.38004011486362 0
-14.895303772533 -14.389480638807 9.73987698130354 0
-211.305161923893 46.1519469759465 4.41518630505931 0
-91.2816706812127 -14.1783580830946 16.1494940980703 0
-157.961139830048 13.3837875523692 -19.7583347253323 0
-187.939012638322 30.3533948729814 3.33197127679694 0
-228.005139639547 33.0992929982711 0.668146567410479 0
-179.453385617985 -34.0521834550861 -6.97470695950036 0
-53.0773940086209 5.54078152567116 21.265651358766 0
0.529941631428521 -13.743520080592 10.543024876443 0
-189.956188492439 16.2183477962992 -12.7736915867305 0
-123.189281051137 -7.8885217814756 -12.4406322110832 0
-73.6315946560708 8.71520956350347 2.61876904799316 0
-168.609798513329 9.09915402035271 8.76317810389749 0
-52.6290058027165 0.303519549390556 23.3935910965385 0
-96.7035092739742 -8.93309219443589 -9.7586514780303 0
-99.5130090059152 8.68613839281431 2.01965683717178 0
-161.961478588824 2.68437343480161 -20.7033109631043 0
-185.058353664907 -27.680116961929 7.76854639189341 0
-220.732911202155 18.9578834412263 -13.7681305961737 0
-132.709637922177 -16.6125972775984 -16.6879977716771 0
-201.72213351173 -26.6654014251268 -19.4460799723804 0
-110.419871613725 0.808337051923519 -8.00315381724137 0
-91.2746993683112 -13.3280395208916 -7.81946719972951 0
-161.149878012512 13.5290806761103 1.92997233861607 0
-198.394049989282 37.9054608831541 15.3525792392358 0
-191.370265044242 3.06500247973042 10.3263637439237 0
-39.8269005840689 -7.40485521448798 23.2822294817381 0
-216.447011938281 41.5815436439097 -10.7546209766106 0
-23.8030614506494 -8.8516487241523 23.3317270019033 0
17.1469159559869 12.6438741757852 9.73194982540386 0
-66.1823554683512 -16.3251958051468 16.295442853868 0
-199.163674367852 27.0223616586659 20.0210877906535 0
-179.624147755168 -30.6765525720711 -17.9998458017736 0
-108.872930378825 6.43126012157135 -3.16212389673132 0
-188.478195251416 -11.2596168197747 9.31656009868246 0
-94.4891064005166 9.07905611626177 5.14598361770365 0
37.1339595402852 12.5116010918383 7.72718155707682 0
-123.246264204058 3.81668673943254 12.2210866978643 0
-87.9024508351489 -16.4459175330257 -2.6390572649112 0
-155.143662214902 -21.5081282291522 5.79936261393974 0
-179.373773484631 -32.1438570236226 -16.4843007115933 0
-204.121122974962 -13.4498429175224 5.55389556526236 0
-187.796055229171 -28.8482266658304 -18.733003843746 0
-64.9250826042904 -18.8453898421967 11.1873191314347 0
-190.267309025284 28.6769865961403 -5.84790128684116 0
-148.108732098887 8.53867120264822 -20.7182046449414 0
-83.0121212680694 -2.49174399066722 -7.40115437500181 0
-196.470169099519 9.30039088707946 -14.6199864170142 0
-11.8353954133775 -0.966148716239876 -5.29177198218509 0
-143.115716569113 10.1372174511882 -5.3357752882707 0
-4.32752849158269 -14.3958327240142 16.988477830088 0
-168.054992516162 -13.7385462376912 7.51269032199187 0
-203.765194517456 29.9576827249064 21.1421951943216 0
34.6213709296624 6.52816078782377 0.438965263493233 0
-208.474349418468 5.88365700535104 4.85685942326903 0
-181.795231275929 -12.5268879485843 -27.294348590256 0
-197.396299733341 -30.1403514569227 -16.5610583362857 0
-44.1856345393349 -0.494445193404118 -6.02495928308476 0
-34.9782280308945 -8.00962999458449 23.3326706340085 0
-200.903900646723 39.2076248949236 -13.856395242973 0
-150.578207554502 -20.1173275502177 6.72110721156097 0
16.3030741322089 -14.1490978920874 16.2577452162423 0
-100.022923938419 -16.1957836356608 -8.08576831574124 0
-130.653871776415 -16.3024835184878 -16.3779362382754 0
-57.4645683631077 3.0299194383029 22.1463003793695 0
-210.178896317339 42.9311827708874 -1.37104797361855 0
-159.876590360763 6.29166296243588 9.55507197126923 0
-91.6226023251863 6.86642035788651 -1.41198237258182 0
-169.175120087615 -2.80762507959039 -22.579456422596 0
-46.2371897716407 8.83013875565801 4.15917582688349 0
-212.993460767216 -20.8903439611098 -9.6389356028575 0
-209.454503098725 8.48501954108599 10.9530830815354 0
-199.533545459634 45.3272226019897 -2.15965167396757 0
-51.8990029989309 -12.7473803559709 3.06553133147595 0
-87.312229551922 -8.78611031387253 18.754540386596 0
8.27966649979872 -1.86165341681323 -4.24104443631015 0
-114.101392388793 8.66466586477524 2.5876451977054 0
-199.475016064043 17.1723072726083 18.295140266577 0
-167.689816353175 -9.12506074484174 -23.8440042978398 0
-195.27510942724 -32.6874855205004 -9.73861678441225 0
-45.6333717703302 10.2187334812952 9.50796648643226 0
-154.419045120608 -23.8049446055433 -9.44527470606266 0
1.80631224996705 5.23198456278858 -1.63660230143059 0
-153.431958424959 11.6638850567319 2.21632600731319 0
-198.445476629666 -2.77420211632772 -9.20630147337733 0
-122.932955527177 -3.41326436135076 14.1728351987529 0
-133.461789032746 -21.7934040447487 -8.14973164072231 0
-143.487000262665 -5.5902052013013 10.1995536751156 0
-195.015174897685 15.7823639475671 15.1912454114032 0
-186.920469015936 5.25096054978312 9.68351710057952 0
-220.187485565179 12.2520918254818 -5.0592448167156 0
-139.419807758937 -22.3794909704185 -6.58368132676536 0
3.31492791198858 -14.4738270201556 15.3011470365969 0
21.216810587907 10.6000767432004 20.7650981213632 0
-49.5435729618256 8.55471634853497 19.1153002345141 0
-164.537255005596 -22.1709660935443 -20.1505766260536 0
-145.156417688421 5.05426396085711 9.61354441752424 0
-148.438938021415 12.8244000050125 -7.88476522564657 0
-152.82088025127 13.3521449152888 -6.84705132229883 0
-163.180912930174 14.5132322691587 0.830874699161649 0
-114.99265938985 -21.6845332501244 3.95979398808367 0
-149.141934301307 15.040187676204 -15.1749554860195 0
-10.7447827582438 -9.85766987074926 23.085843408712 0
-106.985450354844 1.49450071015596 16.1673635194247 0
-170.600203688302 -2.74811885584498 7.582199551402 0
-179.610615730702 -2.73884441610018 -19.1037537592975 0
-98.1354281815283 -16.2662804555418 -7.31962464785461 0
-39.6963921390631 8.16054142356255 20.5721313474409 0
-148.749484500964 -12.7884313797629 -18.0323144378532 0
10.8972710510402 -12.8165527526077 19.8294020978489 0
-193.481128215889 -2.3599053217108 -13.6860919096262 0
-188.326238561099 10.4023954728831 -13.7674378956855 0
-86.616717380569 -6.19793164119007 -8.05363798140241 0
-21.964698455068 -1.28547278896153 25.3329141145487 0
-156.387828768107 -17.8055796130613 7.87972050410416 0
12.2363617934862 -13.4253939060684 18.525568682799 0
-96.4725852419443 -21.0376387851108 8.90256972391794 0
-168.23581752236 -15.0346890093727 -23.8111332189116 0
-186.846229209654 -9.612595601454 9.20665115769565 0
24.8417350756875 -0.72385767828122 26.4332247299091 0
-8.20411493310669 -7.82424904693685 1.61394359919623 0
-209.572573016723 -24.8695820145802 -13.2188760397753 0
-133.177769669602 9.68804884018909 -0.505438726200388 0
-36.1182719109234 -0.715018307263017 24.6261649055423 0
-192.566097783052 6.96786826243184 11.6063827504055 0
-193.624755238784 -14.3544111690656 9.99218584950064 0
-17.6958891527813 1.6150798163134 -5.07177151467969 0
-153.907532552833 -10.6153543062332 8.41469284284789 0
-209.701468129786 11.5684981195242 -11.6516935123127 0
-11.2481016258166 5.19920008349927 -2.10917348818681 0
-201.208397829848 15.6729516102218 18.3674532709815 0
-200.854560265674 33.0196201773954 -17.3692653151104 0
17.4219502315564 -13.387181331545 9.56360458950354 0
-212.431164016383 -16.1395376810296 -5.29049603113839 0
-80.1961751777954 9.13141570427827 3.71099542109544 0
-135.724618472188 -13.7599116889508 -17.0144324256386 0
-127.903022082714 0.499276151510806 13.0926556706661 0
-74.7836024712227 -2.07804934905748 -6.87952772038636 0
-87.4410912621379 -17.0305346746411 14.5785528000985 0
-20.1137716834311 1.21522442692902 -5.38238550502238 0
-200.996878239237 7.87492322223152 -13.2353799206046 0
-92.8395954283618 -18.7764256949155 12.6230777284647 0
-219.327436431064 13.7495551862128 -11.7191520283532 0
-11.1764597011996 -10.6332528957584 4.64486186839953 0
-199.919335110661 -12.6555814882858 -25.5670613007906 0
-68.388880335362 -16.6616034769731 3.85102463395227 0
-202.064983901063 4.6971717165971 -9.98442710237954 0
-204.109161847615 -2.30221897112741 0.155514444673981 0
11.4367977326786 6.22589909830331 0.215784775475736 0
-52.1043540974368 7.58537151607324 1.16604348449502 0
-18.0747179231161 -9.51727099026537 23.0548609133333 0
28.3195287204543 -3.42908293633374 26.3647247109276 0
-156.00117602724 4.39309187551381 -22.0891156461292 0
-216.56756059096 45.0921075081875 2.9483585553611 0
-169.425383637214 13.2829531570886 -12.0405029466855 0
-175.033559776353 -3.60450994314728 -19.6008921731055 0
35.3881462859185 -7.31043612040056 0.658905912063699 0
-101.628596445818 -19.6882008934783 10.9200198407995 0
-27.4771840676408 6.63993515082812 -0.338469840110238 0
-187.974920757766 -4.7094283698531 -17.334739009497 0
-212.523863942233 11.2244226945663 14.9249566497264 0
-154.531603647276 17.3361000214546 -11.8261805911016 0
-49.745578953482 -18.0189298924621 11.4587614609199 0
18.0274990223894 9.65739812389396 5.09362247343554 0
-141.016002633959 -20.6179882171274 6.32384357926796 0
-212.883809327168 10.0762836345496 13.1134063013614 0
-14.5108455333752 10.8400136616507 7.73659135572237 0
-202.567080284344 45.2660248450889 7.83780500665111 0
-123.337797097398 -19.6517337114623 8.90895823868572 0
-24.4367763180662 -0.839589673491456 25.2259463314748 0
5.78777712970751 11.6559082501152 8.69322376612619 0
-78.6077284603776 -9.35343568265242 -7.1727758808192 0
-180.584159749843 5.59767103482718 -15.3666065533149 0
-139.262197428251 -22.7564644984046 -3.47702447634643 0
-205.071931982654 -26.0116325722689 0.682194360771199 0
-219.855155021404 15.4244329178166 -12.56949474898 0
43.0000621019135 6.08883004582556 23.9729019946619 1
-104.124313677894 -20.3198311461857 9.97595833832967 0
-57.6792235775626 -16.4840735192067 16.0555085614068 0
30.3657843340155 1.06812904506083 -4.15857185413266 0
-145.538515344809 -22.8375895601105 1.67763523922209 0
-195.762915924541 17.2414288117682 16.2652036388784 0
-152.646456161771 -18.0937484172127 7.90057015207304 0
-90.7507837095976 -3.11334410328068 19.3248212711868 0
-109.435952117867 8.14324271292335 8.32801088588797 0
-192.842311050703 -12.4058647307103 -11.6047486879285 0
-175.649548923286 19.3204729899176 -6.59460956946348 0
-209.141240238872 45.0050794275559 -7.10291135412372 0
-206.303917110082 -9.63055117505017 -18.1355361480273 0
29.232589894229 -0.77720459939625 -4.56362651366562 0
-167.016829896171 11.5383266239001 7.39446433281816 0
-126.812086250147 9.1878466550116 0.69429570861453 0
-170.626594911784 -22.8806634616642 -22.7063494973403 0
-198.370659931063 -30.6573289018187 -5.75862927821122 0
-199.687900582831 42.3397066811851 11.2933698151353 0
-213.977114899908 31.6248614880086 20.0704587120015 0
-103.862682979953 -21.3185800524895 7.99823109575252 0
-146.113690941208 -0.209840187481971 10.0084478131677 0
