186.712538374746 38.8908926204845 -30.0167707109876 0
180.320953363495 39.9023740297499 -24.5195650467762 0
21.6119826704568 -3.06945211093879 23.2539009599154 0
-2.15047035514915 -18.8410533946888 5.12650078259663 0
201.40980978322 18.7737290380468 12.3881139837755 0
-78.7187112154668 -16.807174065706 -5.68063581141859 0
-48.4196279252139 2.51309069548014 14.0859533496691 0
57.6533334350849 -17.533574033391 20.018847211102 0
52.7018798044631 -5.21086160843359 -1.03172782021504 0
-121.724200058273 1.699993426457 8.97967186071335 0
171.976335980988 -26.7156730014689 -31.4226906316527 0
-87.7807863595686 -3.43876195246022 -6.01152211967848 0
-35.4028217611863 2.6280027379001 15.5117276929109 0
125.473600596522 -8.95396610265425 22.4163482676374 0
192.266249415399 -26.3437462964604 -30.8866542163611 0
170.189780160877 31.3557919412917 -25.4186805517655 0
-107.45906134335 -24.6893769387413 3.44283105323423 0
44.7032042808381 -12.0288445658969 1.75018241357218 0
154.868754253679 -11.1951713059507 -12.4095503156196 0
-112.398541202943 -16.0553977774567 -11.5148462335279 0
168.036458300089 36.4527459446741 4.22275891992609 0
163.280787500696 0.187751413604198 -11.8732454123487 0
172.156640242944 -10.2878682421637 21.5627675706583 0
179.17846781503 7.06796849077375 20.9796733809479 0
74.55177278759 11.7400341789235 11.2654157499318 0
-96.6191904491796 -9.0877708820063 -10.4637707146839 0
85.1823534529667 -19.6714580594018 8.98709026311511 0
45.0337231351735 -10.288483502845 23.8713203327507 0
-33.2491644733057 -3.14507482538168 21.0034663901384 0
165.34751038146 37.2965989911413 -13.1667607407606 0
182.498736542456 20.1687725078384 19.3617908689879 0
153.061989438339 23.0459045751683 12.1761755549398 0
164.924595669679 -1.71413475628049 19.2566752479199 0
54.416717407121 8.2868491644847 18.0990551814923 0
166.921493404094 17.6208439707659 -16.2842607764999 0
189.975442129221 4.6000144338805 18.0380313672356 0
114.806123688247 -14.5856117148652 20.3395678499481 0
199.509072689355 16.9765339586114 14.5750305202395 0
161.489997168463 -15.0283871463836 22.2324283386337 0
175.103471162693 23.5160127050608 -31.4630231613597 0
-50.9357830913642 -0.675698883735265 0.121868520873054 0
179.00112002708 13.833722802275 -22.2835008273527 0
150.244209348834 20.4238476408241 13.6790842475892 0
150.625368128833 0.537827462501805 -7.49366986585825 0
-58.5466260941554 0.903872610179356 14.9064143210741 0
-95.3478539231948 -11.9227417941523 -10.1062099197489 0
125.821965604103 12.3117967052574 18.7336358970493 0
108.420809847822 -9.59287289004948 22.92221941263 0
97.8726871446331 15.4438489003016 11.7825650902035 0
-115.650974797394 -1.63670911694294 11.3306239068687 0
202.138797852479 36.7297836942762 -21.1018961181147 0
170.489200760066 -24.9878311714207 -31.3015421769362 0
6.24388553921451 -19.5324239112667 6.58610225946758 0
57.1137830464603 5.51988767039847 21.0540717757112 0
92.4808579380985 -19.8297093421771 10.0907607520356 0
184.334340934697 -26.8464848306551 15.3726954622817 0
199.214595522183 -24.6827052298087 1.03315246803775 0
135.164744540548 1.03632052883996 -4.30829460984291 0
179.217001913161 -33.8461018123528 -18.3541449886224 0
-75.2154575445988 -6.92709081817748 18.819666726503 0
-27.6273677747859 -22.2390578209066 15.6124504507003 0
117.030609214807 17.5622595549964 13.7522851395419 0
-114.996634455656 -24.1648580702295 -6.75883754040712 0
180.467437768016 0.550860204569066 19.5332326124922 0
205.325558565627 31.8192093426444 -16.5179159537662 0
166.626020325886 -16.9039916930166 22.9254815682906 0
-106.970397634642 3.86544962568899 -3.14412177203519 0
170.19404002799 15.3627277739053 -24.702346792023 0
200.615870693372 -23.3250496199034 -16.3633696601382 0
-57.3524569631392 -15.3226526173636 20.1850736164867 0
175.90322497574 -23.0360413567872 24.2014384314238 0
14.8245953949589 -7.68432342133646 23.8650901399745 0
-115.634103282366 -20.0141718533553 9.48761262600277 0
-22.2758107008612 -22.154857190551 8.06236859503176 0
74.5738690069457 1.49205152316376 23.1200275022968 0
191.214100909799 8.13668113273875 -11.5738617294751 0
194.166764145879 -30.7975647974778 -10.4525011358565 0
128.637366722368 -4.24411084276178 22.5431615635621 0
-31.197807256464 -2.23256595993578 20.6988265119999 0
82.7790075447761 -19.5618290669299 15.1571368236668 0
204.613748729414 21.2538422966115 9.06933292386699 0
126.775578618154 3.98626161390075 -2.57676980569266 0
199.031211651918 -13.6759091163091 -11.5594614217303 0
-116.952969840987 5.80672575055011 -1.00161698250966 0
132.365676563708 21.1125435361616 9.13047896664842 0
187.052418511451 -33.8703746920481 -12.4804338714436 0
19.9417178194001 -4.54792664116914 23.5626403805265 0
-106.038826186707 -13.0078316755434 -11.1447299294596 0
-71.7823176877117 -0.310865899736042 14.6100840350581 0
167.287715741286 -28.6767384068 -18.6858243656726 0
160.24753971171 -22.403558021968 15.9261072482209 0
-22.4642634027872 -6.96484841318863 22.9429507272112 0
100.767789627406 -4.79165628873201 -2.73848020719201 0
-70.0955481241676 -24.3169237402135 2.34025547928529 0
-15.0959295969174 -12.956864831047 0.502391196183243 0
-125.081735970836 -14.7458769128377 -15.1012121005434 1
93.3871908016087 -16.178222878199 20.022833579243 0
104.60037933176 -8.00914379214041 23.3406207438878 0
107.393458924718 -19.7315620520678 7.76734632105298 0
-25.639600766453 -8.83880877398393 23.0328708146093 0
-96.6211962108465 -24.899964462209 -2.98938395918278 0
182.522833636276 6.15548699503509 -14.3055256723671 0
169.961447169492 40.9933992515662 -12.815759218148 0
146.034291409855 -0.948726265539331 20.9289145486993 0
173.012705061316 31.7003109053776 -28.5925396507244 0
199.465622841736 36.0762690131542 -5.66003079950206 0
-73.3949989455864 -1.02801634337915 -2.51723373055358 0
197.083364322567 -15.5117083373935 -23.1571062002928 0
-18.4769018139734 4.70680224198052 10.9536644183668 0
172.952499193238 -28.4631134301474 -28.8523773914824 0
163.134894415587 -16.6275185455041 22.3892759586601 0
-122.63424847899 -5.33397031466705 11.7122448880907 1
-57.7930053243782 -6.75025047129974 -4.56258044990095 0
74.7974762515387 -0.99994965799618 23.6253502875813 0
-21.2743127149834 -3.31846765132503 -1.01901539748343 0
-47.6265369095987 -0.695705955544127 0.605464073861987 0
185.944610231977 40.7979988454208 -1.35122804464033 0
97.6197185729406 -9.64743723024205 23.1860867881814 0
193.767733710676 -31.8974238955857 -14.1152490363493 0
169.879460592451 -33.1937023991387 -12.9184505901908 0
172.061557013996 -0.913873010139248 18.1275557753828 0
193.011608785567 -4.73722002372817 -11.9859352451176 0
191.196554866185 -30.9249481409704 -30.2823527397659 0
-120.123517082156 -6.09738794860821 12.2405506804236 0
160.866533815456 -27.0955578696998 -5.66533701190482 0
152.966150758433 -3.67926921858239 20.8378813920604 0
0.254096773846957 3.31643848652173 19.2378815075209 0
194.179508921839 28.6744001775409 8.99464018417674 0
-98.6399761639364 -4.62182419927223 -8.68791402626245 0
21.8082103500955 -18.0122714060907 20.3462619826911 0
155.971608270092 -8.37455682873325 21.2978113087771 0
141.667914587571 4.53197024505458 20.3833959506718 0
200.598229316884 10.0296860628915 11.4019216433456 0
184.335569484246 41.2441404133337 -10.98555522879 0
199.957928905649 36.1384060979265 -25.2153150000954 0
-126.375876616678 -11.6861853945027 11.4791282772973 1
194.23981376303 -25.7280620373653 10.6427343733698 0
182.437175282828 -31.4292211899802 -23.3898359937123 0
-114.857871784942 -7.44417248120601 -12.875309879257 0
174.153759268948 42.1645573030958 -13.2055226786015 0
-48.79482232937 -14.9096340114203 20.9764235432089 0
166.956850531822 39.5254914821544 -12.06284630902 0
155.088381277529 -1.56539066018661 20.6795258681587 0
183.731846188415 -30.89570214439 -21.7827678931433 0
123.1028648145 -14.6697443877006 -4.58030109019328 0
156.938283279121 24.0215709717499 -10.8130330012521 0
122.388950385136 -20.0241343408083 9.41026039778091 0
19.7790473854398 3.52471751599607 20.1659787063166 0
176.214310374262 -29.85331819127 4.69498967207609 0
203.048199456245 16.5960025052623 -16.5379455974253 0
171.319050557575 14.2333036726534 -26.4353336075945 0
-24.4383313086198 -22.2459015438958 15.6355287683639 0
187.166914426502 -9.83359393265898 17.8258861640237 0
77.4197260241649 -6.50382648179372 24.1267831297867 0
-78.8665099245051 -10.075669544619 -7.52297401184629 0
104.89732667667 -14.8814619403287 20.4156016681074 0
180.668067719011 -28.3185667096251 -34.4730739311033 0
136.69956299826 -20.4810245832906 8.41125790523663 0
200.550150126077 -27.3102334109409 -9.06564562551436 0
187.667672699382 8.13696129312172 -12.3267304785403 0
177.946549022941 40.0483973483847 -19.6884033183 0
126.309057618725 5.14859401262554 21.0969526378298 0
126.384785681376 10.1928343627397 19.5509373933932 0
99.7865345412486 -14.3251496267578 21.0724087501212 0
17.2095841647258 -6.25482357896228 23.7809870799889 0
-36.2034626910966 3.6597651406389 7.03984941888332 0
194.916225581673 23.2762629768998 -32.3348904191726 0
166.249952517261 9.29911738821053 -13.3562091864804 0
178.090641612816 33.8931003496366 9.74945070566841 0
183.148448139563 12.8993615032523 -18.0300702389424 0
186.572284325964 30.0668194985685 -34.4032008276458 0
166.196982276665 11.669891489451 -14.4006799899945 0
105.515400041703 5.10526944360659 21.8872345163402 0
-98.2238463338731 -0.22686015619167 -5.89371251243414 0
183.011488225335 -24.3522491630021 21.8366389890122 0
149.594323316815 4.0168624062997 -6.9339194034957 0
-112.46852484783 -14.5008521595047 13.2394769137656 0
199.112240238566 -19.3169343220031 -21.2415990523615 0
197.068670098651 22.6516021049629 -30.7534291550551 0
-74.3504218221115 -5.82982601778544 -5.38960303657059 0
31.0047028778885 -14.4009250396381 22.6627359064304 0
173.599488598184 28.6750330953767 13.828876680998 0
-10.3740220875283 4.99712389734458 15.3413121571996 0
-26.5121261131417 4.35793409225494 9.86928701167904 0
149.703915130694 -22.7913079914427 -2.06517796897504 0
-118.471836004486 -4.46297952312703 12.1055894818811 0
202.37355202534 26.0683954885756 -24.8751825209108 0
151.612089962966 -19.604206355819 15.734696848561 0
157.361897721306 -24.6647927464828 1.17067884044523 0
161.368868162345 -13.2620755438495 -16.7971623467245 0
67.7273043424668 2.61596743701284 3.06476760010381 0
53.3427189170991 -19.9898938413795 15.9259636835405 0
43.721074698017 0.197187026531643 1.02566314310283 0
-50.5380150171303 3.47169469832451 12.0771423755621 0
-63.8332359491837 3.34210526543554 6.29990725848488 0
-117.131767271114 -25.3681072666594 -4.73029787815652 0
-116.6680065348 -18.2024696812232 10.7738415473915 0
142.781605191228 9.65634073767138 18.9829423025791 0
192.113366285843 18.1440703595282 19.1423281880548 0
154.379277039932 4.57112456486458 -8.36486841376316 0
171.793188853576 -26.7960767265976 16.5077442960424 0
-44.0591663275051 -4.37065759194208 20.6744432453326 0
-26.4317988289488 -7.98706221035676 -2.55706334325738 0
-100.416781769805 -5.51636586932037 -9.46672354593496 0
-101.57685111148 -20.4627061934079 -7.87817318487344 0
135.433044309292 13.0851512594154 18.0234083730316 0
149.727300499545 -6.25080216562296 21.4529903843235 0
167.087498940743 32.9851501605498 -15.9384325328156 0
-110.519157392529 0.694754732169971 -8.65486067093681 0
168.96924857939 -24.9093887425799 19.2510773609453 0
168.882514300892 3.06432868879297 19.387603121458 0
200.752925122018 -25.3727676233179 -7.69082761443119 0
164.185864104267 -27.4073680201507 1.82783639293005 0
191.265706385406 28.5678344793147 -33.6908987201181 0
114.214546518476 -18.2785443242769 15.9186644332317 0
192.826361419672 28.8429252816619 9.56015138200085 0
20.584422886523 -12.8407904694509 23.3414686508515 0
198.404681803011 -21.2259374303526 3.75362231105124 0
189.024246949273 -3.78045237939549 -13.5950032526315 0
200.171757745497 -26.6359222005856 -15.2723294794862 0
48.2568111184676 -14.8114739531131 2.97881528429462 0
76.2168292952964 8.6712331555321 19.8157976233203 0
147.13325576413 25.4743109628325 0.283830948911713 0
10.8070322462619 -7.25020688442218 -0.716576888455353 0
56.4951367206072 5.06695525237634 6.7550458611532 0
178.628224364915 1.28019805012736 19.9807229067761 0
160.527828653955 -21.1998756332203 18.2633791214419 0
-71.0977739773461 -12.4092628191686 19.6872899226416 0
180.858434369943 -1.36947624586149 -16.2406109485415 0
-111.186208301992 -16.9233663339985 12.3450807395284 0
168.514010261823 -17.6843084110737 -30.6872714264779 0
7.69884209974739 -11.7462993974605 23.445157656311 0
196.379215097175 2.59901123223387 11.2047302799266 0
179.99401489306 -8.66537390795344 -25.8505732537764 0
-122.776927892827 -24.4293750129722 -7.66237799552229 1
19.8077105328317 -5.05283517667051 -0.677329677351426 0
177.647732517616 3.45521251700717 -15.7120450970017 0
186.96820673437 5.53858893250154 -12.2879390220505 0
168.102255289472 -23.5332658195113 -30.2766611953247 0
134.892618275088 0.356595885953852 21.5565687818724 0
152.270098972807 20.7808874573635 -9.60337606993257 0
48.2448783490882 1.4076675869656 2.56459469343028 0
12.0314052647733 -8.76219107811898 0.336400877996116 0
200.251383509027 33.5048239872143 0.453121127338146 0
-43.9500843702496 -21.9831083134492 15.212881468314 0
194.520987092486 31.4244473303246 -32.0209853209442 0
34.308518458833 7.52483241598667 16.9049660134876 0
203.549941969816 15.3683065685127 -9.42840700314571 0
197.94307781596 -1.7432457858729 1.04014058492085 0
206.438980155962 30.5753378903713 -11.7767976566053 0
21.3984397810482 3.67831063768483 6.96602851140988 0
-123.911030146085 -17.5486874802181 10.3444124240243 1
36.4796768522739 2.08914664335992 22.016961009976 0
23.0402096686919 -12.3790609959219 23.4501978494321 0
67.1400562329391 -19.1460151888861 17.2685359393388 0
-18.6743111813871 -13.9799503594792 22.6096643176862 0
148.115630391686 -22.4940184042516 -4.84210889744966 0
178.982385206711 37.1950811409384 6.30004654864306 0
-118.702163408653 -6.50624320867717 -13.8223629614601 0
173.817872539648 -30.1834026005887 2.66359774050052 0
180.830279526853 3.71194841950408 20.8623986938385 0
36.5586926079166 6.49079065829 9.38281678599166 0
162.028347397333 -26.3782938283299 2.23265432967354 0
151.014226521956 -4.77925383646495 -8.76730704692586 0
183.646537300363 -28.9919339252472 -34.2715588517205 0
-124.194169493774 6.79867846768339 -7.44475924468924 1
94.1588242510871 -18.3401093295885 17.2824442064087 0
152.446626949438 3.85140030276749 19.8753194740075 0
182.158785666013 41.4460324264965 -10.3331157740097 0
191.584849638922 -30.0787726062982 -6.00947028320154 0
-67.5166813322679 -7.46291388511875 -5.58834234645325 0
-45.155312516795 4.19632263862233 8.53002952862767 0
199.830284313979 14.0013877636742 -19.9447038331287 0
-71.2285903350362 -21.9098582410006 -2.19361952187917 0
196.511352073369 -10.7833538966242 -18.1042623180526 0
-65.4519916395646 -0.48999752988249 -0.929649404080644 0
156.749791698931 8.69565833866804 19.4016873156335 0
158.587913708443 31.7299272199772 -6.90796310197865 0
119.964750903758 11.4753497381996 1.51933024161115 0
162.690941845069 -28.8557424693568 -16.2733151090264 0
-114.580395170704 4.40736464913909 -4.92574572281785 0
19.3386858012561 2.12081198874106 5.43099482467161 0
-118.694772831092 -12.7708071172754 12.6362054950495 0
82.0160025671936 10.2811681818408 18.9304705504171 0
-43.4528773926374 2.14698302799139 15.3675446792352 0
187.594269729993 41.0212101938913 -2.94662011169469 0
197.415267637166 -27.5131210379619 -4.96477202144711 0
163.60986041451 -24.372168002575 -22.55334929878 0
186.194932499193 5.85500748919482 20.6873550729739 0
164.699754765672 11.7328276139543 20.0835129688253 0
-103.903872147094 -3.83358802266783 -9.72807124974539 0
155.057326681969 -3.68149954930995 20.4717677890331 0
109.440942225375 -19.8093189949512 10.2159604002193 0
199.118813589365 -26.5531904717089 -19.5254142929667 0
160.075379358255 -0.135380094043966 -10.6901993352219 0
167.186075311404 -3.45887389378666 -14.9780783571258 0
-31.6069507322644 4.17680682935735 9.18893439057075 0
166.504797666567 19.6482472697933 -15.6310578798143 0
-3.68274265593068 -11.6948018901106 0.806103714967806 0
184.893407051571 12.0907664441111 -27.7396900859104 0
-53.2419415920581 -18.708591712802 18.1707358248806 0
171.439793403714 25.4171393217805 -27.8777625369233 0
101.888090706349 -17.9932164797104 17.2312841422565 0
205.17876176209 33.2944065489977 -15.4123631040938 0
165.603683180736 -11.3246818036091 -21.1747362844414 0
190.41819058528 -21.8071127635931 16.6141299438896 0
13.5624794426413 6.63500011015263 14.998067024437 0
134.115266799154 14.3742054746149 17.4414348272336 0
201.795430852656 28.1388450511875 -25.8445121144047 0
131.347216299445 8.37692182193662 19.8877696464047 0
-60.9999223693461 -3.34596867479636 -3.0749253601618 0
152.419996663034 12.2321369777625 18.3220304423891 0
114.248292016624 15.8127884058221 6.75681811909727 0
183.023587493823 36.3416146410746 -32.3838414339387 0
196.664833491372 -16.7713333909127 8.32766090141432 0
86.2994892105402 -12.4697417545009 22.8822327074094 0
45.005311265611 -7.72408683287299 24.1245948787732 0
-72.1826292056969 2.81626418607924 3.82854089580322 0
199.574881545217 38.9278212597697 -20.9861292546975 0
25.2916125680915 -7.76083320626293 0.0623031188542525 0
175.353273805778 25.9278514411014 -31.6801192863218 0
195.29152588004 31.0205201666726 6.1094900191409 0
-18.3693875952833 0.445564193171281 19.7511101208803 0
173.779499408426 8.39746418319084 21.4095327254869 0
46.8784625527106 2.30186390327796 4.39942621353153 0
135.484029371518 6.76607010564916 -3.40283785275189 0
-83.5192304819742 -1.11869525159666 13.9877481821399 0
135.456737881826 -20.5770628427107 3.46392304316614 0
185.957352707433 -34.5860756313827 -13.2151818300085 0
81.4186859553911 -15.1417587063548 21.1994290969534 0
-63.3368267485666 -13.3109182533707 20.2852934349651 0
122.358545219495 15.9501448776369 4.1222825414635 0
191.906935784475 -14.1343274986037 -28.7569610615169 0
-111.951857736094 -17.6983017806341 -10.536203912553 0
180.425943093125 -31.5714558954607 -22.3403861727738 0
183.327666329723 12.9167115616758 -26.0737855234001 0
88.979315487367 -17.3754504853352 18.8722471066883 0
18.1948799611204 0.566278644253508 2.94944264467349 0
123.602044894321 14.9523679775327 2.54050123391679 0
-30.0510170758425 0.633560978073798 18.7346702269031 0
-105.692972537864 -11.2133889986741 14.9172432387986 0
-5.39380781187525 -14.2088739892553 1.80707998095287 0
188.796695391702 11.3838925305855 -13.5316663383752 0
70.1189878287752 -19.6258055835749 15.808483851463 0
110.98711221796 -0.286303931682694 -2.15740028369258 0
-9.11199603899484 -1.55493565380313 0.608912034515436 0
180.581894283295 9.90154972976301 -16.1432599644405 0
195.912034938881 -16.1565922656216 9.74701200671861 0
197.533030335539 -31.1000820906246 -19.3476588974032 0
-114.463993282077 -0.782224534275078 -11.3288381814123 0
170.415383627308 -7.14804509868584 -24.041929407257 0
-96.4065709511591 -1.8864039463218 -7.0199118545347 0
73.9314990425932 10.619690712623 17.5518163788239 0
179.452330795261 -1.78797482782334 19.2843526790182 0
154.633376791146 -23.2697323012218 5.13321145661568 0
182.316641886969 -32.5584662542592 -4.20967534332691 0
156.471923691561 23.577458932672 12.7151278633087 0
190.746045212942 36.1381668633557 2.43407134364416 0
-39.7270769000378 -13.6579789190841 21.9090031673615 0
147.728676049192 17.014826379259 -7.31605133925892 0
187.964371367267 -32.9353261947479 -13.5357719062329 0
-97.2140187469325 -15.5360695630905 -8.27274876799574 0
176.74650723108 39.1153011162231 4.88824497247499 0
189.469660239523 -20.3046906752853 17.539797835627 0
48.7702718612835 8.57167528520993 10.6038192746112 0
60.2544977606258 -0.0629102313441962 1.42029646882428 0
196.234888525294 -3.69773286373862 -8.91529195342703 0
-48.2927178874849 -8.1620310269329 -4.62531761869899 0
191.421600454878 21.2798420481313 16.6729029529362 0
159.013663007864 -16.2319524078713 -16.355048348023 0
100.388951316294 -0.00486035311412495 -0.900255548558786 0
200.473521176132 18.8504581789278 13.4064226617699 0
97.6603871067148 4.32313947306786 1.37003488613583 0
188.029595450625 -3.81500651522776 -14.0787004955907 0
79.0403119586222 -17.0601273690732 3.0585190693388 0
-26.821054683685 -5.56882485402582 -2.62893904152791 0
-116.968942276209 4.68130186949411 -6.29390308831044 0
191.923765337237 -25.2394761837623 14.129940144705 0
198.294849656108 -20.592339743599 -23.680322029193 0
-78.2412917989481 -13.6894462470281 -6.09204026330393 0
-62.260279689484 -24.1099094845852 4.0163771795902 0
3.12830395442892 -1.20339919245147 0.330679664014779 0
99.9779726171623 10.7257878800959 5.83235277519262 0
166.57965576935 23.9707782501361 15.8445231463037 0
184.301728725273 -26.2894212438734 17.5262430765809 0
135.73757598123 3.71193600050015 -3.87314811506452 0
179.971963521466 5.59951980778473 -15.0369136578393 0
166.426650201232 -1.04282144519244 19.2418647740787 0
8.45706816882088 -19.7338093718743 18.9878018068228 0
-89.2041134505189 -24.4275780695166 5.79232499928012 0
-45.3874237158951 -4.50588505476955 -2.41425749265737 0
160.725036338397 30.3268428199951 -10.0580779057964 0
14.3859356781337 -21.4390934233278 14.7355278523323 0
-36.5926997798149 -8.48908011170917 -3.37415646310003 0
207.268425006584 26.482928480599 -3.18903438742255 0
200.59496098304 -27.035501361223 -10.830368288602 0
52.022948026737 7.49281644667078 8.87732770546463 0
183.780216917551 1.26680709797979 -13.4792043353817 0
-87.5933342987406 -23.053041200774 -3.92131861993305 0
-86.6497030501634 -9.03832886098417 -8.45615600067013 0
108.180349087228 10.7017473360518 19.8269656671265 0
147.014978762282 -16.5673254758662 19.1512721603894 0
134.719834988571 -18.6757490786968 15.2527150202785 0
176.047040026508 -28.8643393753758 9.58705114802606 0
174.650425199978 -9.24801510733595 -29.0794234285059 0
76.2733656648965 -13.540802503481 0.558653826863095 0
154.737126357896 8.67503271294644 -9.2424612863791 0
-34.0609387079423 4.06757273438297 8.48306196107027 0
203.213243638655 21.2232421112173 10.4480361849169 0
182.386151769782 -31.5978233772178 -32.1377989151919 0
-102.206943122907 -14.4907363901986 -9.32628199609284 0
155.120013650832 28.4385428191058 4.7523544576118 0
-115.204241981012 -23.0681585160326 5.54235463491013 0
16.3698206997224 -20.4829595153694 17.4487872836775 0
129.644189758459 14.4711452006856 17.5439974921559 0
107.437306491629 -8.33905538405359 -4.0952649461155 0
165.328205694815 -29.3795835182175 -17.3510830080319 0
181.481638239632 -9.67965478481089 -28.0384984838194 0
-54.3403556994118 -18.7617700612323 -1.36151389043278 0
168.244321520641 -26.5798596260762 14.5370480005287 0
197.175769857413 0.00701081091529942 7.41119026087629 0
-58.8115606499169 -10.8239605281067 -5.25289398625354 0
-80.006640220071 -7.93817838826196 18.5639173554666 0
168.127496142357 31.3223951582692 9.54997628630926 0
163.967856843438 22.3772002918042 -13.8577915147672 0
-54.8278950152644 -18.8586324510447 17.9445140744461 0
152.498117586536 27.041532549772 5.73406795093395 0
134.929723705532 11.1128061550327 18.8829972109628 0
165.986798246064 14.8643919419661 19.8875137410732 0
-94.7218094550073 -7.24145281308634 -8.77588985792183 0
-62.2792841273572 -4.94422401593412 19.0672332023091 0
131.716026246278 14.2036046785877 17.6720075711997 0
113.138256326242 -16.7918762409196 18.2330261226369 0
162.082146109944 9.5254439321044 -12.120242385058 0
146.43343697466 25.2493931155825 -1.46125250491534 0
163.684122062765 30.4611732544696 -12.9970148506804 0
-28.7553641544041 -16.6905357567398 21.0770187210686 0
-86.1953827113941 3.46769157423587 2.97497051182216 0
-117.201546706437 -17.2510379055239 -11.7273065325441 0
-92.6460446806841 -9.75430859160948 -10.0328495918393 0
-91.6650451325701 -9.82397943000005 17.3161196113913 0
57.1015055539817 -12.7563566598818 23.1410535145689 0
173.474924735447 -8.54947535675213 20.7589524817838 0
128.924065881821 18.1889692610564 14.2258637119137 0
182.864169036723 -35.5049272783698 -13.1722857321348 0
43.9804532031629 4.99989277894109 20.6131767369255 0
172.884361623173 40.0927707752703 -17.8414355152153 0
165.608206411174 -27.0573605307683 6.8977146525703 0
196.817168639519 27.0055982464359 9.60778963654156 0
-97.2143549391594 -6.24696447326401 15.7996102658665 0
191.366507697066 32.6333451978796 6.27834445959259 0
21.8233595650698 5.37742765349154 18.885581259026 0
-96.7846306833262 -1.69340711391708 13.113589452777 0
174.043626418865 -20.9979303226818 24.173687554989 0
166.874764084623 -27.9352778221803 -21.9847609252355 0
94.8449880738706 -13.770490762029 21.7247017321526 0
167.504345893766 -31.6804914878823 -15.3631070919835 0
39.6467674887679 -17.3763245683423 20.5410150056031 0
-64.6653234759884 -17.8315427816025 -3.53918773325204 0
165.991142433428 39.818163788419 -10.8271677373215 0
168.630484845587 38.4787196124817 1.3399303700684 0
-86.1674802424314 -16.636170157153 16.1700326819293 0
-4.36896618999665 5.68465125414907 13.4480469507235 0
-125.146372762208 7.03636618367758 -9.48493842980417 1
130.03087616022 14.0638712775221 0.0199972445065474 0
184.230920577014 40.139046961092 -26.4761940944819 0
115.834547945712 -4.91906678597735 23.1585705863941 0
180.120001969055 -10.069326467369 21.5413843041522 0
89.3780990003032 9.01997481069488 20.2749242517837 0
-105.978318781315 -24.3545948901661 -5.13808818796519 0
163.178124653368 29.4652794174418 9.55924998166142 0
144.417872076088 -19.1072639058167 -7.37437326557674 0
195.935058807787 39.5144830879437 -24.379324168296 0
182.026719603477 -26.3165527181747 17.9791457609687 0
149.209365156499 -7.34560919853517 -8.92861661386716 0
-50.9422469562526 -7.92180672939905 -4.75359465478299 0
73.1537234003793 -2.53106440761423 23.8541012598018 0
-35.3575788362 -1.00554208882886 0.117973318755149 0
-58.7946851219776 -18.5172811202059 -2.30818921385578 0
136.966987180386 22.465364293748 6.45339335999279 0
163.875832701896 36.3178545205661 -3.29459296330454 0
137.810396121882 13.9472846163193 -2.47388888141933 0
180.813063116914 -6.93555936895431 -22.8226807497334 0
164.837337866241 -11.4388363140477 -19.4052324035886 0
150.256062277381 -14.561616565457 20.7102780978395 0
-99.2682658678009 -19.5840298149909 -7.9121610987678 0
79.6888384538415 -13.6433694148172 0.366547575074778 0
45.6170886277065 1.49958863331441 2.35119050704393 0
200.798832622021 -17.9943711239676 -9.7809007694521 0
166.632938772052 -3.42941192684142 20.1026273114969 0
188.724899682092 -22.5586172545611 18.2216274012337 0
133.223791419435 -20.4432509142066 5.90261322022903 0
186.230265297199 -33.3369612014698 -27.9956003425126 0
166.113864578652 23.2115634554798 -16.5670052359675 0
196.083260862543 14.6941776576076 -20.1891778916842 0
130.956782738228 -19.7594491002239 1.41150026548529 0
157.743835650655 11.0184320228816 19.2318809824067 0
157.057381381487 -13.4674882234078 21.7708858909689 0
-108.409316728112 -8.43543431972332 -12.2713654159946 0
171.802474317683 -33.8772174248547 -13.7700251028784 0
163.571964285692 -21.1817294093762 -23.3766833603739 0
-10.324807951819 -12.9888060120435 23.0778062909774 0
50.4428028103259 -5.0536318315543 -0.938226372556313 0
189.76121699847 38.9843130642263 -0.829716451501202 0
183.232822637756 12.126523608064 -28.2406462660733 0
129.877233478789 17.7526242932669 2.14097207553102 0
-89.0036091359361 -8.62326973462015 -8.52295247512287 0
187.743211745702 -19.9713842881117 19.0307276415839 0
-120.468449779223 -13.770033867843 -13.4295806503581 0
158.924326047881 19.4361073120691 16.2084858414858 0
-38.1708366173878 -10.6876022797859 -2.56375774768058 0
155.365139171004 15.516993791278 -12.0387246081995 0
-121.147453770438 -13.3609166433984 12.1214780252147 0
60.4260202051599 0.0125754453635338 23.3409367448471 0
133.931054134036 16.540015827841 -0.375611193775147 0
-100.390252594845 -4.19923159422126 14.4716445280367 0
56.914048815346 -16.2336474745092 3.59107664788585 0
50.4346504309095 -8.30186292824254 0.111571352575531 0
68.8592637520873 -19.5574824116439 8.64134228330039 0
-115.236952924045 -11.5321361083474 -14.2287864935889 0
163.465748195293 1.91876781622093 -11.6193312368621 0
189.51607641127 33.645329775065 -33.138990305587 0
190.615112127681 4.16193186169368 -10.6199503053022 0
156.311895041877 29.973537766374 -4.96646495923675 0
-70.0538739932195 -4.62380430049875 -4.84424611886612 0
52.1222032738548 -7.91198572131787 -0.0483808116179923 0
-15.3335351492542 1.30250460847197 4.24615014196761 0
171.601886982231 34.2005494655111 -25.5971220210795 0
54.6524332743262 -10.0569697411534 0.623493529019703 0
206.561754329007 29.4335980073249 -3.23660012330426 0
-84.877808183045 -15.3860736405343 -6.48845126789297 0
179.081063862738 37.1892734636738 -30.728049887698 0
84.2715621580514 -0.678369031275863 0.561570442251629 0
0.00745973448223267 -11.5244642369872 0.950559446862523 0
49.9089567340476 1.97613990311939 22.571601800832 0
144.611962899019 14.089128053882 -5.50200741062925 0
163.562978473277 -26.3138829791868 6.94053388298743 0
161.964454131447 -6.45570605997423 20.9957253521922 0
-101.203818356788 -12.1641027286847 15.603797288126 0
-69.3779247817734 -21.6632027032864 13.1356635595066 0
126.701863446116 16.9813118632433 15.4414206305471 0
159.205740927918 10.0912947061817 -10.2111373803899 0
194.56910100459 39.5570091531482 -8.20660578597897 0
118.364005864104 -16.0896564226763 18.9099086180487 0
116.893321157691 13.9880025819067 17.823934951973 0
173.203393512945 36.4366158536629 -23.2349156227913 0
189.183074447876 -33.4178372084841 -21.794856817898 0
188.942683389132 16.1957841660902 21.2970939699186 0
-30.3275273698142 -6.92640158005715 -3.04816958204057 0
43.2510316966545 1.69702478233785 2.31376025724002 0
-91.0661706295394 -19.7306600741678 -6.62232759132791 0
160.631357717724 35.9159724438685 -7.5056444718581 0
150.309518929689 26.655097804148 -1.10613363270889 0
128.708882485344 20.2456305085806 6.29019967496803 0
127.303568459161 -4.19656017251247 -4.84125661966739 0
113.599045015572 -6.28360519247006 23.2625397194088 0
154.837504945687 3.88988353242947 19.7634285834314 0
157.184544947026 -2.06929424735939 20.5114372501295 0
152.168101492094 26.24281690345 7.76805082463453 0
194.856707513324 39.8366905607634 -23.073569959602 0
200.986979262856 -20.3006552396809 -7.02521690463431 0
143.912733292922 -16.6932164280658 18.6902794637841 0
92.8981882536209 -14.6727073487136 -0.19212376959005 0
-70.4795085383668 -12.4709771424316 -6.35607474401865 0
102.180669530407 -11.6184258938409 -2.77668294780986 0
205.34845176905 34.7393740487428 -13.564573482998 0
184.306277341962 -1.48587538508795 18.3363148492603 0
205.335569646577 19.3770406598876 -9.39103674826368 0
-88.7859893408748 -17.9318049251795 -6.75409660481013 0
186.246444355558 30.6535296541616 10.78676793493 0
175.442882574597 38.4161802303913 -23.4491210961622 0
148.59082561264 -21.6150375980614 7.5536889924427 0
172.883020213257 -33.6143521543491 -18.0082242378364 0
-95.4177644539285 -13.9643328784533 -8.42437616047511 0
70.6015290411597 -3.03698935263288 23.9054633522755 0
132.726460167996 20.3317773144034 11.4585892042968 0
134.601477728366 -5.84318326333268 22.2263047728041 0
204.152066149859 18.3551539279828 -13.6132361195973 0
186.446618092278 -2.16764751855623 -13.4161259431234 0
187.467475297659 40.2044963548858 -21.7985977399073 0
89.483432240967 -8.16116366248366 23.9419965243095 0
138.576429758926 22.4380659905314 8.68671743929697 0
66.3245008907184 6.77571520657986 20.5442163443198 0
-38.0816838801111 -9.79232333538811 22.4339719987101 0
160.107651877549 31.8158559421279 3.56178462076397 0
166.190978186552 -25.6774038377625 -27.0872444595764 0
-11.349463001233 -3.75840184574948 -0.860556215159635 0
167.65551135187 9.77407125566782 -14.3082936172123 0
16.406837911129 -21.274517772412 11.8521325235629 0
105.520266328293 10.1612429495427 20.1187745884086 0
199.508429587465 -12.8068986891213 -7.74354868444648 0
167.739295121552 -11.1952080395715 -26.6518878460661 0
-17.3310040285576 -1.75315037556965 0.173945961829392 0
183.866433880218 28.8343047660546 12.6908698298457 0
186.484932149303 25.7762367018087 -34.9962688152732 0
36.8401634865306 -15.3758619287366 22.0781990726759 0
186.105727819678 -8.96525225463934 -26.0387814809892 0
164.557993489602 39.3471631071494 -10.168491875325 0
146.203974578306 12.9400361455784 17.7703161890912 0
27.2566186592073 6.92622073573697 17.3342137613866 0
138.605994871768 -8.94251459041717 21.9336601271879 0
197.372324432107 -13.0260451009906 6.13842186894076 0
42.0920565136058 -20.3595789476176 15.4570572185964 0
170.195028788649 8.75266628375667 -16.1197205307968 0
-38.8691489141785 3.57213112042947 6.88573651426089 0
-79.7667011876887 -5.33332668848243 17.487290904709 0
188.925128514898 -11.698366308991 17.1783579015525 0
186.328804976137 -16.2312483520104 -33.23742027853 0
23.921996952113 -1.44235177259226 0.236790931877102 0
138.671971012208 -2.1103208708792 -5.77671060194473 0
-74.0300029647365 3.01711852883691 4.86773857294712 0
186.340044154585 3.16715775986525 -11.7729779190224 0
-46.1905313181271 -15.1478942319379 21.0203308115195 0
198.08101371782 13.856581834717 -15.7360303330851 0
51.5403836062239 -14.2675878862856 22.5130507085632 0
162.108522936591 33.2389244776689 -10.5291717444856 0
103.711045047425 -2.47126575482366 23.4528838879277 0
9.33485626842811 -1.04457378998996 0.187820609895968 0
66.0200487353975 3.78322029489366 22.2331696458565 0
181.11584140499 5.34159347981641 21.8356446119675 0
163.149464111764 21.7343468171103 16.1561008662096 0
206.673640937359 21.540324109211 1.00560431376378 0
97.1943254491856 -9.18671134600027 -3.04348487966822 0
-84.4465066987639 -12.8858013213852 -7.03291642324886 0
175.528625209756 -31.4159572122128 -24.6041271763506 0
197.459342273187 34.2958016962362 0.374211652959139 0
177.741413561554 6.81666231008391 20.1611996103898 0
137.884362509164 -17.8297306753173 -5.80780662922417 0
-119.226695699748 -0.653403206478269 -12.7211236326011 0
-20.9538416862942 -23.0041580146081 10.4731057671143 0
197.694812408983 -11.3310350332434 4.38133656033399 0
-8.46590153840566 -18.0419114245072 20.6543615900083 0
204.198265207917 13.3452792107892 -2.4204807971683 0
206.393696353434 27.8847854246215 1.24679585039963 0
200.953590106854 -17.96385380283 -7.83589484643825 0
107.473161900419 8.29531883849363 20.9344607500787 0
7.94032699074585 6.01471375046684 16.6709929257645 0
-108.340133471299 -2.46010088735265 12.8240473756539 0
10.0567224071871 -17.0728843458669 4.05442576658944 0
-73.8317565233085 -17.9034873290964 16.7556887277919 0
179.981236546888 -27.2896967357549 14.2118211934247 0
177.950657378022 -11.5322890014262 22.2727591494207 0
174.557354856656 6.10204504421128 -16.4638890258046 0
180.984694587394 2.1652988063949 19.9896773666136 0
155.796556000575 27.0336405358992 8.55646305846828 0
178.938785025971 42.5642679564346 -1.01580607512356 0
167.285870965717 7.00132074021534 20.0109314223273 0
-100.933880576856 -24.1968382729839 -4.5561986858269 0
111.038741518027 -6.87084614350568 23.3114410985254 0
19.6703659696379 -21.2940526104989 14.343141072252 0
186.545197751252 -8.35726209105883 -20.6816791952023 0
-85.0563927455772 -10.6580860248468 -8.43553406195597 0
189.6503268877 -15.9981800843723 17.3054512160418 0
125.202822563317 -17.5541281917774 16.9190616274629 0
144.41999629562 -20.8783848523783 -5.28782358588454 0
-125.973917806359 6.16842708993052 -12.0054825815418 1
45.2305531318381 7.07019165220949 18.7107269857849 0
1.94221298131212 -17.7586748716785 20.9041677481535 0
193.796884741884 -15.8208992614876 12.9058454792451 0
183.539080309928 -20.1629288681517 -35.0795647186787 0
53.8140971158099 2.29402864445386 4.62675054725496 0
179.477174611693 42.4366787165772 -3.09252622775872 0
184.355955491485 13.9792618600831 -24.6519489053527 0
194.181416345074 -30.0587191689007 -8.50756344286737 0
-57.5826051452794 -3.45412753577192 -2.86473567362567 0
148.022374139745 5.68931623701088 19.8370356718039 0
165.116980875052 21.8691153430223 16.6712145161302 0
187.663521645549 -3.53572796772129 15.8108949926693 0
199.255660429442 25.588900311367 -28.9231879787471 0
63.3101488126642 -14.681193793871 22.0910407789446 0
55.9651462083105 -0.725053816846771 0.927303944397917 0
171.189731837463 -29.0631388229188 4.85070545672137 0
105.796862803691 14.1628271872895 7.48982694603193 0
187.450154233155 40.7008839289913 -19.6228589103413 0
133.573776644381 -18.8567299087091 -2.69022715919726 0
192.237855280898 39.3432048314308 -4.31556660161526 0
156.537402310734 -12.5611187334185 -13.6145801141608 0
198.154080995045 -13.4959587299766 -15.4511586302733 0
200.459467205159 -15.4413909213078 -7.21560667278161 0
8.0096211616391 -15.6214279693999 3.03822778863125 0
159.094161372773 32.8496580903222 -4.53305410692271 0
-102.8200589425 -21.319567219623 9.45287662172155 0
29.3147067157539 -2.39899367521716 0.0433442280512388 0
174.626598604782 11.8920327064048 -19.1360855488304 0
172.302029452199 12.2471572821902 -18.5873753423727 0
-7.2058257619551 -0.369071767669762 21.1723473483075 0
137.459996970808 21.1257371163522 11.2268132239059 0
182.904184142733 -10.2724427744781 20.5942015696999 0
145.183010307134 -12.5924246928406 -9.43614229877481 0
-91.3711929800476 -25.3551227588754 -0.797025193751311 0
132.053504548345 18.0648798225589 1.12594102541515 0
-113.282932754126 2.73939455511404 7.38751365367584 0
152.925024965245 27.9612404646027 1.50862297522223 0
161.377624459972 2.96423589548843 -10.7666393999015 0
180.361838166555 -19.9477818846459 22.815314808023 0
-84.0159484194187 -7.97372312290854 18.1316263034531 0
79.4421322508062 10.9847270758478 17.9642923287231 0
37.0937168982014 -2.06718798977821 23.369351892246 0
-33.3873174644922 -16.3620203420332 0.34643066673661 0
190.149607725778 -33.8037757367937 -26.5621992526878 0
187.756760073113 -27.5433862522823 9.23038399120606 0
182.8839492147 26.2007663260802 15.6402478441434 0
7.40296617235621 -0.962147031651626 0.251639485292597 0
-94.6770798114515 -6.2558352086034 16.1240252199302 0
-126.726253680723 -13.5655006612106 -16.1461234240235 1
127.022368441179 2.20111297958107 21.7273712575758 0
-51.751581347913 -2.08992511222882 -1.76446987337525 0
176.718146548272 -9.03338639143845 -28.8157288909509 0
179.345430141567 35.3805651065842 8.09429688132744 0
162.230366015426 -3.79015827773494 20.3041346592753 0
180.239849742668 -28.9074477198923 7.90998639584092 0
112.71370538 9.68459482286998 2.28750758465208 0
179.972514985072 -16.1098609292747 -34.2456907269819 0
95.95513937003 -17.4699757026377 18.4011296816405 0
-73.7177737855057 -1.87810622874706 15.618548721824 0
191.570004753449 -3.4273691480411 12.6310459286986 0
35.8060078750272 -4.3057148594528 -0.612111140047051 0
163.222009233447 -24.347939314685 14.9617837779385 0
151.553408269671 8.93804051185053 18.9905559018131 0
198.749632163243 23.4862750212677 -29.2293191340595 0
196.402800714368 -26.5019346019306 -0.0179792739872901 0
148.208696357367 14.9022382096675 -7.76063437553289 0
188.660722911312 37.882162565248 -30.3452290401016 0
176.992214697594 41.5256503245957 -15.5572976532559 0
180.046526138312 41.999850104429 -5.27091305368776 0
189.031738689519 -7.21129726020401 -21.4258271454104 0
146.543897289929 -10.6583422585342 21.4330171517598 0
205.911446266724 19.7788166302299 -6.46529124970352 0
30.4669081063101 -4.45919046795328 23.7521424801738 0
162.162679091023 -17.5410843807824 -19.388244389731 0
203.098794515444 11.2215440768338 4.57290996443335 0
198.938328485203 2.02282047980663 -1.15603592913039 0
182.969069713471 -7.76159183672184 19.7631033093654 0
-40.3975500450515 -17.5379552661459 20.0224520851555 0
182.723129712103 39.8752338984535 -22.0176473192535 0
-22.6054445252696 -6.90665800552333 -2.64976818478649 0
13.684125227362 5.21137658826343 18.5739902256652 0
176.02894978239 -16.3909551471423 23.2625191588635 0
195.555440281581 38.8528234678355 -7.45669075202219 0
16.0179420140722 -15.2987534576188 22.2098987443548 0
39.0935807901748 5.60899746362213 8.17609352774231 0
58.0140706011483 -2.89694930678574 -0.10724892831229 0
169.866678712728 1.63279845835831 19.0122896052679 0
68.184771374869 -14.287114930994 22.227139247182 0
-81.025009966852 -3.7246601443861 -5.10851647251368 0
160.70196161468 -4.83264690270331 20.7449816011395 0
176.027141650992 39.6535242597027 -20.3768743566866 0
169.120399729202 -28.5352415075209 5.60074303726139 0
187.059177599089 -12.6795146276205 18.8119650776598 0
150.203524562069 -3.12773943497384 21.0608101267718 0
33.7991768492612 -14.5647070350522 3.1392269518634 0
-53.0782810026554 -20.9455467246661 0.723952371120024 0
198.255042315056 1.58517955609889 6.1999979326661 0
200.116251096865 37.4700222532795 -23.6927217146663 0
164.627896691637 -25.2780455690605 -24.0603082850445 0
164.500134740813 -8.0745897681412 21.4768399942363 0
173.298965275731 42.5363907986658 -11.6512343480567 0
-96.9124012058407 -14.7785576625708 15.6010679395011 0
84.9621154688081 -9.10678666517016 -1.85389126531407 0
109.184662287619 -0.683816422884208 -2.12650789955982 0
193.646002938224 36.5394453113721 -30.1455941107791 0
168.663780513123 -12.5696553485602 -28.5539225959501 0
72.4997592747891 -9.78432037874809 -0.664042577281779 0
35.9853917510072 -16.0318066868115 3.95565508327003 0
102.267792982952 7.33191948763954 2.70206580187346 0
172.445329598702 42.7620212902298 -9.98686028183572 0
-15.7853192911909 -18.016118363589 3.31765154679204 0
142.03976119789 -11.3881678496396 -8.4071160312437 0
115.756272669004 15.9572899219153 15.8987592755902 0
168.940388285552 -29.0056154653803 3.17665720231632 0
-95.0631472697145 -4.49643266339535 -8.02832183203743 0
15.8429985345077 0.482566769442711 2.82062745554888 0
198.916763276244 -25.4643028264663 -21.1556078901905 0
193.314334550683 -32.2336376440554 -15.3565720767525 0
-40.4424111736164 -6.43015782606059 -3.66807266113276 0
184.94386451497 4.90358308927557 -12.9776053777451 0
87.6783798157443 12.9903245175401 9.92621133208416 0
190.181800223097 16.5635364399415 -32.3387561991527 0
-114.101676410426 -9.35210162955455 -14.1334363654372 0
187.990228923791 -31.9384451914917 -7.83289422141677 0
-101.714850371233 -13.2523441939981 -9.61477215884074 0
191.764290487532 -2.27090834109226 -10.6934501150251 0
-95.1935652115325 -11.3616026276125 16.7151787743342 0
188.924807593206 40.166155024049 -23.4253767452014 0
156.147004589531 -22.9679111294038 9.40367077340743 0
167.009851162674 5.25513926484516 -13.2013502222771 0
111.084817428069 -2.71149946633561 -3.0479823330749 0
188.694428550535 -31.8529249247798 -18.132090740191 0
156.114292836204 -25.2055253222931 -9.12855024396517 0
151.87263099504 -2.75543212885105 -8.3851126547803 0
146.989895530163 -13.1473701027803 -10.1965911322484 0
175.901799646928 -28.4636907723189 11.5245273905772 0
79.4824190030959 -4.72794723379633 24.0982433559166 0
135.156757918652 -11.4984368394502 -6.99917228239047 0
49.5877892252664 -20.4137457125539 12.7305404763181 0
-33.8753818209196 -1.3803965737205 19.9568681014598 0
159.332826646615 7.27983089955964 -10.3212031335003 0
-20.2851062737804 3.01921293950624 6.44173564284648 0
171.471718215994 -28.3026246304076 9.94221219095791 0
-80.7199546362833 -6.27040611040186 -6.04132782091505 0
163.189702574329 -29.175578950283 -9.50095580051799 0
88.1724838443392 11.2919703818536 7.70497278090574 0
14.4461007894227 -0.618516126617574 1.11182869119361 0
180.216045967792 33.973308194712 9.30964352835202 0
195.78390535879 -31.3482185053978 -13.1676398675263 0
102.631615985425 2.16318795769253 -0.131058704123813 0
-77.3977547156273 -8.62921209038946 -6.86449568588278 0
-83.7275745650191 3.32686511006612 3.02827907229253 0
182.179195661585 13.5953764942233 -29.8286548750448 0
164.279193380052 -27.6997384791248 0.165660602091671 0
124.267901510916 17.2925027597912 15.0626102559944 0
-33.7116300536168 -9.1208397086966 -2.61780032195431 0
143.76688105249 17.5116313345612 15.3877040823765 0
-91.2343233604134 -14.020913443354 16.7514549588314 0
165.606361806654 3.75514498281417 -12.4049705710755 0
-77.2238099219129 -18.3972095224592 -5.27815644574447 0
122.299781884475 11.3377179797978 0.944660049086051 0
138.058738526631 -11.655198643135 -7.53346203271217 0
9.04928009819881 -21.713725356849 13.9319486447529 0
-5.83296229542246 -2.81017531139418 22.4300739379627 0
183.827438350854 10.034400244845 23.4333608821781 0
86.5092360683439 0.363468054208392 0.745108266843501 0
170.858970442008 23.2051112532537 17.6901950997449 0
19.8390688003878 -15.5992308786814 3.48226105923547 0
205.234818234435 28.2779274221699 -18.7112967928388 0
119.152951617099 -19.6734856268686 11.6149018318067 0
152.895121401229 -18.4688929093552 -12.6759115471395 0
166.011715570472 -27.8744029761698 3.47111636855156 0
195.599299920988 11.1562791776354 -11.2635595673188 0
192.303940374992 11.155414767685 20.4161271124701 0
-69.2904107778253 3.19577362137559 7.32991831732803 0
44.5997785079016 2.22318429212271 4.06971085509697 0
-57.0452794851842 -19.1347061504547 17.4582708070531 0
-30.9801198552248 -16.1374104567237 0.416964964953533 0
176.00092482207 -31.4107616986399 -0.563440768046779 0
42.7119929749046 -1.17230036895888 23.2700682416559 0
196.476345140481 -29.964148413182 -9.29890724419108 0
201.667451293734 8.16882786269345 3.7401607891097 0
163.213211195743 -22.4909524491015 -22.251150650969 0
161.105090632821 15.9177641274893 18.4999136633442 0
9.21201000979175 -13.7573979312395 22.8970734304639 0
-77.85192584921 -1.44008297791204 -3.42693249853743 0
-32.7080369332135 -12.6424512619962 22.5137249203155 0
159.726256487961 -12.778478018337 -15.4489693074871 0
56.6313191252388 -9.94071967498895 23.9379724352403 0
135.733200434247 4.4472956728695 20.7108741147139 0
-114.655914312034 -21.5336219739943 7.78327481850483 0
163.842458104783 -12.2707281497905 22.1770203770708 0
152.170977828056 -10.2243596772801 21.550631427684 0
-24.2977927452704 -3.06737902564021 -1.19712491320198 0
41.7842851994666 8.64047333546818 12.6068100140485 0
178.031303522475 -21.1769773006504 23.6928186398292 0
-117.040735388567 -8.06934341181242 12.8109480174022 0
-115.56423110438 -17.0478926090915 11.6427444455589 0
114.039252816953 -0.5449282720971 22.8674227126572 0
13.5425808194477 -4.38369252189673 -0.696808580296899 0
191.487192033454 -4.45478934968225 -12.5789947769989 0
170.373140805309 15.6959953185232 21.1227926866273 0
162.138799119253 1.30796202053379 -11.1706184224755 0
54.2294201342972 -8.71094147194771 24.0746194922607 0
66.3741954299531 -3.15019922138003 23.9657762157117 0
181.623815259978 41.4074433721324 -5.97274928047071 0
-87.6257304776791 -10.5349691274239 -8.69615300977908 0
-39.8944400825165 -23.425337987848 12.1807071073598 0
173.389913388164 -13.8869408035831 22.7096408686384 0
129.624128559802 -19.4848831995058 12.8437487152667 0
-55.7849199572146 -20.5576487689284 16.0363884965168 0
122.677447154614 14.1109775099701 17.9253462413809 0
185.402313839799 -30.658514884637 -21.7038953202042 0
132.302063005024 -12.6102720022548 -6.41730870903926 0
-55.1719738233516 -9.91659491784726 -5.06614013459732 0
-64.555531717644 -22.6987238148741 12.0258363693569 0
-56.6522537559329 -15.325755479685 -3.19890891648529 0
191.656625220467 -34.2314019413193 -20.2210993366705 0
165.008354026212 -16.1725485710569 -26.5747755004873 0
-123.731346911829 6.54548892168649 -4.73171162555551 1
168.063357607131 -29.7506701464521 -2.04550424703372 0
68.2609893391097 7.89486158836031 19.8690584637782 0
160.84608096696 14.1124505946156 -12.7270479076807 0
-99.1196492760847 -21.3079797776095 9.88760479220196 0
-80.2225013476275 -24.209686706353 7.16596585440203 0
193.297484161969 14.1772868373431 -14.4310983801131 0
-64.9107160088645 1.26170466959097 13.6871585460195 0
181.869665950293 13.2346661361383 -19.5213802462403 0
45.0397671800064 -8.64210428098806 0.430113126264471 0
-111.875840655752 -10.4419140578782 -14.3722812926249 0
193.571922263751 -1.87640837202684 11.009789881029 0
119.560249081379 -3.47128950297467 -4.00644227228862 0
