243.879626261521 -9.82082669218186 1.37948561961921 0
226.545224690969 -14.1223980995305 22.4131794360948 0
103.310229183589 -8.99371752031026 -22.4797347997379 0
229.643766838823 -10.5947074531854 12.1727587336139 0
168.605485841344 15.171261472538 8.05037173813063 0
171.710198868523 20.81807602371 1.04137135009358 0
198.076862425844 -8.06768355582217 11.0691056258086 0
240.020041220232 -11.2609358131275 7.81228691494519 0
238.453909164009 -39.7788093159395 20.4104198844226 0
220.541805317481 -41.7794226947474 20.8499541863894 0
237.167540016351 36.4869756368837 15.2450235132937 0
181.736143061434 -25.1855654248146 5.18259656630813 0
232.837960483899 26.0145733089683 -24.3787604701783 0
233.815632246484 -40.0870980779639 23.4045903485312 0
241.446386996605 -35.4760654177704 -4.49275700435138 0
212.363837474579 -36.4242761905047 -5.56882539450421 0
232.481866771873 -4.40635550186411 -16.6508290136402 0
108.178995975053 4.48027513592934 -27.7413132854817 0
242.373832480766 -34.8670021727508 -6.74256154182827 0
231.480920110798 -13.4002214456573 31.2002685305683 0
211.106611794063 30.1482895121478 -18.2593536259673 0
96.127627144719 -7.29258204765529 -23.9015420982659 0
205.370281365907 28.9754390574685 21.8077806461627 0
215.578496815504 -41.7018758981215 1.42890003625956 0
179.934246238817 9.47973754325821 10.1258482817462 0
234.086857497027 34.5072072991806 24.8561006530979 0
63.860571483032 16.291496232848 -6.6145028481472 0
212.376200349028 24.8533693348619 -32.7134331398942 0
227.32773914938 -14.1882328575677 26.105391207154 0
197.070725323643 -26.595425218734 -8.10735830762797 0
122.838912377797 -13.2512279082267 -17.6564161253987 0
241.915699499137 -7.37745999037068 -2.04057897608016 0
204.737068813193 5.14244136710837 -25.3994114309419 0
1.28837403645205 0.355500693174182 -29.8690347498254 1
66.7579493002346 4.54649458544844 -29.1910833325784 0
215.696655277227 30.482219421206 -18.65568185118 0
215.656756977744 -13.1226954346172 22.3754180129761 0
128.291606036452 18.332122076517 -11.4130301322113 0
12.0454039634942 0.710414415306567 -29.8849288290127 0
177.703207042863 -23.6085958956651 3.71935162380625 0
224.591724626309 -8.02009933524952 15.1150320846064 0
222.740739881957 -39.8891295454272 31.8795372519396 0
224.605371064021 18.6000047642378 -32.5248590896247 0
239.001981547563 -3.87744556931447 -5.45466682800238 0
21.185967805526 16.3477059784415 -8.69701163042856 0
20.5880483518377 -0.257135823438387 3.76603909545177 0
55.9207477118443 -5.64418471234029 -25.6843383998529 0
249.767353050306 -35.4215287324417 24.7889403983083 0
137.992169652587 12.7739333585044 -22.078334022026 0
240.053336171945 11.7067055977499 15.3704440399874 0
49.1274540506278 -7.58977354492653 -8.54420880811049 0
101.423291232593 15.3963774133386 -1.01759533112256 0
216.997526711912 -39.1515615219777 32.6769030757814 0
243.890971298297 31.6627706159444 17.0672774248659 0
114.853700425869 14.7496313940311 1.81050873087278 0
197.728101149206 28.5338845140103 3.47857361369472 0
251.367154677641 -34.8509797484742 9.91326035885121 0
213.325830574889 -4.45335797716641 18.8491502212721 0
238.926993523086 36.5409416116303 21.6827844222511 0
223.083793981001 -9.51257334498069 16.2941808149169 0
64.8264929983949 0.660029686797821 -28.5231520377807 0
243.813480534973 -34.0475373467619 -8.97740921081226 0
54.5399167640043 13.3627348939172 -26.5794784533145 0
249.680094626149 -36.2635487145798 16.0608964064388 0
249.742097724189 -35.8220424902511 10.0549326769705 0
250.545682080368 -21.1641087353874 5.28697781220816 0
226.298199786404 36.4646061104737 1.79310543778377 0
83.5474717846464 2.05919880658529 4.63359888054066 0
85.1238859478982 2.86881269757301 -28.3997967148244 0
189.541609070872 -2.86524816085673 9.0057212202584 0
240.588443710128 -5.86829741684664 -0.576473332220389 0
211.77108490873 -34.5801360088265 -7.91325050914482 0
206.478694746008 28.0106180691091 -22.6745936392441 0
2.53544078257512 17.5552840751882 -23.8136598158521 1
36.7075160950103 14.2776584756009 -26.6455397835858 0
224.097306331024 -5.16373291443107 15.0325262350081 0
194.689158748768 23.4846437268986 13.0379020408106 0
237.078095977023 35.8371469680278 24.262329401098 0
248.180240004938 -25.5076076652078 25.8474482063506 0
203.888046264819 23.3875778482025 -29.6596638503052 0
118.417893752576 -6.10539970411815 3.74007697244265 0
212.642319322483 11.4712310954263 -31.794253716979 0
17.2003801099601 2.83559295884233 5.2073937947653 0
203.470147818256 26.9660792536041 -21.21657456217 0
36.0595050413208 4.91879257238111 4.36844646750018 0
180.214620489163 -7.32820954814671 -21.3990448013385 0
209.344023845703 15.5536968714982 29.613772979167 0
37.9281920439097 -4.97110553823626 -26.4898280071164 0
161.348673675919 -17.7520146541864 1.58729945160954 0
213.797407890103 37.4737040958906 4.05424651781046 0
68.444479377214 -10.3498666430802 -18.7480151555328 0
72.261549618334 -10.8311179471045 -17.4179056607047 0
207.863644953114 36.6023936268702 7.54939487808381 0
209.890385618859 24.2398188976728 -32.9919746975542 0
219.425609921048 -43.1188554107398 11.1167811586039 0
98.0338923866984 9.45564299893407 4.30431271872108 0
226.404967485518 33.7086195910356 23.630969335432 0
26.9474085027782 15.66795151165 -25.5263015801485 0
32.0173763919901 -8.6070847330478 -15.1974593229367 0
50.7471134428331 3.03152039700929 -29.5571272066102 0
1.03342459989027 0.164159964962837 5.20531062385291 1
62.6298186376358 -4.63132015766521 -26.274365545727 0
230.305244813365 15.7996385099183 31.4816862555375 0
49.7274523566521 18.0524406108918 -18.168702439249 0
242.292273162821 -9.41103452257886 3.7269587958054 0
218.980089772551 -30.9683203549948 38.5556616207114 0
207.07359124578 -20.1695133268022 19.3563128096721 0
246.718980925953 -36.8246920585119 5.11253026631116 0
164.647923322581 -11.1427300276448 5.75085255152852 0
158.585994742584 -8.23752337279217 -21.6470418896332 0
208.876851433938 5.10494836244071 -26.4913421432142 0
230.0948154787 -17.1808455014487 36.2080734509916 0
18.8816533227536 18.55536075098 -15.1328414416134 0
93.4007751284842 -12.6362658445689 -13.9532686797276 0
220.517714254799 10.5196645783401 30.4361519256126 0
190.987483610096 24.7488273614498 2.76532342928501 0
244.346333468744 -11.3376158708501 -5.74255230217612 0
176.190606373524 17.8232040485111 -16.8932287979366 0
205.581131788048 7.87647941256135 16.6806091011596 0
144.51367214993 -4.24595550167213 -23.9968643547008 0
204.248193972295 -2.84976813055269 13.3644848184992 0
206.171475126949 -15.3080869515574 -20.6536694327628 0
213.557750110549 -30.8062115593924 34.5666412007271 0
119.81526872615 -13.5600020291289 -16.8875614855036 0
50.2699741323147 8.80860153283041 -29.5570859184544 0
78.2886787371329 16.5551506365286 -20.5169554107704 0
218.807774017002 31.853628697932 28.6450746070036 0
222.895208463157 -43.130247579325 10.5492083777093 0
227.380441834368 21.3138129989048 34.8430589849769 0
207.910858482478 26.6900333738691 30.3685675204556 0
218.466480076709 -20.5030088544879 35.7644940755296 0
211.827668820182 -11.5051971583379 19.6238174904422 0
126.832050858682 17.4465593440643 -14.7008597737114 0
247.421665150306 -17.7416261485249 -6.42652563880753 0
212.277157650267 -29.1589580977455 26.5148590277285 0
226.498790607789 36.362000920217 11.6041233203622 0
232.517774206792 4.46025994643503 8.48129114354896 0
21.5925642345219 6.06248467517352 2.65608029061137 0
72.3736058662718 -9.80266422161261 -20.4999979118942 0
84.4178213233935 -10.6881257782697 -8.38710776171862 0
219.058698406915 3.42866011154919 -26.5463657094255 0
215.826200470734 5.81779103752026 -28.2651544981057 0
219.34448811607 -37.6336587591989 -6.8187538010784 0
225.008224173461 -34.1450631998349 -11.3913532661263 0
39.0006057624242 8.57234050942961 0.954794362478094 0
214.350650864284 -15.4234659716255 23.2096973162191 0
226.928577317449 33.2862520275123 20.9805492956121 0
41.3938527505299 9.55905752717302 -29.591307729018 0
195.99894118033 -17.1654027073486 12.3091225948994 0
230.29812993703 34.9016582834735 16.8985896478185 0
204.387737510865 -37.123167303812 9.58774412644986 0
204.548155248082 -21.2665509897689 -18.9748963511626 0
7.4362350032685 -7.14401161913679 -14.7853849331807 0
36.5789459077607 0.693321311009961 4.03993790273709 0
156.03141598038 17.3935964291557 -15.289253811513 0
210.824378625482 29.4963135106172 -20.9888893610074 0
147.583403537427 -5.54415836555187 -23.311132770703 0
95.6014592198807 10.8778947108679 3.17070529539904 0
36.8926614328409 -7.1029815877244 -24.0024415200188 0
247.026518994129 -30.0683807098281 29.1051292877525 0
196.640302969912 -18.6118493517762 -17.8524269432828 0
241.038931158073 -13.4409341966585 22.4012014825907 0
222.986230080203 -14.4421157108754 24.7946317963258 0
247.756312158523 -38.3028665407949 23.1042372957524 0
45.6825234697292 8.57119867989703 1.35293996844939 0
6.0253322522566 18.7437785234854 -15.2610894775229 0
116.364277488032 -11.5259461100269 -2.19481790919173 0
226.712938523571 22.9759273618489 -31.6905801691315 0
234.251387697928 9.17193930298342 -19.5053733979793 0
224.046093319834 -11.335170570989 -21.3004141688024 0
59.0826532349119 -2.94753182244091 -27.4318036168233 0
98.9060193611607 -4.46393180520864 3.3370289895032 0
238.762978509072 -6.9269592923887 -10.9353228613397 0
216.410061741933 10.8357283582557 -31.4250541450084 0
201.490935770487 12.4401420862886 16.3306691407357 0
230.376379798018 29.38220464106 34.1152443133223 0
241.12894517977 -39.8120260532238 22.0695754279057 0
231.199501791031 -10.7104761118276 -19.8759050277009 0
235.431250523113 29.4040661649116 31.2847119084455 0
169.391022775707 20.147735623553 -6.87692833050043 0
24.3325798015349 -3.96478534611339 -27.3298520890294 0
213.040436393387 -31.8910658704215 25.6319859542982 0
214.659590811675 -37.8029789800157 32.8788630083193 0
248.206689920099 -35.9985307955775 5.22532146178142 0
124.163675161924 15.3603815514303 2.15067750226527 0
82.2133193015525 12.4191865511898 -25.8051479085694 0
76.576096634818 15.4405055117241 -3.70003560156696 0
222.893322709693 -36.1678803901531 -9.31922269108233 0
94.1640852354293 13.8873448258981 -23.5979700862179 0
218.105746989579 -30.0614295297819 -16.6349851110627 0
54.6090234069825 -2.70725403903179 -27.6919938601262 0
221.264593873194 34.3516166423928 17.6412599660953 0
239.153454526323 29.4904546617919 -10.7512179681544 0
51.4869991835858 -9.70549503322959 -15.3382973198435 0
63.4687635555937 3.77146411421658 -29.1878682061651 0
237.148320892312 3.60864430289986 2.34003527239445 0
35.1105928178274 -8.78122867385775 -15.2509350204382 0
198.961712025687 -19.3883977438505 -18.0007132763416 0
234.074071721791 -31.342443853037 -14.6022946799418 0
251.597588761208 -24.6906060779295 3.11107401528398 0
197.865959243717 -23.4251304617752 -13.3321972676548 0
164.218860351957 2.00514569572496 -24.4443720394949 0
215.524677314327 34.4290369017039 -5.2336632570198 0
243.577649714538 34.5376216955717 15.7492936700624 0
93.616080970092 15.5652665242869 -21.153015609299 0
234.14728568143 35.0276724750011 4.75524447887795 0
41.8942094579578 15.5981302154745 -24.7481125389403 0
216.645513795165 -34.1915600671775 -11.0448810277596 0
35.0762452805227 -8.05364173552663 -22.308602673077 0
228.89329501697 -39.1967528282733 -2.32256077930809 0
248.188675595302 -14.9593357004047 -0.534476644877736 0
64.4892453906097 -6.43873484726365 -24.8166984810175 0
55.6128123970272 0.745139772668114 3.84543540343409 0
149.119431966807 -17.8916461798219 -5.98359930016003 0
234.128435207243 23.7992410247088 -25.3050303386304 0
237.430701121815 7.17545574678338 17.5018652227989 0
45.0925017976058 5.16723514521114 -29.9835709362964 0
236.513518407966 -4.58095191248048 -12.3601085882717 0
244.959946565894 26.6388870510879 14.7584268706729 0
246.625641806005 -19.8260984129512 -9.07214464268485 0
26.3569349135934 18.4984659942611 -15.5434337441032 0
180.758165244469 7.08143907394332 9.78477172548809 0
16.4554634608851 -7.20464981563091 -13.1982314662229 0
196.887106781096 -3.47546976229052 10.5816006555226 0
12.1524353377108 13.3739384949001 -28.4062475786237 0
215.96767794805 -17.9688025636183 31.1194206737297 0
56.8995364554664 10.1433144895908 -28.7286497429572 0
188.287180663934 21.9687218707925 8.77564965564782 0
222.789511555274 18.1443474395079 -33.2752298046499 0
194.972475271611 -29.9804726829163 2.50908710936315 0
188.269319285239 23.2300616067453 6.07123870040266 0
238.27917209501 12.2834872346099 -14.936796063289 0
227.257941175532 -40.0233181014135 29.1319831734637 0
82.8856937715717 6.25400243226359 4.7927189331992 0
234.375921480102 36.4084179283499 19.3641522601648 0
193.417150049333 -19.8444885482577 13.2054919132862 0
206.816319545481 5.1599998526289 -25.9737938061109 0
244.37851987831 21.6091916513348 13.5660587864659 0
197.057193424914 17.6321596035772 -26.9671131253361 0
189.90391088069 -27.681443945255 7.50726768959856 0
209.299852550171 -16.1382588653619 -21.2441334733995 0
170.323409088342 3.82849942528005 -24.1352406836354 0
212.700870488193 30.5700877620803 -15.2228386386943 0
30.6126569043026 16.2538713767554 -8.26335301810056 0
112.001116459994 1.41364703371429 -27.3054751568775 0
97.3011089791355 14.7171856134066 -0.474741533965835 0
217.744768661034 -38.8422988998942 30.3350487361954 0
207.766179683428 33.1979996887421 -0.479212075659356 0
35.2570475872737 -0.575531236044086 2.90992192740064 0
206.433111841412 -24.353189362262 -17.6444387196897 0
205.210823921293 -21.5960670385112 17.8510677696613 0
223.898326025542 -29.4418589270515 -17.6051575002921 0
76.3556889010531 -3.53621818085417 2.11736724438003 0
134.309635327753 -12.4716323034561 -0.266437128762216 0
227.885444125218 -39.959779914948 24.3063976026635 0
240.425015510695 -35.1117945041425 -6.10312105863932 0
9.97682108736345 -4.9040337983617 -7.63667702490616 0
43.3007496115299 -1.01643655141098 2.91064194875431 0
237.375010660713 -40.3952155317722 31.3443537693644 0
245.044721683307 29.265668574296 10.3676077915559 0
228.118569948171 -42.5408485744668 9.86963164444485 0
227.527006403807 -36.5441405073892 -7.52758812729432 0
252.184479866245 -28.6240658706812 13.4215127091165 0
188.627392713502 -7.60948894176763 8.86586830283108 0
226.535604065881 -12.913531681066 -21.5379430175617 0
238.884581899437 28.7378691037328 27.8707609725714 0
251.175881728374 -35.1660576846963 20.4600516186838 0
252.427101062588 -32.0378496162659 15.6899153776285 0
250.049638571251 -35.9560980623955 11.1181284269529 0
228.314817275478 34.0487478384123 22.6930415409484 0
46.1722517248811 -7.49699729869627 -8.82623395884877 0
197.439416258974 -8.52462016788725 -20.7348857433327 0
172.961132153249 20.9307539613514 2.69865310099243 0
173.243024021872 1.07662136477059 8.49107981445303 0
248.853360569294 -36.7568505117956 16.7721199232899 0
231.205635849777 31.5382042499012 -11.7919713014956 0
206.845712232405 -6.46063302385071 14.2495066563633 0
231.381539076118 8.03786422494624 23.6751377206386 0
217.024480347694 13.2777219418114 -32.7771670682909 0
240.14843482743 27.9835949304196 26.1699252920079 0
202.677648885633 3.83476599316157 13.5242686258556 0
199.167311558972 -6.29902713409372 10.9597753797669 0
215.565697626975 -29.8102365676851 36.5876479124492 0
236.767078270168 35.9318274939195 26.9344742902705 0
249.347540554389 -18.8411820132876 14.3514343083772 0
215.907909220085 -40.2937762586699 22.3734612396054 0
58.3218587732912 2.84841934265156 4.51288569936229 0
79.5506334518244 17.4258859931725 -18.1331198010057 0
54.1236462890598 -7.53223256068639 -23.7653070827164 0
107.90751681856 -11.9821569512769 -19.1550358717722 0
228.842346529334 24.0262031196146 34.6988949456817 0
240.363617514252 27.7603821357607 -11.9065526708867 0
28.233871840637 17.5420443409081 -22.2595754398633 0
216.10577369662 6.65299216277663 23.1345995365207 0
236.813494721173 -40.7708244883302 26.8884745080063 0
236.40752179421 35.6410681008241 25.5871027694491 0
230.102230237954 -13.0344888697405 -21.2427593741561 0
211.448622780264 1.72032486932356 18.197219977577 0
98.0589786396811 -9.65170639166819 -21.8430771478591 0
31.7364667499292 10.3511156254639 -0.952685436889557 0
186.096886985233 23.1619176444769 1.04450826633193 0
234.973406602074 -8.91031963963066 7.58290629115291 0
8.63030507892529 -1.13441880449599 1.33616582394106 0
231.905947058187 -40.760336660955 31.5544032127757 0
149.678245936078 -17.913766286736 -11.0086431555048 0
216.383232035388 19.5971082507483 -35.7334388334129 0
116.965532558584 -14.2190173678971 -14.9038415993815 0
204.845729946632 -23.8764275835702 17.7672565719766 0
189.18672756172 7.32852529121701 -24.0156847040147 0
160.870429475721 -16.1957560644292 -15.9385698446334 0
241.43986901853 30.9109638335589 -4.77038921947567 0
201.147329185715 5.07398305863911 13.1292128559211 0
228.422198017278 -14.3973119444067 32.5990379963854 0
181.74510617046 10.3935500769644 10.4726395962778 0
219.371729354264 -38.3734598005108 37.6136127027061 0
218.864584219456 34.2300233994686 19.9327419146462 0
124.770026066863 2.38645223635392 -26.6890255744877 0
235.864447229061 36.2447271715428 19.3383027463221 0
219.441394268545 37.7062563873164 5.99753861629875 0
31.3959069773545 -6.90432031808738 -9.85144697596076 0
68.601712824971 14.8543818591027 -3.64768761424316 0
226.315133134732 -40.1772996980382 23.4385849670356 0
205.767169294812 -1.40305086499819 -22.5944217626723 0
11.2468651964812 16.2643758356952 -25.4619517412648 0
170.624596280563 -3.37395777036498 -22.9407078301865 0
148.034064306924 -12.2073020893229 3.54217525377367 0
19.6948947321395 -6.53341165689877 -10.6239155107529 0
116.798439654774 5.30305274856409 -27.1447329961248 0
60.1048281605512 -5.5230222203491 -25.6731563992122 0
199.635260031712 -7.08625384219745 -20.942953637601 0
75.5995236524118 -10.8927195949276 -17.9353824230649 0
194.253963506772 -23.0539306884927 -12.0629964486191 0
137.980195943468 8.78851271857619 -25.0550723362518 0
214.241478937344 31.2803260715556 29.744631685903 0
231.417861189097 -21.1830328321962 39.0528101989931 0
240.428822962016 17.9343965023059 -13.2763892383071 0
214.845286795897 -33.259434191367 -11.5411913798121 0
183.740404569219 11.501886910241 10.8842707461585 0
243.075912917594 27.042277574261 -1.46936665736507 0
231.532694396181 -14.2533701559972 23.6536884500944 0
221.121817513473 -42.7301337285291 3.7611789237266 0
143.947468904639 17.0546459928616 2.3990293374984 0
218.003171209524 28.5234053154121 35.3137083670939 0
142.458481981044 -6.56000469749051 -22.9484066701204 0
204.240109940954 28.1254390685985 -16.3326078443889 0
239.752439964604 -4.8884928148406 -2.30426525302349 0
222.087716768481 35.1194659530013 -4.48086003455091 0
217.225462211937 -16.6366875030601 30.1770932338982 0
95.9668899640546 -12.7635886499013 -15.4745876005391 0
210.349482488143 33.2541078628511 20.9532442888285 0
237.373576137995 35.7503503152876 19.3893104850119 0
236.217120017108 -1.94576264323956 2.03833205097819 0
228.909182073257 -29.0454384173211 -17.7509041366849 0
15.9061195311573 -4.19221340999877 -5.43734149140285 0
163.739376802855 19.3433260732402 -9.71535545782455 0
207.024170824412 21.6264238954217 29.8917963133096 0
162.984591049274 11.8415203364493 8.46732871266998 0
111.184419178944 14.9679209046735 1.01408657151133 0
229.260200996063 34.5801697394269 28.3108198385381 0
229.847419665972 -34.6206486295387 40.332017783931 0
237.386674085754 -1.54708987950311 -0.0561562041938844 0
209.592962503807 -1.94454741279394 -22.6406861310392 0
215.781160690109 29.507158198361 -22.6011434509603 0
240.072650419132 12.4337619056838 7.76729109475652 0
232.877631315862 35.5294090265491 17.8114344435184 0
46.6943074726191 -8.75429279708297 -12.2068362453228 0
180.320422107149 -24.6224951668013 3.39057613287525 0
191.080923988626 -21.3373546706327 12.3070700951784 0
250.37916948688 -35.0586279954393 9.3582419898461 0
166.336356332333 5.0597792575552 8.69885589504858 0
190.364282743917 -17.9927690273638 -16.8941002250335 0
237.440545502895 -13.9574775970326 22.4590830338655 0
170.561908433507 8.1920472253753 -24.2370601657694 0
237.046711308528 5.25466683777516 6.98731235258564 0
86.5540633502116 -7.60114373343336 -1.16508499251319 0
199.886734293879 -24.250169592699 14.5151537201632 0
244.895548050102 -21.6785767869773 -11.6527655654235 0
251.181988236675 -27.7955253528355 17.2384307203446 0
94.6803236611928 -2.38965400698007 -26.6320098197243 0
248.692660194161 -17.1412153795455 -2.71966414663174 0
232.268641852387 -36.1310334767574 -7.3656855073024 0
231.684244981891 -11.3949837341668 11.9958589164465 0
249.084728513786 -36.8175790752746 14.3180957444251 0
231.880634600561 0.988764685652009 -17.3736024272273 0
236.192050735111 31.5593061113974 30.8727658624121 0
178.399726822226 16.7206897542069 -19.1215980585118 0
91.3316852738402 -5.74557848238562 1.5033057028181 0
197.313713734603 -21.7978523630531 13.8650435611398 0
50.9144922140773 2.5935758255549 4.66228240192648 0
59.5245534212626 -10.0475698584599 -14.2255912029854 0
241.913089236925 -14.172482245458 17.4154438552154 0
186.869491274957 23.2638441740405 -4.83448999969778 0
15.6000027784948 -7.72983557822433 -20.2213289382098 0
184.139845014854 14.4057541251244 -22.6667810623097 0
230.899681703249 34.7368592262492 19.3178296706038 0
201.877890989986 -22.7116451157 -16.5168468020944 0
0.903087721643456 15.726611234744 -7.58122463294061 1
233.524262268193 29.6753182566154 -17.0631174099804 0
218.184636518621 -21.047669957807 -22.9956813999921 0
241.426594415637 16.054864715069 7.97779118043427 0
246.520760464891 -36.2110661874021 3.82182772587685 0
44.1353825577413 -6.28021207716864 -6.44517166666248 0
203.035977169691 30.8223058416587 -0.609474022693364 0
173.720677491338 16.6936450661541 7.91207206996565 0
70.576262167895 -10.531027615397 -12.2910068502062 0
236.841383598329 7.36845850350756 19.3309918597637 0
197.50700432996 -19.8817419279733 14.2527211822861 0
192.99697068166 19.9585527727028 -21.3625843745784 0
14.9740394899681 1.35697526020968 5.09434836390559 0
22.4406114310515 -3.76647525483614 -4.05780406695291 0
116.672499244331 18.3244602176015 -11.9793144339678 0
75.8916888529424 17.9856139742068 -15.6908399599592 0
92.473967144797 17.2130453023697 -17.847626438525 0
226.15955259074 -1.05284294743345 -20.9292246484653 0
242.664809402869 17.7071395417879 1.7327835683153 0
56.5718373411684 -1.21630605288518 3.01861741587495 0
217.65819169738 -28.5780622835864 37.9880893248071 0
103.022410034887 -12.8293194659025 -17.1458946724498 0
224.409901380564 -15.7149063375497 29.667554645744 0
229.636676500083 11.7313557754973 29.2846600085446 0
246.723983295551 -34.8154774635092 -0.581358364727331 0
70.2269387081604 5.55801272904857 -29.115724690969 0
238.489566230704 12.7687805855944 21.2588274635257 0
167.372375353354 -9.37475323225496 6.47558814076022 0
106.016411157598 6.33494427564201 6.27608804818187 0
211.355089245533 31.7298577893713 -8.93668693619046 0
222.301944786726 -12.5956301278467 -21.7731546085608 0
218.63439028196 -18.0445614104865 33.5303166805458 0
248.102530293982 -29.9555286060808 27.2630004813511 0
225.926247192806 32.9450647258638 34.3158550863663 0
202.140771850813 -24.9989005040356 15.6085559621679 0
37.5887510353021 18.4131325018514 -17.3554943481256 0
227.405936330632 -12.039951424532 15.3924883521218 0
224.263418450817 -27.3694019600995 -19.6980187850987 0
229.557136834474 6.94818984198724 16.9692404017373 0
239.711747559304 10.5212583815741 13.3399310338381 0
216.618456703437 23.2198469036358 35.2221118116119 0
245.3688496369 -15.7337519470089 21.513486465969 0
209.377463381011 -37.3538747258322 -3.27806538988538 0
228.888900401946 -41.9192640657825 3.46322215723034 0
238.11770072629 -12.4055006024439 10.6745761958936 0
179.450857842687 20.7606714793566 -9.62664086266518 0
176.742712070131 17.1195146731033 8.26909560351198 0
245.701159508513 -11.688353339355 1.77797918614887 0
140.573552014896 -13.5676335597246 -0.412343730325412 0
238.556952727473 5.85366249074894 -7.75791965554881 0
229.495949468743 -31.983886242207 -14.0293750188398 0
214.626713870963 24.454409092984 34.5019166589224 0
193.036488249777 -28.0716493992107 -0.801868143931216 0
197.788319605569 -11.2054766023737 -20.1295992398057 0
231.517621886068 28.69327175841 -21.1950757827195 0
226.043427051007 -30.3460065260802 -16.4103227678866 0
206.209685342145 -38.9898319858821 2.21767061978021 0
211.608605678852 -5.76049026445657 18.7103433101151 0
84.2017012727295 7.13228767709302 -28.3126877205665 0
227.363235256994 -39.5182756332391 -2.43368944199764 0
141.22118164678 8.85214526361301 7.74616288561214 0
182.908344946349 -6.16264730951535 8.33109215220368 0
72.901526112492 -4.25418709094288 1.6150125232723 0
229.043686629644 14.6344828299802 -28.058706234637 0
154.021071259257 16.1431076070823 7.24721663746706 0
232.515241467826 -38.8518030259239 -1.98330505744127 0
248.86415242018 -36.3654527046552 7.55905341021036 0
238.811755854281 8.53677765845563 12.0842073688518 0
97.2357751839979 18.1668090890321 -11.343614599973 0
208.454222313024 21.1176933497141 -34.7309465067396 0
230.00631144569 34.988371157768 24.0698871732582 0
101.465035787141 -3.10930166270257 3.63672328289739 0
198.691243097909 -29.7017876298315 -3.89232290880674 0
129.813595538035 15.0396643032932 -19.4030078607493 0
205.641499850383 30.5204568401821 20.2753786603314 0
226.212912395974 30.8108390218566 -16.2691830858436 0
229.617743551423 -42.6154537694642 7.3270999065052 0
213.569699176804 -24.0518060520805 33.1098507750526 0
98.9522194560462 16.0555373907869 -19.9523568634379 0
223.904005398153 26.6732787462246 -29.4895749402168 0
225.732857658218 -13.4661531564812 19.6232148808906 0
45.5369076458708 17.5259030842643 -20.6065458046753 0
202.246117446824 31.4365346420969 6.96097355057454 0
220.73209532438 32.2490470882577 28.1546464583452 0
39.5790235433287 -6.38196071128801 -25.0384335390322 0
100.831765588864 3.91660643758053 5.63408304469207 0
243.256885473448 -29.0893253529949 -13.902181671675 0
181.397632111549 -21.1609620458669 -11.087422406255 0
210.521286935629 10.7240625580551 -30.7292324888512 0
164.168507362749 -15.12826725288 -17.2148360514467 0
202.313580192074 31.3852381745363 3.07581813405908 0
246.267701401221 -15.7874962708024 18.317899527771 0
208.265103003932 8.57165445554689 -28.321903998018 0
205.36857884036 -29.0824393591641 -10.9377473053191 0
138.862765815239 17.3673229890359 -14.1994256080914 0
219.015407771376 -40.9843175469821 -1.20355272169632 0
161.466766394056 9.57445733041373 -24.0661964662582 0
160.818861392263 -2.28600535265524 -23.8770263404403 0
239.687593008837 -22.9146312111383 -19.9299939741862 0
58.0861867576217 5.89332450953797 3.52784578671743 0
236.520306683722 -13.5693448312792 24.0389064106804 0
136.897880194168 3.80026817609625 6.94610848605217 0
181.676482242664 -3.57838811749417 8.39025768579884 0
22.7214307841844 15.2114525101785 -6.7578992352098 0
195.20677784108 -8.70699682456445 -20.6377387555513 0
230.204386525445 -12.5266885357445 14.353219957526 0
218.671677300267 6.69760549273064 22.9597967896553 0
205.53798502255 -30.3578286501791 -9.07188739281015 0
153.373273852592 9.58420078633482 -24.2348232171379 0
187.193721380964 21.1109023301604 -13.8379198556001 0
210.342375613632 19.7652584285517 31.3804433662987 0
140.082596728334 -12.4071943471173 -19.1141752409532 0
195.253656983752 -14.0689050683176 11.7374104304568 0
210.011443859543 -12.2852298405394 -21.1552737449871 0
203.270047446285 28.5650236874732 -9.79879635750356 0
201.579933558039 1.16261247252559 12.8796262344876 0
152.56668098398 -0.900257958610777 6.93970998706261 0
230.33138065443 -38.8729602828549 38.8317583020161 0
27.6036173616841 -4.69017047993778 -26.6874132945979 0
135.007602267148 7.67095428729574 7.46357771466141 0
185.439876558625 22.3724539043122 -7.83124077358611 0
239.52575439208 37.9776970432303 11.5460768216755 0
236.831143986002 -1.99630464993079 -10.7261696603092 0
168.428735576108 20.4689857288986 -0.0271219437204799 0
187.973816222651 -26.628253645969 2.73113572488809 0
208.81029361898 -40.9357936737927 13.5214197822374 0
218.04639622221 31.0078561921574 -16.4629367341053 0
227.100533596212 -1.71690269332281 10.2365723821288 0
63.1976601547918 -10.3043993238654 -14.4513464356957 0
172.618807291521 20.7221025658165 -5.00590628558344 0
23.3282701917721 0.414806019913673 -29.6609025602516 0
209.660281806267 -41.2258669875543 9.41469524751771 0
152.647854708496 18.170326543165 1.81231235877433 0
107.305672036512 -8.28322364157052 1.0814268079618 0
191.108149096417 1.90748958165437 9.93021113989348 0
219.999583160173 -8.53780214900624 17.7068297579071 0
70.2697878268146 -2.79776947087405 2.43638955374492 0
198.552221944458 21.9790099060254 -24.6156667360932 0
38.5140864956768 -8.28782888731353 -12.2897443618094 0
188.126282944081 -25.6013907487551 8.52133299920976 0
137.858578734313 -8.61004816716856 -21.895337752013 0
208.667348672711 33.0243705577433 18.467274544055 0
230.384319718789 -13.4924109749292 27.9903257806492 0
120.639654768082 -6.56194764523291 -23.628821208652 0
57.3566816155326 1.93840403292124 -29.0979025977065 0
227.195659232329 1.70318584425177 12.4488770243015 0
237.857120986919 32.3290061584718 29.4792856193808 0
193.088547450005 -9.27380969024174 -20.6137141647519 0
222.424350712443 -11.1875436420306 17.5128524829098 0
190.96306170348 -10.9025633625093 9.74919617679537 0
203.559187597715 22.321255407947 -28.2764836701774 0
195.926396780911 -29.649425312506 -0.426137149612111 0
67.2348120516135 16.8250169388972 -7.56717672950722 0
86.4245868035369 14.5394460497572 -1.48003400970401 0
199.369598042743 -15.2561515656913 13.033122623237 0
185.973959815233 2.56723836468989 9.42580842529983 0
222.476338146598 -19.0342862669598 36.6815650263558 0
195.880155770934 -15.5966512439879 -19.2624527303002 0
213.292154553888 28.4285810128463 -25.2954379482969 0
244.830596311832 23.6343024445286 10.7303697582252 0
231.160527321188 34.5923526691312 27.6406225301082 0
126.632758635921 16.4615018018027 0.496416892687972 0
64.6929890368609 14.5535441722644 -24.7533950598274 0
175.82042571201 -9.53047984833418 7.39897403625214 0
190.940474279424 -22.9176656767488 11.6966222845829 0
230.436220333009 -40.5234061084747 33.1663137883224 0
163.158809060721 7.36275419922866 8.62293866669092 0
151.177052976723 16.3607538469547 -17.1514563567995 0
70.2624151628291 10.1198010433581 -28.0841809662992 0
208.14343952066 -17.7333374567061 19.5446492458204 0
242.680827986919 28.0414215683391 21.8464351862928 0
86.7079635484061 1.9249085105751 4.65962673514086 0
145.527755259958 18.6657044523038 -3.60151234609973 0
219.207602008928 38.1893644054363 11.7189022222162 0
48.789832226725 0.728361093006622 -29.1832718003709 0
171.818560732701 -16.8700679546926 5.52456949732141 0
241.022697600067 14.4211820117069 15.7342610956208 0
236.446163439047 -20.6487131778584 -22.1627602891104 0
221.714841748594 -29.6964637605258 -17.3193911688289 0
205.520542417426 23.7968035065843 -30.6814873325926 0
224.855880153778 -41.4836427895164 1.24403969611361 0
225.540425515617 16.0938030314479 33.3674442079321 0
127.902773021623 -10.7551869076949 0.9915412210413 0
248.554585035445 -25.7122226476722 -6.48793590183743 0
200.328206225234 -31.2953555802222 -2.7618066405569 0
72.0854244130524 -0.00197963902436223 3.61824895503414 0
232.548963914314 -27.9880913118637 -18.574451605318 0
220.290505217402 38.7417571081279 8.95222920121461 0
204.229779169047 26.7984976703198 -23.287224199295 0
211.733277973236 0.945952343939409 -24.7005223413907 0
91.7976765622103 -11.4747695096129 -8.32832423961552 0
188.182279079404 -21.1705271758097 -12.747760880004 0
76.434486390897 12.1812247705791 -26.4135666015789 0
233.224512808659 13.6885503568628 28.2585039689077 0
161.561347419432 -10.4312381718594 5.59288371322755 0
184.126988915733 20.0739504169586 -14.5580307396572 0
219.331799133324 4.94376534400634 20.9406576253816 0
206.025980174279 -3.15542822186368 14.2739330150001 0
214.264971021066 -14.1305881419039 -21.9027114537735 0
48.7242479263207 9.63118708800396 0.612893976819005 0
193.492905153681 18.9220021446143 -23.1455229276672 0
175.358186662474 20.4620873011818 4.472181734728 0
244.099722600481 -19.5759401349114 29.8467729724218 0
248.929787356927 -29.0077246857568 -5.74979168726088 0
211.690557316974 -26.8761925904312 30.801695037787 0
21.9016452591096 -5.29957917837459 -26.0154283118864 0
217.271393611914 -4.4099462379407 18.4379734474772 0
250.766822150587 -22.147275271847 8.42244306682922 0
126.551855460876 18.5462376272413 -8.25768382961977 0
41.3109413978723 -9.18797629808892 -18.9499960938236 0
229.168816143975 36.2660145416129 11.5377683729724 0
15.9643412169153 2.07991485259654 -30.1180175770852 0
162.201457666949 19.6111034914862 0.430768972475212 0
209.814930538761 -10.4607655111843 -21.0204494438915 0
181.384447829642 -15.9822292116258 8.34950844288464 0
248.900714807956 -31.5943325477092 26.0565075089891 0
239.545040966566 10.4804312713246 9.04493563786277 0
238.102127767713 14.4550707014515 -16.8941460962921 0
147.415178645841 -17.941552129541 -8.88450328547562 0
26.6140703547987 -5.38287710544733 -6.9975675984224 0
5.25394481508821 -0.722686568020251 2.27921815907507 0
193.0913508333 -14.8902778592237 11.3735306106259 0
20.833626694934 -1.47076922669818 0.366259234353502 0
241.078227936031 15.451658002955 17.8826459832084 0
235.947997799246 -40.9720823615481 29.6391358001238 0
239.767323016404 -40.0321641111035 32.1709254959421 0
224.810178462134 -25.0181728297122 -21.4641745378952 0
202.907581476673 28.1046925970608 -11.9274709160643 0
229.577247700552 -6.66340255213449 8.24502226984837 0
199.093096469127 -22.6011490849105 14.4239988444595 0
238.751685150163 26.7744790265175 -16.5806559312884 0
195.588582787321 0.364318208563652 10.6683851694576 0
250.766096633923 -24.1929183260811 16.3259354063759 0
241.916997076497 16.702293908744 -7.11033538481197 0
112.05689427848 10.7554154649275 -25.2049882194246 0
206.661511934406 12.0234872052567 20.1891296753984 0
179.546706699389 2.74067790803208 9.05072152524775 0
205.114267431032 -12.5374378070391 13.3971673961868 0
83.1620864578104 17.7232187368214 -9.25325139041234 0
199.946263416055 -0.656016829911897 12.0055912613712 0
249.333400416335 -28.1949231794775 24.1847787306272 0
194.805685932115 18.686401193954 -24.4434918305196 0
239.443424874508 -38.7321914571346 7.63560538137704 0
212.351531475655 36.6131508191125 2.61537499537137 0
134.221569891735 -5.80579773024934 4.71696622145144 0
252.658628080282 -33.8533562250189 11.8435022459077 0
42.9263810838888 17.9150160205099 -12.4096998736269 0
235.195559016185 -3.36086359609122 3.24774922242317 0
16.2261234690587 18.649186132886 -15.8578520846134 0
123.056835182237 18.3124347729606 -6.54730273983776 0
202.975880126103 27.1255340108312 -18.7105363129339 0
5.44873841573515 10.7544335123684 -29.9057474008726 0
242.832416311508 19.3780634858239 3.75753656939908 0
61.7490037981082 10.420036460765 0.716618213487719 0
226.422832250928 30.0337514900145 -20.6273417493398 0
239.995073509236 32.496755051485 26.8231017196341 0
180.112050063722 17.9937087490458 -17.4249662636203 0
104.778825536821 16.3993969162888 -2.44885800751921 0
205.005203270331 -28.8354385625295 16.8492820530678 0
225.397428518757 -40.0592324321065 37.1449252409655 0
238.013007476958 -14.6366270061609 29.1870842624596 0
162.154063170178 -19.217390476503 -10.8300969193917 0
249.210677000541 -16.5142465967777 2.98560144371445 0
209.032430672546 21.8565740274796 31.2201691790878 0
244.854498950558 29.1109854561605 13.2929447999001 0
238.131931591984 9.78970535089177 -13.2893570680704 0
209.96231794295 -34.9942146153734 -5.80766808174733 0
230.421613554599 -20.9531154671539 -24.3470596841191 0
200.193202504343 -7.5576125381678 10.9891692039795 0
206.652473650858 -23.5618502172548 19.5357585187306 0
25.683983747887 -6.14270975045887 -25.0282067458719 0
193.795189375794 14.3758416816535 -25.5366673607451 0
195.146073487534 -28.9959814574206 9.30311098396743 0
26.2866923429487 -1.14945376814188 1.06032527951637 0
212.085454307518 -20.8731590304941 27.4249245308943 0
224.356246516157 32.8793872235878 21.8032728013858 0
204.855543572707 17.2770945744032 -31.9608613533018 0
241.652965955556 -14.0846538165815 14.075935909369 0
233.679064773483 -14.4983422365074 22.2547073457664 0
149.636597843214 18.6519121560652 -10.1968356266683 0
221.648059031075 6.72171505449283 22.4161399839726 0
246.020640064645 -24.047401143654 -10.1988323539522 0
168.00456426043 -4.11774194462863 7.38972336098296 0
87.766987511737 -7.67438834596591 -23.5424119229485 0
225.934875300465 17.1862162024378 -31.1209596460808 0
236.987464597937 9.29188770873833 -15.1987934864136 0
237.587975838519 -14.802414783787 18.0545220873907 0
190.291592786382 23.6339184934799 -8.52240131027642 0
205.405017733091 -38.6567941764912 11.1513036181141 0
185.241563821112 -26.2324171016827 6.80296564686445 0
218.506303448449 -18.4685591319241 -23.2627307878274 0
50.83379787999 12.4878501400399 -1.85508369471521 0
95.0580565896297 -12.3634395087222 -10.400490494994 0
185.469476142564 9.96987244872571 10.8770015897478 0
149.029879504547 18.2202241291489 -0.149508431242083 0
224.466616514914 -43.6463698085159 6.55439040352696 0
2.64130464889388 18.5054292218589 -13.5244900258271 1
215.563463184387 26.083427663632 -31.4670321686 0
8.30872444219428 16.3242453964874 -25.5222057148135 0
211.97746431362 30.7082254290821 30.117553949765 0
24.2936748092551 14.1932874756875 -27.3459862778258 0
239.195445798877 -23.7507270301947 36.4464668021107 0
237.871224520909 36.8837427923463 18.1190928564235 0
224.743252510337 24.1679171348116 -32.0243177245042 0
35.1474064769183 -7.78021675886116 -11.4625450173812 0
136.066149092942 18.3936351686424 -10.499305774469 0
221.283956044554 4.94829930382942 -26.9065969112061 0
218.127345364916 17.9503627448249 34.4967756081198 0
206.473133211387 -16.1735600535887 17.0389418498945 0
94.9633036104788 -10.0733900602047 -21.3164590971985 0
165.069734747078 19.8277563164916 -6.72418707019004 0
174.006796991711 9.35758827552103 9.51312653640276 0
90.9297388318732 -12.0588514781415 -17.1689602689893 0
204.791904124002 19.3333615895237 23.8494935715877 0
93.9688744725045 -12.0107971024615 -17.9465761707824 0
143.014497361233 13.0522352302474 -21.7677475214655 0
206.623536186434 26.4181197007398 -27.1587113925436 0
213.616106812265 26.5246304782663 34.054526990967 0
192.991479802202 25.6008035797699 3.70452046482526 0
238.674763290974 -24.8340552568949 -19.663576696322 0
211.799298052973 -28.2041067268416 29.4125974714568 0
132.980113368617 17.425873618757 -0.711988035831365 0
149.239213533289 -16.695430245792 -14.0518509335263 0
242.019923488051 15.3995290573658 2.80473994926982 0
7.74214429925628 2.33793786132823 -30.290566570662 0
228.944942962178 1.19635321956447 8.44273178338928 0
250.512595629329 -36.1551721011594 13.5723870681414 0
194.612936217101 22.573389261568 -17.8141871685081 0
136.77838641619 -2.70305506316732 -24.8584419354336 0
104.274008237258 -12.0085129652466 -19.0161927019856 0
248.163891460369 -37.518529248539 25.142039674071 0
209.997969872218 -18.2176540914731 -21.4148270610691 0
137.541940295 18.6769486932544 -6.83928524447555 0
231.392706029125 -14.9296516857742 32.8586831809759 0
104.919364852406 17.4600314210969 -16.1480951096605 0
195.813737326795 -0.68940614462656 -22.0904509345851 0
216.929481421301 -39.417389592979 -3.88989924454984 0
239.505943298238 -9.172687246833 -11.8663031274675 0
178.975414763847 14.3516090299454 -21.9198468564153 0
228.339796063653 8.01208060203064 20.698370164131 0
48.4063699814182 6.24056228844742 -29.9343329532736 0
234.600450062598 35.3803620310773 22.4555465894755 0
199.103725032935 24.8428167677444 15.4270154721666 0
16.8054183267063 5.92659648085388 -30.4640877373159 0
222.262551657408 -20.6273509742322 -23.6394378266167 0
212.897432181756 34.6428423265636 17.7626886689337 0
217.728303876789 -43.3087309826233 14.7206691175245 0
83.7204382661374 10.1450087841409 -27.2921307276954 0
89.647965980643 -10.3615118160163 -5.75998590227173 0
73.0596534058516 -6.98427664265531 -24.3314283157652 0
217.478223223037 -11.1096586257965 21.0733539436152 0
205.579240734251 15.7289074771387 24.2993620052999 0
213.603814489395 -28.7442213218101 34.6869072415419 0
213.142430056909 -41.8478736416222 2.09274926330794 0
74.4941161195849 17.5770058698775 -18.0157528977808 0
182.288973031696 -18.3955642292519 8.85803284257666 0
229.550540432771 21.7634434606127 34.1921486997156 0
211.568111207061 -40.0801329824095 -1.72462887620707 0
209.053283140504 -4.97880603075991 -21.3426902821604 0
232.567953009105 2.4424462401699 5.17890178671195 0
215.386336193278 10.2149342799269 29.4695690154783 0
202.557324938097 24.9560633569372 -26.1140863956575 0
159.327911714155 14.6799133178791 7.76539496812087 0
128.339152221415 8.87696276174271 -25.3881749994664 0
30.2990456636476 -8.09911808643261 -13.4009248682407 0
180.41892694975 20.0073130923303 -12.8382184156139 0
136.830695946867 -15.1882874865291 -15.5567326829905 0
242.999697767365 33.8972136347228 19.8434367976265 0
179.855778194403 4.84316341864299 9.36954888974955 0
173.124760404233 -21.5670399545887 3.82236926635911 0
174.908800540476 18.5040760505983 6.61741538214665 0
165.754871280346 -20.3762920652402 -3.51467784171497 0
33.9744905208412 13.8377075416412 -27.263206005043 0
208.003967510954 -39.0857320667756 15.2853746374412 0
141.28474969848 -17.0728482656137 -10.7910035475573 0
205.423583670828 -10.2802000763489 13.9218419120192 0
198.657353177737 -13.999438662007 -19.8528152107683 0
55.365815289365 3.71327664514577 4.64138501101343 0
223.937570199765 -21.0830192385907 -24.2134065219401 0
252.602147110999 -30.9986217049152 13.2391884460961 0
220.490279274147 -41.6545064994522 0.802741078183412 0
205.992194654694 27.0723705226223 -25.0155736633072 0
243.855194313245 -40.0761436583767 24.1993751068492 0
166.873205118109 -3.20643363097354 -23.203841856873 0
155.747312766865 7.02356381813118 8.18895555220724 0
146.943060603565 -12.70293867485 -18.9290645089112 0
187.689574217664 8.4418004764256 10.7682238249748 0
217.95505278763 -17.1922465080174 31.7742081705221 0
78.5101766337143 13.7227249885105 -24.8470099259746 0
224.346873075329 29.7150316527774 -21.5479709876655 0
5.73678102086067 5.32663226166589 3.61198103415778 0
240.374202944248 -37.0795794399862 36.1664735327272 0
229.178863467291 35.4858172082762 13.9900112036442 0
227.11279437301 36.6218255772778 3.94019180102116 0
235.540677161618 35.5186319360837 27.0820494012239 0
227.37507713626 -14.6568836100082 30.8018530979783 0
208.640006623217 -24.8421402274478 22.1993385254228 0
2.70611699226069 -1.98355020835921 -28.7679500802891 1
203.160283237799 24.2630992592699 -28.0303841943231 0
221.987232084863 -25.980136026394 -20.9109071014474 0
212.475265490098 -29.8324124517034 -15.0470015865624 0
85.14288885462 12.3742588808838 -25.6505662814535 0
46.0581411327441 10.7905226492227 -0.530241119996667 0
210.286324501467 -29.3153331120488 23.1066130801831 0
211.099408899765 15.7045622281384 -34.3584009228044 0
243.586286321707 26.1906540219734 0.141596413542037 0
20.336419109802 -2.73827087432653 -2.05850436079729 0
19.3348529102974 1.98546943524018 5.05368159074633 0
169.805083954669 -21.1266117464715 -6.12027398217748 0
52.6320968122958 9.96875877375676 0.565500264864569 0
246.619281882284 -39.014487400399 23.3522436222382 0
238.776779856053 -14.4406072304719 -17.2578885103007 0
150.418595322334 -8.76848210280396 5.03351131080203 0
41.8425823828439 -7.85948478573113 -10.4579578669692 0
189.43152471942 16.0145086608745 -23.1863594656606 0
50.8009322387667 13.4524013946957 -26.6580301348207 0
201.875888874261 -27.5737059156967 14.5418048059641 0
207.353608237814 19.5087498775866 -34.6883318531716 0
218.536516560752 -13.8248496254882 -22.1164551622106 0
1.15678172087451 -6.89378514749362 -14.7590387432915 1
235.214579753654 -31.5934599181657 39.0156132969947 0
237.414022769223 -7.80145277819735 -13.5551543186802 0
82.0833962038855 5.13931840945456 -28.6100859591194 0
211.239038352831 -3.76650134840508 18.4238125858475 0
74.3061368501092 15.7784588236112 -22.359881569159 0
233.748489623634 24.6015089677201 32.2021812156281 0
186.491628015882 18.0190660112333 -19.7236526990034 0
204.410491538643 29.9253842018955 17.1388219107365 0
34.201327811045 -6.55028372593509 -8.62639512492356 0
212.898150340319 -36.2364995847355 31.3527405226186 0
223.072370253812 24.2277383319102 -32.6807717677618 0
182.181048541469 -24.4694453976417 0.470428367299508 0
69.3945286066585 -3.11355433627832 -26.9818340035548 0
41.8443158079267 -1.8365485995073 1.07126595140603 0
207.359403059264 27.9912465786896 27.9199006665663 0
235.511580032003 0.955023449627562 2.4564541058911 0
71.6047852698712 17.1040329106812 -19.7098134183203 0
191.176846660211 11.9166955419112 12.3883887277107 0
231.458009389618 -41.1278250718992 5.75832617206256 0
234.431263262258 12.1843722276539 26.296906131664 0
185.51525366818 -6.18020188242237 8.54555461195121 0
243.403533337897 -15.0568150042129 -10.9790610774909 0
13.8162508565997 8.591909377075 -0.0696590391275286 0
91.3040568447776 17.9607099816437 -14.8599809574185 0
206.463404677824 -28.5304689714637 -12.6545282015293 0
128.329804397304 -5.89891112058405 -23.7302083450983 0
12.415731101594 13.7369938890146 -5.02102341305824 0
237.502878354358 2.40559949462864 -2.29491308074789 0
180.040685463202 20.3522128464664 5.9613736231762 0
199.507304524043 23.7494150508948 -22.7916581664514 0
240.155372340833 -15.9475627101034 29.8324466067381 0
211.092541454004 38.0599688369118 6.98875524890889 0
194.14761861659 5.72305599128835 -23.6476619659407 0
249.59990044811 -30.5613557918825 24.3687365927926 0
188.701842434081 23.8381583085165 3.07620641196976 0
39.6852374722568 0.212742395429043 -29.2495678803573 0
128.948377509028 -15.8628206234911 -11.0144603601671 0
234.802374495812 -10.8487617345056 -18.2785281325007 0
238.596445143204 16.7047720918292 -17.0824627360145 0
251.116287166487 -31.0245181482726 20.3557296396624 0
186.46075369368 -2.78563839344522 8.73690238548509 0
202.664447650956 -35.385216706488 2.7871218679346 0
204.187901731541 30.7717944086559 14.4358488133893 0
198.917543172185 -3.29120585579359 11.215418928713 0
213.864832922848 -16.6734418510377 -21.5213347290095 0
246.707005552872 -27.9879663330697 -9.6778893956039 0
153.03738445203 -18.2950223490397 -10.8852616566158 0
244.430835688155 -10.1768206965076 -1.16210728528283 0
36.7978263185373 -1.68770389627318 0.817340437809552 0
116.561387026759 12.5670936945522 4.27002906238149 0
206.921213354404 13.6670673315463 -30.8702540709386 0
192.338567326683 -28.5884605661177 7.63356826083484 0
101.172623486859 16.7241018623453 -3.70449563614899 0
193.301356622111 -7.17467589115883 -20.8055032134419 0
215.743239518204 32.6346389531117 23.9249481899128 0
204.872851971927 -34.1612350111522 14.3689772461421 0
197.879772351727 22.3676198594815 16.293026805832 0
199.210499480269 -17.0255812363666 -19.2502222038334 0
224.63112377472 11.0558064949441 -29.0438640376425 0
225.706080389896 -15.2469612573037 31.4785925554586 0
113.396096475546 -4.8521328909498 -24.9004268293283 0
221.925804113565 29.6489557791295 -21.4111626078354 0
208.590596586828 -28.1192923401064 21.2190199591239 0
4.77119262901145 18.6809704750175 -20.6056760398038 1
196.345140925958 -28.695390736876 -3.36686432752969 0
191.05675681463 -24.4456056730985 10.6653017523926 0
165.752929865623 -19.7812198926829 0.687288856612458 0
217.364329195199 30.1560672147015 -20.1241183433617 0
51.3999190583431 6.3548761925323 -29.8332346169353 0
197.888677096462 16.72883644073 16.6222745417362 0
98.5337416461851 -12.7887905575665 -16.3756226037657 0
230.533941101308 22.4240520404796 -28.9074434260589 0
218.840381512343 6.79460292867967 -28.7585957744893 0
13.1994369194313 -0.373065613557402 3.84663361546694 0
198.23621541772 27.1497033233559 -4.86268464915139 0
199.717198082296 2.19907251020518 -23.3849748315871 0
