187.470131442641 31.554414593201 -6.39149235411164 0
37.5753916877347 9.00146352590556 21.9881475260453 0
183.229126646812 -40.963278911808 -27.3213868053035 0
-14.3034155415483 2.00835920194408 0.836200637329803 0
161.914532836111 -27.9500381303312 1.83539738951979 0
179.654670263205 -39.7355741242981 5.30232413595636 0
-15.306125154014 -3.4627489880922 7.62299849842052 0
-50.5780802491726 10.3454300951915 -4.30084513794382 0
-7.51666871013413 22.1126252887283 16.6499772497305 0
9.57747613775024 11.5602860094577 -0.242125866319 0
200.184181901581 -19.7608393865993 -19.3362512093103 0
81.4974660386595 -6.11319787857024 6.67415326832741 0
179.145669099599 30.7549700355946 -1.95723738043783 0
-3.04597882889745 -3.99303978664352 10.7395488184763 0
-74.6083184950767 22.9877995937298 -2.28116309199649 0
169.253677466333 20.6121515157597 -21.9239614537646 0
-62.8709739323334 -3.42949701017922 5.53841291453478 0
131.152543954427 20.1003078675712 12.3613418250178 0
117.724354738483 -6.33808054404864 20.1105877482064 0
170.950969415685 25.218740216951 -25.4913384762204 0
197.87419579616 -35.8845325906028 4.79822957303286 0
204.833013844024 -10.8033947301837 -2.4908165480695 0
90.3546842011715 12.9732961084141 -1.56363809047349 0
60.3148197219577 7.96248197133651 -1.86243139971914 0
165.14929867738 20.1279410081374 -17.6989478913383 0
185.522234447249 -28.8136866847718 -31.4430154932537 0
149.995801054969 -15.9900728967814 1.16644297625211 0
189.090100712452 -5.20668313183856 -11.7633023947745 0
68.819132237614 20.7291241697682 14.8238422442205 0
195.614217243038 10.5890313278817 10.6874544769773 0
91.0732046653869 15.8356788974436 0.0427930657402118 0
182.753795261901 2.46423398591338 -20.8494237032353 0
155.199511881896 -3.1450730526577 19.6931456405853 0
148.354390867035 21.0036074394886 6.95489604050595 0
167.91884850788 -29.8959995179439 -4.99252655840485 0
-34.6945170033872 -3.56098936539694 7.32728368699396 0
189.061250840207 31.5323324716708 -7.68795357328371 0
173.051836869772 25.4783353400146 16.6750821697352 0
180.480829621491 -38.1245892198324 -26.9871643318576 0
77.6637068214025 14.6636941077187 21.0364626079777 0
160.499224787289 21.4685273197756 -11.0041010144954 0
-8.95829091231413 17.3974247068045 1.98390526228507 0
163.246117211179 21.5276200857042 -14.9408096093014 0
-15.253195563633 16.2633960446468 1.05034425321042 0
153.672614102284 -4.38181474612351 -5.77084259226778 0
142.291857926483 -15.1616899097919 6.74314237254498 0
194.361400514175 -41.6322191417537 -0.417344136284006 0
70.1733314333931 21.3575761212593 10.7946493121447 0
181.451633330619 28.249474008672 12.7093672120169 0
205.216340325696 -27.2093605895313 -19.0136747454767 0
186.634191033186 -16.5984473527771 -17.9209764865827 0
-27.3255712581796 0.844444258002069 2.01013721419484 0
134.244225799616 19.093303632181 1.49095936561783 0
160.674719176397 -13.488478146578 -4.55657580439369 0
183.390637422018 15.7140236382934 19.0871899142275 0
-35.4437299333264 1.59390684863025 0.956864223606374 0
186.018809867964 18.234253286385 -36.8975978684488 0
174.532119188417 -31.250222797968 -19.5888875682059 0
-39.0797242275587 12.612995028475 20.4497913560866 0
-0.126973794578538 13.564313945213 0.460078146819744 0
200.284852736855 -19.435210982697 16.7414377710102 0
200.21456108255 -19.290991589051 -17.8071192499611 0
13.2498024328043 22.5509432824451 8.08269460061449 0
84.0267963460854 5.6912307878039 -3.63052865622258 0
129.112972701375 20.5539729615383 8.03985569309823 0
152.515761849259 16.4732484121556 18.0514660052764 0
208.82389150809 -20.1346087119892 3.27931890265229 0
-55.3155561554708 -0.828157399862126 2.18684157839587 0
111.416165728576 -2.90875084622678 -1.77061700586414 0
157.840247976087 -10.8882644596404 17.9178240861537 0
164.000719371634 14.3251322570267 19.0367995274565 0
79.4513567649962 20.393125980446 7.06715757572431 0
158.364176547274 13.1821601831789 -12.8851068903201 0
197.687294084526 -5.76064898965792 14.2207348123097 0
168.948990576921 -6.72125832776533 -9.71028329045786 0
22.8301234712345 18.3610919105639 20.0952364219078 0
165.294961194815 -23.9337202525025 9.40284162032268 0
155.657247345058 -4.09874080867838 -6.21211494198519 0
65.7328534002061 7.5577117482745 -2.15041054615799 0
-50.2699540850755 5.6369105508188 -3.10738979616313 0
11.3410543256361 -3.56127157865197 13.5266431990634 0
172.051066298739 -14.2627973011129 18.380868877686 0
74.0142469308772 -4.55146265832145 4.33483938724125 0
155.549089659482 18.3753483157184 17.0397484861657 0
202.029181132235 -35.0851357044044 -23.6629672630586 0
185.265582233996 32.5323832476528 -9.07304497054833 0
175.752784930123 -8.58241114506544 -16.2863689148235 0
-50.2463558806155 9.18123359094584 19.2020412969791 0
158.062514305393 -18.0004732286328 -1.67979629631256 0
164.998833238395 23.8800960668646 -15.1213362637006 0
139.170214335058 15.9070808063835 -5.58187862525617 0
204.329640139933 -38.315323002051 -19.275023381877 0
105.598677996144 4.76016086509896 22.4081525327689 0
135.451971605431 15.9472282500346 -4.25681090829457 0
140.070392569644 14.8357404300841 -6.94210768070984 0
83.4708621042325 20.2227174213904 14.3673734508543 0
-43.5532024962811 23.5042410590686 6.78879396362142 0
154.242254530417 10.6450833399489 19.1569429619775 0
158.185240082252 0.903711901316353 -8.73816828685425 0
200.858305275062 15.8062285766031 -22.7703356768792 0
41.8610013358705 13.3601041846292 0.479879914179887 0
198.872591574364 27.0738423540342 7.30146729011852 0
116.47901038581 -10.4150017846787 15.051578179791 0
44.5997063785706 16.7925155992512 2.13887130178128 0
-85.1109030780172 14.0826902386664 -8.80538979471269 1
209.621713157185 -26.9116523798734 1.65533349843571 0
105.279060187077 -3.81139145610316 20.7302856196667 0
191.509306136848 10.4274157912891 -31.9706962057743 0
-27.6434067552555 13.3405502884692 21.0303321980002 0
-82.9866447025384 14.3126913681753 -8.36772625355913 1
169.533196773479 25.7514955151546 8.16872087128837 0
-37.4606050464857 -2.73537898564044 13.4965562387651 0
192.234578717913 28.9263407355638 11.4115625882485 0
123.36878916501 -8.35910600841412 19.0294994210275 0
-19.708726898871 2.32660538900616 18.6551670687926 0
200.740373618418 -5.77247948181594 -4.74588458292012 0
-81.0318771067753 -4.23896606193579 6.94864347305834 1
100.225779199383 19.4567550599444 14.7691470788802 0
161.677341493739 21.6233424069117 14.1828415671706 0
16.7727701175193 13.0463950016253 0.425639166526483 0
-16.4137144634156 0.667949871729936 17.8846067334962 0
203.077365111459 -33.1706946483606 4.7115278468915 0
-68.2569176078933 5.53901173932084 -4.15322908881718 0
37.2880373011692 19.0618634744877 4.04682393430913 0
-26.6139889411183 2.69062261897764 18.5844408898475 0
153.890384686579 -12.3045663765692 17.0098907030928 0
123.434989242246 -11.2946003855921 9.62676912456797 0
-46.2014924704927 19.6819684505222 -0.0685327372642001 0
181.775059586258 27.1175255678515 -35.5048041852827 0
-78.7658103596644 14.5502929664355 16.036556186399 0
-15.5489798649692 23.6780824208048 11.4418744552949 0
168.720003086681 -21.3800007850173 12.8499299034052 0
203.1471108666 -34.7902857389027 1.66850231939737 0
163.490349947678 20.1704411971676 -16.4289250105909 0
173.313088404914 -18.1392738945329 -11.0124570290545 0
-70.3508521896947 18.7270464146193 15.2838028366961 0
84.5839137491791 4.71838955497319 22.4272397430932 0
154.048208577119 19.3563710351881 15.9018130491662 0
202.904235929911 20.5009557557645 -9.10548821219364 0
188.467758900551 27.9530914579344 15.8075560284355 0
95.238264420615 4.31775273497862 22.4457847012177 0
188.593947593082 -42.5281136322379 -1.11159796633821 0
176.180455164913 -43.0886568316355 -3.16178871906741 0
-32.4372380455969 22.2322112142057 4.41702693569658 0
202.662054025278 -34.2412040569468 3.28919298100142 0
175.788929671031 32.6942227791018 -21.8780694157267 0
165.941986446244 -19.868707457954 13.0084785273145 0
-59.0879148442199 0.243989278337172 0.678662295246982 0
135.360901701337 -11.9753514514957 4.01426246708975 0
180.151599984908 23.159234965871 20.8638237775884 0
160.997846763813 -14.60076874496 -4.69535884878035 0
151.860279631517 8.9579143773812 19.3621421826194 0
113.350637679366 4.15517884418969 -5.26916439857517 0
143.870090171925 -15.8542803296559 10.3692978126706 0
188.412258151991 30.539708752498 -21.1379759395629 0
-43.600539742804 16.4195354120902 -1.5184712620238 0
198.489235860385 -40.4369969068602 -3.62749491902711 0
92.8496641977789 12.0526931015157 21.8577293664212 0
192.803098877785 9.24845262663207 12.554135133534 0
172.791737909445 -32.1275457975107 8.08324887308423 0
22.8312205280229 -2.86213981626137 15.0391885629714 0
176.723227710566 -31.327662045642 10.2223737402331 0
-63.4267391209417 -3.57955904327896 11.1889918573959 0
-3.6611621279173 5.97022795603027 -2.82934854715886 0
-13.746372639902 22.9215674516598 7.23234087767263 0
171.878088459631 6.29272554656484 17.6229055683653 0
103.539549846654 4.3990771387264 -4.69157956651042 0
197.786652130464 3.24049607916579 -11.5067324608497 0
27.7932627668637 -4.04162093183894 10.5972447296344 0
201.318573529563 15.4692348905295 4.00417537633354 0
-30.7593560980269 22.4958872774727 14.666268843612 0
-12.6957361315502 21.0288079812983 18.0142499711528 0
-16.8334730043876 21.8006400655809 16.8679748121371 0
117.656856743576 -10.5325267393495 9.94633004989772 0
-28.8548757842018 -1.07236103988825 16.0756913501632 0
156.044806771473 14.8713837862142 18.6498339106722 0
198.257046910381 29.7032558695563 -27.7269866372338 0
197.386219569312 -44.1270462696461 -21.7636720799447 0
103.365166646098 16.2520881861526 19.2144344199824 0
196.730777456179 -32.4808016995767 8.49548601561198 0
-44.521889191034 17.6424451930996 18.7024707843183 0
-47.7457890225992 8.84087027897574 19.3175296440261 0
197.287999681295 24.0167312545461 11.9632262776907 0
166.870286084316 -5.09878033253768 -8.9071354897009 0
-30.3593930110299 18.9730164498625 1.44622431292443 0
200.279092174929 30.4741308929686 -14.2287835568624 0
188.822333612064 -33.6691182804074 9.1839971411692 0
201.944912605763 -20.6603414192551 -18.8980797044499 0
-39.0980945610389 2.82443358803226 -0.863043809046816 0
-62.9321615267776 20.803063017318 -2.34540488033698 0
197.442683722153 -12.1191635469161 21.0300657924115 0
200.397557077341 -36.6422690378349 1.71112252067855 0
-67.2573022982734 11.6444672547518 -6.67527124905465 0
-10.7865011735973 13.1342293507704 -0.135757685689598 0
199.011059900883 -18.2037968765313 -16.1482316118742 0
94.3444973201495 -0.0593110821278108 -2.01702417181454 0
121.833133697667 -11.406152944303 11.4393668451331 0
151.056774145245 -2.27101746262689 19.9400657769401 0
141.483196155042 -9.83610220131571 18.4888921102806 0
167.601097508936 27.4964958532933 -16.7448263989781 0
111.6808615924 -2.03809801898858 21.4626566461083 0
112.284609240422 13.3439729332734 20.982406716484 0
197.562666448435 -26.765906597239 -28.0256265484371 0
-7.47296534377478 19.3505753857306 19.3490667581468 0
38.3337190560583 14.8579670500624 21.2474405588549 0
157.322945674544 14.84725983545 -12.7030558432076 0
195.924089190357 -34.7278545773152 -28.9356331635125 0
198.726611410687 16.831108967395 9.85203006407599 0
91.0493921007701 10.4693572507975 -2.78761305718437 0
151.921875884547 -1.07185667843322 19.8579433439502 0
141.002226374948 -15.0776046011125 10.9745572643077 0
173.692082601848 -27.9385558214903 -13.4946335208477 0
187.182496268693 32.7518089260132 -10.8354482023223 0
54.3845719247402 21.9259335065496 10.1030175732183 0
-8.3443940380526 22.8126476002452 7.41907963343653 0
201.955310677012 15.8032621426869 -19.7596283427421 0
199.828122059361 -6.45232778986592 12.4225893035702 0
174.767426642053 19.3227904310211 -33.6837109856587 0
168.238193917369 -0.472583434705832 18.3673629541502 0
199.284847404627 28.5406651505333 0.0942074176629781 0
138.281566032719 13.843036123585 19.7082916394668 0
102.427105420418 20.4087845954145 8.53357832528719 0
49.6340514549096 0.643712230377292 -0.273475998744233 0
153.100470092443 0.555210464486719 19.6973676235434 0
186.6210585084 -42.6899453661271 -1.94983187064311 0
188.340109321474 -17.1061018615883 -18.1690411659327 0
136.455181199491 8.25184742727214 21.1705799540912 0
166.272826959929 7.53513353409198 17.8491124906502 0
-80.2759681765592 -4.10336692945868 9.28007365931254 0
120.994702197045 19.1777220000645 14.5638117611067 0
131.84210408853 -12.0488823802111 6.75457510061505 0
199.259062878284 -23.0866413025045 -24.6655608471481 0
194.735230800864 18.5494658484184 -32.3022028403952 0
139.738835539763 -4.8335865653347 -3.19112942878646 0
7.65002797815751 -4.04390616189779 10.7635993129707 0
193.180227140364 -9.86409178368733 -11.4217965262321 0
153.790335074283 3.55851199421904 19.2387157825217 0
136.675518540753 -3.73748692727191 -3.42304810899639 0
154.999102221008 -4.64930730007672 19.7296910675696 0
2.45445725347432 17.884407847144 20.2952260787548 0
181.083844810727 -8.57267121869837 -16.2155878623808 0
-82.2878929448861 1.82781793143828 -3.47889479287833 1
154.919504299588 -13.6821201601959 16.1362472187021 0
192.634330274065 -0.549691867100387 -10.2134989676788 0
-23.967583640786 5.154934507145 -1.96498469720717 0
-59.6606521307837 -2.01366085059914 13.6841435528819 0
161.934320973465 3.21438215413133 -10.6237186992752 0
48.1927296565281 3.56747461847486 21.619274573547 0
169.437681675535 -17.930404676324 -7.90872384673936 0
132.222787961552 4.0936459021875 21.4932620174859 0
196.827305061582 -2.79929775290939 -8.60917661866136 0
159.159037485925 -14.8464808378099 -3.48930042666758 0
189.145582852562 31.1669883784745 -6.48169703300698 0
195.948407526618 14.281858336226 12.1796869041165 0
185.270594900156 15.3402012251956 18.5466089131154 0
167.017273222619 9.66516580472314 -15.1883525026974 0
176.440156490164 -36.70371747755 -22.5064036591906 0
176.987016817556 21.4561548773915 20.7316728122172 0
198.277221844272 7.91989052650046 -19.5015759885014 0
157.816498779528 -1.17311538430058 19.4541681220964 0
167.427937539894 24.5895088114821 -18.6890056218146 0
68.0243447512731 21.282296768899 9.19077325542444 0
198.679805482402 31.9872278720774 -20.3088652389105 0
188.593010529457 -28.2577486167855 13.0131097908819 0
183.71397446609 -4.48369482385615 18.9349445749082 0
146.499440679197 14.6188874610469 -8.26179479978868 0
-55.0774682330207 3.35745594336764 -2.22277379064585 0
191.777097238622 5.89493014016448 -24.2408745246878 0
41.8890661473544 -4.07536547894177 12.6923236711935 0
129.979923042744 -1.42002954379328 21.2193241465686 0
177.249470641386 1.97925419463228 17.4259298031422 0
55.252109240476 17.7921503028811 2.78112004370894 0
123.311165446934 10.2989775213016 21.640298181804 0
-85.4959253065483 24.4003243658943 0.302533330293725 1
-56.5237684578285 15.3425308547778 -3.61828512862237 0
133.069100537639 13.8785375189138 19.9868263642264 0
19.6278925442623 15.4921510591567 21.2384030896578 0
95.2006883778612 19.1304415971455 15.8837593636513 0
24.0558231973098 -3.91567066528151 9.10141071301684 0
-68.9340002779182 21.900573759628 -2.51086483241665 0
150.874268285739 11.3817162659113 19.34025658806 0
175.167878167639 -33.3357565089565 -13.961195475095 0
133.197222566242 -0.364117072652541 -4.80960185052845 0
57.0498875558446 -4.07767133579211 15.1294434682138 0
193.40064618339 -23.9277131893978 -29.1434548645527 0
188.920816252572 32.1912972837152 -18.9274440759253 0
197.930237103201 -8.95490043300919 -9.76053964085877 0
199.86160518354 27.4271178289874 4.75045489477405 0
1.26207952940558 -3.04204228901176 14.5109639574894 0
-34.1271037515439 21.3398202447121 3.13777014908004 0
68.8006963509504 -5.26270667212667 7.76506102803191 0
121.826192847205 -6.99404758999808 0.0969168013024737 0
-8.04285352452914 -1.53021676800111 16.4358668038051 0
33.6696318654709 5.72778854674245 -2.07660988530645 0
199.472526139119 1.0681900167049 -0.913722965236249 0
-83.4287296067314 11.7316987972226 15.6768987201565 1
-22.0714190923839 3.95627251398986 -1.19864843438844 0
25.782654677285 13.7602967500978 0.771655188182207 0
-59.7461315596317 -4.05715230790084 9.37128245613318 0
153.094650739634 -10.202180966159 18.2129210226871 0
-48.9247706203277 3.4749610547133 -2.07111387466557 0
193.287993376149 16.8609466150296 -33.2122966877273 0
168.823242471029 -8.20904431113112 19.5695122804211 0
127.797065045846 -6.3975774116271 20.247686385729 0
44.4242948952471 8.09688529966604 -1.45784999855437 0
120.312296625817 19.7828297181075 12.9801902447339 0
181.48421704025 -28.2118774374796 12.7764189545609 0
28.054620041604 14.3701209386824 1.07929707241197 0
141.726826820415 -1.49005407413095 -5.2286222860426 0
168.934796510422 0.0450150938409025 -12.4403755301936 0
95.0365785154393 17.6707599973872 18.1269418437034 0
187.547366633963 20.980599286787 18.429683429863 0
32.8306947179114 19.046951432053 4.03727110836102 0
202.38912377809 -25.7825726467226 -23.0364775682391 0
-21.1425795395034 8.86865635800138 20.9707175112091 0
174.452368887531 -27.2061724463432 11.5914709617685 0
190.356703126667 -1.71174050508825 -11.2651050629875 0
191.656116536165 -40.3138089453876 2.55052816453706 0
122.133800250713 -10.161729619763 17.076809970018 0
186.391055807626 -37.0725465376919 6.86035026177722 0
-34.9543494410208 -3.29868400637452 12.4128394641046 0
168.723415209943 -15.8144800967782 -8.44686951024832 0
111.774983551863 8.06940147912131 22.3216858375998 0
175.837328403006 -31.481673767932 -23.7117010687371 0
81.6274395112914 18.5374359296729 17.7294757792343 0
64.3149686741408 19.3631559535029 17.7674135567229 0
103.010478566371 -8.13588870604556 6.76828086409207 0
119.24645401516 -1.18998587537709 21.4999313978491 0
136.957443527133 1.01874575562157 -5.75396823920115 0
182.606284881469 4.19231781340984 -24.081112121586 0
-29.4191144607933 0.969556356882263 1.83323808227862 0
-13.553737882243 7.29758063058576 20.8722136924965 0
141.218066825115 -3.48796593301772 -4.14304110484733 0
201.378494863092 -38.4534016238655 -4.25943595121282 0
-63.2383420317026 4.59516830768175 -3.55380793378896 0
191.092871389941 32.5621459959199 -14.8917729246588 0
-83.3705960474917 -1.73130693746715 0.558732703486746 1
199.631384768133 13.5787032585763 -23.6587137702466 0
190.052016279167 28.7810721504353 12.2952427953316 0
206.722493341444 -38.0729760699025 -14.0048754501536 0
111.060845672546 3.9715324832497 22.2746098305773 0
184.213453133339 -24.0629823595754 -29.7499004237071 0
65.3756282280844 20.6475752265413 15.5637581565801 0
170.024881913852 -38.6105550024998 -6.80860418837831 0
-79.6305316335357 19.9883452352516 12.2008781101558 0
25.0808626713914 16.2857715338316 2.04854687862275 0
157.392386106794 20.0452213435256 15.6891389616205 0
186.279969750251 -21.1664362265937 -27.6463256130191 0
170.218442922889 14.4927116303701 -27.1992668598047 0
102.247357717675 -7.25068161889706 4.60519130805925 0
168.039942547959 -38.5451634485274 -1.53965223864907 0
98.392517766203 7.30336930668774 -4.57290960304157 0
108.538921320265 16.2270208386829 19.066725566951 0
28.6109295841631 21.9334891816797 15.9987664388965 0
189.763259275307 2.80942178762197 13.7136951302905 0
157.076658132096 21.9511377677923 -0.627154479611073 0
62.6770074193369 -4.84160062620336 13.9246819810942 0
5.28428482991331 23.5042775578448 11.1693371755069 0
38.0297723246042 -1.16502911100602 3.64623317126963 0
181.858505129534 12.278072841226 18.4673714723524 0
171.925129808025 21.8346151271382 -30.4763791119164 0
141.269521629616 -0.659219118982389 20.7361749100848 0
15.4469765700809 22.0617690127907 7.26262123411772 0
52.6608990443212 -3.28824733128371 5.27887302030484 0
142.886142585924 20.7508455644738 8.77185169855414 0
35.6950010218997 -0.874429260573463 18.0167581845495 0
127.018851256045 19.342652313531 3.05431021624997 0
195.470988830772 -12.0065799864326 21.8753885734953 0
65.1618705741609 -5.31238192849779 12.4969196857499 0
196.571825232285 -15.6531752521623 19.5650841137268 0
165.476586196325 9.10160165883368 18.2150439489411 0
118.159267134512 -0.402208033595234 -3.68856334704928 0
172.718626307625 -22.009294591262 13.9907535973371 0
131.843212359888 19.2278006018747 2.09346145397523 0
72.9299659400844 16.6056528377863 19.971575913281 0
178.004986591037 -38.1072412243739 -24.24889960953 0
114.80692222038 6.41077040726292 -6.05554698448263 0
-28.3263724785284 18.1828979949871 19.4287589165442 0
201.202529225042 11.5121786899992 -0.996475610069724 0
184.312699491034 -19.6130364500675 -22.8279557406656 0
138.666420770499 -0.519367202164767 20.8562801314665 0
173.19657098116 32.5462723258369 -17.475531055734 0
161.911982060966 -2.13332815517879 19.1100224984582 0
-32.2123710120574 17.2050423085933 19.6658246879754 0
-0.246668930924905 23.5727278628705 11.8663426576764 0
-83.5506887503216 -4.16373287927733 6.21043871119041 1
-33.2722614422496 22.1674512068785 15.0615666062858 0
160.202056929662 -18.5228117639505 -3.01603198386399 0
-72.6005283816058 -4.09034185958974 6.80020740600346 0
119.415061961461 13.2616046461675 20.7652678481029 0
58.2487916555635 4.2783791883314 -1.88936762594087 0
190.19221131393 32.9941843487623 -17.2707099494909 0
171.945732439455 32.1571411656673 -15.2098648398101 0
-46.627140439725 17.3092741116352 -1.50586424229316 0
129.961263871301 1.70376571961634 21.4253943263776 0
160.649508833172 -3.74733331066507 19.4146164661364 0
167.213171340543 -11.7545608520935 -7.71266392666372 0
171.136891718451 24.0179180211423 18.2631720818178 0
16.3496286274257 3.16307243216389 19.9297624629007 0
192.819000791909 28.2508895815853 13.4597937904635 0
124.258537899355 19.9247377415237 12.6275288815058 0
115.747295376445 20.3464941988622 8.01681217399714 0
209.369331469492 -32.0321382415362 -5.45594708183498 0
209.452667005993 -27.2310827573469 -5.29326529610435 0
188.917432822413 -41.9833426060866 -28.5326692877123 0
17.0290939979047 14.3329314774759 21.5082748364031 0
174.424947271467 -29.9346207214503 -14.5949526347837 0
196.855354826957 28.9818187277061 -1.13433948609382 0
37.8980903527585 13.2933282112648 0.534776869940661 0
205.632233589424 -31.2633712786392 -18.8327813295321 0
175.354759634222 -17.7895916830749 -14.5092918971646 0
162.241321360825 -24.3728821925332 -2.92085090468532 0
-82.4975508558828 24.0822750282131 -1.72632785880229 1
151.989727276472 5.31457794755478 -8.95396360847364 0
102.914798149337 -5.21071847497452 19.8155504426086 0
170.381005234709 -31.6334133386603 6.33724382315976 0
-29.6641169333326 -3.70103135260169 10.7841598477461 0
201.440613439805 -26.194934619335 -24.3996638787699 0
47.3919915994242 14.7766678924789 0.901734723074098 0
121.658289255632 18.144922909191 16.322214621603 0
185.522710334668 -34.2557760855197 -30.6142312072747 0
34.5806045083877 -3.63718157401338 13.707748411888 0
206.1529032757 -15.3242421658779 7.44270787193416 0
130.355176285766 20.5684949645761 9.8109856566787 0
1.95806725920395 3.4562239667662 19.6376686879484 0
38.1550606793029 17.1649021446499 2.49525160543232 0
156.551584019285 -12.3966346058789 17.0285688548576 0
102.961885128984 2.71519935930747 22.2973605831455 0
20.3336242286787 19.3652567828483 19.4357592340795 0
81.4592397290028 -4.58523846916764 18.3984628362033 0
195.351959992603 -23.6714221726326 15.4900589321846 0
-79.9857619771928 24.0716710782375 1.01324309747856 0
160.389580549857 1.77782548785107 18.6028889357557 0
206.42220713951 -30.3253779416798 -17.4301400232438 0
145.788474675684 4.29590179405737 -7.6661223295628 0
190.541616497351 29.9254941645101 2.56240556523805 0
198.631786363013 7.22676753344465 -16.9778832417064 0
184.810301496304 -38.052383034473 -29.4504076750698 0
170.657863876317 -35.8467248514179 2.42498664961182 0
19.3673588069782 11.571562444256 -0.151298350416006 0
170.185620170632 8.62977420253206 -17.1023597142936 0
185.077375615273 -14.0538138746283 -16.0964514301131 0
203.257587115718 -10.6680760046441 11.7467938764601 0
182.425408722763 -43.6293187199395 -1.97484676240672 0
19.5830427011779 7.79585985265392 21.8393014415799 0
148.255390028616 16.0754910081953 18.2809122337228 0
198.066880017239 -40.438353453004 -6.60091252009074 0
194.249632743454 -36.4626641046168 -29.3376525277065 0
-49.0152147215507 9.04429332411833 -4.89401520581932 0
196.355822259996 13.3969396356122 -29.0785556984362 0
78.7962525070993 14.3540121864734 -0.41003882535859 0
177.70769770977 -42.8482141321004 -1.00878777981685 0
177.204847887234 5.2397437983196 -26.6660511408047 0
184.250444655458 -43.4027488063812 -15.5799982059442 0
136.816265221227 -5.44940604834848 20.4841854649658 0
160.050709807539 12.4097292894456 -13.2186063182542 0
85.0841695170641 14.8567579416222 -0.394856569027676 0
97.2821201453688 0.215455312684011 -2.42699550299385 0
155.035896262984 -17.9109635308898 12.244203479307 0
101.432057983307 9.08598125395958 -4.02274912239121 0
207.899479179753 -20.3938202718326 -6.5422497879097 0
168.420836168878 8.30591888464193 17.8391759998663 0
127.543560711694 19.8808682647168 12.9335660884882 0
155.993466241575 21.514916163541 7.54852437488799 0
182.863666499353 9.43847364429591 17.465374357542 0
195.610523685091 -42.1030041820579 -26.3731030980393 0
148.210642522406 -2.99292163263823 20.2247149211631 0
90.8158701848556 3.71822806923779 22.3861871982754 0
177.4041195927 7.10387583310693 17.4699499018857 0
202.558228559346 13.3292040861713 -8.60217495495023 0
-17.1629779186759 18.5787764977528 19.6519271849555 0
-2.58154531804812 23.2029983681417 14.259385666226 0
-8.88256034291363 -3.65600765415141 8.42414901184174 0
192.27680386285 -1.45412150121073 14.2274439967607 0
206.675641720346 -18.0969155285688 -6.52258638001795 0
167.760443519731 25.6594168591809 -0.552716481674255 0
87.8717288865631 1.37667956876272 -2.2346036132326 0
202.105162381111 11.6321013219065 -6.71029220395957 0
201.913574631451 -5.42115069534311 2.89401764713742 0
119.000512996356 18.2573019663575 1.5745729834811 0
17.3537457607336 23.0914643054739 9.84333938242833 0
-59.212252580202 11.3878290394825 -5.04691015395278 0
79.4079296728974 15.8385239048613 20.3329984786661 0
-27.1905434593954 -3.01678446186482 6.22423713150628 0
207.849151198481 -25.7599888434435 9.3193636844863 0
7.60321960796821 -0.384847674866037 3.34124076397193 0
-72.8322006194519 1.7033179003374 -2.19648561425995 0
52.0800956537515 -4.1008684242017 14.1610581110106 0
-70.4908223865355 20.7404095677591 12.6419358543497 0
113.243206790287 -7.39667886196978 2.91819655854888 0
175.844164603333 33.6966579349478 -16.8828706587873 0
195.075840404674 24.9676274876695 13.8997404183718 0
162.188975689702 16.1021394530582 -15.62612969033 0
128.677274863242 -8.13149530298907 19.3876655405752 0
140.391090988139 -7.69124414736502 -1.73582593112268 0
193.82205777337 -20.2291375288506 -24.1608641474477 0
16.8724080084523 16.7616062705653 20.8114695835301 0
209.443559690995 -22.9891953450133 2.19126799089843 0
173.582465628829 -23.6074469829891 -12.399922477802 0
187.932581787311 30.6168869247183 -33.3172519296223 0
193.077595057366 -2.08698727460785 -9.50275522845682 0
205.688897259347 -27.6352089566509 10.0446663934387 0
12.3672559774505 23.2231996387863 13.4794195319168 0
186.093000133736 28.7751321129936 8.74407813110836 0
206.309809505822 -39.6239564958787 -13.0602208264391 0
173.334566992548 -14.4859071339032 -11.2534761482058 0
115.742153116453 -9.23656377820989 6.25367512918546 0
78.3051642519261 -5.50206073401775 5.63461249625359 0
192.19017123404 29.6215869288289 -23.543419151381 0
199.808853997491 15.0810210460665 7.30636565017441 0
163.470336419444 4.30629073922446 -11.5296111442258 0
136.737254658948 20.6355501113151 9.61294622150477 0
6.39593023451633 11.2499657679152 -0.38137626440461 0
188.089221573753 -24.0584122154507 -30.2604957216556 0
167.956894693079 -22.6939273142468 11.697217769207 0
164.954085882231 -21.4555617168133 -5.9056177949572 0
157.405394642401 11.5922453913865 18.8512255801419 0
71.8459848806477 20.0301340480665 5.51442124282874 0
110.723518726875 6.2786073884908 -5.69033507334037 0
69.2405357827917 19.5295737697 4.65521467139909 0
200.23743985483 27.4135011829109 -24.3237468584935 0
64.451092757669 -4.078979862358 5.38891311341025 0
169.823088274978 -33.0719083338314 -6.54037918098347 0
162.907583025217 -23.6050899133945 8.47733992786689 0
199.097473540253 4.6083924187745 1.31117934577659 0
169.947114066538 19.0359601143074 -26.7857271529257 0
193.972932201018 30.9460439684785 -18.1480332603301 0
63.3599820483337 21.468943358273 9.4489264147281 0
177.470894821721 33.7287041653095 -15.0253639365673 0
186.469613567527 10.2014252197587 16.9595666210411 0
130.814276224317 9.1206698106767 -7.27017951024672 0
37.6370062627826 2.48109335239089 -0.547933186501993 0
78.3398558536503 8.086776003443 22.3958166556626 0
93.8271326700959 9.80998886207268 -3.19768476875019 0
202.337068545105 -17.6526028797744 -12.1864936074288 0
-35.9245900847693 21.5644303762996 15.8364670748631 0
175.645110025463 -36.806452561893 -13.0228530186446 0
-53.1299988270232 23.4672613596684 7.11464369172684 0
190.692872059088 -36.4342502148667 6.48999013634557 0
186.28455991971 28.2263091081002 14.2617808090811 0
108.857211090782 19.8817178613965 12.8062852727151 0
170.20348806141 21.5705844362885 -27.0005970577583 0
185.044375035144 -41.7006800640692 2.05959381416184 0
22.1667610813436 23.0742274421896 12.9288842219532 0
103.694796347564 1.31203922134317 -3.46931454287786 0
-73.6006710235933 -2.16914823240073 2.0420184033504 0
187.489085705211 30.5289023023406 -0.0253950356008903 0
26.2381050109878 5.81055213297706 -2.67961784189809 0
116.653929583018 -1.32135447253702 21.5341478585181 0
-19.5560653340587 23.6848581213456 10.9431847010856 0
152.878503207856 -17.5531993708069 11.9995465874706 0
21.4380780119095 1.4651822066621 -0.141528630879527 0
192.102797637409 29.6303126969578 6.20681546333271 0
150.485995280101 14.3097291543071 -9.56527159617177 0
42.5905157457286 19.8968224467265 4.93224676298371 0
175.718568954051 25.5289029869562 17.9685190806534 0
107.81177702407 19.4580973364122 4.27346784652919 0
209.706850888694 -31.5994379039312 -2.62250713634112 0
154.125883943804 3.48468645168099 -8.77958973797451 0
-15.6932310833375 9.51075468564858 -2.21308720331561 0
119.92345749071 8.60255425375198 -6.44405800515526 0
200.625494137087 9.22496655249257 -2.2892937717635 0
-34.0254843841041 5.06499132325936 19.0459369463992 0
206.688549230182 -37.8855047980693 -5.77719039523477 0
183.907626438013 -31.8510909421676 10.8699467806742 0
159.71090437748 16.340953423262 18.4642719388693 0
40.1836738502742 -0.98159624360659 3.12361793804339 0
-58.8355685325989 -2.75174843027362 4.39122385041457 0
203.676046752849 -37.4060407064873 -2.99605713312524 0
174.577943421275 -10.0267307685069 -14.7961623915401 0
38.1043811544277 22.6132129497496 10.8556442164023 0
182.031521216545 -22.0051747028014 17.032012730868 0
23.0223403563027 2.90857637872533 -1.60101689914034 0
196.370015426535 28.8736921838257 -5.42499287211111 0
163.581755061433 8.26902205692135 18.3492881901731 0
-65.2470892093904 5.85598354297787 16.4439989297395 0
167.33021782074 -11.5959563027945 18.3853866253996 0
88.6693767234557 -7.60298132351809 11.4892444501445 0
60.3848262397963 10.317818652 22.0628741383451 0
14.3594258236052 10.4734218839278 21.9153369062482 0
151.747983172861 20.8274398502215 -0.540754894667809 0
151.262619011134 4.25226198142316 19.4062671639434 0
191.127994837102 30.3533887862216 -4.20540353328323 0
188.693595820592 -29.1486731559354 -31.5907824430393 0
171.491960173416 -34.5674332635863 4.97305264450233 0
-56.4897930341569 10.2359738763585 18.7867843413927 0
183.108169384898 -37.3646624658714 -29.0604321411032 0
101.201848784942 17.1116833958987 0.86237693943218 0
155.259484310039 -21.1307650954852 4.42733230160716 0
202.642484424344 19.4524546942899 1.50205619229149 0
173.596689171482 1.4472295285482 17.4838757593416 0
155.957881624138 -17.8907648971512 -0.306128888861048 0
183.241240466691 30.1974718142134 3.99873762454678 0
167.704912627377 -31.9545988453874 -4.76876436808227 0
8.52819254034134 21.9419452012135 6.81769592397894 0
142.49114711509 -9.05907652251941 -1.21435269703213 0
195.997864656157 3.33765892080081 -13.2550494801885 0
31.1478609680855 6.62920052720936 21.8636508901129 0
-32.6470506387385 0.777288212513217 17.5487739570146 0
165.419910371646 24.1815338783152 5.74717375421858 0
162.702487180355 22.4453982443572 12.0536477238969 0
29.1551854640293 -2.74484336216106 5.64215558882506 0
26.539223570158 14.6042578338259 21.3658215539035 0
159.873078388589 20.4263451241487 16.0009367052568 0
205.206328178592 -40.6709458072227 -12.0940018994708 0
164.430471244092 13.1980178453159 -15.4154963237558 0
166.57873602739 -20.0621024167956 -7.64935456491936 0
160.708391286364 10.8055987320253 -12.7722641721746 0
35.9881010184236 -3.97578421574913 8.68825637556605 0
152.419019857293 -18.4558072176084 10.0772752254562 0
137.329703656919 -1.6196852499338 20.9364207596205 0
184.376059649759 -23.3969174827454 16.3397855568051 0
141.208754403452 19.4914209258882 0.764584016151331 0
88.6424990442079 -2.097688369053 -0.406044772139206 0
185.922108977633 31.8031859905428 -6.12964494518514 0
125.000404836387 -10.2782435526663 17.2754427637844 0
176.181402536942 -34.2133524332302 -23.3849164119372 0
179.938467219621 0.82757762720616 16.8153663892357 0
147.463968166899 13.9003502593411 19.1172882619516 0
66.294411090003 -1.98062964596506 1.66828078168333 0
133.092565124878 14.9032601880117 -5.0552076814474 0
186.202383021231 5.69550139280131 -26.6179313428148 0
203.938402696915 -18.7506860475632 15.5236603241952 0
201.334550912753 26.936967713441 -1.71104400249401 0
41.7775156891842 11.8042109320098 21.7406812321994 0
195.758142459425 -43.951753063095 -23.7718005481579 0
197.077252043122 22.1755237829099 12.5010062115553 0
116.749494794233 -2.85231991915853 -2.24316863978509 0
184.752901074386 32.233101564146 -22.5820690044037 0
190.310540372205 -0.286492954251694 14.7277944637121 0
176.267152381505 -33.1607617807025 9.09228567923583 0
-39.6625658278942 -1.68182685176454 4.09099873707156 0
196.36035477867 5.5050909280901 7.47639251712242 0
-65.8163385375443 23.5756624214011 4.72565210457467 0
179.551362861034 26.1177124343846 -34.9564771429231 0
134.195588611642 20.5881135126861 7.79241180454034 0
-16.5486728136785 18.90154625921 2.49163355448353 0
190.445244681967 -44.7964872486424 -20.7008333518335 0
142.827399516923 -12.121041159682 16.5634618949703 0
207.182619529547 -15.3036503229906 0.485131833790206 0
197.871518611292 -2.13695666462653 9.4027186282667 0
-76.4340463063211 -1.74825758875036 1.15365061070962 0
41.6059801459811 -3.44909671279011 6.892562569741 0
188.611346369241 -26.1195523375326 14.3368836185228 0
83.7082116916906 7.84107890532991 22.4651666008725 0
171.711250152702 19.1703624686475 20.1137413967979 0
60.6791387413455 -4.89996484945418 8.61369573550398 0
25.5950884114109 7.23012484414648 21.8484120930803 0
136.211703344172 -7.08236683603169 19.9798506738552 0
199.358055557376 -10.3006258084701 -9.33409732265927 0
28.6453336039793 5.33470119908057 21.5150002474905 0
-75.0759982803575 5.56703702091143 -5.0655982717163 0
106.891291103576 10.7037536106295 -3.80128495703395 0
189.143234116323 -10.7791775677088 22.3057767504456 0
175.107673719143 -35.8956472499746 -11.6407853742338 0
165.746919927171 0.00300228552888193 -10.8680596477602 0
21.8837804060283 12.1249622099762 0.028040429685913 0
141.447157118733 -3.13100225895998 20.7262955040089 0
112.637558421401 10.7195036191368 21.8687605451583 0
111.264707064125 20.1352762477036 11.5659453358275 0
208.237069421059 -18.1708218945706 3.12752070134748 0
-43.254949140491 22.6164140785044 3.88874259389655 0
203.348521473074 -36.5702660321063 -0.759717954182144 0
173.507041470024 -5.03133172542783 -15.1416373255354 0
29.0658099443111 22.7860596187434 13.6956513716411 0
5.05100689972405 -1.52330415985151 4.49776092082262 0
91.0650452418042 9.80255216958069 22.3827347365515 0
205.794783205667 -12.4059879102943 -1.2887538637881 0
-81.4205493495731 6.09610488066655 -6.25519978631359 1
156.49354277117 21.8373257271347 6.17519828359378 0
45.7778048151869 13.327481055967 0.4059953981254 0
183.346273156624 29.1626895782739 -33.7245744305249 0
178.012410225415 23.8230411577788 -35.4355875557896 0
167.640608374368 26.4939865796703 -6.37536964869627 0
-62.7944752286668 2.66918183211661 -2.28121461031658 0
35.6365587873791 9.61293410356009 -0.913846149042418 0
201.273094497154 18.2505969847928 -23.2784845127504 0
170.125287231717 12.1826388575802 -20.0453151518114 0
189.113919255822 -1.90349024296794 16.5673007274668 0
195.46669255543 22.6395420690458 13.9809432751778 0
161.384233831174 -17.4346718598268 -4.64386639334478 0
160.818980669842 21.8895751661038 11.7501363401887 0
177.216751736038 29.0049885521158 6.90539918277658 0
18.0316296310013 19.3670858505607 4.17119849834648 0
161.154655591672 -2.11695584828231 -8.27514731668541 0
-30.8993976672506 8.45667425120034 -3.48858841110915 0
30.4184410855705 -0.291542877236235 18.1796455133287 0
189.356561516906 -31.7458181376071 -31.2112699776304 0
34.2122150160923 7.48361276334943 21.9588617925528 0
114.744379469752 -0.36191677565682 -3.46562806752332 0
135.963640817401 -9.07801584016916 18.9725415348678 0
22.2650120038306 -0.889255318206312 3.84480394040202 0
103.482539153125 17.310156673113 0.950769821684641 0
166.514429054863 23.7044207754798 12.2819091873566 0
106.011909565173 18.4202621522744 2.25425263880802 0
173.350404168912 26.3407808430938 -27.8358147015134 0
207.115596643944 -14.9606750686444 4.15471909491761 0
185.342751157178 31.4857988242734 -4.98271789559486 0
35.3973087444922 22.1144228433412 14.9389490490795 0
201.682983281867 28.7093491186589 -13.5564512026065 0
181.069575811097 -43.1698646637718 -23.534145255577 0
157.40794369333 -13.7497209973414 -2.96048981310143 0
35.2942939725183 7.45986852233737 -1.52107515869228 0
179.304449037661 -12.6955986391475 21.9839207224489 0
181.360840398376 -31.4370510079717 10.9406145364632 0
177.695179823516 -44.0083699221586 -5.30544100259702 0
180.653082314177 -32.9989233440324 10.0740790888236 0
133.136156343882 8.84106405981383 21.319124553321 0
145.578091939211 -9.15627569817814 18.7808405398665 0
185.936209582275 1.07203087115953 -16.9566516025361 0
-0.675279062325044 -3.97896331639134 11.5527640972224 0
187.613032692398 2.03347540191595 -17.2729892142902 0
142.788256379621 -14.0669499438117 3.7432624724327 0
187.821624413077 -43.3507385288967 -7.52436029132608 0
17.091117836162 -3.19889732535157 6.9124273988623 0
-72.6623078878419 13.6917714445344 -6.71627369250122 0
173.954164371825 -22.0864713764278 -13.9585636380188 0
-36.7769969691011 8.43383968982872 20.1601794358803 0
175.52634557176 -18.9147722227059 -16.158632813362 0
100.513589995157 14.7747481523261 20.468825984777 0
-83.9817260102891 -2.18656014703937 12.4641185432854 1
179.473817095052 18.4829317237893 -36.4896069399145 0
41.3566816362462 21.4938626319845 7.33461884653316 0
107.90723300866 -1.34982915240556 -2.41613663937925 0
168.662401022095 23.8664106670316 -20.360336157532 0
152.634157908011 21.4306028266101 2.49780569332068 0
101.229211133352 -8.51583131426882 15.1987185767865 0
72.3213705189217 21.1809736235757 9.63998079682817 0
163.380756308474 -29.9046197132427 1.462774600249 0
202.942888422725 -27.5457037364164 -22.8124125615362 0
73.890255619178 18.8805112998431 3.68646955027487 0
29.8901047946976 9.46179607646477 -0.966943968809219 0
-42.9679390134487 -1.41573215367713 3.67187298287 0
181.327061892127 34.8281091873173 -17.1080802376241 0
-60.2426889103942 -1.32243153168488 2.32665519758454 0
13.5725488955683 -0.254050348058711 3.40504074026207 0
167.021941068448 25.0949290551185 2.2661815938131 0
11.8037027521794 5.51716090708466 -1.91598266971125 0
176.926940912825 -17.9747210596118 -17.4669538691405 0
18.2041481481247 0.461054255277941 2.7595242722353 0
195.550466659203 -41.8978383751393 -4.72714392015885 0
153.417638022554 -15.1502501072795 -0.646393295949533 0
175.197057605845 -32.0450346937385 -15.3079997883014 0
208.845840689853 -28.2260175010751 -9.41817788650911 0
-84.7119854825134 2.18054124824483 -4.07498702762678 1
171.119613734725 -30.2379056160832 8.04460675932397 0
189.936002539018 31.4660654581007 -28.4260073793247 0
192.488213191257 29.5756122079463 2.31880436811646 0
139.248247171982 -10.9083046185576 17.6469794113404 0
199.796136639037 6.03250017259711 -8.41714152447096 0
163.478648932755 -18.9546281096057 13.1466871103522 0
124.787217369783 15.0090091270941 -2.71714593948852 0
74.694392015587 -4.72494103704395 17.0949139778216 0
172.646503790688 -16.6258460334697 -10.3010227047415 0
178.206230054809 -36.3670329970908 7.73275702670134 0
-43.4321325234837 -3.77693785439964 8.29196297576465 0
16.8375849701297 23.2596942491063 12.5726043294378 0
169.745117631459 22.3381267482406 19.2807672088282 0
193.915017543561 11.0815193974759 12.5921409802287 0
150.409435233637 -0.813273397670674 19.986037590332 0
194.210930779541 2.8357594910315 -14.5225270529388 0
179.908132979127 -44.8851520164544 -8.41999620805369 0
168.520109758171 15.5787190361266 -19.3233381949844 0
104.841644815688 13.7184562864307 21.0001058636372 0
171.799889766893 -33.1501484374952 6.62409218136106 0
87.8333601546096 14.3152887863322 21.0349432675828 0
190.636708363663 -9.18548859155035 -11.5122483593125 0
2.5436299012612 23.4726384883543 10.4598054966741 0
176.018122530111 12.8840003351867 -32.941406347756 0
156.745596053851 -0.308587003175627 -7.9388588573824 0
-3.19797381763237 20.6795398324372 4.50011736569337 0
171.019603863659 26.0797039294085 10.4847952431841 0
-6.25695712311683 0.267899447723118 17.7418419594977 0
110.877851079322 9.04315723281432 -5.32784876375296 0
89.005828638454 6.6041434835698 22.5483303316219 0
50.8378951937917 -4.53430169231221 9.67884004276962 0
59.8812554850325 20.724929347865 6.69562159566908 0
130.319868398042 16.9242006507945 -1.552894112782 0
168.315576109937 17.0262474851514 19.6792888231196 0
94.189747422591 -0.444701435386127 21.6380834202876 0
153.231586254219 -4.36487948306809 19.8690903006971 0
171.553827558835 -41.3102699645779 -2.36015865542766 0
201.676100042782 -39.1817162136493 -22.6379813725718 0
111.976437487949 17.5655619882516 0.980933390962537 0
186.48216007704 -36.3366162415473 -30.2882754689526 0
192.14210968163 31.4369009428802 -27.170539347908 0
194.509100837344 30.1940438484556 -10.0446371063377 0
134.728425583866 18.1286886692961 -0.53203577117045 0
-30.1628215710814 22.6218046134781 5.30057780349597 0
175.389603212129 -34.6890263217883 -18.1933201328632 0
165.887969969458 -18.0239581064438 14.2393579740008 0
102.772904645907 13.739715035336 -1.87312344427096 0
-54.9864172333018 2.02026850480646 16.3867136510314 0
190.582554919798 -3.70496582611357 17.1278889438628 0
93.5452622275805 -2.99270376793479 -0.0567417959890787 0
155.251702356124 19.103149128396 -8.86836052965048 0
-13.5991603867306 3.58839948725033 19.2681292656129 0
30.2915948302237 3.91839919696776 -1.83972654535758 0
-57.5044180478701 1.48462595729382 -0.530880051002298 0
108.050754496591 -2.3298800010449 21.3813594666982 0
182.088383072261 24.6681944074901 20.5957557248349 0
181.73089716127 14.0641484510809 -35.3886717009528 0
42.9109726987671 18.1072883127086 3.14452486046763 0
190.031987343877 -19.3041891007084 -21.8041715135044 0
-40.3218634551885 10.5484685679778 20.2233545412389 0
188.756973957162 -8.87148485553739 21.5854863910948 0
3.92673623137693 0.748576687171765 1.82670403395523 0
174.441075046225 -40.8720757703737 -8.71328180377381 0
-4.90313590529947 19.4692822334397 19.3226435397277 0
186.660102676041 -13.7086683591808 -15.4203121202993 0
14.2429429473121 21.0192800955807 17.974328670632 0
155.275754586778 19.9786954572161 15.0522120231141 0
76.631999122408 18.0867055588891 18.5218434266523 0
200.942044246067 -18.9636022384228 -16.4990268370746 0
190.923247708969 2.33282911799572 -16.0176353265814 0
157.502908784693 0.347652906526774 19.2067186295257 0
174.302982827432 -25.5974055920296 -16.9103362800888 0
22.6130984350992 22.2084581597697 15.8584487286849 0
199.599077368036 10.6557018851191 4.65791547940073 0
165.560291169354 -33.022570546515 -1.67491246093998 0
77.3474112067787 19.5734395748833 16.4842320502776 0
202.615768451143 -12.9807290217957 17.3763810862536 0
180.005992208239 34.6430068634704 -18.8387747062889 0
-3.08802469014005 -3.24384203456324 7.08416434547577 0
93.3330019685171 18.2284093874674 2.3441370421868 0
62.3524992706624 11.7693622969273 -0.599384022682781 0
77.210432148304 11.1143071325569 -1.74079821285164 0
173.635606148069 -25.894962416517 -12.695914093124 0
117.473178780928 5.80742350993984 -6.02529591878977 0
-20.4620654667319 22.6151762125209 6.15530221726342 0
173.292217593764 -33.4088584723081 7.55657129252282 0
-17.129462259567 12.1558818521142 21.5217824128591 0
208.42913049237 -36.1602181874018 -3.93514551837214 0
195.581101681426 -26.2485719095071 -29.1358106626317 0
151.01117479262 20.8439442136514 10.5406935263229 0
189.777452697498 -16.1201743011325 -16.6091520976565 0
62.1853930705447 21.3517604244011 13.8237035978679 0
209.244390224083 -30.3990767954514 -7.02196231741295 0
-54.0108986960225 21.3322901303436 0.0275809213692274 0
121.77434415567 -4.87046563252108 -1.37831064828114 0
63.9153801045364 -0.889707125407798 20.1776654757279 0
86.5808413205086 6.3849570066603 22.5168745707158 0
151.377696140415 5.88996323340917 19.2854648259003 0
184.247561683074 31.1615341566655 -2.6540318884472 0
60.7137559290201 21.3994025339759 8.6706248255716 0
-19.6297964020118 19.384040196179 2.63442414264945 0
178.958800039342 -27.5985335415854 12.5649851039331 0
170.772634410952 11.9225485934586 -25.4573953798234 0
128.222708636995 17.2939498227952 -0.701112778806365 0
200.707197553812 -2.7821706961478 0.94777852298601 0
33.2998223637564 -4.07027555021982 9.3850475727611 0
158.313223214756 -15.497076960769 15.1280921274828 0
6.58357653423513 21.3426439272111 5.793741464339 0
175.676398274118 27.5567781856477 11.9886467327605 0
117.222138429355 20.3343317005217 10.0679471034678 0
202.125458264513 -18.4046731601519 -13.6589391621414 0
27.6837476759365 22.1515128247632 8.00219373856001 0
83.5364462835197 10.7079859652813 22.2067325080292 0
171.668083903549 -26.195854363155 11.0028755061603 0
1.92920390931848 -3.75181521453054 8.64481581821694 0
170.170573329759 -16.134155268338 -9.11453949250337 0
87.8160512847662 16.5418604702435 19.5660142922549 0
-29.9799870035744 20.6316123778854 17.4858986372867 0
112.45209602768 -9.65170919315032 8.75435799973474 0
185.591808768758 -1.33365504655658 -15.4150366612638 0
175.690770255467 -43.2486266102501 -5.06655541321124 0
90.3965312457683 17.4777812420165 1.5135189011556 0
167.770294039312 -19.8297743995552 13.5407701127733 0
-41.2571958838858 13.6451583980305 20.206519042273 0
196.561165749914 -40.0982755685535 0.073579696125708 0
-26.4266035421497 -1.0919159507138 16.1613064556904 0
121.263297975318 18.7483043001399 2.28204730303352 0
-23.9652731822612 6.75879483815429 -3.70854872691322 0
185.036876406282 10.3159299119841 -33.7918803452242 0
56.5650003712441 -0.706430733443388 19.783415087292 0
-49.2177055961202 19.4195642110946 17.1743628465471 0
82.5411873449159 18.1563849151651 2.49444123129285 0
10.3135719874407 15.8333751511819 1.69589368763767 0
192.90121787235 0.90723518081317 11.8192388821285 0
118.573819530137 -9.67883451619152 6.70657197130386 0
55.2129473050511 1.88571467278403 21.2107008414888 0
191.476603725536 2.68424142421451 12.4445390670371 0
145.983685030593 10.3779719645288 19.9357161294739 0
202.811870872061 -11.3388298373904 -6.01028043303494 0
184.424442654961 -22.5071577129355 -28.5541718555458 0
181.367668486937 33.6769227586085 -12.6435753774798 0
4.7250050411163 22.5633567312663 7.82876980158482 0
209.349562785494 -34.0238232673768 -4.3387819629953 0
188.525519916039 -35.9761839926929 7.37661694441379 0
192.122506405672 5.35469146433823 -22.2771989813993 0
163.030668380635 -25.0535396466395 6.53482220885501 0
173.651903287996 -16.6847916061992 -11.256845687515 0
