-48.9856614258498 20.0944031712871 -3.26903023777647 0
-189.856046635539 -37.322560928543 -12.3854816791031 0
-161.786564215272 7.52202725752702 -10.1811825665064 0
-14.3524587008057 8.71204861724338 5.89902367663472 0
-124.01808412652 12.3414251335998 -11.7125938443936 0
-15.7956551099308 3.52288290674024 7.36476450458059 0
39.1494732799305 -7.8291867931188 -18.8218285827414 0
55.989088969567 5.17145814446731 7.45792951857604 0
107.943386748775 5.85039062258509 7.52563818104258 0
-189.760000609494 28.0973752311529 -11.392212313578 0
-35.7888636787635 19.2322897488229 -4.79659963539044 0
-175.82009418321 7.03049068752071 20.4004953635994 0
-171.220677431051 38.6673111710576 0.333138877779802 0
-177.22872523034 -5.47472267140343 13.0238039973288 0
-189.917720612166 -43.7580556412053 -1.0475379833072 0
32.8984705234032 17.2132989817656 -9.19945253977702 0
-204.624355522068 -23.8681749854266 21.4954794943229 0
-165.296992753006 14.0270645146304 22.3375916218043 0
-55.3753277870787 16.1148735290088 4.84862464096225 0
60.3514556669178 0.64254180543875 -22.2008190479164 0
-176.214440577979 31.6735672160266 16.6285140710349 0
-180.954325831075 -21.3616502837062 -2.73047656276131 0
-217.529744346624 -9.94787846697373 8.76082762926445 0
-204.402736003495 -48.1267095153224 -11.0830604613067 0
-186.947374938409 14.9145926892102 9.77591790290179 0
-170.116954886111 30.7803831914151 16.9409578884772 0
-111.285769458663 2.89154372961417 -12.3393650529789 0
-65.0888369731243 9.7483325617311 10.5792913556789 0
-5.82016041866589 4.20867241603145 7.44378048306786 0
-146.427544981388 7.46618764296346 19.4879169826056 0
83.2439768346243 17.1463568617133 -9.54118961120004 0
-147.038328561536 -13.9777591471414 14.2617556147978 0
-169.66784126163 37.4933547080848 0.640035084210025 0
-206.416170542517 -45.5199912543205 5.90520605401791 0
-197.463890698481 -46.0008170909086 -10.77520878913 0
-184.444251042811 -21.5853384697816 -7.84618967468308 0
-175.199258279272 35.0150269701866 -10.5618803039803 0
-197.116369283606 -47.2914835356681 -8.33178493560193 0
-189.934338972799 16.398318807744 11.665104836942 0
-174.23232040184 3.2783158219217 16.8786215450127 0
-222.154267573225 -42.2793956136914 8.79597863790611 0
-160.609651534862 26.5346080978192 17.3170540119553 0
111.898127939774 18.1754640045604 -9.19410212942283 0
-208.988305807869 -5.09389991556812 -8.04901638297175 0
18.3413828813007 0.867905168068041 -22.4042900664335 0
-45.0263462203358 11.3582380741506 6.96298388824374 0
-212.321214529026 -35.7434990963479 -21.3057301726045 0
-155.988379977895 -1.71511686441932 -9.33399135806994 0
-198.554800173111 15.8835717747059 20.5711995262901 0
-195.074535002113 13.2652626494154 19.3925570168227 0
-151.478648429966 28.5544045357341 5.55979103023789 0
-93.1388143411677 13.2374236139039 12.7255436090793 0
49.3095226397724 -7.58397339257182 -19.5633819871596 0
-197.169771119562 2.52474542776059 5.17203527845361 0
45.7229139281439 5.41330290278217 -22.4265232967958 0
-56.3440180590769 2.01536836946918 7.78275193102412 0
-173.399015359185 25.9839214700286 20.0948489278748 0
-209.664976202864 -15.2984269574094 -19.4426210986939 0
94.3657595831246 -10.4526848976202 -19.1015928341924 0
57.0965562708364 1.45047564570083 -22.2444931663818 0
-200.819903893901 -31.1053038200078 20.9084165272311 0
95.7974090715434 -9.23460694641408 -19.8816285046666 0
-159.24269741353 -12.5774287885921 9.03051349247513 0
-138.716875673919 -4.80028543326243 -4.93069861335167 0
-83.9464242859604 3.43755172089481 10.32486235802 0
62.03769215202 -10.507338807408 -11.3893105156639 0
26.8592914687246 17.7036984658268 -12.7995712332667 0
23.8048713392727 10.080841038392 2.77832057644007 0
111.461616352768 -9.91635553564515 -19.6386905566937 0
-184.303926674008 24.9475086409218 21.1162381759141 0
-149.202058347648 27.3933986660399 -4.43228224101847 0
123.938929543219 -2.70147596605824 4.40923343778482 0
-131.472851677688 11.0701420143407 16.6367887466851 0
-59.2603678354476 18.2717236186546 2.73752130299705 0
-175.183288963377 39.6625722224323 -5.05430932776841 0
-92.5567618911888 -2.71832652021961 4.3695684430429 0
74.7013991924511 -4.1955000873514 -21.4547933464642 0
25.9991814604724 11.5938922326995 0.862849044830678 0
43.0343787920845 7.78145459802375 -22.2037733403006 0
-196.714054193624 6.41575072262955 -10.0668364835999 0
-23.413053092873 19.2601494670308 -13.3969149200642 0
-200.088612524503 4.09215863908166 -1.05017182966417 0
-72.2141593700327 18.6481456629778 5.06852133033726 0
-143.090918736472 -8.52686900607103 10.210564788663 0
-196.942973490433 -9.66130493498745 13.0841923552581 0
79.8860270464791 -4.85078239778544 -21.3428528396497 0
-162.076456197297 -11.6435458190856 1.91963882677629 0
-79.5582079733816 22.4659309244571 -1.1477314250452 0
-193.749170412442 -41.4883570844001 -12.9680462311486 0
-209.062284537796 -31.5753262533814 21.7319316454976 0
-153.171932903248 4.7795189054948 -7.95321823825537 0
-70.9195072967106 21.5448990013915 -0.576948963779795 0
-179.732048427384 8.3070016637377 20.3085257878854 0
-119.107517293752 24.7762216561586 0.0413659043623352 0
-5.21700267314217 1.39213165964064 -22.13844026145 0
14.071578597622 16.6474546093806 -6.49719973887262 0
-188.760957216754 -18.5604494802732 -14.3486283616925 0
-35.4404735454779 0.938833523306326 -20.4570614159448 0
-174.099279651476 7.8645374698491 -13.3598568681768 0
-83.5807187118257 1.57117965169304 9.07136073441611 0
-225.618958247791 -27.6429768146606 12.6573843319848 0
-0.0920873721626599 -4.61653464120888 -1.43686424432061 0
12.1451427663187 17.6006827771274 -8.60556362081017 0
-76.6419552645178 3.15371218905241 9.70789912978347 0
-76.5647310067372 -3.66623275559377 -10.0934730352728 0
26.8242513457232 -8.69341360615725 -15.5711216195575 0
-115.64828803535 18.8288366784567 -10.7894647085524 0
-14.4018014210617 1.66739579324371 6.26942117501034 0
-181.998185021456 7.36377024144689 15.74790017515 0
-201.867861775934 -3.77381154369893 -13.3139337114425 0
-140.396182099027 3.76991266871743 -7.98103272742768 0
-146.346978313052 3.58102292300277 20.2596129554413 0
-227.7728938288 -36.2091804837057 -4.97033962839281 0
-212.591931092664 -47.5140797592824 -10.3742111672995 0
-211.174333711108 -47.238935839585 -11.7626796816909 0
47.9328513153706 15.7814266090473 -5.60438826361189 0
56.3740209557469 -1.43520590143744 4.52971355302183 0
-213.326918224424 -8.70030921602149 7.5990855827143 0
-43.7852850240727 12.5006598245139 -20.0374237921504 0
-202.195852542175 -42.0996180687783 -17.573569990276 0
-146.013458665759 -1.45030211687631 -7.5076926315052 0
-146.392919363842 -10.6850898604827 22.8083804917175 0
-229.267197867566 -23.8206899017593 2.94915549063264 0
-13.1449370985616 18.9892116077912 -9.69685586548033 0
-188.175440393052 -10.8488045494205 -12.2591531017293 0
134.800654584474 14.9682972918422 -16.8613285799365 1
42.0954587670121 14.5925115163216 -19.0601140572037 0
-204.276607472421 -11.2662789434886 13.7401882685782 0
114.05591516985 15.1974691863457 -0.192799217062628 0
-198.603303454714 -19.7882871945538 18.6687943524024 0
-2.56007573139565 18.1485198910346 -8.61716936071052 0
-193.805025607927 -34.1102901965848 -17.899600237374 0
-200.866701579468 20.2088862961921 -0.749312706487949 0
-169.818949410481 -2.51520937528376 -9.37932051380983 0
-5.73288998261799 0.0707191773450554 5.1276823934568 0
10.0215415812525 12.7906380818495 0.189398056562925 0
81.3498889703604 12.5394541226059 -19.5310479546939 0
-179.69872917276 -6.69763096466899 -10.0393402378612 0
80.4366591320594 -2.02292449598226 -21.8489015115954 0
67.2078082482855 16.7968859913309 -13.1294211460463 0
-193.365124879063 -45.495704021543 -6.52624968737708 0
-105.893193381734 5.34247257738849 -14.0268530786039 0
-159.841792512725 6.637654600773 21.7581454331697 0
17.3690026977813 16.9688118897654 -16.9932763956608 0
-156.917144200043 -1.53217989306276 22.259641467084 0
-107.655657335992 24.2049066612848 0.588779454075289 0
-187.463027434064 1.57311500686992 -12.1016614694022 0
-99.8431560559742 23.5838605417297 -4.43991205844594 0
-218.556857439656 -47.2152841033471 -0.0388695438143327 0
-32.6044881046509 18.9756810905036 -14.8292617737882 0
-203.026305254488 21.5869330589356 18.4785321212618 0
-139.452091857743 9.89099044086337 -8.67010829253013 0
-136.514606960168 0.521233398175832 16.9664285352347 0
-187.496822899739 -39.1548367362893 -6.78864536698897 0
-53.6312181727517 -5.02735639387217 -11.378677206925 0
-136.417369222709 -1.82658723486311 -7.36089893782213 0
96.9282243497254 14.892188032922 -17.3645597374248 0
-189.718720540638 -5.66379192511557 -13.2927174184426 0
99.2106656619406 2.51390780023695 6.28867026987073 0
-179.269189267277 3.83112936406574 -12.4243841317895 0
-171.739937034878 -13.1093582413474 -4.39023835397695 0
-138.520496285949 -0.997404576786247 -7.66849421885409 0
-192.699914032502 -21.4226972875319 15.5513030296332 0
-212.604666378406 -33.5521353614659 -21.8843128549796 0
28.716677546256 8.92874837039276 3.97177364451553 0
-226.187300505862 -17.4553751093776 6.63272323578183 0
132.903161734104 5.40977667439412 7.89544934366275 0
-172.788846201723 2.82443834249455 -10.8623957728007 0
-219.002472713798 -46.9547730327809 1.70039491224272 0
-211.283010042947 -20.6255168911315 -21.4582641471399 0
-59.3523086798281 5.21728660986949 -19.2280957794766 0
38.8192415161859 16.7607937506277 -7.83816955197663 0
-26.2198859217893 -2.1405542523313 2.39857768402104 0
-169.037951731826 16.8782388554474 22.4894405175417 0
-78.1700022124581 0.31216744428236 7.06509531676967 0
14.0280279243095 -6.83865041007657 -5.87465250434246 0
-73.9871607060887 22.5875320981376 -5.697646284439 0
-163.778344286871 31.420499294919 -9.33948041808158 0
-227.505845145263 -31.8070002933694 -8.75974338564739 0
-180.457484776427 24.5157453770452 21.3657392151509 0
-183.525331084965 38.2201079028138 2.60005261752839 0
-27.5543077113954 13.2701608248452 2.90011844637265 0
-100.823877920947 8.61025418874154 12.6669620224828 0
-3.54067652658725 11.2819991852541 -21.8826477781702 0
17.636848430362 -5.1949710372454 -1.79944139153022 0
-223.894737449425 -12.6913406099783 -2.15878919983417 0
135.500655891868 17.0079203401499 -13.7630869600387 1
85.9553072065635 -1.51568118890302 4.41701614202719 0
92.9664659433757 12.2545039294616 1.53562709536209 0
-198.702725542871 26.787538101021 17.5955673012062 0
-163.60047157338 24.1568385596777 -10.5849004642885 0
-31.8489172671917 13.8458308375154 -20.0542474836858 0
51.5280196635692 8.47926276006902 4.30254986725386 0
32.5982590614074 2.87163120046989 -22.3900932473011 0
91.499337105779 13.6411628140476 -18.5464192726767 0
-192.968970148929 -3.71160842573692 11.2444894738956 0
91.6998865712927 -7.8961730332734 -2.610899445718 0
-176.140540804599 39.3354437819391 5.21458741127853 0
-226.865933794704 -27.1766904863885 10.6294148825698 0
-175.469981725785 -3.49643655935385 -9.60319627744027 0
-207.716146806849 -46.3051341410927 1.00958282257481 0
-201.906849974064 -3.06735669160362 4.78547956239652 0
81.8684766638735 0.391421388964954 5.75232346412547 0
-6.3306671377546 -2.95596480539689 1.20415343776506 0
-229.222450490776 -24.1254341313066 -2.8012410309816 0
-198.659885648002 -32.083987519785 20.0186932961612 0
-78.7095770547924 10.7369862009479 -17.3783248369262 0
31.5690570853798 -5.38716263140765 -20.3537589297503 0
-114.275708262977 11.3950508255464 14.306665411483 0
90.7407224044054 14.5402404100539 -1.92525691393886 0
-5.27543939325032 16.9544889077384 -4.92542377345909 0
-198.071222525069 31.3456988506678 10.8283960422569 0
15.3606136220882 17.6638288115514 -8.9745606466393 0
-96.0073188572062 1.92695027340744 10.3576618414451 0
-112.071165330261 -4.35377196448021 4.23986819559064 0
-220.685076075164 -44.2484552066273 -7.62707767825868 0
-183.587262084153 -20.0557694699413 8.05811995045091 0
31.434515078015 5.39851927289353 -22.4622615060008 0
-135.172481980083 -5.53929670731434 10.994189236013 0
-35.1552038130018 19.8360297797012 -7.16997838282485 0
-169.722880691308 -7.47173574284837 -7.77935850584873 0
-111.145958089755 -0.613093825296637 10.4215189785449 0
-194.310923181735 -46.0774057169747 5.50121468911958 0
105.925036028571 12.9284834800732 -19.8211949620271 0
62.4853543338325 13.3853752056448 -19.3360525709718 0
-177.246824302639 36.3371164363247 10.7315643341861 0
-178.630972686579 -20.7085992231901 4.02447575025403 0
-79.2682150098756 -3.82376482582214 1.37529549001953 0
-10.751753747951 18.9592985068878 -11.3721241361531 0
18.8722829178142 7.03490418673303 6.33488124218949 0
-191.793401932723 -14.6163724607275 -15.7073517237844 0
77.7867459481845 12.2801067040583 0.518071656952309 0
25.1575468768928 7.25580202147099 6.08266078016523 0
76.5374118791181 13.2643120936988 -1.07354299114601 0
76.748047514627 2.49513230115719 -22.1954890933475 0
-78.7503030844272 1.96866210320372 8.88415859426926 0
-117.87364006954 15.2668171182976 -12.0913070507781 0
-181.112631225668 17.1934075569229 23.1684716682212 0
11.4347926542602 4.38001220492289 -22.6724205065781 0
-167.676458996516 -12.3670069166365 -2.58611830101926 0
-54.4321608680876 2.12164394277631 -18.9348194573428 0
-91.4961241883711 -1.18602468626797 -11.5450882581154 0
-16.3614454837319 8.22291016595983 -22.2701585404196 0
32.4037569500264 13.9916172914112 -19.7135462122014 0
66.7275006824427 -1.07872204552941 -22.0847746308731 0
83.8562018108629 -12.1209028129394 -13.5476988039361 0
-102.672931860029 -3.71845437118104 -5.98335840337612 0
54.409350362185 17.1230094901905 -11.5169417175994 0
-185.417068491405 -12.453029301969 11.6031938694264 0
12.5949430181085 11.4322135581297 1.69549878738075 0
-1.78045152628511 4.17604177313347 -22.5755689411165 0
-22.7668012206836 2.04965813969653 -21.8063409587379 0
75.0853317676237 7.36599034771684 6.18358167357407 0
-212.291535923605 -34.2442348303669 20.6287116940391 0
-6.19488132816218 16.3766093600467 -3.55230213887664 0
-165.286260687569 33.4409740194894 -7.12871661723687 0
-198.781122375344 9.28524703757133 -5.17595790068099 0
-208.573493057527 -14.0659262855153 16.6216388601364 0
-217.619059454698 -45.4712162195679 9.4024280854298 0
-167.912509514286 -4.03008234322674 -8.96398286761206 0
43.6495283770112 -8.96155717799181 -17.5080634138488 0
-9.68970075245516 1.18644971031653 -22.0302244597112 0
133.802302170244 16.8720498349802 0.942988884711806 0
64.5207750597332 -0.401484881338591 -22.1905598921441 0
-228.571251831318 -28.8590332766574 6.55701982879612 0
-20.7041727641047 -2.39367448318912 1.98553233400366 0
-64.3116590916106 18.5655489703229 3.77915101663475 0
-95.1194454441 17.8176128820799 10.392579609534 0
-116.008657216876 13.319063945198 15.2407140553501 0
-212.831418927344 -16.8202095107891 -19.2954878322753 0
67.8062084333191 3.00904747112604 -22.3804756844535 0
-220.643116001294 -44.9563737437288 -1.6358935726749 0
-199.769099500006 5.79537145965861 -2.86520698062444 0
11.3615589776585 8.21494517650378 -22.5658170606786 0
-16.5637001870171 9.65753242055551 5.36598877577917 0
-198.851572101445 16.5687160992836 -0.566250819407258 0
-84.8179542593494 15.7662565867044 -15.0687393587661 0
-73.715961409599 7.9174459206845 10.6287346093775 0
-63.5284725423086 17.0534130172796 5.4832499725011 0
-110.729977271174 15.5757704041664 -12.766315694619 0
124.931226591654 0.365180009123167 5.81359418392402 0
-8.99724259205782 3.24214067316119 -22.4321664379296 0
-73.1611876904765 2.55756997655349 -16.8257155629999 0
-157.350487080974 13.9106487228597 20.6764042820185 0
126.913740063549 10.0250505550911 -21.0365640170595 0
-208.361558032323 -46.7644973406395 11.135785256466 0
-154.621926104708 -9.43704776710409 2.71233384600272 0
-188.268095945131 -41.4578628593426 2.79854825139647 0
-167.445124293885 21.3538152924987 -10.9086809621513 0
-155.900128809237 12.9824019899848 -8.28047245068736 0
-76.2173231864262 13.7801468237379 10.2205571328671 0
-154.409318433605 -10.8525669730804 22.959362396043 0
-197.715077113053 29.0200524917186 -9.33683680197174 0
-205.435874283458 -5.33974307776748 4.20455261001495 0
13.4261036147009 1.94328613749114 6.72189209453451 0
-191.411247119143 4.11835889550147 -12.5615027943558 0
-108.241351556564 -0.584869502118316 -10.0890837318823 0
-150.177597910484 -9.47278445880484 23.989210040624 0
-213.247874848869 -48.7178809032318 -3.05255604404806 0
-220.655795829043 -10.1764611238251 3.36111901447707 0
-157.570687716708 29.1043859053203 -7.35267913700037 0
-196.565315290258 7.26100294141745 2.13643833543509 0
40.804464734102 0.0783994679157787 5.87697390026492 0
-154.102187444881 29.4709788448192 4.8628178776671 0
114.998347621723 0.608339201290206 5.67934870555241 0
-142.113380989436 1.96122199580269 -7.92143553699016 0
-148.911837496985 27.8336311384668 5.62727215898836 0
-204.47419629168 -26.7309735372723 21.786726821283 0
-222.370616823007 -30.3604978723681 16.1306515079447 0
-97.9402703506053 -3.53482076373434 3.53324523909304 0
-161.07174804445 8.5717869292432 21.8584980980066 0
-3.05388756742585 16.8481803194497 -18.1519103174886 0
-51.4254124075909 16.4242069616902 -17.0457674560356 0
125.031508307577 9.78270037125024 8.31893841760289 0
-206.479795500507 -5.45443140319995 -1.73700513665952 0
-203.338905294681 -19.7088553424415 20.0745719936109 0
-61.9937880205553 -5.42179265824946 -8.45402686591555 0
-194.880991567015 -10.7222732063372 13.4438787098007 0
-151.312819750897 7.60481558658933 -7.64940085748232 0
123.280122775145 18.5696988140041 -9.17071126123114 0
132.913569247426 -14.2924027760576 -6.55383573324081 0
-142.79309502561 -6.6983030172835 -0.195526248914618 0
-86.4831876145449 18.1578618980819 -13.3617170276502 0
21.4104756874954 -7.67071683574885 -17.34174345299 0
-89.2268776559349 10.5129437244836 -16.2958009072845 0
-78.0407870758024 -1.6798427860915 -13.3811224088617 0
-206.71649794749 -7.8756596891572 7.66792832192172 0
69.1207826620474 5.57177239992861 -22.1983214019507 0
-40.0939809890233 6.81034625830564 -21.134390048223 0
-93.3201569472952 5.22639106385733 -15.251614471085 0
-81.0595465303228 13.644272259739 -16.5024117815481 0
-224.340995687129 -41.9180478129912 1.30948486366706 0
-190.287800191357 -25.7368515933243 11.8964355379563 0
99.999043375333 -13.1568391340681 -14.423204916344 0
-97.9171888399476 -4.37165240944059 -0.190893050708588 0
-191.514941827098 12.4106806474941 15.623724086842 0
-190.763970574251 -19.2297040735439 -15.3228882439234 0
-155.935273204422 -8.92647893421264 -2.57507383309049 0
-151.610862064899 -13.6261814285477 11.9436860620097 0
-217.151728485696 -48.0473624583362 -2.40011430291129 0
-199.015661403773 19.7532979293787 21.8285047749895 0
-15.1766920052066 -6.24656489816653 -15.2308946798395 0
-82.0337846141357 9.99931484958367 11.5745959653163 0
-175.991073914115 -11.7113613574488 -7.50514003303951 0
-225.018675017442 -28.9354589085098 -13.9830251496079 0
-191.204537870845 -24.0607789845061 -16.8700910516457 0
-221.006304451333 -33.9579006668808 -17.1630561281238 0
-194.62255756863 31.9085881086208 14.0135230546016 0
99.9283174229675 11.403354866975 3.01874238658201 0
69.8649131957499 -0.973752117062186 -21.9840806437051 0
-204.130575612467 -1.65912293641731 -2.80623334679712 0
-220.040408665004 -21.3273692211581 -17.7711907461671 0
-205.066168173901 12.4835856842165 17.229796342121 0
66.904829294077 2.92322659131037 7.17313046815911 0
-55.3520830330741 12.2651115416443 7.89807713648028 0
-104.948856943 11.6399040085794 -14.3926243806913 0
-174.452561746676 -17.7189772740235 1.24887582707389 0
55.6304590298581 15.991850910588 -16.4648109452119 0
-195.192010086901 30.646003697885 15.5348411263647 0
89.242193702942 17.3393831871472 -9.89821056830954 0
-26.4064684399867 18.661046968521 -15.0955470551246 0
0.369656305187306 -2.90037560540751 1.55178023682873 0
-51.7130483506668 2.49323052960892 -19.3504380439003 0
103.262843371526 -3.37929002804841 -21.8430685511043 0
-225.847196671317 -20.7467424027251 10.6048174756881 0
-148.482501531203 1.55369714111717 21.5677162540393 0
90.0365747239447 -3.83333226147403 -21.7725001566952 0
-205.70897779533 -4.33698625042546 2.371173338123 0
-144.28764927371 -10.0417182625765 21.5007192272765 0
121.799092015896 -14.551258259574 -12.0845525174355 0
-121.240476883152 16.2897804116708 16.0320186663224 0
39.4450882289043 2.008073935635 -22.4467816233142 0
-157.598587649273 0.125215303494802 22.0031613000473 0
-214.46165744094 -44.4634847493491 -13.9100151470696 0
-215.042344781021 -7.59005998182165 -9.35778885635142 0
-215.532804349768 -29.3069233195191 -21.4691877380205 0
-123.878919062247 10.5442867772424 15.2553991410218 0
-167.755147288092 31.4233748972814 15.6778497672274 0
16.3405374225854 17.8706276431245 -14.5180673640509 0
32.0045670206102 -8.54278865613994 -8.86960808162944 0
-208.229824092139 -44.990445428076 6.32025135512426 0
-180.323712687836 29.2437762118651 18.7337512343185 0
-165.049574978314 32.582302714044 -9.16083605805538 0
-138.896331606244 4.17264881432772 17.6564045719494 0
-149.130010447462 -7.50962695733354 -3.52995411576109 0
-133.044638496879 7.08772890122549 16.6794527345125 0
-198.216882477857 31.8836070895249 -4.74196159547895 0
53.7804343077174 -6.75462984676944 -2.81266321057332 0
-13.8958236403861 3.34188269400275 -22.3353629976006 0
98.2935702434513 14.9364632791129 -1.78777281269305 0
-133.850486183544 11.9661779364843 17.2020201469363 0
-204.623019869978 23.9666950694007 14.657484376205 0
-164.231125068475 18.5132447548062 -10.160456077267 0
-186.685100103013 -32.5431365456173 8.69553355987565 0
-45.2247526498549 1.09633175183631 6.36654269339867 0
-27.3504103966168 0.393891982305786 -20.8874721028304 0
-44.8916406317147 16.4755865794517 -17.4023013481723 0
-212.666817648207 -5.75309421273796 -2.7826728220189 0
-201.387376718822 -6.80274060435117 -15.2709764234882 0
-42.0592127054628 7.9781371854562 -20.8911830685309 0
134.711724387161 18.0108952897213 -1.59870437072218 1
-208.376161657348 -27.2146387625202 -23.1681444570123 0
-154.253998586653 -15.8548934265767 14.9519734291199 0
46.2834794722956 17.0696164035857 -13.4131988837138 0
-214.624404399913 -32.2085237011061 20.4407560708899 0
-15.1665386036951 17.7692399218254 -4.86016240662728 0
-223.047560879239 -25.0082391303805 -16.2825503934741 0
-46.8737883219559 -1.87917653930437 3.06592209579877 0
-172.053198455837 37.6978705903405 -8.17629637518087 0
-198.183497400946 28.4031338860869 16.7545099274917 0
-86.3276668569422 1.46054062741229 9.29427518473996 0
-122.909320820249 24.4943603509038 4.33853914144263 0
-168.375600025665 -6.22325146649169 -8.23358566356133 0
-197.480361380864 20.8982458843768 21.8633415642858 0
-186.57651239434 -6.10379899019177 11.6956275313745 0
-126.344753414728 -2.60642679331219 -7.32707085710786 0
-185.02229815354 -19.3401809744989 -9.76199909571378 0
-205.543908724891 -4.34864511845981 -1.15548516763488 0
-187.159063392628 13.3883213661106 5.8443130082104 0
-192.163442421385 34.4096856491664 -3.37264103129819 0
-176.790956768693 -12.0600044206101 11.1908362336571 0
-11.5431509639681 -4.55260932533981 -1.46358561236293 0
-176.349644863257 31.4787513209583 -11.7282310259632 0
-224.25879191111 -14.0441419056494 5.05989622734866 0
-144.117099028994 10.6989149525396 18.4858980220833 0
-199.406228953463 18.1639748911681 -0.478620005769277 0
34.0010453512268 15.7618450127528 -5.81926976115822 0
-184.380644945489 15.0420719307788 22.2696534744553 0
-222.901327796926 -19.0012017068589 13.4037366668725 0
125.774717146821 -4.3190331475807 3.59735212161661 0
15.8129910989103 -7.50400081703867 -16.3702250955537 0
-170.79633203194 24.7119379858066 20.1545279273927 0
-145.672276598294 17.7521402785612 -9.77492173263144 0
-134.577486536646 23.9416027031634 -6.14285702211994 0
-193.052799691858 12.1039283290848 18.356009148948 0
-193.894304676121 15.9654178644937 9.34252086662902 0
-119.237548790898 24.4298249657065 -3.21685732106605 0
10.867665675517 14.1408881129936 -20.1196802815308 0
-186.824202887954 -34.2896421185406 8.6831962782488 0
-199.617765431256 -48.1171538288076 -8.91039561570931 0
30.696144737287 -8.81791030972603 -11.1160083511728 0
-156.064987036504 9.65156550915653 -7.98979045809028 0
-119.259232596126 19.1440277555118 -10.4748389742087 0
-38.2274822334483 3.30335171394424 7.81734361770835 0
-19.3875311431155 10.5480198188834 -21.7504570951177 0
-205.615790358178 22.8457790518371 3.93281101206339 0
-170.187970481025 2.23797838504026 -10.619127279087 0
-22.131772489632 2.55815067320178 6.93285212044986 0
-36.3222640169469 -1.52697541588275 -18.8398858862413 0
-169.172565832263 -15.4469948594392 4.42748247151378 0
-196.18513553192 12.9139187152898 2.74122923987067 0
73.2634190944281 -11.4750223187243 -14.8997796619963 0
-144.804558005206 14.5254246329291 -9.32549525020779 0
63.6053113018861 5.17308140970653 -22.1281972561474 0
-95.0541355382182 -3.68972654096423 2.64021049211325 0
122.034862278726 -9.11742404452603 -0.952875619524849 0
-56.5208213944952 21.528475986281 -6.32663059764456 0
-171.625682023773 4.42687134489747 17.377457878389 0
-179.0723141028 31.3717076407616 16.9633026571992 0
-190.196403980852 -12.8374857787582 -15.343973516063 0
-37.4197490514265 20.1651527485851 -9.71128470663974 0
-203.666426209324 -17.3482296803631 -20.4517252977244 0
-145.506235553213 -8.48598861290075 22.9316747626573 0
-227.909146375171 -33.3139187524648 -7.18787686041892 0
-173.39540678675 22.2002451795847 21.6159012807221 0
-150.767092346903 25.8021024629144 -7.91574182904296 0
-89.3648176733621 22.4392100568636 -8.10722132234262 0
-222.513732239078 -32.45208346158 15.6125397273953 0
7.94488571048901 -4.86532359454574 -1.70188147446676 0
-198.837342131704 -15.6154278178775 -18.2030933063572 0
50.832026890753 11.0933707808315 -21.0012901277804 0
88.1099591139301 -6.37560856523826 -21.0811828296407 0
-119.945215001861 17.1908313955127 -11.4050817665424 0
-182.185151694696 4.23280225571626 -13.1813077344532 0
-166.085395761316 -13.3853974799793 1.22995743701723 0
62.6644023194341 9.12202320129938 -21.5321652208335 0
-218.162947356585 -44.1712906591904 -11.381881996111 0
-171.914154347909 10.7002938985793 23.6919414569111 0
-55.8629302594966 17.4983959401379 -15.7966398874247 0
-155.640216091338 12.0569582037317 20.4947326940435 0
-218.455446732292 -21.0457033416568 18.0666117975416 0
-127.523733584094 12.7766619529703 16.4982104899649 0
53.9873997132189 14.8701294496264 -4.16772673819709 0
-65.0020717894945 20.1266500399982 -12.2148703310527 0
-102.735638523409 22.3660641055869 6.36986371240682 0
-155.622204829492 14.4858631553273 20.2445593674319 0
-25.2720960071862 14.5891873770381 1.57499004887794 0
-193.554786484722 -44.4001217782976 -9.10420445596742 0
-185.714650065925 -13.9568236977164 -11.606993955001 0
66.249929362077 4.26091449875198 -22.2580214413472 0
-226.019796201663 -25.6698959050924 12.0250762630686 0
-115.074809535076 22.7312637724868 7.58169551390009 0
-115.443320456587 17.1944684401649 14.3896571430484 0
82.5632777885151 -1.39830430542369 4.49200476978548 0
61.0750023637998 -4.76394334451022 0.40566574418017 0
-49.0636584360291 11.7062576874732 -19.9295901566156 0
-164.423344906539 29.5373187091654 -11.4956759347693 0
74.5352979710332 14.1440696248231 -2.53621810960127 0
124.687585524234 18.0847200482418 -4.65524579230025 0
-197.374289571629 -12.3248527100658 -16.4023017254317 0
-193.217983425458 9.90056645874538 -13.3140951872597 0
-202.653706728881 27.9959991975259 9.58161312717449 0
-209.565166253161 -45.4933543556918 7.72755902309886 0
-79.8352502752723 -2.95297159319734 -11.3011216496024 0
-70.494894924946 21.412029029265 -9.85776807286516 0
-199.332658268678 17.7528940057982 1.94494242136405 0
-49.8467849263358 -0.827281240206511 4.34177215023057 0
-146.737733357503 22.4224354352928 -9.18806118177433 0
-141.868766670725 12.0825620548939 18.003912948011 0
104.694735734693 -13.4483894462805 -13.7556445898239 0
-192.544879046683 34.5507838170101 1.43815754547158 0
-74.592309746413 20.7181951587009 -11.1697254277178 0
49.950979523472 -1.74697363875175 -21.9135853447912 0
-184.078506433474 2.78573489595152 -12.3651468320845 0
-117.030924412137 10.1156352791053 -12.5947141245875 0
-198.333767162252 6.1662102819169 -7.84958240589851 0
-148.100605451564 25.1974838024811 14.1001803765495 0
-199.964728555062 -40.93906666477 -17.69846311923 0
-5.01745482890026 -7.27339165655766 -11.6065700103796 0
-82.4513591656967 0.433187231613595 7.76423898929644 0
-151.567703374082 -14.7351824995721 19.205945696973 0
-164.258354268956 11.4757047393757 22.2107201348764 0
100.274567154282 -4.25796751994066 2.63944122449279 0
-189.313635817801 10.0131518844117 7.84329261654954 0
-77.9418762685139 5.14111022585737 10.3880353728716 0
-229.682044311546 -31.0401981419237 -0.462850598817069 0
-16.7111931700945 2.2305596279756 -22.0637058126441 0
-154.978276494451 29.1658203674585 8.54596151109259 0
51.8320110699026 -9.16812785819505 -17.8331211266196 0
-201.047076692015 29.3554966890121 7.8848828799076 0
-191.08241899137 12.0063941623612 -16.9501660450379 0
-221.44689395793 -11.1703428624921 4.5018366291889 0
-195.305711460021 -24.5252861479957 -19.6227504131899 0
-185.121159763678 35.468549175176 -7.71965092673737 0
-134.727071053652 -6.18549169921232 0.0829175461835168 0
-23.8835790633418 -4.39589602167341 -1.00580856176728 0
17.6636566565501 11.0611385550583 1.9902046902712 0
-55.5662984855635 0.234505932830084 5.86197713552542 0
-123.220912584584 24.9430173566141 1.86314289613787 0
-195.247835384848 23.5793145803346 21.1071099202751 0
-136.192397969987 22.3295748914696 -8.24016651388882 0
-228.291490710581 -36.2410691245341 -0.327721265312765 0
102.821717459027 -13.0577061641251 -15.751070997006 0
-146.339000590819 -6.40189699652291 23.3155713034453 0
-217.736578651603 -30.7036141688009 -20.2801703406288 0
115.506777264917 -0.387363969146386 -22.541144372879 0
-191.299708191356 -10.3748695217187 -15.5421891148756 0
-189.901301352452 -31.4013864525615 10.2202901128164 0
85.2968079436846 0.193817272388995 5.70359991364401 0
-135.895039036376 4.26979801773521 -8.54855331964636 0
-148.682730478349 -5.55376663356034 -6.81804483395786 0
-203.471279306183 -12.7254734730105 15.92189839639 0
-188.487631496578 -21.1104177092834 10.8123815399413 0
-118.098655251079 -2.02297843346139 9.88527497930837 0
26.3874838904956 4.5121423769123 7.51057674554465 0
-194.600161779301 33.4282904831759 -2.63049846764369 0
-174.276868946995 -17.9101731802061 5.03612304447002 0
-193.10834810143 33.9944457242731 7.07472787773777 0
52.6748028009518 8.01786517547291 -21.9653303044207 0
-24.7212987037526 -0.663876644360491 4.08287656955097 0
-50.0485739674615 11.3735041767297 7.67155954372039 0
-152.344175655094 -15.4640597397886 15.690610644003 0
-143.179300658453 16.148348804664 -9.81541164471722 0
-65.2814861610627 21.9488861087135 -7.08129723486507 0
-60.4727396997596 21.5885807572256 -5.57742642932076 0
-172.38729395493 22.0211215573308 -11.6889467474361 0
-101.003212936123 4.48515872615479 -14.3056307481543 0
-150.529280289565 -2.52169856565671 -7.96242631835612 0
-73.9221214517027 19.0473952843205 -13.3868562839637 0
-1.22851537517191 10.0908650116104 -22.2865115473892 0
-90.9924113775935 6.86166107175098 -15.8345617302413 0
-134.958693037202 17.4269983074628 -10.3117067072303 0
31.6446333704131 -4.93092604687943 -0.881464637375274 0
-187.509521037048 8.86405648652025 10.1625997308491 0
-193.335398717233 30.930516708291 -8.80089212878915 0
-66.1538089437643 -1.04019348623422 4.62147762270912 0
-177.265962368179 6.6748405288927 19.1554580528653 0
-159.661620421898 31.8151689376961 -0.284255161930164 0
-214.627943703422 -48.247531105389 -6.09638647000934 0
-159.338618504526 4.00031422206126 -9.46841892580198 0
-168.425610878311 30.0580162104743 -12.7374753116129 0
87.0298663343072 0.245693553823365 5.70064086090423 0
-218.274797974424 -18.9149852242001 17.2707193625586 0
-113.169364696576 -0.933620484429255 -9.30363121089419 0
-38.4606852454847 0.768982759891936 6.08465586625635 0
-49.7718717477973 3.33102159138477 8.15646274730079 0
-203.194534368136 -0.550657420490389 -4.17293868406083 0
-175.871532098267 28.2168676428602 19.3824498344609 0
-186.589636491238 18.0370674776567 22.2280550740396 0
-20.6085269380264 6.87270169349627 6.93292362656402 0
-208.997599295925 -5.09047015758601 -3.13975574173988 0
-131.305171624255 14.7889378838021 -10.826242458711 0
138.918110276513 7.74157316938748 8.52014112768939 1
136.778292207273 11.7820724701392 -19.6680795226229 1
-147.976121621481 27.0299281360736 9.57118384025796 0
-221.627079764009 -40.5552361649333 11.6860215014723 0
-117.133823122508 18.5171899987898 13.5591488356549 0
91.521839314063 12.0397113843953 -19.9872610438699 0
-195.12763130506 -6.83017641205577 11.9472695307472 0
-157.296756713266 -12.8313731825513 10.6832879956986 0
-198.884163338096 -12.9657931840831 -16.9332290807017 0
-91.672776411236 14.5480254185715 11.5682042187636 0
-74.0734406093672 0.0853224988014783 6.44493113650972 0
60.335866071596 14.1856222715808 -18.8213729668344 0
-217.461967931699 -9.03600341158522 7.37260988095554 0
-137.358355695826 -5.32083605536561 -3.85719010895515 0
-138.207922809 23.919423658623 -6.79829222587618 0
-130.730102402697 11.6740514069275 -10.5436316877815 0
-191.35489601119 20.3139254153833 -15.5134707286221 0
67.0100716530408 6.40049920093547 6.93131175765686 0
-203.230153970548 -7.45847241245798 9.0219461713913 0
16.0635660859935 -6.40450668416123 -18.4402665179907 0
-201.462599048562 -23.6288760319382 -22.073508042789 0
-220.105396153927 -18.7611661886763 -16.4576443934439 0
-185.081576232686 33.6323444860537 -8.38057900861869 0
-17.7907959705839 4.71171956262642 7.29128825569437 0
-195.002011069552 9.4168940495656 -11.4633653569671 0
90.7528938982219 -2.39124247790703 3.82907856291969 0
83.1403130122604 -2.00576582454308 -21.967472506265 0
-227.489764890883 -29.6045290051658 -9.27105075691779 0
-129.060112475166 14.4569590252172 -11.0530186701758 0
-199.553289888515 26.9171132304794 -9.09849060382436 0
-59.7484489928779 2.72886735342644 8.51603050156995 0
-181.982868524585 24.5878718677443 -14.4699730979232 0
130.43051540904 10.7489514426141 8.40123964443215 0
-91.3892017073955 -4.06127732751602 1.31071390882246 0
-177.033542966371 40.1487999669501 -3.61885900125131 0
-73.1782286602098 21.435962720502 -9.88274993133294 0
-122.047078574584 -2.9997595390859 9.51998437876268 0
-203.198765620483 -30.2880099928967 21.5677468653124 0
-183.284042433618 29.6181023571325 -12.2957420438618 0
-130.746173669287 -3.95151856160817 11.627421110393 0
-198.614513367794 17.315693319124 -5.18939798255792 0
-201.350162886617 24.3087210637509 17.5080971648224 0
6.36310838020486 15.305800420211 -19.4015906240936 0
-105.021166337381 23.5831496400043 -4.59912142152475 0
-157.700710746529 -0.76362133879068 -9.52870101341194 0
-219.92397785075 -38.8150512233363 -15.3673395556543 0
-220.202226534153 -11.4201069968215 -8.87445044427606 0
-203.374237944777 -5.16772791884022 6.30102060668214 0
-180.457268967652 14.6611886032863 -15.4831649490292 0
-221.357602701445 -33.4682367078674 16.3314024716671 0
-206.96635852473 -50.150306287067 -6.01139115473512 0
130.932062247826 18.6855110979313 -6.29504763534071 0
-189.733077609623 -11.1658551173025 -15.1077349797557 0
-102.954917747836 20.9107587014884 8.529572498037 0
77.1543978096524 -10.1287316967677 -7.82525976145283 0
-198.979013768763 2.45892689913889 3.04489230127829 0
95.5159321181711 -12.0970315955681 -17.0689751675852 0
-1.02239858896025 18.6699575583642 -11.5949391875033 0
-3.34924751821265 -3.13835112818607 -20.1080898673144 0
51.1638961056282 -4.52357036113829 0.83858968608679 0
68.0034164876414 -11.0584747985149 -12.2613664870289 0
133.922934982648 10.9401232573637 -20.2795265408335 0
-228.29420355466 -19.727701092136 2.12395712338546 0
-57.0839280690153 15.556714365473 5.76953031649122 0
95.264742037572 10.1757053494779 4.06861654992974 0
70.6417045799072 -3.97984207194183 -21.5717394124668 0
-106.034953351904 -1.27129601017215 -9.55968130716362 0
-69.0853725457937 14.6532721386534 8.70205006029198 0
-200.102818622207 1.99828533641003 -7.33219520985038 0
-61.8012180177399 21.6470066450572 -7.9991259069651 0
-188.002690008046 -37.0650221800895 -9.88182567569075 0
-223.978624669901 -17.7615344000922 11.1593464425853 0
-110.777819362491 7.27927049527506 13.0663591242469 0
-134.068961200162 17.0746062871071 17.8016194931276 0
-174.042770057874 7.44065992817593 21.593637183039 0
-149.393354519989 23.4925174763134 17.6893409381138 0
-103.209436811922 9.47774469468832 -14.7980971527962 0
-206.842059507565 16.4350359151063 17.4022217290794 0
-192.072170496858 28.9350139447363 -10.6284645466118 0
-213.661436513187 -47.7710917006759 -8.78765962841961 0
-77.3931405767818 -4.62923057864166 -0.174676197635406 0
-194.503635562695 14.2105105261708 -13.2654793719456 0
-110.850814950214 22.9335303686445 6.24144167250683 0
23.9524153538118 6.43168467128811 -22.571164678699 0
-74.5863711933333 20.3087571971507 2.94900356751432 0
-191.270836476277 -22.1505034901512 13.930287219519 0
29.4063039836249 -6.12557958776539 -3.12315223700185 0
-197.362175867882 9.16294870486175 -8.65811621126768 0
-195.936391065581 -38.3628890187845 -17.3404072465262 0
-95.6695404278613 16.0071988380166 -13.8780601169043 0
47.3786705502405 6.54142289830002 6.74098994863355 0
-155.151037699898 -2.14045655911095 22.7989276177244 0
-225.765050498877 -25.1150248388571 -12.7711295594579 0
-123.547822997971 -4.41169266070394 7.73332226672603 0
-63.5173370332246 -4.24403135669008 -11.2389536761449 0
-203.807635434851 -23.5757672764178 -22.5446074878849 0
-188.30166654075 -7.01183749144613 11.9121041721588 0
-225.161699376529 -34.3053487413462 11.5517280078457 0
-227.218121946098 -32.4432167457424 8.7196240989589 0
128.025788303659 18.6892460158309 -6.83395030312973 0
-124.599393325802 -3.32009427847329 9.76923199076066 0
-33.478637611011 3.2061196692187 7.59969530520372 0
-159.306942662893 -10.6688211883703 19.7221083253329 0
-158.513082140033 23.1499413177526 -10.0371479047344 0
-229.096689382948 -30.4492895995877 4.02231748744537 0
-113.723252250219 -2.78934967781721 8.9005095558564 0
-188.007479901914 36.3351600216344 -1.90131396942254 0
112.611905581044 5.90641419198369 -22.5576287241273 0
-178.019722898642 18.4255210145535 22.9125229909118 0
114.294071128873 -13.3302337850632 -16.0798374640764 0
-11.9613425128804 5.29636946603488 7.44659699309577 0
56.5749872527404 16.028513816785 -6.62716210628555 0
123.267177432797 17.1658198064521 -2.21671272155659 0
-186.703495662738 -39.8557658944476 0.71898446878506 0
-179.123349606436 6.92455994864194 18.4874446285909 0
-151.247734791958 -2.17297680512558 23.1598244748105 0
-229.251633005922 -22.8065065801178 0.846595923730122 0
70.3409188573716 2.34769997795711 -22.3162386437818 0
-199.810837373149 18.8253586340781 -1.75457519504615 0
-180.755200742802 22.7031406184229 -13.8750857192636 0
-178.224581026145 -0.702065181440484 12.8692208762088 0
-149.717258158371 15.8841582817129 19.1723599595469 0
89.2028151585102 -8.94198803806378 -4.48579000207492 0
-21.3776876480138 -3.95864859721015 -0.303487194252784 0
-202.350903935737 27.9238580719145 6.27141839383086 0
91.6718226699191 -12.5052655675184 -15.3385575742536 0
49.5427903281794 -0.489341392708978 5.51915162939845 0
-45.8926005041792 15.2878781601124 3.66665722077583 0
-34.7369662357147 15.8287612201 1.38378503441166 0
83.265107690158 -7.69697083116408 -20.4454802157425 0
60.7699433217912 3.34087477286238 7.34069703465572 0
101.091083115802 -13.0410306064022 -11.7936779820496 0
-164.236563830248 6.01362341218784 -10.9522263195693 0
-211.569631720849 -8.28731981063373 -12.8842553843759 0
-76.101204520015 19.7373113167003 -12.5146232456881 0
41.8289667878839 5.14930129847897 7.36216572413245 0
-223.540839220849 -14.7940700597897 -8.93518608467014 0
-91.5566719570244 11.5206677213815 -15.8303512465664 0
-162.147205107358 3.89435329900182 -10.1547930719095 0
-11.6710669765247 18.3868959303303 -7.24323556352255 0
-181.040047689944 -4.78844278187124 -10.4698424791105 0
63.2580240678308 7.1995409392403 -21.9023092181946 0
85.654664267781 -2.18922126610737 -22.0134912650733 0
-78.1361276909545 7.94137549272959 10.8722757271859 0
-161.6029976218 -11.0819001086202 -0.137456465505799 0
-38.8089645184056 18.3858281992431 -15.5603773180854 0
-86.6205526926368 2.00479434119891 -15.2967366258806 0
-134.249821660679 4.90164029498351 16.8583384688873 0
-225.029611510425 -41.2500953595507 -3.19215995074131 0
-147.225080955313 22.9004310908696 17.7233718150337 0
-11.0130867384465 7.92039286744968 -22.4921984453045 0
55.0441815672646 -2.75652911907317 2.86775739730269 0
-171.177360573479 15.5395878877609 23.1796925611351 0
-25.4295849498277 11.1700851893251 -21.3703219506726 0
51.3673626637615 -5.9803768104704 -20.7768741059196 0
-165.546142079218 22.7549669733555 20.1394836349032 0
-94.1395293544523 11.3182998707193 -15.6234343318717 0
-110.352542485584 17.2561105494719 12.8822654131145 0
-181.452052705283 -22.5089775839631 -0.286002392561666 0
-88.7572657244421 18.9025179019124 8.22293317023982 0
-136.038601602812 12.4590255271284 -9.83031869848046 0
92.9212882021488 10.7675869911156 3.28693392707722 0
-210.542114686888 -46.3678836485269 -13.3848510404461 0
26.3104773844663 -2.09275676448675 -21.7718161627758 0
37.3144314540362 5.31274426669463 7.2050702255901 0
-212.070246847599 -40.5628114578543 17.5585995464408 0
-220.481661729519 -42.7520089719545 -10.7751767590518 0
73.9688056390783 -6.20891237864896 -1.01686651601085 0
-5.76211935762943 10.0153046649633 -22.2045697708943 0
94.9777013149374 13.5108962958825 -18.8361456504237 0
-38.9940789153642 0.257425945197491 -19.7955242405095 0
-191.633624918616 9.37162020789081 5.29182326372194 0
124.551645339204 0.965401444944771 -22.6491384892909 0
26.7498214989677 16.1553892832398 -17.4705656531622 0
-161.27838496757 21.1126616623934 19.9082151394167 0
-163.389817276011 4.47826850679177 21.805888627188 0
-176.792640754236 30.3156711106682 17.9549112330722 0
-12.3899332054046 -0.455770104733935 4.30864329725516 0
-201.998080731308 24.5104374047474 -2.71200615787282 0
-158.155974303029 1.90457999812631 -9.0055466572378 0
-165.257899793744 0.843837403347643 -9.80360111200487 0
-74.1259220889759 21.9101054075714 -0.790810922653802 0
-186.765466177743 -26.4159632083202 5.50793182186441 0
-157.312836686291 -3.13202095706479 -8.89346850825932 0
-96.9745610780822 -2.27251034305018 -9.40384724486249 0
128.475682419723 -15.1502021650068 -11.8019064375381 0
-209.337255404472 -5.96016631536832 -5.00351152153991 0
27.6072046803649 16.8178090965192 -7.81202981065614 0
63.4732742902437 -3.31699403645206 -21.7658325898195 0
-91.1462983308302 23.6082415477347 -2.31022668549361 0
-135.333745434524 10.1738403074477 17.1241105458423 0
-106.84556630496 -3.7498313891816 5.17996876327912 0
-207.371360134731 -33.3928035533916 21.497828634857 0
74.596893594331 -3.7845537926864 1.93508942205001 0
-210.143759397628 -17.2048410961684 -20.225974898348 0
136.199729997853 18.6884128898617 -4.4470870519941 1
-208.791632872382 -23.04473350064 21.5858542806864 0
-126.66524393806 10.4679449556544 -11.1418778024788 0
-177.701391069351 -18.9450595371057 -1.76475106534231 0
-199.464557310236 -8.45868373186153 -15.7403134893205 0
3.37967045877554 18.3964544903214 -13.8308322683986 0
-227.683934449733 -20.2303764271454 6.0471435468244 0
-67.205427579515 20.974469395414 -0.272833333596869 0
-50.972471975181 -2.37411944852815 2.56950088343141 0
39.09776520252 15.7866434923327 -17.635762797309 0
-211.845848050847 -22.7755988293407 -21.9488066601618 0
-208.126347169396 -19.0283015083534 -21.292396446853 0
-179.562866910415 6.07260108417784 17.0422671379947 0
12.1524562919174 -3.80500296175517 -20.5817081746485 0
-205.190912987978 -12.2007907739909 -17.7818019938921 0
-189.205833901406 -7.78191606874741 -13.704520951758 0
-177.112327827532 5.26591356084786 -13.0286553856624 0
93.076746361604 7.62214712001667 -22.1729466651688 0
-24.1999541615623 17.9264914159874 -16.331567154113 0
72.8671744442077 5.07283953245655 -22.2480180804075 0
-29.817816043826 12.0236573723115 4.26700049429304 0
-199.37071504044 -25.1491780083647 -21.6887742570101 0
8.04682606283791 18.1244622237735 -14.7553127387231 0
112.094347197103 1.7185981933352 6.11417902334677 0
-164.984259482584 34.2838482413399 4.7148795472591 0
-144.882869790192 -4.02619349297139 22.244638273692 0
-192.248176964063 -43.4465673310119 7.95890454949713 0
-156.490967647143 30.3675628483694 4.05997151324424 0
47.8307097778923 11.3574872958322 -20.8781124794866 0
-97.3934752162276 23.6739428158822 -3.48474949833345 0
136.878331021339 0.269506003794645 6.09137073321728 1
40.2755591459015 -5.20020295506947 -0.621642049481012 0
79.2477009212073 -6.12835680486318 -0.741904123973289 0
81.66913987543 14.5500236405485 -17.4814113610633 0
53.9546438920287 -2.1712093623204 -21.8629603303797 0
-178.118934431878 34.4871746405622 -9.54791581133976 0
-166.875081417488 16.1595896117017 22.3163764163329 0
80.5733678607228 15.8065370765219 -4.88836324592032 0
-219.691109818409 -32.0381980007678 -18.7943884099641 0
50.3372941425321 -8.53993926705952 -6.86411687244809 0
134.122148046638 -0.32686789007023 5.76164059441892 0
89.0008046174081 -0.767785304448327 -22.225769617008 0
-212.831492592431 -46.9038435733704 -0.647422870009094 0
-78.4542966708137 5.23224213314623 -17.1378304352234 0
-224.4441076764 -26.6941304504981 14.2396818860866 0
106.363221349727 -11.4674557359619 -6.67705524791884 0
-216.719358789055 -27.5759591017673 -20.9007827684942 0
-186.560897497075 15.5982527895447 21.8464714390783 0
-9.56902185282659 4.49870688867072 7.41383900355498 0
-36.6433511579372 17.0623835911275 -17.1751066521924 0
28.8069033959433 -1.69986920992884 -21.9741644334924 0
-215.001480769565 -46.6132069491358 6.34181131562882 0
-178.153681769015 29.2292435188835 18.7619006497734 0
-195.087500765715 -2.68181917418024 10.1353924594834 0
107.237562390809 -2.22020507398703 -22.1168743140491 0
-117.981855196373 11.6138085798918 14.8088667439786 0
-121.634950536329 24.9223441727797 0.691469920060651 0
-196.917397564051 -33.8449140374595 -20.0732091042368 0
-199.368856818279 7.94796299397793 -2.94388825923776 0
-183.56712281655 -18.027493338485 9.39480533145188 0
-113.552107950993 1.67256152221486 -11.1590355751434 0
95.0520832583604 -3.11665297750524 3.40862060508215 0
-72.6591751796018 9.51539669006615 10.7793963990113 0
77.8916560241695 -2.50472378796579 -21.7089352373283 0
-188.726915124007 10.9497803201245 6.04277735389132 0
-166.155906915207 -13.1886620885092 11.45073157856 0
-160.92188430921 32.2756376918668 1.88741418279326 0
96.6519812456231 4.54038885803557 -22.5815931019093 0
22.6750902660506 6.7946254842313 6.70069112361788 0
-54.7258648978825 -5.47577824184327 -2.6358145211155 0
-193.052787587225 19.5121704973137 -15.6699202417505 0
13.0610698944474 0.856660894856952 -22.3782846103563 0
-170.761608804797 38.9334830078577 2.458721993961 0
106.570103611432 7.85369436642712 7.18570208473177 0
-16.1657436915457 -6.7516763382841 -10.1166850805738 0
-142.178550292092 8.74209494385506 -7.96189066618656 0
-221.85816150646 -43.9506454357517 2.92817390631832 0
-181.342642041523 37.4279978510654 8.16203358771629 0
-52.5572029418236 -3.82549932034341 0.589965924317174 0
-174.34582190916 32.413186150615 15.4402207471834 0
-154.197608756038 29.5852181035083 -1.98698289839965 0
-178.195276772458 7.95447022967262 -14.7085201256522 0
-68.1524743439879 -3.95155835473905 -10.6553216645887 0
-170.874006988595 32.7620630192994 -12.9104667523446 0
-57.2277612035152 4.71737008765232 9.17184112220996 0
134.194831184836 -3.35901401505397 4.40197015155061 0
-190.889079835721 27.9502437557405 18.8192524977787 0
61.5684410006044 -9.22830711892536 -18.9869718925919 0
-204.978102744 -11.0692633407324 -16.9852864126924 0
53.0826631568575 11.1845372544471 -20.9851376547682 0
-151.852219545596 28.4747799965658 -3.23390967412328 0
-20.1359714756751 2.26008403891003 6.73707419717404 0
-192.21188422788 -7.0710513814021 12.2817442255138 0
