-196.382711986927 36.4699380993849 -5.94959658516253 0
-145.593741023148 -27.5798784865418 -3.58467091939921 0
-94.966397415146 -20.5738028567015 -5.59082625523086 0
-93.4601387656649 -5.20214423508576 -9.26869716229684 0
-211.417955324369 34.3718390593744 24.4220364209661 0
-159.380443857411 -17.6035478594136 9.59158222139237 0
-236.259940861174 11.9601464835273 2.92140249093675 0
-202.118339405167 -23.0348439796824 11.0990317523598 0
-226.698035460202 4.10124836429142 1.83047569118456 0
-204.179275582295 41.5574508221374 16.1525922767136 0
-159.871209833802 -24.8258296677496 -19.8632419443069 0
-221.101020367776 45.1204793003828 -11.1256626898311 0
-68.1429085612426 -20.8371903565416 1.49296675203175 0
-20.2683156009351 -10.3414125551025 -2.81032459957364 0
-62.8702932737451 -16.5965569237635 15.051605514842 0
42.4235912488539 -8.05890390851664 22.8971547064916 0
-216.88659200504 23.5541142545251 26.3849122580329 0
-236.556240650873 29.8783534697315 13.9225427821078 0
31.2213229047052 -1.14395494484283 -5.42098122503815 0
-152.981866750116 7.29255009570791 2.69860168972224 0
-209.445890590937 -1.4996910331057 -5.345148513204 0
-175.539207438173 11.0256946686966 -13.3804124475275 0
87.5856063772493 3.76052303837246 -4.30943153626991 0
-17.8068589454399 -11.061385106388 -2.27460907677853 0
-154.531658072593 8.0982204265737 6.15046499807019 0
-161.405405903097 -7.79165259741285 -24.8905279494815 0
-163.25428242729 -29.1355152667446 -15.3301211382576 0
-52.5401681704206 -20.2165352531103 4.9152637717236 0
-161.168550119647 -7.8048104767548 9.91165176176228 0
69.5807295681858 9.32783284223373 5.13472414384463 0
94.5094043887458 0.885796739196407 -5.52901481255961 1
-231.576892987345 36.8813657130341 -12.2635854336204 0
72.4780842892646 -16.8986808206322 4.1513563472842 0
74.8602075074933 4.97299302077736 -1.41306095747126 0
-81.424415093577 3.39911882613646 11.4851078353864 0
-189.283570677345 -21.6235873789669 -28.5632368006971 0
-207.811462961742 -33.502963716599 -8.06401108599952 0
-212.007996311159 10.7515310949048 -15.8989985384333 0
-204.784736213003 16.5065233006002 18.9380107615315 0
-141.163245425718 -24.3630538407324 -13.4398181072877 0
-210.07490215502 -32.1516718121113 -4.65542884514704 0
-147.303853763307 -21.9889371350014 -19.4876604691451 0
-202.159812597147 40.3952273202393 15.6270452722102 0
39.0686626720226 -16.6938978521296 6.83115395224714 0
-144.13423403316 5.12080767462536 -2.36243890519819 0
-210.71357869386 -16.6421340795045 8.6201492513457 0
-149.878095482547 5.8736455935476 6.0128819527548 0
-122.120686542101 -22.5186217989167 5.86747543747934 0
-72.4417046015485 2.36736889720133 14.8429458030477 0
-53.3123981044566 -19.3556447351279 10.5951222349072 0
-52.7400661600071 0.72009731254068 -5.59929271412692 0
38.154367085169 -16.215074977259 14.8412043473655 0
-35.8831579218425 -6.48658497699028 22.1274476337465 0
50.1066125648612 7.86076075680767 5.5627500866988 0
-189.172863739798 -36.4753884952273 -14.0140838339161 0
-88.8027958740058 4.06262029651321 6.57187247666758 0
-153.460168349474 7.52190245793237 -3.47668061790613 0
-48.8818314335869 -4.0403739866997 21.1615487929869 0
39.2722506577552 5.6250911871402 21.1859783630331 0
-198.82604966087 23.7862093106473 17.6351137184874 0
-196.401728519751 40.0271991369857 0.759014124446052 0
-123.473135164667 -24.4171944459092 -6.90489083944396 0
-204.290104037882 -31.3963119960092 -18.5897339051149 0
-153.194906394667 -7.52035362549273 -22.4287604700615 0
-174.593465723798 14.6304178242668 -3.5780646201112 0
-1.39416946708768 7.56661430330922 10.3563193002503 0
84.3000331606962 -11.0569853790164 20.9801087667035 0
-191.537810301955 -35.2631661843021 5.86629069633058 0
-219.953660419111 5.22046542293297 15.4828566241897 0
56.6234090322892 10.8446669265744 10.7119658200476 0
-210.806193640436 -24.7476871529372 8.61720433038484 0
-237.547198268832 36.948304021841 2.42152663082684 0
-151.487572079745 -22.5447045558305 7.45375139977757 0
-171.927702302235 0.0962142097582187 -24.441703750796 0
92.9831191843864 -18.0908152118328 10.5903892664009 1
-191.275565369486 -36.9344936203781 -13.3989505374962 0
-176.28495201038 -35.6150747186091 3.85255998757254 0
84.9681694515685 0.0486478222397031 23.4813454530782 0
50.4849868788515 -6.43802574270012 23.3741858363267 0
-204.774711987803 -20.62078125569 -27.3591229667913 0
-233.934459921729 15.4578983440054 15.2631961434584 0
-213.678915129411 8.36135962282898 -13.5735849621906 0
-151.539373657434 -0.0152671239832657 9.94715591466156 0
-12.4696475588224 -15.9294179870497 16.9440934268411 0
80.1213853555269 -9.48409132043819 21.9556940232386 0
-226.282047378334 7.31105460800938 14.8545748084801 0
-169.719510234222 -28.1470046394744 -19.6692009276611 0
83.6577310968067 -10.4306587073884 -4.53274548020353 0
-3.93052625510675 -10.5398364046196 21.8958035940024 0
-192.817154542465 -40.1851906531061 -0.656938392751562 0
-205.75760407511 13.0443398395961 18.7010110119418 0
-123.704197057034 -7.20224502572987 13.5909968542368 0
-179.224244530191 -2.40846768214728 -20.7092579776407 0
36.8953013897685 6.68713308338738 20.4091210017917 0
5.73286490505666 -1.33446816796451 -5.73297309928296 0
-174.540644187525 -0.713399224278101 11.901196879341 0
3.02853157868311 7.24678878268742 8.3758526845502 0
-199.064509586594 38.3147390310078 14.2688170499877 0
-88.2442324651708 -3.51102088061849 -8.59730313236862 0
-46.0158902414833 -14.2609716626144 18.2123598252205 0
-181.12653492765 -39.047962493103 3.12502017845838 0
-72.2179475169959 -9.82963574578481 19.0375646057536 0
-149.215206218348 11.8997044731097 -13.8933222961044 0
-99.158796309695 3.95525114291537 -2.13007418380646 0
-81.4430694680443 -9.53832263466411 -9.36126718435226 0
-180.69184112671 -38.8637820327035 -8.65069512695823 0
-23.5027253703807 5.44181233923675 17.1318629866865 0
23.4522413378793 -16.6057070636781 14.1590988658446 0
-185.12830736234 -10.9416427554988 14.2206474265057 0
-141.837422996296 5.67420657857444 -5.15159062025891 0
-136.303507561601 -2.63092407802207 -17.2160455885869 0
-192.31510664738 -0.487846448441746 13.0656244008645 0
-47.6792331274935 5.89997334756678 9.81265481256289 0
-87.2435753007356 -20.6016516456258 8.90049738964425 0
-181.103108767736 -6.95066993870478 13.5032271654523 0
-186.508671384491 -19.4310875119823 12.1877196364466 0
-218.005190463959 -11.0935038710512 -18.335063103218 0
-21.987807547754 -5.16337084290931 -6.05981100631548 0
-133.666347556788 -25.0400592899198 1.55433145385149 0
-166.609188618798 14.0702503984982 -11.335794981981 0
-185.963643143451 -4.55140602960004 13.4337917542446 0
90.2977955235698 -5.36257608798674 -6.75275973573133 1
-175.865044733431 -36.6971505792348 1.96316767524025 0
-170.355237307363 -1.41202344894929 -24.5545509545982 0
27.2478541827026 -16.0424046796017 15.7066935009523 0
-17.0829961647492 5.39213036335606 17.9912079092159 0
-169.144553593404 -33.531657305089 -9.91068503993592 0
-96.7192654084906 3.28240474235827 7.98401935012423 0
-212.727547794059 -2.68629423657202 11.0866634034563 0
25.7281838694442 -16.879710885759 13.226651099103 0
14.4939706426261 -13.432099375744 0.665101025825258 0
-214.979258128428 -10.7938877192954 -25.4033378766614 0
-50.3826874239102 -8.13684098390895 -7.26383993344156 0
40.1542060258745 -17.1650962399011 9.82877710277879 0
-206.359747596012 47.0430084592442 9.18304528548691 0
-162.679519419607 7.26645514757193 6.21109013169312 0
-129.077621707178 -8.63319135320719 -15.5907475887727 0
-120.413016896911 -24.0945393242872 1.81559232883612 0
-72.4198203936256 -3.80028253331777 -7.96368620960269 0
-15.3992185295197 -16.9850715362285 15.1472117902386 0
-131.802916232096 4.7844326035305 -3.25483397140387 0
-55.2445004940273 -13.3822698655667 -4.94963217800413 0
-174.895844938373 7.12602231914694 7.79192388995169 0
-94.7812440794367 -10.4370475743642 -11.4891369329074 0
-0.320910418855196 -6.05126480090845 -4.93693596018569 0
-21.97994286387 6.99232127402303 12.2445310923827 0
-54.6859310880248 4.65753266523877 13.66271724345 0
-191.000137258285 -6.01418568783954 -16.6526668338038 0
-141.055573381847 -18.3183720005232 10.1095778680399 0
-208.644270458071 20.8394774015876 -20.0614067576599 0
-190.494625816984 20.7700481640395 -7.15435348579269 0
-227.556318020658 28.5951401649269 -18.6076244792498 0
-33.4288697373788 -12.4080467978753 20.1143866577739 0
-147.888414126848 5.09657020125568 6.29090961966074 0
-149.118494818805 8.45548249853029 -23.5988769007647 0
-131.617289243127 -25.8586684096753 -3.8088995840919 0
-216.360066301398 -17.2322675368903 -20.3360400007086 0
-39.7960705160482 -2.20170036466365 -6.48057123938675 0
-201.184421232738 27.5955122249983 -13.925949593047 0
26.947675927406 -17.244401549236 11.0751081950677 0
-89.8195767934862 -12.0548741986175 -11.2101625835801 0
41.6354294606178 -14.3795601522217 1.42634727982666 0
-176.950711201414 -15.4689461912924 -28.7236957367421 0
-28.7318539272446 -16.3693108157654 16.4120722458579 0
39.8880727069862 2.75327872128404 -1.73231594098771 0
-159.888601817705 -26.4866253738838 -18.5910720431031 0
-28.8590006541281 4.70239741788949 17.5663434971498 0
-81.4794115204794 -15.2585855378194 -7.52694173227336 0
-10.6245162428665 2.12315563188535 21.4658531678482 0
-208.439004724858 11.7543430462976 19.7303573712396 0
-72.7978409775068 -2.13028950526817 18.3320118285805 0
-74.3099011023155 -18.1431101529231 -4.2019469012256 0
-233.744807204458 39.9740267684742 10.6354834849874 0
-176.294516917324 12.0417392173544 3.23719540667374 0
-212.337788113348 6.47940256704815 17.6003063951531 0
-172.386721043527 3.183346437174 -20.3042945053087 0
-145.714346559244 -4.23777365546444 11.1226232917222 0
-190.824742784791 -31.9261720356356 7.12183134225843 0
-202.470449861248 29.5059438235264 21.9389874496029 0
37.7075499854266 -8.036335990607 -3.45610831213998 0
-122.389388008456 -6.44235215683888 -14.1459505426032 0
-212.412094982841 -12.1042420438011 -12.5980782389108 0
-219.315721869514 44.4749132091966 -2.76816438880088 0
78.5964280250005 9.05162612421515 3.50647490191615 0
-151.5885966198 -28.7511983768095 -6.58815135185664 0
-222.999270122419 5.9568382350158 -4.42793032692378 0
-6.32514619205232 -15.7160694866707 17.264018110438 0
-215.056008016712 -9.46187952562688 -23.8016912751345 0
-185.327953090918 -40.9110567914962 0.416232482110005 0
59.7728833542012 10.1584786851123 8.17350534763684 0
-165.167161672889 2.11994682591022 11.4875631605691 0
-179.240859321583 -7.37719392313072 13.214936506823 0
-158.951950790883 4.81969134482112 10.2118386406871 0
-130.254577801502 -25.3288925917638 -7.10322419649862 0
-184.815962795646 19.0172291548947 2.30748913764604 0
-183.000190622076 -6.81308484503036 -24.7671248055457 0
-75.3727711563432 -19.8793749842395 -2.40550266677505 0
-55.2159156803525 -17.612845313677 14.0192352124007 0
26.564901216179 0.523383054298075 -4.47565254786226 0
-182.883078168046 3.95557092261045 10.8231591545691 0
-79.1705396519147 -14.3919765084004 -7.80849218636235 0
24.1244375098377 -12.2781853074963 20.8489627709495 0
-8.62882862816388 -11.2893106968617 -1.70026975710845 0
-28.0594062964344 -10.0012193599994 21.5293212052103 0
-126.204395732448 3.82684479966172 3.03727520526886 0
-141.989930911381 -8.65885634920577 11.8183216295796 0
54.6128747533514 7.13803391803524 20.7262024515152 0
-174.241820489926 2.24011477708433 -19.3560752472145 0
-231.620077780539 10.0706575141283 12.6502695200318 0
24.8639734205242 -15.7581751030615 16.2804425244379 0
-184.564265970174 -18.1291328416182 -29.5400439938927 0
-206.546565644624 4.98350496292283 16.4742992925193 0
43.6782295120988 -17.1631096894166 10.1896523047207 0
27.3993019660281 -3.39277819504659 23.7378358383941 0
-213.316607220479 -28.5238223728529 -6.63669776984937 0
-229.772066389161 38.9358177651163 -12.2846583180503 0
-189.120113791256 20.8365936768795 -0.21999599817008 0
33.2642256505218 -15.2183919264172 17.126193684777 0
-196.981283970298 33.143947594117 -6.60699322801501 0
-205.826784783928 16.0652302843767 21.2409743231444 0
-148.903796089727 11.2187276090391 -12.1442570465508 0
-134.034495220383 4.25732315433341 -10.0759685369575 0
-143.550925924832 -23.044380162125 6.37632976061833 0
-215.172118061247 -26.227221590891 2.46121646468877 0
-202.015039936891 41.5370088739139 14.0447478386023 0
-200.266394084582 17.7883719246326 14.3202837560286 0
-43.8253550995423 1.71342691527045 19.2287142996182 0
-14.8454558611638 -2.26133089595784 -6.35054164113685 0
-24.9268780533721 -16.1705722247903 16.6255677290915 0
-228.122027036343 45.5177814926275 8.43402112270678 0
-121.264756264141 -14.7237788577116 -15.7005574953999 0
0.573155544866944 6.64798733151628 17.748941907475 0
-54.6232750132869 -13.3886403142263 18.4760533960626 0
-142.813380246451 -2.28349530109334 -19.3272697335262 0
87.629556018186 8.97560962736321 20.3774721267297 0
-188.662137180604 -29.7352298631933 -23.458396560035 0
-147.238895021509 6.39722089177187 -4.82872428203616 0
-216.08851816063 -12.0106240244762 -24.3143608070377 0
-193.418485731141 -4.67741875383102 14.355706528351 0
81.1735159472878 5.58448658687682 -1.44884708849209 0
-3.72456725084361 1.79058122730758 -1.94050395459515 0
61.6007322170294 -2.78742680124415 -5.78930939981791 0
79.1584763158553 5.23368006301547 -1.77343172660503 0
45.7284124716261 -1.76834076303992 23.6045857690519 0
-203.096512002625 -9.81325058269236 15.8418795358469 0
-202.537158911869 1.52228843882004 -12.1754268718559 0
-70.6788635694746 -17.648147105893 -4.02031648604601 0
-201.870644163776 15.5581889194284 15.9436174031362 0
-210.442555544144 49.6009558886812 4.26083170587517 0
-17.8358622966237 -5.08443694500097 22.9512895834111 0
24.2794236723796 -1.2379186448557 23.5112971288321 0
36.3667742138705 -15.4363662653237 16.6277594887253 0
-206.531827703834 -19.1379330231744 -27.9722051376607 0
-206.649890576884 7.13225983413925 17.1333818607963 0
-215.621376120203 39.7642345800204 21.9863709269962 0
-123.27513031671 -23.534746333091 3.8536953121043 0
-6.46250330243979 -9.67069954556568 22.2303584432862 0
-159.675272936721 -17.40132651452 -22.3032135011523 0
-57.3164465958912 3.34931447267683 15.71728306305 0
-157.673053157291 -3.6778922602831 -24.740373417375 0
-97.2529270570505 -10.1370129343613 -11.6005038559371 0
92.5745219926694 -12.8213450261709 19.4394094173572 1
-155.552247988512 7.49393976373726 4.73122363370764 0
-195.277455330644 4.08749618337963 -13.1723583659693 0
-15.3408351047891 -9.88775447096813 -2.89700222336515 0
-154.63784484881 8.05360494948733 -26.3856318903717 0
-84.6434339082744 -18.7548818733909 -5.64601940645553 0
-182.528647548789 -11.7180010409681 -29.1887297453185 0
84.5945768421229 13.6390331789013 13.6199306409732 0
76.7560339238422 9.82341905990731 4.94108403939461 0
41.637064393617 4.69197496619342 21.6820562232294 0
-150.956437005657 6.81504397206121 -3.25692080371513 0
-178.825657777037 -3.58661449529836 13.1634600408179 0
18.6807206202026 -12.0842895086399 -0.510842126365316 0
29.1579203292114 -2.70830194077217 -5.89571511727275 0
-168.779007289247 10.7218553725211 -0.670178845697964 0
78.6519781820678 -7.79183516484975 22.7967056555497 0
-137.668423782985 -9.46019607196755 12.1264938495291 0
39.1629466112594 -5.28434293894212 23.6052953354374 0
3.65808969749187 -17.0264162454213 6.60361286919042 0
-212.950592019058 49.8482951857065 5.73964743586195 0
-96.4315296197456 -22.1622355710839 5.90247573730421 0
-59.3689181761196 -12.367716161388 -6.58529701531975 0
-155.080593244698 -27.2300732559395 -15.5558378462062 0
-204.022559498356 22.0334510074697 22.0855427449325 0
48.0277603457807 -2.66751806411189 -6.02432717548096 0
29.0017642562492 -17.1568268616953 9.22442719065469 0
-190.927806942414 -35.1624273112503 -17.1125344395816 0
-203.997723676368 18.4784921634301 -15.9258342085867 0
-214.568424045307 -13.2652139537686 -11.1119229397802 0
-227.648092882711 20.2650114349634 22.8888187299462 0
-61.0001917348548 -17.5833601151563 13.9262344248994 0
-202.766524536756 -14.3358856145267 -18.2410408261636 0
-202.081346508873 3.72759155985987 -12.6145288927807 0
-195.054332121885 -10.156584422237 -22.7655460560392 0
-224.34661225227 42.5761502868417 -12.7745348810679 0
-166.530022805056 1.53898860323123 -25.5012673764659 0
-149.073248081646 5.73272740429585 -0.774083253387086 0
-197.37357976505 41.1900435429961 -1.59348185887098 0
-180.539604892025 -5.12582385142406 13.3583671851467 0
-209.742723030005 43.6475123750974 17.2671077272835 0
-177.805416581142 -32.4618691466607 -19.3849223340545 0
28.5696834004878 -16.776619448464 7.16448732011236 0
-42.5284740454039 5.73700900630876 12.9763491791687 0
-4.09743690535965 -5.07705608605112 23.4341735564829 0
-53.7600380961311 -19.2861470122508 1.78080862786976 0
73.7425336189984 -17.5225826844643 6.37457556510763 0
-123.347329272624 -21.1285482096356 7.93206318971397 0
-212.216664047006 9.17018169023894 -14.6033335809702 0
-170.419295312818 12.6333282578706 -2.76393040942595 0
-53.8935533664622 -12.51818278012 -5.64864551053582 0
-224.969299033883 26.9629736372344 -20.091147919269 0
20.7155218007621 3.20440926895167 -0.392385266798557 0
70.978780587619 -4.64389265268056 23.6554044961123 0
-223.676616477952 21.6693761421914 24.9429957540315 0
-75.4716244471295 -21.7112347738845 4.41462876800998 0
-104.065009312158 3.6872567354123 -3.05868597166258 0
-197.80741895475 41.907699147368 0.13328667137369 0
-212.929503979062 -25.127712294323 -19.5703104376259 0
-13.7819731274002 0.00631442181733449 -5.80247903515062 0
-222.177645664775 20.3983713281616 25.0427188278533 0
-181.88792247949 -2.00498389716943 -19.0704686489841 0
-11.8766883897403 -1.97031659081184 22.9673918313194 0
3.24818121909097 -5.89284602793398 -5.03073749351378 0
-133.23967965064 -14.8420147889226 11.7846906976757 0
-214.685176424485 37.4035538812989 23.4457429912826 0
27.6084110931372 -15.9729899690123 4.6860049257626 0
53.093220521516 -16.9597166976521 11.6790933569856 0
-51.3108120588001 -6.05373728535637 -6.95095118145754 0
-197.277705546072 -2.14161410298035 -12.1278244261297 0
7.44443186713472 7.46218985219721 17.1014180122766 0
-206.10180818685 -28.2120883431033 8.78005184808905 0
46.4724473931398 7.41144102778341 5.24091223562896 0
-103.799388681146 -20.6100727079853 -7.70979341521078 0
-163.258986857378 -23.969001658393 7.35583618562408 0
-208.173120292323 47.5392673676613 -6.03803504024767 0
-152.643485333251 -17.0544601785455 10.1140197341449 0
16.9290866311376 7.12494841490816 7.49160417728045 0
-208.567587272408 49.0419974919245 0.432315967716808 0
-145.568657007566 -12.4961121925712 -19.8853007357887 0
-193.754059873222 -9.40748910380837 -15.3696448821835 0
-190.399430685794 -10.8639013330016 15.5938878424842 0
-201.508356964408 39.451346224601 -11.9189369031984 0
87.7002300223848 -15.8291756090477 -0.316251402268059 0
70.1819445603434 -13.079493510181 -1.42387846357743 0
-217.367239020689 18.9213476693403 -21.0543121948008 0
-205.797705848276 -33.7290306094701 -1.54770221505536 0
-197.70801254664 -28.9731018987282 -23.3942870390362 0
-124.014165652336 -15.1375572226538 -16.2341139991547 0
-232.384086154838 18.6502004184817 18.8198209235288 0
-187.034532419377 -24.6023670113716 -27.3771420612044 0
73.5220586435211 11.8839122809655 9.23815453146131 0
92.936140631194 -0.601181772279939 -5.79844266196063 1
-187.418358038611 10.6590211215591 -12.2019438290502 0
-149.159306062379 2.55754161955686 -23.4483897686152 0
-219.368726997179 40.8760426509659 -16.1522870581473 0
-236.857097601315 19.9846508396021 -9.11277259950587 0
-201.770100101724 21.4683420835978 19.9001870634928 0
-237.900922853788 20.1897963812188 11.2344135488884 0
-187.102208781322 -10.9601608394334 -27.8379739132308 0
-30.9578639284702 -3.9067619876293 -5.91783936204468 0
-161.971333720143 -10.2356246523896 -24.7889792407716 0
-208.395218905447 -10.7772007214138 12.3694033841876 0
86.2640980267443 -17.5783765860104 4.04979532976173 0
-231.712307374605 42.1071726058791 10.901187416182 0
-106.853291508907 -2.90427223281306 -10.1294188253874 0
-197.084540553014 16.0496601773614 -12.3136194118881 0
-199.436277258549 29.8394496793891 18.7048184246063 0
-130.65893007086 -4.3780591687766 12.6982569181081 0
37.7422359620354 -7.9080082656667 23.051126809608 0
-172.029889026191 -8.67343594863835 11.3775506609898 0
-12.9937482761278 -3.8775349898207 23.1699349615386 0
-139.934075203464 -20.8678032884899 -17.7038236166346 0
65.5467878027496 9.83623960232785 19.1598280652959 0
-194.528170265682 32.9663619481021 4.16032408627092 0
-219.596729240091 29.9626606284576 26.1976947527627 0
-151.471172888555 -5.93216451732534 10.8575385095199 0
56.9154682303135 -13.6252963277155 -0.0949625269528531 0
-177.769144939887 2.58219706101544 11.0637288437907 0
-198.252813077069 0.993055119707215 -12.7213319323793 0
-184.725662162424 -0.407381284271901 12.2838037916785 0
-134.661298810094 -14.5355239741728 -17.7045150159797 0
-152.364216905744 13.2409975910944 -14.4415894914106 0
-205.286846221595 16.3258938626592 -16.1741870962653 0
68.5582806926703 -17.2003915805154 5.8573329916256 0
84.705781587028 -14.9902918290414 -1.07712700861009 0
55.077006670422 8.87275691417044 19.4515489305283 0
-185.547677821393 -7.2717030890704 -23.4945231952575 0
-19.0529834519473 5.09739362532995 4.05844383566634 0
24.5694459798261 8.96613213715496 12.3070679590906 0
-128.371162382855 4.04515953282021 2.60553885862062 0
-62.2984357796571 -0.0264554453678855 -6.08041764760589 0
-176.41790843324 -13.3065091426478 -28.5465058842099 0
-194.968541697518 28.0857917874205 -5.68912198450525 0
-238.461050129113 16.2931479442788 -0.571253755826593 0
-131.270932881066 -22.3723726008913 -12.8785518837243 0
-175.060484446104 -7.52999388355797 12.7952715608132 0
-118.503990496621 0.887691129203093 9.78381942896712 0
21.7363870056574 6.75256891191314 6.25742319230404 0
19.3023249748214 6.52133463915446 5.97913789371246 0
-139.557979536238 -26.3020761127971 -0.985607077960255 0
-24.7143556709328 -10.1477633154335 -3.22731708371642 0
37.7377476150968 3.8588709841989 22.0059287674818 0
-217.797356608789 -13.7301056508755 -20.7155813834303 0
-200.169124313183 22.3763539274014 18.9817697920402 0
-237.00288937759 37.5498674760875 -0.497832957041335 0
-208.698302907363 -9.99291748758073 -19.4190157267673 0
-148.23983391702 7.93599526902316 -7.8560170592981 0
89.5798165714994 8.89625381320974 20.4840196447295 1
55.1282126828036 -10.0506187628392 21.7524127986567 0
-167.823369495011 2.20167038533068 11.6243489483912 0
-149.275504670673 -28.1271773626485 -7.94501130773867 0
-3.57224505776317 7.32809979780909 9.5273950624636 0
22.3096497099167 0.436172392658697 -5.13009229153219 0
-214.986516566794 14.2802589556317 -19.0655845341019 0
-131.389234632814 3.84661303329017 3.41683085302456 0
-217.076627112007 29.8893403617174 26.3758369072955 0
-202.26795644564 -14.0784902168252 -14.8057814289366 0
14.5539029594948 -8.7252484104389 -2.83309812014917 0
-181.71745841793 8.97135418206652 8.60397398774813 0
-232.282435990443 13.5854959845953 15.8545795923115 0
-199.390390870976 40.0075451454861 12.8983325625589 0
79.0052917349808 -17.6785468148206 10.7543832358683 0
-97.3319286229875 0.806852311258913 -7.63781455837215 0
-199.814423786593 -21.2623987839402 -27.9767412940218 0
-237.692286280477 29.7033063139177 -7.76485716215632 0
-69.7963123071179 5.04716840366452 7.20431540923644 0
-132.71201391206 -7.99143179818483 12.7388518485855 0
67.8309429458036 -14.583027219398 0.104862453306218 0
-211.294862848153 -22.0159245369044 4.98357041054311 0
-220.675571889413 44.4639569637063 -4.97848201480985 0
-232.684087108062 9.58363794235963 -6.22618999657335 0
34.9152061518741 6.03763044202673 4.21868692166761 0
-87.7508058438368 -21.4094781607756 -2.35848991323053 0
-202.74599820091 46.2277357157513 -0.944320330986756 0
21.2874944710639 -1.54870318904511 23.5248985023625 0
-4.91524344477678 -17.5343926833039 7.79559452264682 0
82.1673338842719 0.403422504827942 -5.12674889165412 0
-131.496802472512 1.05495784223364 -13.8358055648077 0
86.2569969896786 12.1937015984216 17.8035090937253 0
-158.730250750292 1.9065416690101 10.9593308139446 0
-197.125021595485 24.3500928916006 -9.21083749319201 0
-135.871722435992 -10.551233209908 12.3665002386914 0
-28.3999056300955 -18.7670639632184 9.3910041660409 0
90.7059345096623 13.9806709904925 10.3352647745871 1
-228.5236244065 4.52123788409479 -0.0793142135343258 0
-214.288344671742 -21.7895991305304 -19.6819655781794 0
-83.0649000426074 4.10743846755539 -0.185857102395664 0
-201.68344207395 -19.5343744482657 15.9574176436204 0
-163.002857629704 -31.3371346345904 -9.95581438338324 0
-188.275370974176 13.9995672433029 -10.7259186339778 0
42.3656205485649 3.64241990980827 -0.438293157478158 0
77.4886122382081 -3.19286657181069 -6.04144340734329 0
-91.9762319253594 -11.921280381871 16.5440446488814 0
-33.0093087833631 -8.57845921816164 -5.05194762832012 0
-158.770350057253 -26.3135616253655 4.59355222462139 0
-102.257517328162 -9.23752364749058 -11.5519779993686 0
-186.792588892103 19.8309912474871 1.70049630532463 0
-82.7968285161173 -17.9836495707763 12.770592860715 0
84.6109166463185 -0.610563520712776 -5.34010539285044 0
-48.9142155262199 -5.83273401817335 -6.85489330203412 0
-146.731851258038 -27.4355835852094 -9.05968994914213 0
34.7667689845084 4.70543005009203 1.90012577363411 0
-59.3686576362731 -1.68469550087223 -7.19006666156403 0
-161.536197147015 14.231177330023 -12.0648286688575 0
-216.062863381618 36.4516214807136 -19.3316788138011 0
42.3056501202703 -15.5654084352397 3.51964683357044 0
-49.1902031395432 -0.911951817800857 -7.06914858091478 0
77.908617828388 10.9294230911941 18.7026038106514 0
-85.3413656582955 -3.59007467845382 17.4093715980845 0
37.7931778682272 -2.37190156548889 23.6373307092 0
90.9331174925242 8.42734737917159 1.04076956410788 1
-116.39326761445 3.84381225910648 2.20266802873444 0
-198.79332498944 -20.2404756118126 16.0337021296763 0
-0.203454131390335 -17.2788672882705 7.45800607787617 0
-205.212898661396 19.2340843121024 23.05502736613 0
-58.1871921687979 3.53286535698294 -1.48862745664996 0
-157.699115245087 -29.4441534401374 -11.0505491733469 0
-201.221499779431 -33.8045244521119 -15.6578542599896 0
27.656742131013 -12.4358291923851 20.5385803464121 0
-204.661281710167 27.5607779534521 -18.444581084429 0
-108.165342025469 -6.99070339983992 -11.7642305555162 0
-94.5554746256025 -12.50504008236 16.0829011414595 0
-73.4429157579758 -17.4964678526491 13.6865486276674 0
-84.9495049161635 -22.236645672109 4.2973498749836 0
-182.227423673768 -40.4873632176174 -3.76937748576106 0
-12.2600406640218 -4.36796556207443 -6.24442234820537 0
-201.097870248765 -12.3768578601149 -8.18932979884412 0
59.6383719594819 -17.2617350642283 8.8708256613612 0
-151.899695255962 -24.9902742449182 -18.8180729290734 0
-178.231139234088 -39.2711388923168 0.740113370919623 0
9.75588211677898 1.2772260675669 -4.47061518646949 0
-195.120205738106 28.0563275867598 1.71390511416437 0
78.3129936417886 11.1885426285916 6.82141293291966 0
-40.9506720013395 -1.97218628562156 21.3079339028218 0
70.5937124171419 11.4467451788207 17.5335351989813 0
-173.566634771733 -21.4559970772099 -25.6406624207313 0
-51.148227913849 -20.1553668876293 7.60843350496054 0
0.8834824458467 4.39646351877237 2.0710585759238 0
35.3883351336173 -14.7155533235294 2.11431203677177 0
48.4748505884965 3.29337057674064 22.4402921513558 0
-92.5597174613409 -9.55211442404886 -10.6809978655233 0
-125.023593170493 -1.54106978240411 12.0155390200323 0
-216.862342031833 45.6277598235144 -0.372572840846578 0
-161.388542275584 -18.8203963270513 9.33700120748001 0
44.7094420249253 6.36852791359792 3.76614924021022 0
-188.588520560773 -27.6612277069789 9.54945387353881 0
-217.51891278444 13.47432390764 23.420914773811 0
57.9959869209767 6.36150871431387 21.2667898162945 0
-191.741463147906 -5.62686840609899 -13.4236878990074 0
-153.864129101566 6.71412131598679 -1.41342578914206 0
-78.5873026266616 4.2965327418669 9.18927098470588 0
-204.719581567702 1.30860160867865 -11.4132603629461 0
12.4730365493769 -9.30839188044665 22.6948373216893 0
-14.9012361913122 -0.645312405141847 22.4313813514407 0
-191.986271285956 20.5881206515752 -7.6423788455403 0
14.8258816432582 -15.4428733508911 17.3600604288328 0
-212.820561496198 3.56648626724989 -8.64712437120442 0
-149.808932868104 -8.07043400071933 11.080981208795 0
-174.085561608449 -28.2867112679139 -21.0451406412579 0
-123.531800701274 0.0295290569615164 -11.682907751428 0
29.1863428178496 -15.657941909942 16.453082455086 0
-232.415959532379 42.6548915165741 -3.30105806581225 0
-70.1894103847546 -21.3274635128598 2.57857431570148 0
-67.3505750602326 -15.8920784767796 15.6477455933846 0
-133.455579326797 -24.003128248749 -11.2317470107829 0
79.086203484839 -17.0731388870928 13.1952404138608 0
-153.738756061367 -12.2642781613428 -21.836705988008 0
-210.744288036529 -26.697328452756 -21.0331695597737 0
86.2149737404 -7.80763631718978 -5.78768846940978 0
-234.86941483518 31.6238355958308 15.9017054503092 0
-172.300837244812 13.2795356162343 -12.0516319850298 0
-204.489499973955 12.094116810887 -14.4145357338577 0
88.1840522641054 5.40976736999863 -2.42527043181548 0
-156.741942396625 -10.4845887154929 10.4911003516998 0
28.6164314610201 -0.434678408305925 -5.22175640028358 0
-178.059069177888 6.09816803779793 9.43979036448755 0
0.198650363335673 -10.1171671521538 -2.2388805399049 0
-98.2148547669134 -6.03162426642132 16.3158352405318 0
36.7193176091479 -4.51006313688504 -5.82611870295062 0
-193.212123810146 -26.095131304835 10.3577596088943 0
-96.0512152673032 -6.02595478300769 -9.76918420423672 0
-210.128993274473 38.4456106447603 -17.5653756013335 0
-183.953272111641 -9.15284937911985 14.0565952827829 0
72.7805206434367 10.2669390739528 19.1234161455639 0
-218.781645755424 47.1546156358157 -6.37980238137453 0
-105.382725105039 -5.35413251769849 -10.7516949428758 0
-124.523544993965 -11.0857469112354 13.3574488228866 0
-205.211675113808 -9.33925248705089 14.8425737600757 0
-210.632644920649 48.396115723141 -5.11602475433457 0
-200.168412176104 36.2454393713989 17.541373104063 0
-50.5612505074518 2.72642337551494 -2.1485038938012 0
-183.46671247491 17.6736759470424 -5.8003309457542 0
19.3607904005824 -16.6288697437968 14.4902467062443 0
-222.07818210488 6.36457633550753 16.0799614324207 0
-142.658555214647 0.0904804734621182 9.29105170551169 0
-155.750453325063 -11.7719307530744 -22.4543797404298 0
66.3702533900129 -16.3916412283868 3.4634472638883 0
-7.21811190484094 -4.25235874170894 23.3747543259199 0
-210.536075046872 -1.87592679310758 -0.739543894671229 0
-190.821144053594 13.3232052579799 11.011402872858 0
-199.095505292718 -33.7577274262734 -17.3416045505168 0
-22.9088585757737 6.54009519283243 8.01265130052173 0
91.1276201510422 7.50237287739266 21.2156392416984 1
-159.67899379369 7.5429103654605 -1.42834360405645 0
25.3516624669496 -17.0883355163033 8.63117980400281 0
-193.080886082867 25.2984908229083 -3.62608394906663 0
-195.055893015713 -14.3051457028266 -17.7396012826525 0
-160.95271281679 7.41522132686306 2.27156890047392 0
93.4463657675475 12.9680001117739 17.2720959102527 1
-70.5204857007063 4.81464152843991 3.2550207306045 0
-116.261527457477 -18.9739751773402 -11.7990455224008 0
-13.1946950173358 5.10480010807048 18.861102776336 0
-0.256219440454362 7.52670586715761 15.625588104299 0
70.0212536430468 -7.29412036152737 23.0355376690906 0
-40.2643378133655 -18.327159898557 13.0646444358959 0
-184.53659730743 -32.9045010935854 7.78157942609563 0
-195.819325547879 38.1587720128001 -2.17244230864974 0
-183.900703414687 -23.2765973851475 -27.9942059826876 0
83.8419128174926 2.73869707644255 22.870341364113 0
-173.892140100507 -33.7692855987262 3.64112279182571 0
-189.399987222599 -31.2073937769399 -22.0575297869444 0
0.0712435929985863 7.91578256563662 12.533916534781 0
-197.582338541661 -10.689228508634 -23.2069412905411 0
66.649170345359 -17.1474363912008 12.0642497890988 0
-45.969382415672 -0.293014455479808 20.2688731463447 0
-19.6445736577978 -4.16017307145423 22.9066943591496 0
-224.427875067204 33.8399344695463 23.5249620845328 0
-48.094208636107 -10.3010708394619 -6.48397061371557 0
-9.1482972343683 -15.8913484151745 17.0039782597791 0
-187.159967243719 13.701874420303 9.31133811096272 0
-168.516093283552 -32.1160577263372 1.03166162940464 0
70.7727095981573 -9.84018200933949 -3.79512053009981 0
-206.837495351529 -13.692958315629 13.358233442288 0
-116.551806463105 -23.9397861580711 1.4602450366426 0
-88.6082416556018 -18.3185156100968 12.1689437694638 0
-193.870067072492 -35.6902639716552 6.04767188642337 0
-176.167931295209 14.7242752489234 -9.06249368105079 0
-202.621940800028 -13.3224710225507 -8.26980746505595 0
52.0965171658861 -10.5353759259421 21.5074599306828 0
-61.4588462856988 -2.52505190142122 -7.22327713693676 0
-10.8841394541614 -17.1857121746274 14.5005258755304 0
-32.4450128055023 6.31094866785232 13.2004579771094 0
-215.065902070307 44.9908329684697 -12.3648227425563 0
-239.344380558265 26.4232954388317 -4.32624221571806 0
-39.228951077219 6.2454709983584 7.96435069627999 0
-239.522265131005 18.7994429700506 0.783136748131601 0
-182.154820799103 15.0989120397466 5.17194438002095 0
-218.26468046887 -22.7742812707286 -11.1547673101346 0
-210.168269127307 -1.27230022069321 -2.85487918750326 0
88.2675851408284 6.60990945264317 -0.847987814723142 0
-145.047384060519 -10.0555594180143 11.3929440262488 0
-190.986321354364 11.5650522839106 11.5395695804533 0
-209.619266471284 44.5659029818154 -11.985810967126 0
-199.743061190611 -25.307149944709 -25.9683109666334 0
-215.795318290977 34.4513423553119 24.9073239656588 0
-166.792202453904 7.23412537467971 -23.3755009650754 0
-189.096948641618 -32.675420590379 -20.5329903737026 0
23.2870082538367 -14.8695922177235 2.58481325540178 0
-200.136920939809 35.4231582874945 -13.031531323312 0
-195.87754177923 37.5233193205293 7.8842360624882 0
-18.4938567265997 2.51433767238911 20.7497479288297 0
-163.212903101261 12.9916258335816 -22.697854236645 0
-207.28018989258 -0.31407578595331 15.1369224072535 0
73.2931229478622 -16.0696278019718 1.88130612752825 0
-178.586346262614 16.0957998364877 -5.32663412367944 0
-127.451227081323 -1.87044025458426 -14.0461674921236 0
-196.860260606925 -14.0287127714075 -12.5479443622985 0
23.8207597648465 -0.449009521285526 -5.43209107213816 0
-113.313119966799 -11.966923372191 14.1671604958985 0
-10.2170346343758 -14.3518231457803 18.8710598829084 0
-202.10326222186 -15.1958432212211 -27.0699442644359 0
-67.5156615151356 4.48645318427214 1.76677470035886 0
-158.432324767357 13.3122747455282 -11.26466918851 0
-123.032897298843 4.55080625591925 -0.582753522217429 0
-152.260789504232 7.00916301170537 -2.34280504158333 0
-218.210037545587 1.87790114652751 8.76280493554701 0
-151.159418214694 7.58873318493527 3.55117453208924 0
-168.451516864428 -19.0908220808089 -24.6036211801742 0
70.9689953240735 -16.1645954752154 15.0260317094997 0
-166.96212844092 9.42045828724825 0.336833893041213 0
-119.182641947492 -17.6705164103925 11.3193782560833 0
-56.4497549044205 -12.0350787739357 19.2901505286604 0
-150.658476450526 -26.9321659815228 -13.1743441136207 0
57.8169626910116 8.79825489133525 19.6468532604485 0
-227.446085029984 47.4679693772248 1.442127429893 0
-134.141833267448 -1.15989088841858 -16.0429072568126 0
-8.35667745987579 6.0039244080635 17.9874224791889 0
-197.827385168264 1.24416556593507 13.7868794409634 0
-216.335126862469 -22.1916398211942 -0.646082306664246 0
32.925789132687 9.66694876591396 14.5772897626231 0
-183.315236279662 -7.48774477415759 13.766612844873 0
14.4551749079938 -16.5384876254503 6.08196651220676 0
-101.085685892231 -0.943745556324095 -8.94401454813193 0
88.0760289791941 -17.7091750511465 11.6336225137888 0
-214.719995814399 -25.3023150602521 -16.2201540238511 0
-195.000560054819 -12.4332680318124 -12.9202810732041 0
-180.590973915573 -27.1242976341353 9.12860381394685 0
64.8321405375302 7.85885068167197 3.38362556548525 0
33.6911071003769 1.64932163463515 22.8070615379641 0
86.3624387991458 1.72296315378053 -5.11858140213301 0
-128.920480021785 0.331947711476815 9.80281373471055 0
-43.2723890967898 -9.99289458329862 21.0405403695777 0
44.6505485239741 -7.74660733628163 -3.75661385703839 0
-204.078322709959 -11.7471007428751 16.0753258974661 0
-93.4488371098614 -4.61531172492167 16.6788060749225 0
-179.708886657126 -1.34717817181617 12.7702775494647 0
-69.7895373336282 -13.7217536101975 -6.64282522185584 0
56.3938335064995 -3.28947819154268 -6.23665172575084 0
-171.297196639656 -12.9146563589543 10.793775655471 0
76.1435912955968 -17.4475418854885 11.6744785552344 0
-120.293316734022 -4.878465685818 -13.2388012615145 0
-233.166255269249 15.7186491077011 -12.0547432862347 0
-50.7170907374449 5.33103650969028 4.98283240936825 0
-6.11903366761186 1.54940548600206 -3.32896938693998 0
-115.820094562696 -13.7844438444861 13.41976180108 0
65.8640639101407 1.65150742469352 23.0262637632663 0
-189.481818955736 -12.4996714881783 -28.1788723815004 0
42.0051853492209 -15.9854103781473 15.1898382011711 0
-206.987085392709 -10.8143243212314 -23.8354702750756 0
-91.5011254837259 2.7947411688924 -3.99514923764855 0
30.4847556682744 4.32990795870732 1.39797188443363 0
-221.019433330981 7.48386689054547 -8.81815409830209 0
-209.600063618095 -16.7919707203148 -0.253017708375634 0
-201.455433592102 17.1464092491034 15.6869545364609 0
-213.204013830452 48.4699981634385 -5.73525135348148 0
10.6519654500272 -12.5670959276032 -0.212192394139201 0
49.3574386505864 4.48181908268868 0.739170525765628 0
8.24640847220022 0.997672663694922 22.7015830308383 0
-111.53748825074 -5.39499492238132 -11.9072963480721 0
-157.79613068867 -15.698197698567 -22.2021434432413 0
-76.4115148581203 4.74406217008914 7.59300542490721 0
-207.673827721768 11.1386607321215 18.4263924188603 0
-217.782205107159 -25.0194568905299 -10.266803788215 0
-160.055714372061 7.32592470035306 0.595594876436514 0
41.0032817717981 -2.25955080155645 23.6554857886351 0
-130.483400031145 -10.3146926276863 -16.1085022347094 0
-162.544126233187 6.23689323156577 8.47166344922758 0
14.471872737389 2.18927681386598 -2.62252548206665 0
-211.038096057192 28.2496200055177 26.0142366700857 0
-183.928439945111 -34.3622012491776 -18.1728512402567 0
-209.886019193036 14.5005456351903 22.9369030983197 0
-236.062534298535 26.5508135731574 -11.3467250774226 0
-188.985080304056 8.73032607434764 11.1036350006683 0
-195.65737834767 20.4941285799782 -10.1222955770701 0
-32.8658817776268 -13.0453284820233 -2.28748647503651 0
-135.594629619517 -0.576196831248034 10.1964996466288 0
-12.4058466040556 0.233506591446026 22.236769036209 0
-170.444116395227 -18.5524499696863 9.27361804082629 0
77.1549924586622 -9.66108571879692 -4.32865975574314 0
-216.617669273853 11.0603904045622 22.2206781571487 0
-84.2014080769672 -15.5035663747484 15.0707526742013 0
-199.768332760235 -30.1603777616445 7.94318370355678 0
51.4711902150576 -0.182957316739051 -5.35499261340451 0
-236.116527405926 32.4331880865028 -9.2358330087477 0
-38.9494524573477 1.87072678542216 -5.28512102203475 0
-46.0284655991721 -19.6340855279833 9.39622784106098 0
-6.22996517036719 -6.20388699587377 23.2313963402288 0
-237.885741494518 31.14745267058 10.8651016621834 0
-110.701495640374 -13.7026686569936 -13.4433976878627 0
-176.869765167009 -3.9753197144782 13.0124031028835 0
-239.995996482053 20.6759103833245 3.65871263575962 0
-190.07190470896 -23.5727478275812 11.636757081227 0
60.441229964725 -0.0820800430200303 -4.97541283907317 0
-116.593278615516 0.976548338626008 -9.4372796012367 0
-233.792881854943 41.8142338074426 5.65966048281861 0
-31.7911504010722 -18.7067098066177 11.2645201712148 0
-38.7776563032352 -8.10009474403237 21.7517540331978 0
-226.14059134423 19.174033456048 -18.8607684464741 0
-127.822938646159 -5.21642664549487 -15.1223275226899 0
-194.78961747984 -5.73367028911214 14.9295864495785 0
-176.678629797358 -30.9409363203284 -20.4864489406935 0
-23.7486317910583 -13.1607173690746 19.8094197580428 0
-152.371449376577 6.55572932502002 6.92601619066303 0
33.2188631184403 7.4856852333085 19.5194995908941 0
-78.7662239706605 -15.3231331861231 15.5292837820988 0
-195.46432512361 32.3922514972298 11.6080048480417 0
-196.999849946003 35.3790797246213 13.9478072334605 0
-226.323365658195 31.888249866625 23.404848466669 0
-219.303793796811 7.50531635754545 -5.62704214325203 0
42.5311436956003 10.2612343192619 13.1172680886292 0
12.6690428488796 -4.06527970394167 -5.96805311888936 0
15.253822194745 3.58183416637638 21.8049764600581 0
-206.130833768683 -13.5134223785293 -12.4721180205102 0
-231.41609915291 6.23429456101879 4.02836768178763 0
46.0429538792896 -11.9921124468965 -1.11589517762621 0
-226.649497710573 4.44718644463471 -1.08328285802325 0
-235.226675987128 40.5342340845423 3.02112344745127 0
-102.972543512259 -23.319009961325 1.48071507411975 0
-212.103238439874 -0.3545838578744 -1.56042848486607 0
33.4259557599966 8.89123067042062 10.0643827850068 0
-196.064647427126 -37.0748302723093 -12.4946922421214 0
-218.892464680266 34.0346556124418 24.9107669195399 0
-41.6322188678717 -7.51890764986567 21.7238238617149 0
-186.862198420915 -22.3508652317631 -28.5105027311713 0
53.0462197942411 4.42017069747276 22.0436566892761 0
29.1755513901258 1.10635795182147 -3.71083815250495 0
-146.087113173687 -25.6996942517702 -13.280073005919 0
-54.8116416175174 5.66174310349047 8.85574081600654 0
-98.1474634933425 -15.849576304445 -9.9443131607789 0
12.6652786276825 -14.3991494627843 18.9207936400541 0
-76.3393171433382 -16.3827998174689 -6.03243160949406 0
38.8078145428447 9.45683121251635 17.170547676716 0
-179.393212450336 8.02232512761505 -14.2349556801276 0
-146.705207683125 4.07886559407868 7.94784163156507 0
-115.057700754695 1.14576668087174 9.83692665874972 0
-36.3718247219434 -16.7055687672706 15.8829511569051 0
-204.379428765611 47.3155022570186 -0.32263911765031 0
67.1202381199602 -12.2179739124812 20.1158745506075 0
18.1940276510133 1.76864604160981 -3.85854509947966 0
-201.89737395092 25.8439263653416 -14.9266784962433 0
-223.844220061971 16.6328232533316 -19.1415129354447 0
63.8433016849046 -16.8177414834793 13.1379342440715 0
-78.7910286834571 0.446899612717664 15.9155446379054 0
-160.76808982893 9.5849454453652 -25.7357724211173 0
-166.048883712125 11.9453828801641 -21.6136148954315 0
-83.2117947251719 0.45572517946785 -5.8594210304043 0
81.4254362271683 -4.3025714616108 -6.32584908876834 0
5.79439318711151 -16.3049319408734 4.63177057654671 0
-136.446418957355 5.01977515060285 -1.35782707448261 0
-126.090671768074 -20.6551169570062 -13.5464979104353 0
-213.24410158022 -29.4516620086482 -3.07760369383706 0
-194.992873296176 -39.5784903400467 -0.452872149491395 0
-209.844087550184 -9.0097527109115 11.1794546952254 0
-4.91258142486446 2.785341565012 -0.101341351368919 0
-32.4971541468586 -7.49667705660727 22.1325970237293 0
-195.446080331581 37.6423073205168 4.81699369786479 0
-215.914061872083 -27.6596778073503 1.21026921828417 0
-183.714144465606 1.55297620054021 -16.1937051413946 0
-9.9138033688476 -17.922748248435 10.9680541633489 0
-195.377299176884 -31.0234440169527 -21.9444193280155 0
29.7989231980098 8.68755118556541 10.0428897204382 0
-53.0485568148341 -15.2593336566333 -3.08291707132529 0
-57.2697291006703 -14.2702308594119 -4.54486420246546 0
-64.5195446418697 5.06369485222241 4.48380363017485 0
-155.549325291775 0.639650303415533 10.7006052305889 0
-199.586278233853 37.3598415631761 -11.2009333842291 0
-162.479944255631 -26.1335963875206 -19.0544009655205 0
-203.267487210129 26.7036350093052 -16.6391637748941 0
-154.96016849601 -12.6165221414494 10.4764169275568 0
-143.512612126328 6.51320298521509 -7.328921716939 0
-218.072932833 38.4339231694678 22.6886984149471 0
-151.13553818025 11.5177353323784 -12.709075442402 0
90.0677355557109 -7.37694901656285 -6.22049035102518 1
-198.040239631954 -15.4458684505906 -27.8781660526124 0
-199.884806618647 -31.8860975837386 -20.1089644115176 0
-160.496126939009 -30.4857592807164 -2.83814964345885 0
-230.936999549537 19.9685580769768 20.5474768182723 0
70.6315451613945 7.57070251684713 2.45994051017144 0
-213.475747144182 -8.82226045385655 -22.1245619210528 0
-186.254316508437 6.13703931086258 -13.8247123583431 0
-132.752194030807 4.38527525014911 -7.92787904080695 0
-205.921506411041 -10.5664129406517 -21.7155148552698 0
-57.0810364433534 -16.2741398992588 15.7533082383444 0
-50.1753674191388 -13.7763951029183 18.4481369904579 0
81.8311890180766 -16.3111395420989 1.27376310113346 0
-209.759919099827 -12.0900417346123 -13.4805954218586 0
-19.2918867924163 1.50077569097283 -2.19593806742575 0
-173.820951840331 2.84129839208275 11.1520522672584 0
58.3597337785333 -15.1120962764288 1.50204058718481 0
-218.821289932871 -15.7148179747474 -16.5698839398221 0
-154.912581665691 7.47121903479613 -2.6648202971964 0
40.3330366938071 -0.334815171951237 -5.0530458362686 0
84.7105501256319 -13.7886209411331 18.4826546429178 0
-196.020434250142 34.5381323989023 12.4267182029808 0
-217.105566953153 46.4765088682571 -2.67782641765284 0
32.5810178061123 -2.62024429086914 23.6735288331829 0
-168.656139371116 -4.11898147462709 11.3310086410807 0
-229.208893583293 10.7571062633623 -12.6787041994322 0
-42.0732796135802 6.14492728374324 7.98435788491825 0
-169.706711594709 1.13164038957793 -24.8378796009985 0
50.0547066388343 -17.1202923240887 10.2200451575412 0
-229.411494909554 4.80474688512645 2.43091964674671 0
-96.7530126461335 4.21547960729359 3.47578977799254 0
73.0851015511034 3.57798375142594 -3.404027240603 0
-181.706073974543 -17.3720560832167 11.7948588580303 0
-164.650421832608 6.76808799616388 7.26048951576176 0
-209.776303854876 -19.4809962826173 11.9617008004045 0
-206.176795375664 48.1775932647506 -0.494437188783684 0
-196.024006109769 0.429183296048598 -12.8774418000994 0
41.3483142812688 -10.1965805097692 -2.22572363184823 0
-204.116933056358 -13.4981720798703 -8.76780172547573 0
-210.666636983063 -9.50467207287406 5.96088874260723 0
-175.913558345737 12.9785054223663 -12.0666285664617 0
-201.53220870123 1.76977110279707 15.4836291493894 0
-154.577603493587 8.92305821204792 -6.51222616002951 0
-126.951838846723 4.30324587219842 -6.07701823280968 0
-162.48802808809 3.90746854348861 -25.8497164829445 0
-187.954546055369 -7.48555058589309 13.8650521478256 0
-129.531495499502 4.10207825616122 -7.70475761854567 0
-216.294063684516 0.284556197608562 8.69720124835902 0
44.7100073363876 -6.7179239542334 23.2597056146825 0
33.5783473876799 7.32526942020692 6.4393642481529 0
79.9155736390237 2.09099008940641 23.0182688114515 0
19.7585000623221 6.51377032179782 19.702622397934 0
-194.616626659013 22.2640710593695 -7.1819436798933 0
-194.795077217291 16.6076456920035 9.51991542321536 0
-162.598872197542 12.667255588696 -8.79574698988652 0
65.922247350366 -9.20703640644374 -3.90354704113359 0
-223.798800871715 7.69362769970154 -10.5507719880743 0
-237.393274202463 13.8125888315827 2.94021329357578 0
43.5195551887093 5.51767429728608 21.3465445951001 0
-194.021679875728 -5.29790425155308 -12.5030955327896 0
-212.391232313206 49.938051102742 0.696028568343448 0
-150.133497348485 -24.4790327185251 5.37837697441375 0
-166.463414336002 -29.716663028828 3.20285968275394 0
-70.9624480802942 -15.4684740103683 -5.72488314836377 0
-218.592416709812 7.87581057458962 18.6439495171233 0
-119.779649453687 -0.855590351429714 -11.3627403369433 0
-170.720501823702 7.43691469863296 -16.3457784560476 0
-196.759365562447 -11.0735746016108 -21.2486233912512 0
-201.126790915955 26.1968573708047 20.1159605967764 0
90.7453951749219 6.70122197782518 -1.12777714870442 1
-206.23756182901 24.3165537268866 -19.3903630865559 0
18.7307836818393 0.263254743667696 -5.2652520072806 0
1.76716242437416 6.16966308865308 5.3889497333372 0
87.0261426367572 1.57544580802638 23.1711012428782 0
-157.546655782595 -10.6538341234328 -23.297468295942 0
-151.31010953489 -12.1497889922917 -21.3318276439225 0
-162.558310254672 8.76298503748466 -2.94996059936495 0
