-128.150661184486 -1.80202279679768 -11.7163824587297 0
24.0886040729368 -9.14188307283342 3.03974117800708 0
-178.69704286414 11.7150705150185 -1.45739346471052 0
-177.320713114036 8.62306571665777 -6.06700233555225 0
27.7273789731972 -2.68569729266623 -22.7116949997236 0
-218.030530845755 39.1963427980939 13.4140407318519 0
-75.1395014497226 3.75759400865118 -14.6548940362673 0
11.2931362506472 8.04118148732658 -7.69250869962826 0
-143.6653820449 -5.15647849229278 16.4943047738185 0
-167.535046207437 -26.3399840767072 -0.802258155889322 0
-163.759891966555 -0.687545621124867 -8.35688402918893 0
-135.028212015277 1.24622143855954 12.1046256184413 0
-92.5967591067362 -16.7312091844117 7.09556309872404 0
-206.169153342503 29.2341325411972 7.84084291996271 0
-207.057456418535 -32.2608036214584 10.0441783671067 0
-203.407369645903 11.2283117554222 -12.2708260478755 0
-230.043160218839 7.36171398168717 14.8472690608567 0
-222.873636673411 20.2476482713733 21.2329328629321 0
-129.50938582183 5.71760394216658 3.25709986509261 0
-242.6816667404 9.13712589031544 3.36241197459622 0
-230.398255839414 35.3903252520019 16.7722972988955 0
-160.714149410344 8.73604897557506 22.1879806939241 0
-77.8060136433949 -13.5350282860955 6.69037096939137 0
-91.5762029251255 -17.9578316972947 -9.39145666463791 0
-198.134039025963 -14.1618254362249 -11.4849907083858 0
-96.3331714779988 2.28391966903098 -13.3617146809528 0
-145.326457115548 -7.51079324475876 -9.58575410295008 0
-120.603161863544 -0.537138442202294 -12.1377906143867 0
-156.680655669638 -3.0794453245092 -8.88405576181083 0
-20.5250206602621 6.18158752691519 -16.690044342938 0
30.1391759385457 -1.76734066028302 4.19155833925602 0
-150.233544281636 -19.145794284831 16.4155612148806 0
-67.1004230412201 -16.8083459662403 -12.4609410779632 0
-159.880088420437 -11.4530185777462 -7.47422681749573 0
-125.621583203136 -0.754184420764351 -11.6510340968587 0
-92.7762155111783 -12.6197569774082 -14.206249868195 0
-163.426511842252 12.228829554515 18.0744325800667 0
-62.9329145297908 -17.2002136948663 -12.1971397677446 0
-206.102624914969 -11.4136615827521 18.7491429809936 0
44.0821408105699 -6.19372308835266 -23.1427541717114 1
-198.80650013631 22.5291088919486 -2.5449824039245 0
-186.149379752848 -36.14369925287 1.21072254252984 0
-214.152755375201 -7.99603350492685 -6.77414293890534 0
-200.86438405612 6.44761550979646 -11.1944922204645 0
-217.116078629241 -19.9393048390166 12.4652083701171 0
-93.6913672625321 5.62931135109533 -6.59598838422378 0
-200.700756374134 -34.6994382131398 12.7398000610573 0
-214.019874229759 4.31176838975638 13.9289261111064 0
-112.2822590224 4.82988177996651 -6.16213489638895 0
-113.146215665738 -4.47582748914394 -14.0410186876272 0
-213.783627629651 -25.6712654124298 -1.45356608763025 0
-197.342893006292 -6.94643987447972 -11.969296689628 0
10.8865774973815 7.72204102273926 -16.8131588062537 0
-55.6924768832281 2.94490016490165 -17.485253531627 0
-196.130242421409 2.42671185563918 -10.3216638392209 0
-139.541025525065 -22.2305035048118 -2.09189495803384 0
13.0027017092916 -11.9314005077773 0.506402359402632 0
-101.9162677977 -14.2215845139564 10.5817884515962 0
-156.811707979275 -2.08221296872675 20.4384905289526 0
25.8906363840472 9.88167508690203 -12.3185302768821 0
-22.3583217606609 -2.87119010907697 6.12617830987076 0
-66.7038109870013 5.54980277843043 -12.8120424329673 0
-228.237140758476 33.592095889117 -20.1596085771943 0
-192.745538929347 -30.8004479307912 18.5713987697938 0
-89.5625826510254 -5.58270191092343 9.06777883990368 0
-205.456398043861 -0.295522736857659 -11.8244139567455 0
-230.089588439115 7.57229534661584 -16.7531031944649 0
-179.758347455145 -3.25121669308976 -8.49338486433401 0
-165.371189228352 11.0492243454584 17.8826534183399 0
-94.7854558531675 -20.9667906739173 -0.687060146902377 0
-156.454353079774 10.6435524368793 9.06974451150352 0
-146.509194108633 -16.9611324979647 -7.28356653984731 0
-210.366374382287 6.83562190357782 14.7369319017965 0
-211.657478994078 18.4489514460683 -16.0793369623694 0
-188.781805999802 -26.8904134970038 -7.5720245434848 0
-230.303963802785 40.2679352852714 10.4313391880527 0
-208.468792051231 35.0139954607367 -10.3723561664573 0
-157.344333859933 8.04403030187799 4.00077831978124 0
-208.093931637668 7.61037913722604 -12.8087836443128 0
-94.443915531162 3.87408307558916 -11.5942262613381 0
-171.971575685733 -27.4444864810562 -1.45104489816999 0
-13.176498864857 -15.5876608137771 -4.9359502126481 0
-218.471457233654 -2.88336900786045 -4.95897717257422 0
-198.938724838093 -37.1133509849194 8.86350937108604 0
-203.034999888924 -18.1956277374259 -9.93790401969674 0
-137.860937063864 -8.44640024895789 -10.3122921430484 0
-204.000494955161 30.5763103197082 2.72748278408963 0
-132.04997235402 -21.3759225892367 9.33990098773803 0
-139.116213373208 6.16126782006804 0.651244565813164 0
-39.4499709052428 -9.79863013209556 -19.8226746839491 0
-230.76927366523 39.9409230307088 9.1658528195911 0
-131.60419873256 -4.58580657925654 -11.625704413361 0
-40.2029497848986 6.27138753762229 -6.14316731643225 0
31.2612833140302 4.64633820535241 -1.60068372614809 0
-216.395636501923 -25.1019624303907 3.67248856270641 0
-103.141996025638 -3.07378825097084 9.46041810839722 0
-187.629330536112 -37.2598623442761 8.48847948281928 0
-207.713266902809 34.0235872304526 9.22881165293407 0
-71.0306994065342 -2.01342857423654 -18.3703261729559 0
-120.735160449629 4.27876382274318 4.70996898764158 0
-192.029888068593 14.0534675438551 -5.91645411380989 0
-100.743904719219 -11.5154634037073 -13.8952717798275 0
-147.557639216416 -17.4230866860748 17.006554380414 0
-80.4871217965257 -16.3789756903611 4.4495932048366 0
-171.039961888018 -25.6933129020354 -3.18932418147005 0
-141.606382230891 -17.3429470373336 -7.23451659448144 0
-72.4032363010283 6.02687956281896 -5.48196201981823 0
-71.3980537725749 -10.9211078760837 -17.1304473599641 0
-38.2968245895801 5.34760627633385 -16.4207623075223 0
-159.946275709398 8.32170264960207 1.78173944248987 0
-14.1895668890733 3.85274292416716 -19.2574445744097 0
-139.628503093829 -9.92935978840927 -9.76389280415404 0
-181.260558289757 13.6344532812225 1.78621527944321 0
-234.974212059844 4.76276811292218 8.85372986283605 0
-149.762538667297 6.32161604475415 -2.61422051797969 0
-202.535651100161 -11.7383311107937 18.9458974835844 0
-67.8700025884045 4.46144973753536 -1.03682993284221 0
-154.125611284004 -2.63076767308789 -9.14701854174215 0
40.8187100233166 1.83110944759004 1.28621881760052 0
-135.392579001806 -1.02359638298025 13.9377764570833 0
-209.273772421622 33.6074184860742 -12.7171901875329 0
-171.168800965072 9.62175869170747 -3.49257147372711 0
-214.94588702136 -0.630865260133871 9.50330202112241 0
-222.681144959763 8.9775517261986 -18.3467998305412 0
-129.007061877739 -19.0259132688925 -6.38153337783953 0
-98.1785441784745 -11.8630149159585 11.1763180726892 0
4.12843044256609 -6.6355226209165 4.70324937121257 0
-3.41586095880092 2.50284646601098 1.22583150311273 0
-235.424759146208 18.266526404142 -20.1866692916506 0
-151.853784968011 9.29237561752785 16.935192611633 0
-239.480009097828 32.8950142114549 12.747891118718 0
33.8808488474111 9.84904087435388 -9.16364687652387 0
-72.8049214949287 -14.3892819892015 4.59416796442533 0
-26.6740643727739 -3.88280441468803 -21.3615128876365 0
-223.580362066368 29.3616080031189 20.45853492483 0
-21.9582965087833 -11.7555972766783 0.886187864999233 0
-74.9244873799707 -19.5720716704155 -3.43349836956982 0
33.6182759767725 -6.78393471045959 -22.8602928485688 0
-140.631811408118 -13.9262165800149 16.5521028241826 0
-194.98447737691 1.13969003637359 14.7701775031886 0
-59.1944919132935 -0.558053248454941 5.62707732831332 0
-64.9355647295236 -17.1387775157071 -12.1344549636129 0
-136.872891835371 1.01221007157369 13.0865615302372 0
2.66745120089809 6.87130951086218 -5.94636201049945 0
-241.884669199161 26.4103441096018 13.0734853194995 0
-226.554074874563 29.3046636241745 -22.4682816130849 0
-155.658189438277 6.81121972195836 -0.866756117109079 0
7.97540359905141 -7.26074265176788 -22.1776830902042 0
-210.381978084003 -20.4135782418301 24.3733287041922 0
-161.164442009225 -13.5624423604415 -7.29296351250807 0
-185.389493570463 -28.755840355951 20.5829337065263 0
-203.466931654178 24.5730074994806 -4.29522085727773 0
-167.868807701625 -28.1651936720795 6.60822563486749 0
-199.8203246999 14.4240515771949 10.9703777540182 0
9.21572803354872 -10.2294560466665 -21.1854900310817 0
-152.515345904606 3.92069571452571 20.5228783968361 0
-134.014899191925 -14.3803878780063 -9.10394313351846 0
-92.4322755259711 -6.27562879954593 -16.399909286257 0
-91.6186609454717 -19.5625638278474 -6.89065987492136 0
-54.7389736729064 -12.7581412253294 2.60154302147818 0
-204.509666258379 -33.6153625565578 8.0295586298278 0
-100.085955438669 5.69807316915505 -3.65520744908282 0
-62.1918496840038 -7.51571521603879 7.29794906549371 0
-245.598520512067 13.5529467296899 0.985162545067917 0
-220.827323447814 18.734217557336 -22.2178267212971 0
-174.028315401373 11.3220909300032 2.68422089748775 0
-166.438279991465 -8.37367970149576 -7.40998126977681 0
-144.490454532186 -15.0829762441287 17.112651333415 0
-228.609386025508 33.6944111851486 18.3513751202778 0
37.8942787426868 0.348990951469165 2.49945251366061 0
-58.2923167490944 -7.39668440721847 7.00351092496075 0
-198.754522832897 -21.0430901691134 26.6083679195521 0
-200.903251113094 24.9883921363416 -0.418449475969141 0
-181.405927129837 -10.2857266930493 26.7303935940309 0
-52.742216919077 1.31576662604427 -18.6881540774328 0
-207.254348691731 34.0420677729924 -8.37546205978508 0
-174.859481253153 -17.9551122054611 -6.53548335256634 0
26.7045363774293 -13.5641553211503 -0.48687819713508 0
-170.653728457214 -3.98643553985061 -7.89340525881622 0
4.59833184745522 -12.7134179728122 -19.3130471801442 0
-206.267254819176 -29.486884677562 -1.62707380808507 0
-58.7779034229408 -18.8892336492677 -8.397298138855 0
-27.5494436966385 0.884589744051759 3.78503079238276 0
-102.784030841995 -21.3170672734206 -2.82557409011215 0
-184.623842463752 -25.3550599793669 23.3865010980205 0
-194.537378565507 -20.4006004447646 26.3265157504401 0
-176.856313791437 -31.0798842964874 2.1670693265117 0
-196.404542332875 -11.7889752940483 -11.3526904134728 0
38.2754951375952 -16.6177338497132 -9.45158558518744 0
-159.082488365128 -10.3926319621044 20.5250024394773 0
17.992035471873 -4.72857058856743 5.44252808752476 0
-195.86397719663 13.2619778395061 -8.24361700422311 0
-209.49163222375 6.64574834204421 -12.6928957528546 0
-168.914871920762 -10.6066352811373 -7.07694696436925 0
-20.1495936810767 3.04080219791383 0.201076204411196 0
-21.2481481577869 -16.7144633199821 -8.28013703788706 0
-229.124300077164 43.3228799654569 -2.4208419754364 0
-166.14400387494 10.8471520840526 8.87168391355265 0
-203.212340065501 -27.2070964052095 -4.85214167252853 0
42.2628512457678 7.76605095904919 -18.8043085761703 1
-154.292550037152 7.82092834863031 0.995795256605501 0
-207.678782080591 30.1634717825209 -11.5998856863822 0
-164.061482831 -9.41486511260215 -7.44613684088883 0
20.1953739864182 2.45579306066859 0.41900755559097 0
16.9393206315618 4.36540572315272 -20.1193885659185 0
-200.979492522676 -30.0519305142968 -1.83218507810735 0
-234.03371401153 40.6085127912027 4.95011872518561 0
-3.89569301618833 -10.4372568052258 1.55701831334763 0
-37.4732025645989 5.19338088807087 -3.67442403796278 0
-184.968573672596 -36.4844261029721 8.60815660320622 0
-157.996293227021 -21.487014720309 16.3868920479275 0
-142.239261008966 5.33999953844272 7.59526051301895 0
-73.466523990455 -8.27027393077356 8.74539183785685 0
-153.253458336105 9.0681599721777 9.0808948596173 0
-158.858351118027 -22.884948067832 -3.28483490565537 0
-136.143616162683 -8.38987446797083 15.2783346114634 0
-245.420845478147 19.64067156664 -10.1202625803387 0
-42.9360741040734 -15.6895973712768 -2.16886777217447 0
24.57657228843 -6.88126032714468 -22.5942399195942 0
-236.55504996777 15.4208044717486 16.9923004688743 0
-39.2239389430291 5.31222928661739 -3.95033087308835 0
-167.589375248058 3.47883579392371 -8.21582775863927 0
24.8243417845044 -14.9817819695544 -16.3305573849451 0
6.34253209270975 1.0724003331929 -21.3480960924419 0
-217.424754034156 17.2701931256288 19.3961135436525 0
-155.169520807393 -25.3592869896623 3.36277086561337 0
-166.572782298814 -27.3896340217648 10.3885860733098 0
-201.687641148582 -16.4037134202358 -10.6832524186437 0
-27.1846709159216 -3.75530837011559 6.39690728445466 0
-159.282529781319 0.0576763361668292 21.3713629892756 0
-153.167256438178 -18.2867990646108 17.0029409159657 0
-212.217932230233 34.6095592045689 14.0767558285557 0
-72.8956022926416 -2.7666577067431 7.37737308263045 0
-210.174259485862 20.5362378901217 14.1483705118779 0
-99.3457150103193 4.89305416501335 0.495814613682106 0
-206.388210199311 -20.7340409259882 -8.82344622755207 0
-185.108147046893 -29.7571611912613 -6.36186363863292 0
-136.645149627225 2.7291982875822 -7.73772639867892 0
-176.706257633082 9.56986255932152 -4.8258076603246 0
-194.634464805584 -3.02096120173218 -10.8634894557748 0
-193.32330041717 -0.632249094853231 -10.760097103518 0
-114.316622119608 -1.36949789949776 -13.3467648442483 0
-235.063975608492 3.55127003845348 -7.34123656045086 0
-110.11675089883 -10.272958003381 12.488418680981 0
37.9696337282725 -1.84155193684975 4.06139539124658 0
19.7409116173164 9.49044363457882 -13.1913411167541 0
40.3484302607006 8.88390148003819 -6.09333732509695 0
-144.5673830003 -13.2231658366552 -8.60769065708664 0
-183.997498639247 -6.23608396879972 -8.94856802139985 0
-61.7323076774657 1.28577255687844 -17.9906080431098 0
-216.063029486946 -25.0113851914721 1.75108985628535 0
-79.9957238875385 -19.5013082148185 -0.764400453375041 0
-165.457848844549 -12.566642824855 -7.07537231420184 0
-227.252079217849 42.3888744376274 2.30567703151145 0
-166.736177299653 -26.9141570728084 1.10130056144381 0
-172.74864277951 -25.1036641677644 -4.10514085371637 0
-194.984855202652 -8.84114529464823 -11.8308645957293 0
-209.623058419195 -3.06082792715326 10.8707491062096 0
-231.332076468008 11.3049397543595 17.5262226861549 0
-219.436950473965 44.2429506793237 -7.10619108467414 0
-222.900277512269 14.0819560968232 19.8166113393818 0
-194.734621611062 -8.72755702491738 24.3986343236712 0
45.8253445793305 3.74883273187809 0.195169425761113 1
-61.1194019744328 -2.27216968420196 -19.1992630412862 0
-25.0370471463181 -16.8508633783601 -11.29962667628 0
-113.746226706299 -11.3728252073805 -12.4724479267679 0
-185.734713429151 15.4750166228001 1.53166721359127 0
-24.1463572047058 -16.8778207785329 -8.46831730563149 0
41.5568423582911 -5.29145344792771 5.11790327667084 1
-133.216331851901 -20.8016499323434 -4.1292671834936 0
-199.936845598433 16.234099293004 -9.64117349518937 0
44.7605477706175 -16.7401313584244 -7.08581982868341 1
-57.9049559238023 -9.45305504975334 5.68682266519121 0
-224.575242527739 40.3068943570402 13.7726514160265 0
-117.167343400604 -15.15271302655 12.8651676870946 0
2.82899135426663 0.525431437902267 3.84126862479695 0
-203.444845793746 21.9336284907513 -6.54370484562767 0
-189.549076468323 -22.3053772040425 25.3083978279242 0
-88.4459293451927 2.0098982835821 4.22931295293647 0
-204.554386114145 14.5514863613704 12.6645104243595 0
-169.460372443529 9.91274115891834 3.78199287550701 0
-116.927291414982 -2.45036571423586 11.096418918205 0
-190.83253457551 -37.8138945027338 7.13678419357817 0
3.92740117816104 -16.1380969393227 -7.65674064308971 0
-209.264080590762 24.7615325450498 13.4973656744394 0
-240.440764031587 7.09784425378607 4.39542466202364 0
-188.29527216771 -5.05427406985412 22.4725605504322 0
-110.831331241443 4.05115109695886 -8.40261241748093 0
-50.4484118891614 -15.0005672672213 -0.361886764066606 0
-227.891859064441 14.944614897792 19.9024674748808 0
-203.451097845769 22.2833712147033 8.37715201895516 0
-91.5986644140798 3.79064348376308 2.0723133971306 0
-235.960734641034 38.2843951304231 -12.2538750236246 0
32.2883268440226 4.61012528607732 -20.5547910452733 0
-202.006979036333 -12.2176461909795 -12.9369313059626 0
-28.4393350224116 7.36989453725994 -13.4776654985189 0
-92.4036996084424 -1.7628410832854 7.74854667558277 0
-81.0268412430258 -3.84165515312295 -17.6763376874146 0
-35.5371306713331 -12.5674556565934 0.836035736135024 0
-144.399778143483 -22.5628050614425 -1.79727672905177 0
-223.654355001262 20.611051956646 -22.4275236948531 0
-213.775916902804 42.1464388174323 3.62040465462584 0
-199.249710879283 -34.5953203026783 14.2382223700048 0
-122.822899099247 4.73304366991949 -5.31387252578791 0
-100.401915174735 -10.3392082489006 11.7134980591552 0
-97.5997487695248 3.14004088765542 3.63000259514669 0
-207.916224758122 -28.5387976050286 17.8198905132864 0
-181.62112111751 -28.8616611921237 -5.0202389903344 0
-190.352458967293 -37.9119768535873 4.93498776371518 0
-222.859272709414 0.937853628947315 0.936304250671915 0
-194.853030873981 -31.0152685977238 -3.79686517449927 0
-87.5954978805195 5.02127459300849 -1.13116787624611 0
13.913173324084 3.3104755676776 -0.782965517109426 0
-210.238418213992 39.642086352826 -4.06116544474022 0
-205.756221699725 34.6712337306397 -1.56096988050662 0
-182.624237460465 -1.74418186737208 -9.7743341605708 0
-151.906607229501 7.14132572875974 4.41195550801599 0
-207.83980034407 27.1144069553385 -12.0455531463213 0
-192.2310153458 18.4007791701517 0.825787997135502 0
-154.08075294879 -14.6219347569116 -7.6240430238984 0
-218.964468088979 -0.896053514161142 -5.59936252024703 0
-213.683575552199 -11.6796603188894 24.160725866051 0
-154.428949730725 -7.40983632892148 -8.50782222609621 0
-155.524363462305 7.4425254028945 0.278663019439495 0
-30.1765155991258 0.968917138631872 3.46889173615429 0
-180.13347281201 -2.38492448054785 19.385276543575 0
-122.658977435242 -1.54301678447695 11.313167107178 0
-240.667493382832 38.5316234876624 -0.77166101464196 0
-155.7020831037 8.73598135237605 21.9220651070032 0
-156.379610876852 5.63573970784172 22.5055385721822 0
-177.34310341634 -22.1787561283752 -5.90492677852483 0
-109.373747449312 5.61754037207501 -1.21165324758823 0
-82.6329669737595 -13.9733143311197 7.34502483123623 0
31.881909803333 -15.3583011169405 -15.4691025683947 0
-28.5208618182956 4.21484329805202 -18.3371857519038 0
-75.0289945889836 2.9435301732217 2.23578444221974 0
-158.432773460726 7.28873208170905 -4.12412327574613 0
-198.773406125717 -6.93734522944121 -12.0432191180675 0
-236.977518764648 42.1861199136055 -0.38366001918483 0
-164.534164429028 -26.6880794751048 2.21953970470472 0
-50.1317868413944 -2.09757999830136 -19.9354667609475 0
-195.697960821422 0.607874074776524 -10.7647961763289 0
-62.3069470598231 -0.554458847824126 -18.6974189491652 0
-219.810567415873 -2.07144633888898 -3.71633004386339 0
-234.87773584021 3.46982426334368 -0.867436661854195 0
-155.317911526918 11.3807193344457 18.5381913358577 0
-208.689483116773 -22.0165146660507 25.1230982874825 0
-145.466769398665 -23.8813703127171 0.779527617490534 0
-220.544624607074 7.4294681603829 -17.1220991844444 0
-126.357299194107 -17.9988446002486 11.6321059752987 0
-205.123184745278 -9.76285929377723 -11.6854115047508 0
-175.167466369701 -28.1385952165494 15.5089805343668 0
-158.738523999837 6.31425058869011 -5.54689033621035 0
-147.327363584193 -7.07891792284032 -9.40157716696704 0
-80.8160439650952 -11.5789705558781 8.47918339434777 0
-58.0287773638403 -13.6468293593841 2.25661456283698 0
-200.949190411966 -26.8523680410147 -6.68884902402596 0
-227.479060800644 5.23031971922175 11.8567502543325 0
-151.375184859006 -17.0274597885194 -7.04587513346475 0
38.4926364202734 -9.84311057122794 -21.8304275961489 0
-213.795103540789 3.89162245800409 -12.806706962731 0
-122.505881799482 -7.27481074823288 12.9477336838798 0
-140.999138181617 -20.8734652755502 -4.0133726525523 0
-39.9729046477592 -5.99688145990742 -20.7157291902251 0
-83.2712140739618 5.76596534452125 -8.49610423174304 0
-154.994396674862 -2.3985967925831 19.8275751206871 0
-229.581170696284 28.4320477835261 -22.0976491908367 0
-101.44929480927 -0.364196846010376 -14.5858174519714 0
-72.6667268091629 6.25983029087198 -8.3904373912539 0
-234.94701900142 41.749233183233 0.599945682446419 0
-155.225479510404 4.73743878076013 -5.65878572571735 0
-111.576499253199 -9.41636501028764 12.2763643810984 0
-104.679776599626 -4.67902477697127 -15.0936700866984 0
-230.12053215382 4.3157355738532 10.0707505300835 0
-234.686947598522 9.02433962750391 14.3559972435821 0
-109.552856317884 2.67458421296506 -10.7917607729339 0
37.5774330951272 -11.7490816774907 1.7701746017394 0
-53.6779225182999 5.26629017462305 -3.63808242596757 0
-182.649165484161 -30.5536113841255 -4.38318251845932 0
-229.457329547495 3.59615366992193 5.56579026747731 0
-198.299740267934 -8.73439470974954 -12.2937505395902 0
-64.1688070175496 4.93703878778908 -14.5457531109482 0
-137.790823296764 -22.889621869889 7.46859597214796 0
-230.913261087972 41.8870721410087 1.7633757378065 0
-2.58847753031853 -3.36963990978106 5.94126651538757 0
19.0508755086059 -15.9525651067576 -13.5200564089433 0
-178.875590940056 -21.4359416832275 -6.04329902708691 0
-187.180557223077 -14.1142330108163 -8.46166324660068 0
-172.593772569026 11.0266062011573 3.99084010495529 0
-228.272165829328 44.9703422243308 -4.44566496436287 0
-223.695207370555 3.40045557694264 -13.2191300956653 0
-160.402845363586 10.859851304428 8.63679039226983 0
-150.786293740825 8.51207932899914 13.8607785334182 0
17.4209529897776 -7.60268023784074 3.99977695530817 0
-243.097738067164 15.8786438723629 10.5202857750153 0
-155.610813077867 7.6646176753895 4.91770119558768 0
-181.109998140588 -7.08524998387078 -7.52186094735327 0
-176.658313359809 -31.7202401953116 5.14878433815253 0
-203.455326155756 15.7920517011211 11.6327642259973 0
-58.3731669111174 -8.01856368122192 -19.272767541709 0
-122.515048806042 -4.6374755588938 12.3324187776517 0
-180.909463383243 0.595679338098534 17.7077962949542 0
-178.987116910465 -28.6589651524833 17.5683740955676 0
-196.151482616198 -14.7091214056965 27.1857869139098 0
-112.02130878082 -6.76035559053317 -13.9433236775344 0
-121.412241266196 -22.5391513532945 -0.0400871044308525 0
-42.7887302165329 6.75953022720847 -13.2178223393229 0
-224.144025573185 3.13186601081057 0.227128260444894 0
-209.802101076917 15.4441530933893 -12.3242948963913 0
-219.505722344377 0.506119545118542 -10.0809876642843 0
-206.679548033483 27.4464955362223 9.76249978158063 0
-179.68042038787 7.74152675031641 12.879168498473 0
-47.5788812221132 0.517077803362361 3.98175203286755 0
-211.32195309344 37.0250393396365 10.2406617848567 0
-67.9367911759311 -3.29096771782864 7.19295586213771 0
-198.085770619758 -33.3576044980522 15.6792513514625 0
-211.378902531206 -21.5813703727695 -6.40934743307397 0
-208.269181350033 5.00158959270514 -12.905983850164 0
-238.708139881563 5.80440446454508 -7.24384838244573 0
-207.370845043327 34.5191909793542 7.25201311612538 0
4.60915870517985 8.36868026910648 -14.9440873749827 0
-59.4761876809443 -17.2591497960567 -1.71855134922642 0
-185.280223789424 -27.2530353841164 22.1229766048691 0
-119.847838289793 -18.6197498781463 -7.04408378404451 0
-186.218339283396 -18.4226852677266 26.7721158263226 0
-189.904211758819 -37.1970992514642 2.85451238939091 0
-232.027005747829 2.97572448060996 6.36728692769819 0
-215.991999422019 33.9860708011042 -18.3052822292291 0
-206.586063054946 33.4801291175515 -6.04778552403184 0
-4.33607168084376 -16.3956256480172 -11.2696691191654 0
-163.090526143147 8.40460098991634 2.32822846515991 0
-140.25600405458 -15.6034603565637 -8.23508944311703 0
-191.322148720745 16.7209684737853 6.00953885376797 0
10.4845713614147 5.38576702143817 -19.1875599258861 0
-85.0648942127767 -19.9126766069871 -0.123696478810497 0
-79.0132189692819 -11.7613995182915 8.04358637885997 0
-181.972641571874 13.4969992865555 -0.337756574702479 0
-19.2719329292503 7.80318050242331 -10.268188830123 0
-196.534139012752 20.8106324445128 -0.29454644705005 0
-200.325600082509 23.8080345460682 3.14595275890764 0
-16.6664296810309 4.69372300243653 -2.80513664837147 0
-33.8950739961333 -11.0186598608058 2.10887043240917 0
-33.233715582425 -1.504810252119 -20.730822660274 0
-227.911960030002 3.8791168680771 6.20383518747574 0
-102.799729102736 -16.3762906659062 9.00932802780991 0
14.1122055572595 6.31745150619776 -18.5866559755294 0
-95.477532613421 -5.13117354271404 9.42792807217617 0
-159.182885609964 12.7919421994569 10.7328941860707 0
-163.011598608529 -1.00086437577629 21.5224330343581 0
-191.986601215869 -10.8400001618387 -11.3809012338178 0
-229.132346863112 40.529448806102 4.28897876409841 0
-157.631640882223 -24.6756122238881 -0.29217650227052 0
-67.7571015191187 -7.82680689596659 -18.5896256900499 0
-170.545507406563 9.98120062190293 12.3680381193501 0
-207.772455872606 -24.4414809511228 -7.34661019437089 0
1.79457232743657 5.42293125916954 -18.7585648081865 0
-196.325996625116 -37.7112077878746 8.37238288535856 0
-232.259150269069 40.6050650612552 10.6393669874788 0
-202.845268978512 -35.9659455774785 2.9230267093203 0
-58.0153584731333 4.97060589588745 -15.23999509666 0
-139.756896025317 -7.16502617571161 -10.3048699421321 0
-202.982225819346 -27.9185575740775 22.849413870001 0
-224.683649819443 15.4338716038679 20.2826863415562 0
-191.203061147729 12.2695338013012 10.3214297542175 0
-189.793560462851 -26.5508818837439 22.7463613842438 0
-31.4387597360702 -8.26881545371059 4.13362681363617 0
-190.130139508967 -35.5741357142442 11.2989756023588 0
-103.499177301918 4.19394457110317 2.57810753196138 0
-215.190699936829 -19.9205234081187 -5.52087109576553 0
-205.977613592047 1.85011767177292 -12.041715335197 0
-130.703237910012 -1.99359031368965 -11.4845378528952 0
-66.8112071942832 5.38868110614607 -3.17932657972618 0
-208.92431967252 -7.76912350355391 -9.99862558372859 0
-224.78491865248 6.68913363465064 14.6011569802755 0
-229.188117123721 39.1557114127098 -15.3724393595653 0
-105.433623046249 -8.07977980542296 11.0664271246558 0
-14.1055911614114 -15.0320526014077 -16.2922254088835 0
-56.1034986611205 -11.9222408771556 -17.6906519099105 0
-232.002259583366 39.3655768149849 -13.6527107127578 0
-184.049200014461 -24.8298659519451 -6.25475684632293 0
-146.607332095431 0.971374307519796 17.5484542612015 0
-206.287848066315 -15.2894907752729 27.698529469943 0
-184.813402720784 1.67950268528038 -8.76803077038118 0
-215.763314009144 -3.74014177776795 -7.94449517152137 0
-54.5558745298392 -5.18611887484346 -19.8698008514196 0
-219.040603023546 42.306868102486 -11.056147768048 0
-217.916373724661 40.9555867044781 10.9835675011327 0
-2.16784269217806 -11.9398873475352 -19.8510584106515 0
16.8238988359921 -13.0207220563743 -19.1985475269416 0
27.4492958590059 3.73978652838093 -20.8456274930572 0
-206.89325422479 -9.48623110051271 22.7643296212163 0
-211.997491885877 -27.2368145927129 -1.80000215597089 0
-220.950680431948 34.1167947894757 18.325949238561 0
-30.1498342690111 -0.288071738775638 5.17219333760698 0
-48.7188856715939 -7.31412691491958 -20.0024586504536 0
-47.3834713256298 -18.0636717486377 -8.93403441547149 0
-138.148721277476 5.72717678672922 -1.2696605690826 0
-73.0824742648998 0.393034529821801 -17.4253340091289 0
-230.72541687878 38.8587051024919 -15.0080230659896 0
-181.11067620144 7.29161322968807 -7.03438172554113 0
-193.458570302934 -35.002981184638 12.259052226033 0
-74.7916284387429 5.16451397017822 -12.2870314615067 0
-76.2167369526701 0.448219970904079 5.25663941058217 0
-182.524887734691 -6.68982176685729 -8.22375194119977 0
-164.48307452984 -17.0559455762801 -7.23864540645353 0
-227.539170831538 38.6232176017847 -16.5724939450389 0
-6.24148069778229 4.82572661670024 -2.77713812495495 0
-220.720167124057 23.5301867852933 -22.153905240849 0
-208.344792172098 38.3140402167544 -1.24978603007662 0
19.5667193389575 -16.3406349909797 -9.48074175099868 0
-170.738031923187 -22.3798742134251 20.4675914597292 0
-169.260862908408 -14.7796597036996 -6.89074478932953 0
-174.72074136779 -5.54271348854354 24.0984911557848 0
-212.449544422983 -8.71147359548956 22.239406402346 0
-202.650600480711 -34.2414880653015 1.19036044634915 0
-153.892250105828 -11.8619553644112 18.820513529581 0
-110.466522188749 2.27719747352072 5.9037903101922 0
-150.795774795532 4.22173982039441 -5.68508706978982 0
-61.234268963679 -16.6508992969878 -12.8396221243416 0
-174.20331491075 0.0872476894710812 20.521723069084 0
-154.612051627479 7.62151547929076 3.24876590181603 0
-201.81647995326 20.7126577964111 -6.08169310187045 0
-195.421305959455 19.711965927706 -1.85236197159617 0
-203.689793300967 27.2854618995298 4.8869443567727 0
-167.809879019848 -6.24484501434399 22.8739797304621 0
-180.564543117025 9.47086717489422 11.5293998258178 0
-87.8230914049134 -0.95199045992917 6.90199556832233 0
-185.555095230867 -34.1594855544722 13.8518564710839 0
-7.80160376296949 0.501048832225604 3.82183225250824 0
-188.515262841076 14.8806920552433 -2.96301807518181 0
-212.460302492934 12.6067014754103 15.799216910969 0
-174.184646008238 -28.4152351367548 14.1780913856132 0
-231.715448328509 39.5282316867886 5.83196846972229 0
-165.908083791311 2.28245878678688 21.7523653471486 0
1.78547036925733 8.27441713310386 -9.54556639889544 0
-178.619336767327 -32.3419614065993 2.93599286133285 0
-203.249602136955 7.29608310854041 -12.0532002995986 0
30.0837521806083 4.13964099035855 -20.7219854208249 0
-161.032626432754 4.24529343274666 22.1631901640973 0
-205.438257108706 6.07439821557076 -12.7810583326231 0
-245.169984584833 21.5932625232151 8.86138547506602 0
-204.924622049109 14.1810766273486 -11.1584011576135 0
-125.809148238742 1.72114374793215 9.26691550030078 0
4.6763448592501 1.35496162252494 2.6778996039676 0
-230.548579608418 32.1085039877119 -20.2422582017664 0
-193.914741393537 5.26560025856332 13.7245643422024 0
-188.660949905513 -9.45489334057096 -10.6708085070417 0
-169.732204027784 12.3492900346112 6.10624654583595 0
-215.149206131634 -10.0340726631807 -3.26579010562684 0
-80.5294393758631 6.00791720559852 -7.19462982183277 0
-126.169680400407 -10.5906639371014 -11.2518254687785 0
28.734698197305 1.67798990971453 -21.7375677873097 0
-22.3900274474356 -16.7812252375672 -11.1746683662886 0
-151.377412428148 0.843863395375566 -8.68110450211338 0
-35.8098201224457 -13.6700829411387 -17.4332411609279 0
-47.9147256016008 -13.9414238445774 0.551080159063625 0
-212.072105147367 -6.00096095537767 -9.0295065954344 0
-183.413786108544 -7.60810684478999 -8.23889289277844 0
-157.127960780082 11.0750454546186 20.9285099073895 0
0.67417110047072 -14.8365157023644 -3.64290619380208 0
12.9856428154507 -15.4631485480625 -4.8078131587896 0
-217.28468582407 -3.55311499840006 -6.58259410322026 0
-199.245106287104 -29.7646384587304 20.6643423730296 0
-211.638121800007 37.5009392054616 -11.5189611145161 0
-226.001619016136 45.2165819449087 1.81579467857384 0
35.4736521466572 10.0193615231733 -15.0877997395698 0
45.344893789498 7.00327809633721 -19.5363628774385 1
-82.0200353097509 -5.42213873064769 8.62652800545349 0
-229.17030710225 37.4733399346702 15.58828424184 0
-203.866163706511 5.18827791820291 -11.9506751899307 0
-242.895614405438 18.2790289416362 11.7775972557909 0
-45.7961096900962 -3.5833742374123 -20.4044594856924 0
-200.478824451887 -36.6997632985744 8.18631985690783 0
-169.476415730381 -27.9378274105069 2.08064615648978 0
34.2346314265119 -7.91000356673689 3.98104858511456 0
-200.596558447438 -13.0744809579622 13.473858919041 0
-203.343610606816 18.0303834879835 -8.63076033843751 0
-112.170161433122 -19.0835669961902 -6.85252264543627 0
-167.86644082421 -1.42528008589411 22.0761577171661 0
-64.589828534298 -12.5960324338382 -16.6478533640139 0
-139.740194617586 -16.0249143259804 16.6074415736959 0
-186.650039396226 11.677757451143 -5.35548004598823 0
-79.6234382971906 -14.3334649804057 -14.1842582044529 0
14.2641520538359 1.36882517013019 1.80470332288657 0
-34.8690797689472 1.39718363826681 2.9178405042116 0
-142.102646962658 -14.5699475934066 -8.4573112034807 0
30.9705068323533 -16.2783258511127 -11.983991442946 0
-47.6746256696623 6.49110795193052 -6.89536181543616 0
-187.618996699106 -28.6906756858765 -7.26296254979219 0
-208.491690647681 37.7215728569763 4.38092249417728 0
-75.1420535354129 -12.9544395794046 6.50620866523318 0
9.07696341279479 6.41194589233423 -4.87176904916036 0
-184.14540638473 -17.8917278866169 -6.86068895017131 0
-157.938387133163 -17.295283313741 -6.9127409157137 0
-66.1041079614209 3.6451101659223 0.412737559075867 0
-230.325188149126 5.50032794750835 -14.3891462141463 0
-213.93357909145 37.5551741070087 -13.7938474739955 0
-167.725231820931 -27.8734369216714 9.73316698141082 0
-10.9491338036827 -9.5507938635669 -21.0153036507129 0
-135.235167046158 -16.0855033308094 15.7653112703968 0
-247.396611630497 24.6433501686251 0.229816262164537 0
-40.9651026554156 -17.1191828308913 -5.02077678635059 0
-218.673390181373 -23.1949117044081 3.88860340451991 0
-95.2402902645118 -17.0140847297973 -10.2324212274131 0
11.2554779365276 -16.0704183722061 -7.28250313284368 0
-148.630346716384 6.75238408037791 8.89888923225271 0
-246.23353965599 17.6060019453858 5.04335375975539 0
-215.392146482701 -12.7291380193106 22.2784498423986 0
-187.061022515139 -11.6248760875925 -9.39860911680876 0
31.8870664627135 -6.20360375792727 4.78753558879759 0
-63.8326043111707 6.39107746935114 -10.1020249298071 0
-142.372920037512 -24.0292359008115 2.26457119784815 0
-193.221383707014 15.756134866201 8.1718423396667 0
-199.402359214255 -11.8979560500835 14.8535120422672 0
7.22491369147385 -14.6906731836882 -3.24469080847859 0
-221.674252634275 23.2736900101036 21.1767134987876 0
-201.376501318269 -30.620431801753 19.9552023244077 0
29.9460798639636 9.83845773768085 -14.46571987637 0
-37.2314539005441 -7.42868094229445 -20.6914290508516 0
-23.7025681109586 7.53500943269058 -9.01274068219186 0
-90.2521811653599 -0.64449676096204 6.72406457087411 0
-141.820358223818 -3.54407401216965 16.1567505668645 0
-77.2598897816146 4.50626638585197 -13.2057517660121 0
-7.02497213025934 7.90961791386615 -8.98522193194953 0
-212.833419025933 32.9518398253125 15.526819386605 0
-185.986872098936 -4.30536005752441 22.31364272365 0
-107.775600647986 -9.69777021651061 12.0565326411768 0
-3.99811326866516 -3.66255975865326 -22.0400316087415 0
-138.70916211742 -17.074472466286 -7.55303143747465 0
-36.7771152375963 -9.86058051686024 -19.9434583460217 0
-165.093435779222 -22.3304093949317 -4.70825961496764 0
-218.976847635919 44.0964771854681 4.8800252424122 0
-128.839335494439 -17.2022633971455 12.9184735117189 0
-142.435957274455 4.91867939800972 -3.77875105432267 0
-117.748090133549 -16.9917556394212 11.0147490182539 0
-61.5182200158475 6.21791195142835 -6.00063155313347 0
-94.2979140253789 4.14608888480348 1.68623304333985 0
-15.7494013210417 -3.55029483292045 6.24351219106532 0
-206.120705528957 10.834841904305 14.2849267006322 0
-59.4828260052603 -18.6344440339405 -5.03530596302796 0
-158.747783091482 -13.0043390732031 20.1126052525012 0
-201.465342457199 -4.3997749284168 13.4943020481338 0
-182.826068387154 -15.1514820565584 -7.26722252879846 0
-104.155011726821 0.611189090250041 -13.6736380487809 0
-6.12858589805011 -0.69699262535597 -21.43106641898 0
-171.226238911804 7.98236025789048 -6.42511662085078 0
-207.604958850409 -5.372139169374 -10.7870513610806 0
-61.0801074665852 -9.44938710266022 6.09831325728775 0
-207.130038622933 17.6416689291837 -10.8829408214193 0
38.279839850708 9.47232311168927 -16.6256205598668 0
-198.821435403558 12.3718000838388 11.7915765373104 0
30.2448319185316 -10.807015824675 2.06535665962769 0
-26.9746256445514 1.07366729940076 -20.2170343401236 0
-144.402447225029 5.70574935856236 -1.37849057809976 0
-212.089803562804 41.2754994628945 -3.52604349231669 0
-218.961255893937 1.46405538064839 8.58979079668181 0
-148.864062650763 6.96136125804443 12.7828402698802 0
-119.489524706723 -2.1209154616639 -12.8734082606077 0
0.34043816882404 3.16096804355638 -0.0477547141566062 0
-227.600369362358 4.89283299723096 10.3387078899017 0
-91.7106536185536 -14.2888391472356 8.67453002364543 0
-96.3307464452974 5.6460211107917 -5.85274227663764 0
-137.913124919897 6.27607349728269 2.51027064368907 0
-175.516970940966 -9.78054188707323 25.200007536869 0
-29.9759007306549 -15.4640229199193 -3.19578216269678 0
-104.575290260902 0.988544291083967 6.59655911090943 0
-218.184254236017 10.5168044212254 16.838525054001 0
-9.88397757342047 -16.5072846186378 -9.73469586123165 0
-200.744817186734 -36.0525574252004 9.44170866143424 0
-214.031860389045 -17.4223181658858 22.4353828865784 0
-11.3040180560196 2.98444243049693 -19.9157035916386 0
-158.953599117845 -6.34636425402524 20.5734645666895 0
-198.399446080748 16.6525186908972 -8.13497435838265 0
-214.905436181696 32.2753256082514 17.2031575158128 0
44.0216390746386 3.066780911597 0.496082927748779 1
-61.7083056523712 -3.50632099973376 6.84435369327168 0
-63.6357181404667 -10.703919149245 5.54964585693523 0
-33.5565346476696 2.4470381760449 1.38563434001515 0
-241.33687573185 29.7878425342933 12.5162308838101 0
-142.475317542724 -15.8239932081894 16.929742145261 0
-219.053168712074 18.3048354237142 20.2233611565986 0
-153.020109724159 -24.747613461092 1.15733703599259 0
-236.529409813483 3.78820553590405 -4.90468518468106 0
35.3391639794616 8.8586202094914 -17.2143022686188 0
-215.165854612552 -20.7941970894134 18.4042613086717 0
-82.6718034665423 -20.0266364078954 -1.81012149490004 0
-8.9104422344554 -5.02892249026977 6.19977363706495 0
-196.261302253908 -7.96559929684388 -11.9494831894839 0
-196.726794965389 -22.2075593910297 -8.36080909591645 0
-211.111446622734 21.8472302351834 15.1396014877513 0
35.7479874340363 8.34753085155307 -5.83266507238764 0
-182.576453879757 2.85357895616585 15.7828837719108 0
-25.5152916000186 -1.89042464139865 5.81373134226543 0
40.1387128112128 5.49726788061252 -20.3015537592952 0
-192.417997661857 -8.57438230402596 25.3380726356574 0
-1.15129900268974 -13.4577411048324 -1.39960075017236 0
-227.953691237525 39.4341912622642 14.3088957395124 0
-57.6570734738 -6.22029835660287 6.98827036721831 0
-117.55759293268 -7.68185408874123 12.4898911004512 0
-177.087314214089 -15.4466537802611 -6.81352660606667 0
-211.616216394845 -24.22359717902 20.9390465034983 0
-18.8840769022584 1.49423383381851 2.77442182344065 0
-138.514827077352 -8.01997428231119 15.4857479643172 0
-208.933220659001 37.2970262130648 -7.05168895928181 0
-206.227445459099 10.9082585649422 -11.9998327483864 0
-45.727926862386 1.49372977640401 -19.0275244260167 0
-163.892074609279 13.2404490124801 13.7516759112291 0
-161.538583763055 13.6827917386159 14.4366142655584 0
-121.655217114008 -16.3890922237149 -8.95582088214623 0
-204.042895512131 9.30704632318764 14.092854123903 0
-73.8616320148462 -10.204571945812 7.97266165150037 0
-211.89742485812 -23.2310757362373 -5.40195019744672 0
-218.53077008177 33.5779259719435 -19.7247272719781 0
-80.2548380869027 5.22553132621722 -11.2455663103221 0
-33.6161684042235 4.56702833169618 -2.72121388077939 0
-234.915128945073 3.14996057269349 0.739993106780638 0
-236.683408197906 10.0284746378383 13.5439104997571 0
-222.036208322428 16.8030889450788 -22.0422748295702 0
-102.496743365062 -11.1400148185785 11.9655565112405 0
-188.388136223031 12.6374314012 -5.40342198576434 0
-0.373836852524521 7.33006977538384 -7.06422850336335 0
-218.024304983486 41.0906507084162 -12.4077393214709 0
-206.531361807344 -2.66965455089497 12.5875638226608 0
-191.480153171747 -20.2853857273824 26.301676394642 0
-149.108168100927 -1.16320355719923 18.1015251784018 0
-232.700805603284 40.5292332695789 8.76252429524073 0
-63.3746914392334 -3.32959877614786 -19.1647455330224 0
-236.898284928024 40.9712873486494 -5.74597731281261 0
-4.63746163976824 8.21879775549901 -10.0350578292599 0
-28.679047802579 -16.8020283717047 -12.2717620875226 0
-183.905862398447 -29.4889147764055 -5.70786244388613 0
-166.019421591775 -20.9700607301861 19.50623717893 0
-85.249743259687 -0.325961818694667 6.26142733816882 0
-149.908708078976 2.56687871732822 -7.6419257151078 0
-234.976220315816 28.3504537837064 -19.9350114250472 0
-213.915740055443 13.8851619922725 16.5085162180151 0
-187.204526001216 13.5242399896668 -3.69074002372013 0
-154.998976216487 -25.2457816128925 5.99313427076546 0
-172.963277078678 3.40019096082621 -8.46656422737362 0
-179.350163419386 -8.36665149155735 -7.46903594063982 0
-153.473759183326 -23.5090409030549 11.5331361763789 0
14.7571695509494 -15.99128016003 -13.3458320898903 0
-68.7397960331176 5.69011079891424 -11.9918575723638 0
-211.407465402246 41.0180152085073 0.149653404725224 0
-78.5820935763089 6.04700182105076 -8.0126152582695 0
-177.628264947938 -8.14523842209309 25.4819690771203 0
-201.858229465046 12.9799571338811 -11.2128352839658 0
26.4163470127946 9.33087706691733 -9.12821896088108 0
-193.803620372122 3.41756442569489 14.3039954869473 0
-202.011903520835 -7.64344624285789 12.9362654862806 0
-10.7830550359107 -11.8613123170872 -19.7227098223226 0
-163.425517035411 -14.648919162929 -7.15521669027054 0
-135.229827404778 2.75336897433768 10.1765937936533 0
-0.919585130174902 -6.03162440129714 -22.1158143902987 0
-85.6013525982349 -6.31442591722587 8.96610264110706 0
-202.3578353087 10.416504137694 13.4923769428481 0
-191.137371575934 -26.3427031996529 -7.43700359950617 0
-192.047528155291 -37.5126634843673 2.93859914063307 0
-182.31103701319 -25.148023840469 23.1324781984962 0
-209.520468683582 38.8296323558076 3.64571348616336 0
-42.3435395933877 0.622664433997775 3.80457127849983 0
-207.304983405957 -12.5272555005964 15.6218310048721 0
-246.891380674399 20.2276277292157 -6.43420373606753 0
-64.0106562373109 -6.61989147994616 -19.1098455785928 0
-206.19635670976 5.42697208271435 14.4170289605354 0
-84.2692860680301 -15.2323343791199 -13.0125580781753 0
-215.356937445863 24.5907675636727 -20.8352462974944 0
-132.367139978864 -18.0523356066886 -7.15402014960512 0
-64.5662897170058 5.94321064270792 -12.011129420822 0
-172.268158319636 1.70122974200082 20.518379632577 0
-166.743028003863 8.96863707062098 0.650835822729067 0
-194.727973773862 17.2915092585379 7.16915703544638 0
-169.20406861082 -1.15932607626868 -8.01420267595951 0
-174.140805313775 -19.7596842223854 22.8674394468897 0
-111.866313253269 -11.0813087216415 12.9815858207869 0
-9.52071215575729 8.03693792999265 -13.7353331391218 0
-171.185323651977 4.87970257839557 -7.85856580802257 0
-56.8515585150628 2.43902899681763 1.98997288810386 0
-205.264824282921 -32.8493604051244 6.96191404223127 0
-168.024226105942 7.20479840948073 19.0361930140601 0
-185.336226710056 -4.63555147238171 -9.8608839475638 0
40.7206207670142 10.4882634274718 -14.7906640615505 0
-41.1306511878496 5.49032611733007 -4.32026709276816 0
-186.539628737307 -29.6254152236434 19.4554328163996 0
-100.168576982312 -12.901265429284 11.0558153377322 0
-161.807825386919 -17.3572209236909 -6.80991388291653 0
-207.858374988699 22.2649895984696 12.0765519564147 0
-197.056753968016 9.79138250796245 12.2824971328104 0
44.307203931529 -1.06600574588725 3.52396632038282 1
-217.148387088655 29.9381552470803 -20.4923886580862 0
-124.36507226929 5.73238948838176 -0.521395804496596 0
-185.341114798184 0.188649274649908 -10.0539296397268 0
-185.819385161618 -36.6906723875123 4.76403349733959 0
-105.933681313279 -20.8638051377613 4.75739121545327 0
-142.509777274837 -16.2437470122337 -7.86133774546559 0
-38.4503058456946 -3.38804886802083 6.06288716622839 0
-200.425226495766 -18.5269559026412 27.475624326802 0
-205.218696159754 30.2102643389731 -2.25973740310445 0
4.50293243280603 -6.47202306207014 -22.167834844949 0
-194.769229859889 -29.6974415048115 20.1251693564628 0
-77.249939547269 -7.59836940597581 8.98568739425061 0
-186.884240898268 -32.9548578959088 -3.63912572064815 0
-135.116411519559 -20.6976146009064 10.7182181984819 0
-177.293727942294 5.37755302668608 -7.92413553288874 0
-116.834350175676 1.74557619219133 7.94151732366689 0
-47.2257969819825 -0.670441501942005 -19.799898809432 0
-167.990139999513 10.9377400198154 12.1007763287247 0
-210.437256221783 15.873802654751 -13.7481473256627 0
-197.018633736619 -28.4698813007352 21.6578039571393 0
-54.1007392146368 -17.7652780730592 -3.79816183839912 0
-136.025766247153 -13.4766045848231 15.9362304859245 0
-32.0569483444568 -3.86278332543487 -21.1500360121497 0
10.1705715812638 -1.83922931226498 4.98070818707723 0
-223.401808879537 1.45422286365674 -9.35505063566969 0
-177.889347876879 -6.26523691264354 24.8880550974169 0
-186.321871003538 6.26224060050168 -8.36402334031602 0
-193.962907805288 18.9687392297249 3.4157276181084 0
-161.112962769478 -15.7544651298826 -7.14000142324848 0
30.6043420549921 -15.7078112532555 -4.11899360749277 0
-209.669471208309 -16.0425223261284 26.0742160443663 0
32.3626733636825 9.15908644138081 -16.4931536074918 0
-184.881088827534 -1.13062174126944 17.6790396868345 0
-160.200683599863 -20.0762090305707 -5.78029041800596 0
-175.056154597416 -30.4545631301978 3.38436719700723 0
-142.592347437021 -12.5562894419328 16.7100276804999 0
-25.2206639034982 6.29625304953231 -16.2924397443247 0
-188.216275241158 0.461623744170039 -10.224699114902 0
4.35885076967126 8.16700552978761 -8.81810968195727 0
40.4931169827121 10.8930406084399 -12.4973899109214 0
-130.670047964174 -20.0971130912159 10.6631572453358 0
23.0136404181543 -16.3611100931893 -8.73585222908338 0
-186.544553591038 -36.4150444112701 10.1686115534134 0
-227.752837780231 2.43313114168764 -1.50627065229505 0
-244.738598242094 11.9125699011541 -2.56016850769792 0
-206.89112152363 4.79964068228612 -12.9397727029122 0
-80.6170645072681 -1.9393826057664 7.57833033841954 0
-159.069949595831 8.47167490490332 4.93522450533481 0
-79.1844598905172 1.15066934911337 -16.3767818343131 0
-241.148778090431 36.4166445752733 6.44383593881003 0
-221.607703048118 38.9829221287561 -16.1942903028303 0
-211.955054721746 36.0406190605719 12.2605111714626 0
-199.323763735852 -25.2532921383079 -7.53154147542016 0
9.60228719913433 2.55882072742436 -20.8009660662344 0
-205.539539277414 -14.7680845298746 -12.003310250695 0
-215.453930898182 8.73470265504999 15.2445163878465 0
45.8323501032285 6.88749843941829 -2.83823092044393 1
37.2598890574832 4.34413149123964 -0.910610991168131 0
-46.3339254676604 -0.522457879067632 5.32086403191179 0
-247.151813469936 18.5814792454496 1.92875410620235 0
-164.220985924276 10.2029725796711 5.33217846881465 0
3.98326931679383 5.28411703694237 -3.34548116523293 0
-84.797711189727 -20.2570618732438 -3.75610937454978 0
-218.844963974907 20.1648426971169 20.4688284269168 0
-68.4465321849558 -5.79430098944586 -18.8248085272305 0
-236.231596531162 18.2139909536817 17.8702727631745 0
-221.037475081497 18.655610957817 20.6218658949339 0
-33.785346032255 -9.25082438953028 -20.3522094825315 0
35.6839351306164 -16.5041781548163 -6.97288615531553 0
-198.383316839111 -37.6592642771256 5.09066751150356 0
-221.62136928003 28.3165226224699 -22.309183062079 0
-32.5125173845474 1.41060346332258 -19.7955820622455 0
-217.859435627218 23.0245978789356 -21.8149295414462 0
10.6222512705581 -15.5984735630084 -14.7348653979626 0
-152.174250623137 7.30852847242829 2.33399278289687 0
-207.397362214968 -23.0066081755085 -6.76233667366178 0
-59.7796760855002 4.42653688798326 -1.54969829557638 0
-197.247690557906 -19.9340648790381 -8.58728108383724 0
-35.2970102694121 0.322292073211699 4.48175020493497 0
-152.256834020248 -8.96281339635495 -8.48884370334352 0
-232.528825145594 24.1709667622174 -21.9504734661233 0
-75.763860188127 -0.0600625634450209 -17.3803993665602 0
-215.158847139621 29.4231889317129 -19.8300743504684 0
-196.752475462716 -1.43359352754549 14.8641155752035 0
-209.969865656507 25.3957209528925 -16.184671298142 0
-210.203982362898 -11.822519686303 -9.05744386544913 0
-144.119839532745 -14.5819008260018 -8.31625141786317 0
24.9220156703835 -15.5825155060524 -4.37051241229358 0
