213.520604824149 -12.8368965201502 17.2065241647305 0
175.318336175466 -15.8652337597038 12.3967984503113 0
206.820062486371 26.439301060237 -12.7482048015037 0
194.978390396542 30.3120454074936 30.2113124485924 0
117.863974094813 -14.8617328254262 -6.1417758183986 0
191.956163928413 22.4796000346232 -18.8283770516827 0
133.002098673806 17.6834457165034 -8.35506067508659 0
100.742572395288 -0.212105160445131 -25.3000896194836 0
210.343907985933 31.5640652793548 2.57789216469668 0
208.526141034847 -38.7222574408224 38.9840811446079 0
82.6972254958547 15.6815829475393 -20.8562730333687 0
194.455140727863 36.6827118286202 12.6082347170966 0
187.12498625994 30.1463709268672 18.0031211086947 0
156.491205944381 11.8061894842533 -22.4101988572735 0
77.176537180304 -5.10589266607021 -2.25385783011298 0
115.737041385285 -12.9520158456558 -4.12497479139096 0
219.685913591204 14.067115542737 23.8961262227259 0
165.815304173538 6.52585704325465 -23.7298798462386 0
199.872332994734 23.7661534331935 -19.2567107631309 0
0.745222953656385 8.16195115510325 -0.742271066986493 1
147.29879163943 18.2937005150962 -9.35426571407 0
52.5978556275445 -10.1360061683169 -10.2846905990965 0
65.0040521289183 17.8871797918672 -11.0303799782049 0
227.142379545343 -37.875795703955 16.3419542493932 0
54.6935942778312 16.2496409675243 -22.2884510862035 0
210.747653909756 -42.5527402312801 29.679658413996 0
211.436765662104 34.3138676059685 22.469610760037 0
194.056942741717 -29.9559424892164 34.9295364072461 0
174.070253899239 -17.4567665666885 12.9279173211373 0
170.209871069306 18.2902141065954 10.8878940040245 0
183.777314270566 29.0240726292866 7.98959467923483 0
187.860090476275 29.5000700388015 23.4836974141534 0
217.146694174978 -34.4514567995718 -3.19169598653437 0
213.305762040885 -27.557163117508 -12.7537641924016 0
33.2943912387703 -6.96508257199861 -21.6743819064705 0
95.010842589438 -2.59054157702036 -24.7039387019721 0
193.942543811316 9.50041620635339 29.4932013468048 0
122.669152062784 7.18661639239434 4.71786073547842 0
202.596566394139 -45.7484596395685 12.4073689808949 0
13.5431912546925 5.73996271438055 0.575918356809984 0
107.236275485381 -14.2646028610143 -15.1234965604422 0
164.600915900682 -18.1680380945984 7.93207355046607 0
93.5347036997433 -12.23827287352 -7.59558686535169 0
175.929398661823 22.2239825721239 -5.80645999198518 0
160.644013961618 14.1792810553878 9.48605055259439 0
8.98239075007795 10.3165705070961 -2.29564193942416 0
224.589638722171 23.5700943373346 11.5646169107965 0
52.4135814740519 -3.88726912824013 -23.9806589349377 0
162.293917866028 -6.00241873606493 8.51917580822129 0
215.632222619993 -16.0753840580433 22.625907385158 0
168.001644407209 20.7496343644058 -4.32469087960592 0
218.702944057625 4.48041007592821 -9.34101196846302 0
194.783978530138 -22.1572408364255 34.2711415888735 0
186.3976517701 -6.26048860499143 15.8063691942 0
51.0930373021878 -8.48617297800959 -7.74193473123579 0
120.487058848593 1.77211096191008 -25.1637798920235 0
220.949326071521 31.2451405803938 24.5645373504671 0
189.24609796868 25.4435461643145 -10.3542350158591 0
173.61537578125 -19.6980572125988 12.8185377614116 0
218.06897711412 -6.02334792918312 10.2414002535363 0
180.31439892735 26.8939110548941 9.64100778157473 0
197.141933150675 4.21790579551187 22.6804996167985 0
79.077780117241 -2.75357434341329 -0.329542192201352 0
190.866822211492 -42.3683462098394 22.9351700910476 0
168.374417126984 -7.93164911545092 9.50528561575823 0
182.764265200685 -15.1381081870646 -18.8743791156197 0
25.9571739250895 -9.55078760424417 -17.0076883062526 0
209.94960164496 32.8965225396087 4.10713935025398 0
191.243146975034 -34.0200089259265 31.1390077593423 0
103.122606163442 17.254305316065 -8.87274240253455 0
218.725358624164 -12.3328805363961 13.0106935737044 0
172.207222254634 -4.70680841168775 -20.5432190568318 0
195.987701108607 13.1879962859542 32.2350992119528 0
38.6251892778695 -10.3314478315288 -13.5647572593817 0
139.581002714189 4.19022883432252 6.79779443314589 0
15.9746737329463 20.4161263297124 -17.7295411889948 0
181.350724149094 -13.1395046189583 -19.1345211253636 0
158.967842589297 -14.5647149719727 6.62930999001631 0
20.3085447524929 -6.99602410265697 -8.08273455341091 0
150.876219661834 -20.5553385837482 -5.22304628555858 0
183.951358562438 25.4454377424382 -5.07165079516827 0
204.194479029068 -31.9757414195247 39.9469460717581 0
81.5140069597112 -1.46183075750589 0.456431382770571 0
58.1752010981915 17.5857928154479 -19.2322280038411 0
157.97817462386 13.8737183300898 8.54914071388947 0
207.210145011318 -21.9431973882447 -18.3306349921035 0
120.500998221428 10.1215991894963 -23.674964246125 0
161.256192657231 -13.1954459190692 -18.2897406694933 0
24.7354512404115 -8.64461635922069 -10.3479568192443 0
104.470152635736 -14.4119785861067 -14.5787782731165 0
179.371604536244 -32.4924543291316 4.7201938357302 0
18.3381441032499 1.40767081252732 -0.272862051575053 0
187.014435435288 11.1747862329744 22.4677537198893 0
56.209675505579 9.65146950136436 -1.64101486627848 0
123.511313575067 -15.3304123366344 -5.37928856202839 0
228.035667588993 -22.0628996617106 14.8351073868389 0
10.3275489710195 2.46955509141158 -26.6917851599996 0
9.57918506025378 -1.4624156328152 -3.45678114094025 0
182.294084421578 7.62329322234717 -24.5773080547376 0
83.4100493600352 3.81861130863058 -26.2176773126121 0
184.057212427566 -30.0349023095767 -5.56717611193385 0
75.7565154996366 -10.5913143575932 -7.85039340707837 0
221.527153374799 22.5167800107377 -8.95372775681862 0
131.910019957185 -5.34595673928057 3.87555898343407 0
215.785344716141 -15.5724577457969 -15.8368448533317 0
187.683487632278 22.9661673719144 29.8477549023042 0
47.3069464203371 18.1995138860756 -19.5419616427963 0
23.7576905806649 17.5224948037536 -8.8135804707483 0
157.06155893694 2.17333556374535 -23.6174621316639 0
181.672634274677 -29.867270579041 -4.05225354528811 0
209.580476612091 18.9255980958734 34.6103702863668 0
159.637545546136 -4.59025102987586 -21.7260036435605 0
3.46126002370166 8.51538193991345 -1.18139583796431 1
13.3521577367746 0.533992393875592 -1.73142466520141 0
216.827742772032 -0.407398242413707 -9.76094437066251 0
1.19420958839603 19.7253704617469 -10.275073044894 1
215.104738475046 -1.82706491115944 -11.4473028645444 0
162.560552343593 -16.497851833823 7.59712665506484 0
192.304989938504 -17.9392561734052 -19.1155234488486 0
183.808764685321 20.4430772825806 20.858606161398 0
193.742306264726 30.0594139286933 -2.23677739598888 0
187.461085726777 30.3700420842814 14.4409814935361 0
212.624675994778 -42.4299009134436 6.4678515702883 0
194.201736662319 28.8803435526503 32.5006050513454 0
189.378464719591 -25.4653749695355 -14.1424771437844 0
190.636435742424 31.4153621632325 4.83317592068877 0
43.9793941804476 17.7625966681566 -10.1372343061001 0
85.3000654623847 17.7871178010653 -14.0023736814648 0
127.215756166574 7.75250853170257 -24.4408511334752 0
191.419975778869 -7.2331559344343 19.7760105091641 0
15.0386633041629 -0.285191494013765 -2.66253121565128 0
155.153768382865 16.3357199513216 -17.2491649251084 0
79.5890831802986 14.4576756206843 -22.8224065606966 0
198.813444056225 -16.545910836244 27.9128984901605 0
162.791632883587 -20.0007203854178 5.37926081916392 0
77.7266170920734 -11.58615395493 -9.26246926958265 0
186.41981704064 10.2514628215602 -25.8194935623158 0
172.5672361036 -20.4583719435205 -12.8452180503889 0
226.065991343346 -35.0726040633648 26.7401898446707 0
83.8521242752376 -12.0488698793234 -8.86905038467216 0
220.864097867165 5.03361763923633 -3.69637580527343 0
77.0197378555671 -8.6973689603967 -5.49668399262017 0
89.1670079880169 5.73284620031592 -26.0503526590207 0
175.445276497848 13.7243778964264 -22.5969272103412 0
152.497102440262 7.87454681251071 8.1677984643124 0
32.4004463677527 -5.05535534250438 -22.8713352174661 0
208.359731653621 -26.706974692729 -14.7359840614199 0
113.38879933735 3.93309676278302 -25.4755707805593 0
91.0964594165693 -7.99094324366651 -3.54964867545507 0
181.084885162517 25.7091804877137 2.54479153063297 0
195.984307769946 30.1053211742146 -3.23872461820083 0
126.080996147648 -7.50799883707992 -22.1859082842374 0
70.8196496184788 -12.2912742119364 -14.762040750242 0
158.816591392109 -21.4360667858371 -0.0154426013451941 0
227.552071024694 -20.4706404637398 12.7711264911831 0
194.715939908965 -14.0373921572101 22.7567010998344 0
217.702447585634 -1.52720814374287 9.77265483215254 0
198.26913562421 36.9047003371492 12.6952206563981 0
205.460200254973 -31.6263577970394 -10.0389672749507 0
124.88868121135 15.8469069671798 -1.15631086325834 0
203.604526250093 -18.5563337919704 -19.3621365665694 0
45.7224812877336 11.2702984229456 -26.5208428622932 0
186.499103660778 17.3786136114302 -23.7823058776383 0
228.684692281076 -24.9516368758723 16.3970934270494 0
142.115986112339 -19.034782034587 -8.95560196339635 0
219.380249352276 31.6977217048013 21.1314400340734 0
168.275545725514 20.8156554323135 -2.54895594973436 0
109.471138730966 -15.0850286179004 -13.4230271356563 0
215.07620877377 -34.1608302493678 -4.37888682904662 0
153.237573327748 2.86573557540693 8.05550386981942 0
177.01143114373 -30.4847013689983 6.12188802486952 0
189.866586007043 -44.9440988613225 8.1210585705505 0
91.8300635031946 13.6535149253498 -22.4525039537388 0
214.935325450361 14.7523471516783 -20.6823041855246 0
147.233857172938 1.25864165561003 -24.0113300241372 0
207.539893379896 35.3454331646996 7.47073899852381 0
182.176655903192 27.3693692437198 14.9996913705799 0
203.319164358174 35.1671099272646 5.81992023142717 0
228.198068868208 -24.7441679903986 19.3756169915754 0
64.771487357039 5.68789755712913 0.713039940862941 0
94.3106019125751 -13.4139270866455 -9.77469831370795 0
176.450194111527 17.8702555540854 15.6904914520027 0
216.323685635809 -18.2701351397498 33.9646628599056 0
204.338937709217 -16.3763547751124 34.7463198844785 0
219.762456438795 2.79946773991251 -5.32726332965859 0
5.0177634123257 21.1480732989387 -15.9306714347363 0
172.788640073627 -27.2378621673155 0.0467990670995362 0
177.995445415763 -1.0860519441848 -20.5178943945631 0
205.83000109269 34.1771301444497 18.2057782828297 0
113.525075794276 2.89845819406279 4.15391406563377 0
220.611354013044 -36.3246155000838 34.4343448097251 0
176.648025855097 16.0243194022204 16.0069141496257 0
74.2569606938608 10.6113809903326 -25.7176934882078 0
221.076776282476 -7.6768572837156 7.23783568834875 0
64.5799430557736 16.8936163643021 -20.4168746539471 0
148.496302669784 -18.5943716647755 -1.50052788143267 0
150.535009544762 -14.1971872996727 3.61599234825621 0
129.629535447218 16.1744076344075 -1.10237177149053 0
196.539433209029 -38.8752507613854 35.2463644058861 0
215.493342955681 32.4050524642512 30.6636512244299 0
155.74123243253 -14.4106089588213 -17.4665961151672 0
30.2856417871584 -8.32890043590501 -9.22708101330212 0
210.436091969803 -18.3790937423241 37.1078304859967 0
187.742643933201 12.3969503507561 28.0052865462212 0
33.8537067014229 8.80634836899592 -1.7445829852793 0
88.7671685399757 -3.50446328558468 -0.0599695279196713 0
186.790129740388 24.0277595084632 24.0672779748273 0
13.2854604273086 -7.13857337138782 -20.0841470572551 0
171.098796919412 -3.17943846879331 10.1913934343396 0
198.761365739291 -41.7260633259125 32.4523099181473 0
59.7490981109762 -2.96102973757232 -24.5108825601549 0
221.50650637466 -10.7676464703404 -4.18708344418047 0
195.411063643102 22.5034372995083 34.657200506339 0
214.058409348635 27.5723466899311 33.3832607137578 0
145.083649355221 18.173694312921 -9.04883286309977 0
141.100217291337 17.7064434499687 -11.678648037081 0
8.21400883010573 -7.78837611744867 -9.59193529225485 0
213.666768537354 25.7025644942586 -13.6602024021679 0
91.3842276861331 -12.5330821759105 -8.54357621587748 0
121.007297437068 17.4006011261098 -8.23292634539361 0
190.224296396287 -45.3687172984589 19.0115475311663 0
164.774271336881 -21.7351875575482 4.58138375094721 0
68.6073885203549 -5.19645003996475 -3.12255245064993 0
209.748966239465 -15.6901904769769 31.0543454965706 0
213.317462677007 -9.78589081070333 13.6882389416038 0
182.561939881214 22.6221256406299 18.8522217161894 0
114.917129954752 9.456355328997 -24.2686322098922 0
41.6236472674627 9.36536427498377 -27.1344770226103 0
128.322974958252 17.3008528391405 -12.6144532306798 0
138.516806683592 -3.76742825403557 -23.2705598727125 0
113.161327565403 17.0521165336182 -15.1771433629445 0
157.842274504574 -22.1043355213776 -5.15352109775098 0
220.797239984532 3.63586927440611 7.52474845367398 0
219.01391544636 -0.849110231382429 -6.17199439191284 0
214.427070499318 -44.2828693153716 11.7618756321145 0
210.612515751741 20.8582903311562 34.4005666175668 0
49.8824016532465 -4.23684677164353 -4.0330271175339 0
210.814987808932 -44.7697683212235 8.51468349528158 0
34.8397683647289 -4.99054966564884 -5.41807055934987 0
152.397008359015 -17.279997485177 -14.7262509846791 0
204.191757047758 32.327831582444 -0.0460643978959236 0
43.4904230569516 0.312258576981536 -0.362973525746873 0
208.867335867637 -14.9755964078076 22.3973143871245 0
79.8017773991152 2.22259469621452 1.34651585625763 0
206.600963402582 20.6574438256253 35.7253423449767 0
206.972868544914 29.9573155590771 35.4338454844676 0
178.878657047359 -32.0583179577751 6.58458552767409 0
174.762187622893 1.27099352709255 11.2498367520857 0
180.990972617325 -3.20497347067965 13.2454615956734 0
51.8881686361166 -6.87263200426796 -5.84441930871144 0
12.1106241569594 -2.10689512798102 -24.1468680756686 0
139.581214793855 9.36106524760871 6.27785667403334 0
152.921244105294 5.05730662779256 -24.1836353976762 0
226.996430228642 -32.2832008029177 0.173866215675935 0
217.451128361047 -41.6946359765634 29.9024475612147 0
201.068242181375 -28.852461060766 39.3367999523636 0
101.168076530506 -2.11278136093431 1.68314323621062 0
172.173927735236 12.49054827049 13.0546311954804 0
183.311706285778 -0.814588005324903 -19.8998101385899 0
214.572959499242 11.7412678713325 -20.1263748924338 0
142.668242468272 -1.64437256205124 -23.6926811640463 0
44.1374888888667 -7.28962094883294 -6.9081392113242 0
149.331021204007 18.0843358591224 -11.2695132168173 0
167.728957139499 0.275148966211096 9.85333745783633 0
34.630144055299 -3.2634571761894 -24.178707488149 0
203.059725157576 -25.6927815046307 -16.2721247537201 0
179.992917053891 -27.0245711360915 -7.19445478471757 0
205.01593327833 -45.5870649029264 17.9674630291914 0
174.084312207757 12.8611667473805 13.90890386434 0
112.168921981393 -9.94226697648251 -2.44630313385353 0
118.983913619149 -5.79837801385631 1.53547834856032 0
205.979913544036 -15.5770221826483 33.7634549615916 0
3.76580690158974 -6.07372900365852 -20.452675923833 1
194.732159812329 -6.92037769621769 -17.8846699733222 0
208.551776706949 32.3739263638457 33.5354706565532 0
221.847293985195 -8.76339912624029 4.71385522933932 0
214.456920382928 27.1659259822857 -5.52469799293369 0
172.543754251141 -9.84914714597167 -19.7551559331263 0
198.144298835446 31.4289803169887 26.5899251865787 0
75.036664233362 13.5823624011825 -3.33594168689326 0
206.249455947962 -9.80885007659711 15.8522859137193 0
198.659034382007 -32.1193656393519 -9.2677599476809 0
215.302386431428 -32.4715152097187 -6.71880401218151 0
213.68931666894 -25.0110951245445 -15.1818682007845 0
220.17367277402 -9.10417319470652 -6.18552626944392 0
28.7055068770196 -3.3975314924611 -4.3605591764663 0
215.560480785135 3.24764622640846 14.4960889179924 0
5.73430034389143 6.67296624252683 0.208273613703463 0
186.316293244716 -8.20868477650906 15.7485161520071 0
169.360422573978 -25.4091888891607 -2.95472361894511 0
205.904718225616 -0.643213565741741 16.0268570995882 0
141.172245368289 -15.1447285145156 -16.3958185089903 0
165.87913321053 -23.6211479493958 -5.94205685476925 0
212.471507919811 -42.4246734128388 31.5823807049899 0
25.1565071680654 19.8856684014227 -17.8953530730182 0
119.045799130795 -13.9428955365366 -16.6003500783769 0
217.731891616754 32.7308520565176 9.56075634945128 0
57.4940968540374 -0.85768089666121 -1.18026507273005 0
137.389982658883 17.8193597236913 -8.94963093602657 0
134.776096231737 9.20269289699674 5.48669719156977 0
93.841718050111 -4.49382002612635 -23.8135454975389 0
1.09001944058063 -2.76424121734603 -22.8933283015557 1
176.742240772007 -21.7788280449936 13.3315599107406 0
61.3524495066593 -7.27728514795867 -5.52097866665064 0
186.378715343009 22.6213064068091 -14.6967752276353 0
164.327115966306 -1.1266623067199 -22.1621057433693 0
159.723369158604 9.56464043392669 9.39547860541309 0
214.546165026319 -9.68278451550249 -13.3450139024018 0
142.37227545547 5.40209757233448 7.04518120130223 0
161.258544341353 -5.86921033846683 -21.3151849859876 0
55.6404370099179 -10.0452809048488 -9.74420892331766 0
28.3828444955637 5.40217292266919 -27.2163113893648 0
172.873932741553 -6.66010365876843 -20.2508299893207 0
214.150774064357 -44.8017476974911 14.0701828429605 0
132.758502397902 -14.5812205132961 -2.00934152413583 0
112.939300270693 16.0577354954927 -17.9838246153021 0
199.939312825161 6.77609010730247 -25.0778430966427 0
220.109813450632 14.4832098592982 -13.3816673050707 0
186.508568335826 -8.97860056102924 -18.7191312775417 0
8.83085743757949 13.7691014614993 -26.2289352385765 0
197.081395083929 5.93792274433455 -24.9624141694814 0
114.448591502868 -7.96364781060923 -0.618981508262253 0
190.595912829652 -1.75528957935839 -18.0941252113841 0
133.921867815584 -13.8682644043608 -17.4478594711719 0
221.500277473767 4.56622308646095 2.88892176249604 0
177.887240518912 10.4829909631254 -24.1907554676472 0
154.551841184136 -16.5370702103832 -15.5308284861925 0
40.6346183639203 5.86783883227633 0.0906353858315553 0
185.632197467879 -28.8818271006614 -7.90333840667886 0
208.808541311176 2.85761520899038 16.6143986762142 0
217.357789036046 -14.4804455243279 27.2483931049037 0
182.46877843511 -37.6686695874626 9.28195147930498 0
181.924047332423 -24.9121649431286 -11.0893454910463 0
35.152514231788 10.2036016669238 -2.36162035744136 0
213.427171975665 -13.5472332345243 -16.1716307516985 0
74.3977057287394 17.6636266319372 -10.7208033596066 0
154.850969335543 5.41724120353645 8.25094050009875 0
95.78902270622 11.1415639504908 -0.0811621800036944 0
113.007533195613 14.4532537731661 -20.3816431610407 0
200.582597348725 6.04368318191837 24.699027708222 0
188.597337577746 -4.50431444996747 17.6889964516636 0
196.66134935621 34.7642915635831 10.4967344389668 0
83.6729038783718 -6.08176911360189 -2.60749567147047 0
122.563594656827 -5.38456230685091 2.3254427174888 0
45.7221661904147 -10.8336250542618 -14.445340030126 0
158.024259374327 1.57018606345942 8.48242160420882 0
207.641858675411 20.2453111206911 -25.4973296484568 0
77.4001176476294 -2.89811332896683 -0.565688157420556 0
169.56498272685 9.5716581557552 -23.5818272924974 0
19.2546515387277 17.2186491021395 -23.761482295061 0
151.881285630599 18.5325286194382 -9.2492516806739 0
209.311600969036 -40.2292258068242 38.2041458908978 0
184.061010909999 -4.64762790913222 -18.6102359692094 0
214.755151892493 0.836976376138636 11.2015443219127 0
178.906443846879 20.2202888994028 -14.2914482748856 0
167.087181382054 -24.5803049463332 -3.60244244728818 0
193.248761000722 4.4904044474067 22.5671101685618 0
219.935585310897 -6.75412240648954 -5.22148712298151 0
205.067781626506 -27.2307017738415 40.5044213263495 0
218.662400809017 15.7167443931511 -16.1488235345696 0
39.5712820638438 3.74450433791823 -26.9257893334602 0
7.19083440776181 14.3209761245825 -4.52123215465721 0
168.561240995553 -9.66604686249119 -19.8047033029112 0
162.431900624514 -20.3663045174619 -11.2991446723743 0
199.85157611031 -25.6619369516055 -16.4296443184843 0
207.649329777532 -2.81271060477669 -16.8973286790354 0
119.122786908033 17.4258586573329 -12.0297523520777 0
175.423568296329 20.0099561008326 -12.5902254341236 0
64.3661671837571 2.27924583151526 -26.3792286830866 0
128.48719411561 2.84903867826441 -25.0027798643098 0
218.460538507261 33.3828028750857 26.378767042355 0
167.108219934219 20.5013335158063 -5.98731696604037 0
201.484622729882 2.81931342698782 20.5934851710064 0
182.335522172019 8.36988782439511 15.818572782111 0
179.148687473567 24.2873405648889 13.3739759112014 0
197.912900588019 -7.08024561744109 18.7101425014729 0
211.308562284246 27.6978738664185 34.7723163357725 0
211.460676930458 -14.1691428885293 20.1646770072621 0
197.482437098661 33.1815568065279 24.5200422186337 0
188.211607135564 11.8416652520729 -26.017474078339 0
183.384563961566 2.8040283471234 -22.3404324221638 0
207.702782679046 34.7072647451795 28.2800049632539 0
189.581269297445 28.447888905063 -3.42505827481019 0
186.505205887119 -38.1761758290813 21.7532909640219 0
178.990574356336 22.2056374974651 -9.23081782795423 0
122.90423892939 -9.7229442006582 -0.452525140028511 0
225.176136172809 -39.7464834442292 15.5323767265925 0
160.930616102575 -19.1610887501916 -12.742452636227 0
212.771083690012 3.74455702703506 16.7887597157758 0
195.216216037488 -11.8060430160309 21.0434063865195 0
72.2253790543071 -5.74757574270941 -22.9713739586346 0
144.064182644612 -15.3633097438648 0.281553327381899 0
187.820607954098 -28.0387290926607 25.0323837535178 0
80.9223601806415 -4.10623095079158 -1.07125370347066 0
217.698818491422 13.3434924044217 -17.168775050389 0
216.327216825404 4.99582278624868 -13.6428244343186 0
215.349811620101 -34.3900591622337 38.4892751605558 0
198.102371794404 -11.7455017078671 20.1321798247036 0
86.816375134752 -13.3477572389411 -14.2133352469745 0
42.2224786127178 11.0811530171413 -2.72812759036142 0
209.920476251058 -37.9042152197581 39.3552817780935 0
193.979082442353 32.4432921612073 6.94254525076832 0
48.7201909722741 6.70032074604063 -0.467854231546686 0
227.062369564944 -33.2081888344751 24.7683645777763 0
202.303982897472 19.443327571549 -27.2321166427682 0
223.690167904283 -33.0517502268591 31.310657088414 0
219.988701717809 -5.60775762262139 8.67607873812845 0
183.851584018942 28.6906859262648 5.84925675389775 0
135.009850709001 16.648465014026 -1.63342802080875 0
77.0573568336792 5.56994156738563 1.23115480545375 0
21.7641076212751 -5.70460588341134 -6.45277024772572 0
67.8440424891516 14.6792286169102 -4.69870189950385 0
189.702369827641 -26.2351058174399 29.1295735259051 0
87.8118473609788 -13.3524134675735 -11.6172519208171 0
221.763418676054 14.0839441660548 -9.6799976009693 0
195.542902276333 -7.05880368643551 19.2820476092819 0
95.0222756113396 -7.8229528458689 -21.8132287572156 0
104.348581138911 10.4929878770526 -24.1448982009338 0
182.261318394338 -31.8015500334867 -1.55079644589579 0
93.4673110112481 10.0452089664013 0.291770163106427 0
209.802087793002 -15.5285582542276 33.8171351399154 0
112.504757086793 -13.2980390367783 -17.0725257969848 0
25.8088831552996 -9.59472825812168 -12.9523312394022 0
192.043556169671 -37.8292299805488 -1.55850976745325 0
8.8194311768973 1.80472432900033 -0.283838991231306 0
210.609558880172 32.3656714163881 5.51560185005364 0
216.501824899731 33.9608923311956 27.3818999693117 0
104.487089508248 -14.0332462846092 -8.26478977261727 0
227.561980977767 -20.0634790358909 10.2161010111912 0
151.980557351882 -13.2362598190893 -18.3872565375042 0
140.71140291189 7.13848118038144 6.95402816475814 0
87.7482082463504 3.98811369257545 2.23270278288916 0
61.8775364295515 18.2959035456025 -12.6708392014765 0
92.2506200098937 -8.30962991157756 -21.4650207192899 0
174.387867351491 22.4536093609851 2.41218269989985 0
74.6590876481274 -6.04695017836457 -22.8246171625411 0
126.767602753203 17.2898202035625 -5.69042520824821 0
188.247033469964 -33.899845849252 -3.53578163971476 0
26.3035000327698 19.9100986768891 -15.930610624773 0
224.79069337094 -20.7807145608423 -8.52893969414354 0
122.311331010753 15.5029704420127 -0.953934310935202 0
73.5089499230993 16.8079607801087 -7.8290778115909 0
158.800057354201 -15.0164934337191 -16.9585262328282 0
13.3991566559907 19.9215481784289 -19.8956796243572 0
87.1137661590022 -12.3174717810414 -8.83005362636184 0
191.52459047917 8.43202068604689 26.3976832437467 0
162.220772653267 9.33371490091844 9.70931246591514 0
224.653284400198 18.7385727468512 -2.164596415675 0
38.8248019331058 12.6990842790155 -26.1848899546588 0
75.1204379840381 9.31082533299773 -0.67657222836147 0
123.262579370142 10.938997135186 -23.0194730159619 0
201.104078940562 -32.0620637954202 -9.39642007830907 0
116.831592636758 -11.4273029407528 -2.73864094964405 0
221.057691781491 31.2372995195215 19.7814776444109 0
158.700978772445 -7.11576135136446 -21.0504583521714 0
188.975354829865 27.315375038345 -5.82732451210504 0
204.557484693525 35.7810986194321 7.993568373583 0
219.034873672073 3.41146376277247 -7.50330278350452 0
179.051999609599 -30.1991910837397 -0.855551999796965 0
191.188982747883 -41.5534047831783 2.16258380728443 0
35.3333599568628 15.3248513827562 -24.7150618441774 0
37.640443597288 -3.18271917075645 -4.02820575108904 0
75.4012879091217 -0.282173409718938 0.302400918467571 0
109.809044957454 -6.29924604065623 -0.17293573524599 0
158.376680783859 16.4743696049247 -17.0480663980339 0
204.749448797135 -27.6379617977359 -14.3944556574132 0
115.975392114039 15.6405965257414 -18.426492921361 0
149.795850218824 15.3388393491302 4.10293068492271 0
197.760544949231 -44.2917715314931 3.77339635897213 0
164.346401370223 19.5698565535255 1.3660950835727 0
217.192289402829 19.0223698734262 -17.6825551068565 0
96.8246830041373 13.0766770732909 -1.36691542656829 0
142.478798261443 -10.2752538718035 3.7525249213649 0
192.589944265893 -46.6316992208383 18.5087784219661 0
205.60465178264 -36.4430648115893 39.5799404026011 0
200.74564159418 -11.8796417567911 19.4285526842867 0
141.357439174109 -3.77223831029613 -23.1313724668545 0
102.184025515097 -7.05912141885468 -22.4370374475285 0
228.93626689267 -33.750537007933 17.3065183782006 0
194.536850419097 18.134958684235 33.5164845681194 0
175.59782989153 20.962728582621 -10.1184099215368 0
203.921945833257 -30.7225849818367 -11.2287595427633 0
211.083811887043 10.8081780897679 -22.9613888008208 0
214.637193851423 4.69863813741704 -15.5199943850839 0
184.182966169231 -20.7070050978664 -16.5155884414122 0
171.884974848984 17.3683008508822 12.9502560546935 0
212.645456898714 -14.6531670125039 30.9215240331066 0
148.534376381608 7.57416498085302 -24.0425364361892 0
47.0668399004675 -8.08803933089527 -21.2374371328014 0
86.3125610913931 -3.29104913287259 -0.0580423767841103 0
171.114065910539 20.0824642062747 -9.93409614875784 0
194.209407184357 33.1424478807866 10.6291746948285 0
184.599870583889 10.5151836285589 -25.5475971188246 0
65.5753900342734 -10.7597041218505 -18.8993078223576 0
212.359146523759 2.1846988204858 15.0798143141629 0
96.7099567717778 17.569467987881 -14.557793188857 0
204.202256589592 33.4231061255269 21.4424660149095 0
195.75322962433 36.0879028171383 18.1397110335815 0
211.725582103614 5.59386080379605 20.8757863450871 0
5.95349657269988 19.4827477295745 -10.4318201082773 0
158.926695458124 -0.28694613418605 8.39355754259888 0
187.018161150396 -1.42146675536705 16.4775529909105 0
51.2211628391611 18.5673767453931 -13.0155261601684 0
149.568879934718 18.4216767086119 -8.13113448439315 0
164.332254944573 -9.53907806557454 -19.9903641796305 0
214.836195234356 -1.11396142649995 10.1791490878047 0
193.043993378544 6.63562832573274 24.442224009235 0
44.0993020889224 -2.77875054326349 -3.4811936386552 0
159.680316547275 -9.79378898881661 -20.0800482321316 0
216.279624685276 -21.5072609421272 -17.5563753928429 0
21.3852587161104 15.2001889571027 -25.3564554210422 0
170.58480177752 -7.33730294921806 9.9199389893673 0
171.978341614578 21.7173395175398 -1.58829494027786 0
189.377212344127 6.50622103353872 -25.0220031601817 0
213.108275155397 -16.0320988808262 24.0351808150318 0
163.82835233503 -23.7470916135296 -3.61488771203052 0
185.683001725929 28.9729930326184 15.9610144274929 0
220.518921121277 -14.3363863447701 -10.6632626701891 0
153.76799621529 -0.354392347342642 -23.2432386671721 0
36.4662475535379 8.47574979146509 -1.53454803437364 0
181.450041620327 0.114335658458946 -20.3315219134429 0
172.607081039222 1.59641750764469 10.9729111195775 0
199.992403809157 -31.1545931754408 -10.5421897682037 0
199.737547097161 31.2912769861357 30.8447062478491 0
125.180560483359 -9.40260459320205 -21.0809427515531 0
73.3560062491241 17.7482922418938 -15.9131958237669 0
200.925555700266 -46.2912159023149 17.3622062493723 0
193.618270110499 -15.7204208147174 29.7454657025634 0
202.070487993544 14.3763683442385 34.1156568671485 0
196.731560163939 -41.1933825856232 -0.210520718147221 0
106.841680135782 -12.7378961417815 -17.4590019723315 0
106.13947317096 5.70695873308677 -25.5433602199217 0
169.514874687617 4.7222463670142 10.3955513464176 0
204.830352547234 20.434221004475 -25.8734932202366 0
186.972846133146 7.72437073654505 -25.3434768741693 0
90.5761476759934 16.9050318349911 -17.9913939468418 0
71.5169269552616 18.0045512653556 -13.6556210251565 0
156.992652222911 -20.940739639121 -0.438807368400698 0
161.289856535654 14.6639097259394 -19.9742993964785 0
222.819641006365 -27.3662286102554 32.711435183053 0
146.062745693951 17.0225573543777 -0.00757704474122815 0
219.891272152462 -39.9262601256023 10.6262845631777 0
55.2346690202451 -9.86644484757412 -19.6826637419008 0
212.506980988671 -45.0534961261121 12.1622463664781 0
57.1552397761104 1.9067606379454 0.920441196101639 0
185.148254699019 14.4262825745211 -25.1446381859208 0
89.9657788672611 -1.53583507237104 -25.1204524444791 0
46.476743475572 18.9484161112446 -15.027665408223 0
32.5831859452854 -4.23864161117301 -4.87464418969077 0
149.25135293025 5.2118364843313 -24.2897430748304 0
184.917898941821 27.5185556582959 13.923298778295 0
201.190069948309 -45.0813160230089 22.724701642045 0
19.3180607772575 18.8135608520647 -21.5734467159447 0
7.11159593541349 -2.10978372025049 -3.80356077093225 0
59.7903703753211 5.40494048532296 0.679951880419031 0
159.115346176353 -20.9441855198672 -9.87897891365307 0
170.486306789783 20.6775259766203 5.91932129363293 0
169.638094136745 11.3495919082502 11.8992576235644 0
43.0488873986255 19.1291904513561 -15.5420168536353 0
202.075584214344 33.7337250644171 22.0338117651197 0
7.76891723884212 -8.63157887570944 -12.1616146453035 0
202.553964787654 21.0336876678743 -24.8558426431191 0
198.06496561584 -36.2706219183378 -4.74577843338755 0
145.598511786922 2.68052082264231 7.28664523508386 0
56.7446485979243 16.9011596671885 -21.1058683135273 0
192.247084150492 -21.2422234116823 31.3896382317553 0
217.936939414223 -11.2507548377059 -11.4136956335979 0
199.243426965401 20.9625673288531 -24.0121378701436 0
196.878621361439 27.5102180165297 -10.0083032173281 0
127.44517918098 13.5030412636443 2.00907262680664 0
0.358076479369606 18.5114271078012 -8.4313763861674 1
153.958745394853 9.65132192095744 8.57860437255855 0
212.594105644584 -15.771538118525 27.1897803848175 0
44.5841765170678 7.20192617202683 -0.859629180775136 0
202.314063843023 31.9661084949661 -0.977272048989856 0
221.280064206817 16.6546209756119 -11.5183558115573 0
69.4151012403947 -2.95362309159571 -1.61278857940621 0
189.203577057338 -18.050990685622 19.8414086991853 0
146.417664676517 -16.9690939585203 -0.414707010220687 0
211.967909002838 18.8231421654704 33.3362445592773 0
117.308748185503 -0.263988721606289 -24.9577976110946 0
50.0471010042412 -6.62610458910564 -22.270135168372 0
30.2049536952918 17.2251044859654 -23.2316311067262 0
107.180923554536 -6.76154181188405 -0.810272798749062 0
132.379044462937 16.3761231724113 -15.8888044497296 0
131.66670510433 -13.159313675247 -1.14234494466195 0
188.131619120025 -11.8350060759155 17.264717006495 0
157.737742619706 -19.4477951367123 -12.0800612328816 0
205.747362832888 -43.0244164304034 27.9747544833966 0
187.346683299977 30.0446098119227 5.81242858313005 0
157.361737496943 9.01795758366861 -23.6287832650351 0
119.110399249624 -11.3372061549614 -2.25861449312204 0
90.1686802251772 8.74758264297367 -25.4908103383673 0
131.380290532488 13.43065001525 -20.729165766654 0
191.959636184717 -39.7050406003766 -0.0199366826120263 0
221.509574438248 -21.3754108771322 31.9071937743534 0
220.194767224252 -0.406810481612173 4.11582648273682 0
194.04198702438 -4.47782344704703 -17.5780068903112 0
197.091145802702 2.83681551123233 21.1327705858788 0
218.978594868727 -3.69222536312917 -6.18536296285631 0
53.3935866455559 -8.71228397842033 -7.84696392557781 0
184.857299534194 -42.2722236585872 10.9218183082343 0
2.82898260006663 21.1717063717314 -14.250568557812 1
99.5474685854405 -12.6032437189916 -7.04972967781008 0
111.135717703238 -15.4358875680469 -11.7206078713615 0
200.287763766404 35.3083726922383 5.41551626986767 0
28.4630592841378 -7.2276512264346 -7.89515812203118 0
129.458900836846 17.053694858266 -4.08551665774458 0
56.1092164459345 11.5450261382171 -26.1209139034285 0
185.084199669722 -36.3664039243186 2.0236426234016 0
154.696557280889 -19.5329699516209 -11.6025532673687 0
191.179166463425 -19.2037061778898 28.7645679923977 0
33.9819853218528 19.5412533031841 -17.506252078062 0
66.7151507002828 -4.3066316424288 -2.72210427040164 0
177.828137144088 24.1413741916396 3.36241665863132 0
189.498220073571 -12.9043156383909 -18.9101063953647 0
188.750831276162 20.4553682800531 -20.973664166087 0
185.886391971583 28.7308525676112 12.9212970466159 0
84.326712906651 -1.03488487465684 0.833721775552969 0
41.0093756269993 15.3157606150701 -6.11844997969647 0
182.823400390239 -11.6636619033168 -19.2448827027363 0
177.498680428619 -8.32729791976691 12.1823680882499 0
181.391867967135 24.2012614625415 -5.68853865966785 0
118.194923958947 12.7050216243034 1.39514737605374 0
79.9146151843112 -12.5321211989955 -16.0094721638704 0
224.266764167738 -31.575305176764 -3.68937666135974 0
214.22838099481 -40.0665356886135 3.56751971001719 0
200.624399796588 1.67389998770239 -21.8340000552594 0
188.844241930797 -9.66422128179967 18.0770278858735 0
211.493835382301 1.85944345262999 -16.2061984199999 0
195.152076459064 -24.9247582776277 -16.556718185982 0
206.707318856915 24.4503739429773 -17.9903321244537 0
61.6287243389267 17.6907149076386 -18.1432467875182 0
138.100395503511 0.989362032557294 -24.3809475598595 0
198.727292436421 -21.5171983369153 -18.7763579260344 0
111.122421727441 17.0520381960176 -7.10106524667798 0
207.913165152837 -23.1018064738029 40.0665035681303 0
189.856397959577 28.4418625658329 28.648644867499 0
228.231832635603 -26.3457061742937 3.81841532194507 0
207.979766133798 32.9053917035149 2.44690987084451 0
128.190130356454 -1.19449197151811 -24.4941230059009 0
143.657028424171 -18.2760742954334 -12.0275685341248 0
104.74263777321 2.93945542934048 3.52233332378789 0
11.1765742248596 17.9078729085734 -23.3187202173498 0
37.9978558015734 0.817696608906612 -0.4072459576272 0
84.2576503592772 -3.78186842206496 -0.515325451661812 0
204.469279341251 -34.3716260407411 39.6497036271619 0
141.942386699061 -16.9930002499927 -14.0980293129829 0
176.981725839761 -6.18420310748308 -19.8391589320867 0
192.111896462217 12.7170334981256 -27.1552306465912 0
224.946375276981 -31.075171802413 29.6491866740802 0
38.9884910075966 -10.262592443289 -17.5150917159006 0
152.077719436605 14.2467472008115 -20.195159164111 0
207.761591536468 1.19430628096846 15.880950888477 0
220.321767198963 22.1918789674222 -11.1942520665508 0
157.547305079641 -9.24540954788883 -20.3613475353989 0
103.312860999071 -3.79164357794664 0.748688358406305 0
201.282586540199 -35.2843106598773 -6.1705802025579 0
219.438127088815 31.7700030452427 23.2930063059952 0
206.070951814926 -45.1181129319968 20.2781727093706 0
199.684195753033 -5.19242210835707 18.0844882114226 0
192.210119788057 -0.576026895490919 19.6364678128649 0
100.427206675651 10.912760565446 -24.116034410563 0
178.710656645433 0.917940597987039 -21.2792124426569 0
82.2174022030796 1.36765473005721 1.46518763284682 0
205.829110319961 -25.8061687970767 -15.8309659031018 0
195.657193712799 -36.684472778156 -3.98781271263719 0
163.154743776874 14.6887887163319 10.1804818533603 0
153.137098116909 -13.9440584677686 4.97019726051698 0
121.047882447481 -12.6140451159496 -2.8272360567732 0
102.443459718137 4.12350845909016 -25.7777250522873 0
207.292628047159 3.23388721952368 -20.4724645196782 0
214.628271741566 26.3876313874552 -8.28228586389972 0
32.9117831701551 13.6714473982772 -4.56641958288783 0
63.3698312704486 15.211802593456 -23.069118778922 0
147.053402559801 -9.66516379055652 5.17925254022983 0
217.668351249295 -31.4417592965864 -7.33805512858261 0
206.912891276112 -41.0714222643158 36.8541243914743 0
61.4020209715787 -10.7582549167079 -10.3443630894942 0
223.095935062103 -15.1601728418593 -6.24609981697254 0
220.946213423734 30.6775971759115 12.2810574931586 0
130.299666515205 17.5278851111938 -6.89433789364583 0
190.054494396793 -19.1518333335255 25.9526175289029 0
2.879944292642 -1.58517153545494 -3.47280006427744 1
220.746790222156 2.57450535343977 4.91512899117666 0
0.444391766815784 -5.15165923832753 -6.42390774668464 1
62.028602928896 6.0002438106003 0.483433135412499 0
220.177447103668 28.2022951608178 1.02973820835759 0
192.791076896672 -42.790019107165 24.1361733565577 0
121.861593762608 12.7208645347882 1.84780007038796 0
78.420983947208 4.96139766283088 -26.3990581660594 0
219.808532935128 32.5525806262398 25.6530045280709 0
153.780350320246 -8.76495543161987 6.73042794789546 0
190.831670604487 -11.2291471911009 -18.5872862709333 0
103.853660616556 5.99169629997009 3.05634275294396 0
65.2370024899943 -6.07557817639536 -4.13532302208855 0
171.002076239397 -14.7829970563502 -17.6543001949062 0
199.207357901653 4.78394839440886 23.3035145961641 0
52.0664981428907 17.5453256950122 -9.83049924448721 0
138.436404633378 6.61497483810192 6.7327542060943 0
215.235936112447 30.2983212191381 3.47329949196156 0
71.2971835925656 14.9082137703754 -4.74239370024053 0
177.973288065391 23.6814860572857 -1.49577946786937 0
58.6904061854952 -11.5536399944009 -14.866222885761 0
210.848816589327 -8.78704698548891 -15.4284124248951 0
21.9590792542966 9.31943773964931 -27.3485379687938 0
57.588672532887 -5.41581575605793 -23.0805151546727 0
58.5934355006094 -4.40332036536458 -3.41652735028069 0
183.565310725407 13.6354199427009 19.6243483525826 0
103.994788258918 -9.21091998790177 -20.9008605343415 0
155.355530351483 -18.5704971427701 1.91004521883584 0
172.044165795145 -0.893849921925518 10.6539881751773 0
167.546320331814 -1.87092153018725 -21.5999490263144 0
176.866051103995 0.912467992834699 -21.3991135779677 0
209.518932165606 -5.46472575607048 11.968510820111 0
30.3274933818712 -10.0014183146776 -15.1301736195662 0
77.3723493960414 -9.47670570986003 -20.1380283625382 0
203.914324817902 24.5236168813912 -17.3863380752291 0
205.084695668538 -44.4444979431266 23.0381722376476 0
209.256047797228 -16.7705801921112 35.5332410626167 0
99.9943673418876 13.2033608458655 -1.14312747616938 0
59.9229396004301 16.9864556093894 -8.40991565389641 0
215.777845340703 -13.8790806586743 16.9802251552248 0
61.6014286203512 10.2266534645209 -26.4772595995175 0
199.07361686521 -13.1909606736311 20.9622874277351 0
151.260281029801 -15.7161725911219 -16.2683248741122 0
147.642165173794 -6.99641047931696 6.15367071310491 0
184.927210532635 -6.16514708259821 14.8998076154869 0
188.896943911857 -27.7719259281583 27.4340227557976 0
191.688325760939 -16.6509462814827 27.0834402679472 0
218.742010731988 -7.41711834501525 -7.91845465793409 0
195.064238560446 16.5501184267625 -27.3126849834884 0
196.529167942062 -14.7705573884669 23.8101547626177 0
185.820807566092 -30.4812573677993 21.2765475665332 0
182.437762740316 -35.4001182778987 15.1335151001622 0
228.270374434055 -36.0278122557826 18.5471698954814 0
221.901353873784 -14.3888614872402 18.1347016508615 0
28.4889709610616 -9.8074868902699 -16.5924026256244 0
200.798734568882 -16.8223680261949 26.7615130057304 0
170.880505225954 12.2544525519622 12.5257566351542 0
92.3482002638068 1.33929206008887 2.27279560696223 0
149.322447021156 11.6486678384568 -22.3365443082129 0
58.3495547097685 4.5830048786923 1.02815101174992 0
228.431292025639 -35.952880284716 12.9551670303137 0
135.557123948113 7.21734358716485 6.48550042644226 0
114.179458725874 11.4522502333332 1.75609322913618 0
213.200921487509 -35.6381589592237 39.1426642724697 0
162.375126957198 10.7628750825473 -23.0304341438814 0
183.305716353626 -33.599244044422 0.282115964791657 0
202.789173163745 -9.03211994785044 -18.7557447937419 0
188.548590118165 33.1956580730478 18.3872179213177 0
18.963639289763 -8.92558004347216 -17.8482721211243 0
82.620761574658 -5.52885552859348 -23.2024412458751 0
149.372542579673 -17.343942659153 -14.3724798337963 0
223.192687197717 -13.8236800778318 -1.80222430700396 0
211.875773354662 -0.446557022592161 13.0769708867114 0
132.754804722866 17.4936328903153 -5.7409747753945 0
86.2342769964821 -12.3345006401284 -17.0686351376607 0
128.641735879812 -14.3830442238343 -2.85159881176628 0
165.950666259438 16.9072513663643 -16.6869728847413 0
180.380127525842 -12.0594399713008 13.2470464550818 0
43.2404988366848 11.3083698489308 -26.5917393826694 0
60.9160601375963 2.08616138563664 -26.3947792348442 0
205.082821973894 15.1738581848301 -27.1355712414761 0
177.362155434747 23.7900719606975 11.0340986568431 0
177.53947774378 17.3055375928569 -19.3645724718627 0
212.727796603775 -3.33358836093684 -13.3653637205673 0
200.7251034154 -46.189227029183 15.0211811548881 0
152.08414482249 -19.9091359620927 -10.3554957354297 0
127.164303594152 -16.7629971508939 -6.93535922679111 0
135.576081258569 0.185777094129248 -24.3345743212035 0
78.3128159078607 11.7121128356158 -24.9661871485904 0
204.449667023731 -17.2947191782391 28.5026771446423 0
114.477917466845 -4.98051004516162 1.4390500515887 0
180.285640616551 -15.1562397487108 -18.6473596811944 0
151.128758075554 -0.372278513669209 7.55074915027411 0
176.689891164655 5.46063579618625 -23.4786613806633 0
193.940270515822 32.78776425993 3.01133470282585 0
207.29503171549 33.7237364400111 16.4004408070119 0
121.068074912516 -14.3759337102452 -4.58829498691342 0
50.253910985599 -1.9998916568076 -2.88211038301652 0
177.584296567499 -31.1690649066826 7.79011941929203 0
32.5058604954687 0.967383358432394 0.0369734885483138 0
205.070789093596 33.2318289649081 2.2640724508259 0
135.888099648529 15.6488218953515 0.768558964226961 0
158.935591214046 -17.5401674134065 -14.6564168336512 0
154.226677668202 10.5822206473822 -23.0402793938798 0
12.0094956469176 1.53653258436177 -0.327623103429562 0
54.1068897011611 11.5918699778156 -2.84602439170111 0
180.13739935149 26.6792610363372 11.8378772972489 0
202.684629292248 23.5268728970616 -19.8167526969502 0
35.6472233055208 15.8485035534271 -6.78749725720487 0
133.907124253584 -3.65934222909853 4.84056963201547 0
143.760987569211 -12.1499238834965 2.77022538982181 0
100.330161032809 17.6182553382761 -12.0932194890583 0
3.15495358986273 18.9701527566619 -9.344303874925 1
183.692908766215 27.408256060148 2.4923414827161 0
222.953517521927 30.1007429802651 12.7661932574898 0
126.654316798735 -16.5660832691638 -12.5562534054446 0
198.37298067499 8.53331163853366 -26.1314921292196 0
188.042061545482 30.0774278703728 12.0235826919022 0
197.868814896334 26.8222356802798 -12.1792889793128 0
180.711689760426 25.0316848311922 14.9606608806785 0
97.055055222889 17.628130471036 -12.034613258124 0
173.827849079785 22.2322396757861 -2.30766680440723 0
195.910935078549 22.8635568479279 -20.232896006445 0
137.610320040315 17.6070404846392 -11.6589601069394 0
191.559079262285 -37.9337922721803 26.4623347823879 0
165.839599041836 20.4089243612627 -3.62613516328053 0
218.339151966434 -37.7264865028654 4.03052456025689 0
173.00411220683 -16.0254766496334 -16.9686232682966 0
156.664749336408 17.6063585134173 2.03853947124745 0
12.2680559442189 4.53411009372648 -27.0996144732355 0
197.934883523218 14.445861877948 33.3929352169536 0
129.977171632495 0.696128490327224 -24.7029285662238 0
217.341538602605 9.27074220155284 22.9551136164673 0
198.262364009795 21.1976668513115 35.39096991724 0
1.44383950204997 7.8886976753584 -27.4108917540684 1
1.01842187542586 13.8825963583195 -3.94082655180554 1
69.2758838130872 17.9520388652064 -15.0532317211031 0
201.498804895203 10.1619676173098 -26.577083755743 0
180.574127980669 -30.8431042391873 -1.50002743274356 0
188.941292413029 30.7571487565476 8.87474509334836 0
169.173957371927 2.25519045450576 10.1564765170505 0
215.761877608053 -38.5321182944528 2.83063698790427 0
206.808852401139 2.58739825385877 17.2972171236097 0
209.830019402001 29.7234824270113 -2.91227285465361 0
40.8001201692484 13.8177303734515 -25.418290464892 0
141.449098479852 -16.557563765104 -1.66162958812661 0
207.861335920608 34.2115015361987 5.0437745015021 0
181.404454644648 -28.1242141895849 14.0368914984629 0
201.474452343824 -2.15868768682653 -19.4339299830315 0
185.769905283044 27.681213187847 -0.650437930714606 0
47.5494334373663 14.5944994087295 -24.5353227600862 0
138.403078539241 16.4656600420476 -0.419594256073362 0
179.286159220972 -25.3226510112584 13.2562730110416 0
212.281730722637 0.470729355649969 -14.9141925661628 0
174.234987140822 -28.2162649391192 2.37943097102866 0
94.6706651943679 13.4443404753136 -22.5539668512733 0
84.3658836792018 10.4419821999872 -0.599981915284313 0
166.671585218623 -24.3152421801992 1.87604880075649 0
40.9827244885058 0.100330589985934 -0.956069422015603 0
222.221464540499 6.42222131368214 6.7107614792798 0
88.861795500552 16.6313012426513 -6.92620471421464 0
213.109805358167 20.9869661341113 33.0564574401744 0
125.442722141073 9.59646468395168 3.90254294105126 0
220.740041970778 31.3148793125984 15.2583725488166 0
184.715122116824 29.6041078933836 9.39146887469237 0
181.323152131071 28.2227146682196 11.4314825005871 0
178.875751613569 1.61463766482973 12.7255245360394 0
58.680259240843 14.7784533978807 -5.13093936271831 0
197.656490211175 19.5416906339901 -25.5057245926119 0
130.328007258502 10.6062001349926 4.04666764716765 0
189.516984268011 24.885551669133 -12.2531404945099 0
194.230308974296 -26.9891840581194 35.031950718029 0
214.868537133663 -12.3513564990709 -14.6094735900701 0
184.84448740756 8.01373406961881 17.2204120753217 0
207.0002173981 -6.51205608990951 13.7525397576596 0
122.60297317573 -14.7369158414052 -15.6587125669488 0
141.919233242983 -8.70592322635092 4.38664931502191 0
210.295737001182 -8.7499168221283 13.4777196515898 0
165.428159989801 13.596990037645 10.9442577547465 0
147.071837230283 -2.21605923822015 6.84908640452425 0
214.535148328479 32.7868591531189 7.46368112803807 0
91.5660823335283 11.3307468454598 -0.608763424868048 0
67.2495083909632 -2.75907999494661 -1.73532772048064 0
86.5252229861001 8.6864385660004 0.415646355242591 0
39.347447749864 16.6354427401572 -23.2135592031453 0
207.293689218432 -41.9037228768289 36.0259271708565 0
73.0951966952723 2.80880940098821 -26.2793747845446 0
211.298586718813 -4.70671397073779 -14.4977778081019 0
30.5419837177173 13.7653014142115 -4.63566738260883 0
217.870014071841 32.5399942266675 21.2786834405441 0
216.020139398428 9.16890973223676 -17.4952914673499 0
191.167140271734 20.8512878252466 -21.8863076956284 0
229.199556640092 -27.8505346267323 15.6238544741176 0
214.557401903337 9.50378068079648 -19.2912903287856 0
141.529265171566 -11.7849225182505 2.33259333015595 0
181.00463549286 26.856226853168 13.7652470802239 0
193.705808576807 32.0681463076557 8.04586467399677 0
156.824380513101 14.5178008494804 -20.0295658116412 0
187.966680497401 25.9418363576372 -8.04239964667636 0
220.108521407597 31.9131287266502 8.58959424296243 0
209.375930011641 11.3993531580552 -24.3908416465826 0
108.30424608583 1.30238676317714 -25.4403395539564 0
25.8929850916532 18.8075016902865 -11.2223752387854 0
36.3914614953719 -4.93023615854286 -23.0471587626811 0
135.562662776054 -2.08852844384851 -23.8779108921299 0
213.223553633551 -38.0434751926285 -0.231308226432258 0
47.2453208949633 17.5647817255032 -9.70828402516157 0
56.3779223531923 18.2914157043675 -11.974299881681 0
