12.6828457477584 1.52132135543652 -22.695774401881 0
171.611871203748 14.7249464421657 21.2363335215956 0
173.183318346504 -33.3978466097123 0.0996529555032874 0
25.5425716101553 13.5330832097047 -8.2110707680599 0
88.0525922575192 -11.3602943302596 -1.19698862698704 0
208.056488563147 -8.65549477083623 12.3146583412096 0
148.407402612856 -2.05200435286846 7.84064148229121 0
168.820041833083 21.5125460375571 -20.5303335331273 0
9.75933424159895 14.3430148005355 -9.99986752119274 0
21.3456751020538 1.69697553028112 5.26418104657344 0
178.140043815992 -16.1135338107868 -19.1535668369425 0
203.109688912843 -14.5702805404474 -18.6532984780917 0
185.649890035535 -32.711475447249 28.3710537186547 0
110.939431242465 -14.8492479614372 -0.591978744481236 0
29.4600462463127 -13.8414631584236 -11.2145624326256 0
38.9312967112365 -7.93172421327966 -0.510352360554728 0
58.9273433191876 -0.446460908116043 3.92555372625243 0
131.871529631512 13.9526071282428 -19.5720670664197 0
67.1751041120765 -15.5857809938059 -10.2364135483861 0
170.906690894213 5.13070502431569 -20.279698457901 0
66.9507393247266 -7.21359903231637 -22.2608442487761 0
85.8021471955549 -12.0592423804153 -1.92125589426872 0
178.720494910235 -39.4551638711712 10.494327781951 0
143.679174087456 17.5303676469956 -15.9953770018998 0
145.31610805095 0.976037157758457 -22.9508797768659 0
18.5231307650346 4.71146208263121 1.43491797946526 0
147.743903026109 -2.71765475032448 -21.9700942126782 0
203.436234709721 0.415183228821193 -7.75396126855201 0
208.42085057415 -4.29849903198743 4.22772348901846 0
146.494713222067 -7.07121250079851 7.31170310290511 0
194.753697956344 33.8814067131608 17.5048922758513 0
98.2077381286084 -18.2746911235623 -11.8532185304855 0
216.367556983857 -29.5838542290335 6.39796725228434 0
174.8735857042 -12.7238923246175 -19.0339591410712 0
202.170905409014 22.0310250199017 25.2889260160651 0
122.598642607498 -13.2909108347539 2.36690689443171 0
207.085872987492 23.6555191264166 10.5742611512147 0
115.375629721805 -4.20596210893019 -23.1893208895198 0
144.296324317629 20.8769109585915 -6.80831642787108 0
204.339992774694 -11.0226061106691 27.8288487513732 0
92.4985603137892 -1.0418066139616 3.19319020887885 0
137.051268817832 -20.0926147819048 -13.3656871889656 0
56.3592717000473 13.3228753281161 -7.60734315862762 0
172.893875055929 34.0543550961492 4.72512890328067 0
168.661609003999 27.9199126699912 16.29193544036 0
121.758440269267 15.8868260631893 3.13417458333037 0
150.138794778581 -21.0003978373513 6.0368612256963 0
158.877147240879 -26.6778268565949 -4.22672929961294 0
137.148873921884 -3.13781645612955 5.8823539800558 0
209.810374132345 -9.95412670020556 16.1546239533077 0
206.363259041591 -10.1420989472006 -14.8616311523365 0
76.1505975312507 14.2400592173788 -9.61109915854698 0
169.465452671459 31.5408146745635 2.84536768309434 0
152.560856527186 -2.05993916840347 8.62064100710054 0
188.730949779785 -12.5916731463575 22.0754881091195 0
218.349250078906 -27.0305059641928 8.28083476134435 0
85.5339538263473 -9.64290905916841 -21.3969600359663 0
206.651249119988 -33.7679694292506 17.2726583350483 0
206.245571736178 -1.39647708658991 -3.13325881951852 0
7.70118342148954 1.32376337740108 -22.6572968532579 0
158.528860908059 13.3603868622454 11.7981638885002 0
133.263599165346 -14.4534506495493 3.40242786805799 0
189.310032009567 -17.485106396492 33.8236356485626 0
163.719991715858 6.44304601854952 -22.047729934722 0
173.937007389996 -35.9423099117952 8.81173776018571 0
190.33243567638 19.3218826275887 32.5224391154354 0
193.138810317386 0.415173073973344 10.2469964052694 0
191.354710497739 -23.7907408501406 -14.8585820943428 0
128.077421641677 18.4930728747752 -1.52220463135515 0
172.287866908943 -1.47784909732166 -18.7431129196223 0
201.710471356706 -30.1284459982557 -4.53352031881497 0
152.890022076353 3.78996783507971 8.30537426858095 0
154.202469523114 3.6428905559342 -22.5177457678897 0
159.397699692312 -7.42515466556355 10.1477750948968 0
108.286935630354 -16.9152050510144 -16.051267506563 0
2.76126436552845 14.6012002149807 -10.2970742762036 1
150.461203588199 19.3928774403872 -13.992821335092 0
135.449775441709 -21.2965652420777 -1.81460787898202 0
183.648247339581 -26.8526666908252 29.9979318285855 0
196.841584912352 33.1842767208945 2.30538143749826 0
168.336506181775 -31.1379902055206 -0.139637625474444 0
203.01485774623 -36.0597200113011 9.26327636971516 0
128.85687420947 -16.076508541366 2.25084068100032 0
105.341846863025 -14.8537271909023 -1.42113952799616 0
137.646205435221 13.745468894477 -20.7076578737789 0
178.442207224133 30.7700481961722 -6.67877544239699 0
184.099763023676 29.7046163431757 32.4219932989922 0
145.765112190018 -5.75933968544789 -21.568658257699 0
178.603212692032 0.0981160604359293 -18.6387650511345 0
187.322618583458 2.70177147058966 15.2456044136742 0
89.4969251860496 -8.60910928120263 -21.8516924951138 0
126.375258586426 -13.2289450064576 2.85488563257272 0
1.8658596357608 1.47159268370762 5.39845997192592 1
126.667866563246 -1.49112594080852 -23.4785109621718 0
18.6376932404288 -7.03303819219246 0.603308512242998 0
165.655218938373 -19.8329277549804 -15.5233062857176 0
203.172453619293 6.40445505907215 -8.41122626577181 0
121.044599486578 6.09711986766713 5.47057637243681 0
177.536587465919 31.3798899066448 -4.97379721087497 0
88.1686164573162 -17.5108619976657 -11.8147279956862 0
127.856259974279 -11.3676945453797 3.38600973176667 0
185.762239506537 27.8858342376341 33.0615057448301 0
101.036043626124 -13.7497936280017 -18.8997181494409 0
200.053562603704 34.0754872268737 7.4754749100912 0
208.075467834188 -3.37999434221234 1.19715786855487 0
95.8296219022607 2.99365388967312 -23.7564509002901 0
198.464626396212 -36.6349860777163 14.7066142261245 0
8.81314028945278 11.8869468848384 -17.8853535320861 0
159.405630465487 20.7886688561038 12.6967386157183 0
214.601919755829 -31.6700585826918 20.918959757619 0
174.004702462908 29.4068625812163 24.5339753760293 0
109.279769438451 1.69052162622082 4.23554863342273 0
182.529330726368 30.4002276638168 -7.87551422914531 0
213.373969855291 -11.6301455072126 15.538680892502 0
179.628907901527 23.4566080058225 -21.539184026787 0
80.7710772873744 5.29591617016785 4.24878078380453 0
70.5878195901294 -1.43423450445513 3.24947082985725 0
205.248278077193 32.7271083375508 5.66632601656436 0
15.7421347173431 -12.3433251542608 -8.9602475722032 0
64.507950576045 0.415840062004355 4.0841072944602 0
26.7379070747801 -8.74064175534814 -20.8161042179798 0
47.8543883283747 -14.8631226021692 -11.9503333299017 0
189.9419322513 -34.7242182329557 28.1507416270748 0
185.558788433566 -27.5936594658951 31.7946541426119 0
11.2860911900368 -12.4136426171415 -9.79395835458372 0
158.983751959301 -0.432767459438721 -20.5072661841455 0
213.755943619101 -9.71277344598974 4.70845156906999 0
184.304753227378 -40.0683109703781 17.2683070775767 0
206.454538620845 25.7561902222728 -6.2013068955471 0
200.75841857433 10.8299671199044 20.3309162942018 0
159.043059331462 25.8338546627563 7.79373217586881 0
159.538818689758 -11.6937173990159 10.8463972040595 0
186.279255945766 -5.09803854119782 -18.4325318823503 0
184.003067099207 9.85642337452996 -24.5267059013804 0
197.637256035163 -11.4167019805969 -19.5342716668123 0
37.9104798518551 0.0857121474273809 -23.0713343477898 0
163.694911796004 28.3477421770305 9.2730322993349 0
117.749177403537 -7.76574843798331 -21.9338647574936 0
87.7720158049588 -5.05237837189232 -23.0365464397082 0
51.0758918814668 13.6112253794237 -11.3643734126104 0
182.749635050376 -13.700249811984 22.7890529668613 0
145.649962806203 -11.7504949114138 -19.5238674590901 0
190.943209157317 34.6847642817205 21.9300947123843 0
165.728389843923 -5.27956354116548 11.4283224713134 0
181.019651658513 -39.7780445317448 9.53457910687943 0
71.3703740944642 0.969307924173059 4.09312819180744 0
217.514583419309 -28.7836212966365 9.67289490432487 0
188.461647952338 17.0438954715679 31.7347558115991 0
170.05839731622 33.6809059345363 8.85197364189766 0
44.0077111912313 11.72550640872 -4.53405722026971 0
191.425425255328 35.5402874081033 27.5340757148504 0
196.738286241602 -34.6904582911695 33.7021434909822 0
133.392329727919 -10.0372956206655 4.34717119320837 0
181.529989877211 31.6780312245516 -5.11363602488536 0
126.922255823091 18.46670227207 -3.93233088300372 0
203.347751901264 12.1176886733532 14.3595165830471 0
40.005906668095 -13.9700692800155 -10.2411503405874 0
171.779666250351 13.3406408380717 19.6118732867821 0
192.970641479752 -34.3688730910857 -2.68066288460852 0
182.020060743296 -38.6372561780955 2.83029622206259 0
217.02672186974 -20.5918254782683 1.05179396300799 0
144.529962406142 14.6060657012582 -20.8322048605726 0
197.250298886231 -9.93996182068478 16.8952041546512 0
168.303521046895 1.67468067004893 -18.5986495589949 0
25.972758276436 -5.83459487114274 2.43528753847573 0
148.228583090607 12.0668678031673 8.71833297004255 0
190.130564062605 -12.6696227364347 -18.835691551568 0
3.19872323988366 -0.630855511440127 -22.6184372286892 1
141.053776037726 6.53083705409729 6.78874206232594 0
95.7934042519347 -14.7388646517319 -17.9698533429531 0
197.897898046099 -35.5881091414795 1.48162864248313 0
45.609836811124 -5.06385504877517 -22.6812499777842 0
201.511799017453 -35.2630395311192 28.6951435796402 0
168.030473679371 31.6506928090872 7.01344999504204 0
118.751486926826 -16.4954307114947 -0.626680052654687 0
193.208664701854 23.6285695965125 -23.8966821879666 0
204.937906283666 -29.806635035956 -2.6862216456564 0
192.205940133915 -15.4749327178499 34.2012679205394 0
6.46176767183567 9.08719863607709 -20.1860685852154 0
205.537930215436 12.8781406682126 8.45998759188159 0
195.594676612301 32.4906419388995 -0.0191574460599433 0
186.520688968254 11.9554357960838 28.3352657056496 0
110.619155862799 5.59051030872194 -23.5238383034555 0
70.2805304078671 13.6685159055485 -6.51485776717761 0
82.7469010299097 4.89472629227787 4.55069624434231 0
194.391795713421 -36.6431318993333 1.56177520947971 0
208.056683343525 -5.30625249702318 7.70738618208148 0
139.582814978553 -22.9181691887431 -6.33242000420875 0
197.773462014012 34.0434830873815 5.41272375337681 0
163.766508801082 -29.068451573324 4.50019941482905 0
40.4414689039339 -14.7173786496168 -13.2547294194955 0
183.383461221898 37.3908287053643 10.7659002283262 0
170.363794208702 6.5813004447995 -21.1822767779001 0
177.168734860409 -31.6981444466453 -4.75518463240425 0
212.33335441267 -11.6065338798908 18.0664604178152 0
185.723234233035 4.484922195264 17.480775034209 0
154.579667158904 -8.24461214873116 -20.4210752010535 0
9.29570953894161 2.93897350610398 4.03014993972066 0
130.985258391594 7.0077581967327 -23.8002141998584 0
183.47869641538 27.1516303248957 -16.0314339284407 0
202.189026722978 34.6813893079559 9.16255081600722 0
165.545252757872 26.2794524270061 -7.71901976301023 0
193.890462710457 29.142871471149 32.0109454433782 0
21.1816072675803 -13.230754895601 -16.0784243474829 0
88.3466878497054 14.9692052519567 -6.78695757337903 0
120.522596426886 11.2249675756297 6.04795692730653 0
51.3732323053606 13.5691365170676 -9.40551477517996 0
203.873512018013 -26.7978404743682 -7.11467482657017 0
164.092738503882 -16.2039672542188 -17.5843118751024 0
186.909454205913 -0.255407289442621 15.1836767130466 0
164.17998063244 -29.6560628725799 1.85549157787166 0
143.560097114165 21.2443282575886 4.25845283911589 0
60.6505578007659 2.75865336406473 4.99981070002968 0
176.063616194446 30.5656476619432 25.4701097660138 0
109.956679127222 -18.0140735418969 -4.26754076504478 0
88.2853465410201 5.0077271174253 -23.0241720915044 0
99.9969775471565 10.8499328513756 -19.8636611987132 0
150.688982791491 16.3963169993572 9.68630069813166 0
65.4009486008095 -15.2313252824089 -15.7792483318159 0
189.053805258673 -10.0165479917264 -18.4750154388888 0
180.261301709623 8.03292528532514 -22.9112078037191 0
184.05120505722 -10.1977121883161 -18.3488213192954 0
15.3358506247673 7.49012064520531 -1.15944451036484 0
94.9107775113453 0.941506641723352 -23.9511820305398 0
173.862265911252 32.3994798125846 0.676495182877445 0
201.121309779731 2.01580907865216 -10.6646922485034 0
173.807408512868 -7.52637536397108 -18.539107463686 0
179.560631170165 -25.3150932708128 -14.2717592487774 0
151.802690188148 -3.93227043134547 8.5827039701899 0
197.743349880207 -36.7476433145772 16.8513798397055 0
169.882898211491 26.4591071823418 18.8530932704256 0
215.870373891526 -15.3329665407903 14.364653365478 0
192.857728374035 30.6250983163345 -5.54397453979921 0
186.716290564984 -13.2735461872129 23.4756720103361 0
215.920075910435 -28.8467429440512 21.7495641301381 0
103.561128438656 10.1127849797757 -20.7108270634442 0
55.1671780818943 7.97665726752881 -20.9085416131056 0
113.096736256056 11.6011044325507 4.97626675645225 0
8.19136926308603 13.6030670210918 -15.2732856864033 0
87.1441020083575 -13.5195160053848 -2.94025568912419 0
16.9166459802389 -1.18594795344619 -22.8026212799195 0
168.43070078914 32.356429208157 8.80089858430656 0
196.819412729567 -39.0736555671693 6.63413808676706 0
149.661433037663 -16.4035428785758 7.4008352775309 0
184.49056577332 -9.41815295077231 18.8356100633545 0
214.727398533144 -30.2178861760834 5.63112930841112 0
20.6171604048502 -2.86293750952209 4.02674572236522 0
175.908131404234 36.0016900452366 6.37692211319467 0
174.446952015229 -30.0256066502246 14.8292092230195 0
68.6536823120734 -6.54053963976228 1.43336092761214 0
173.536835553343 -21.8597304964737 -15.964885707517 0
158.476728837142 -11.7209948711662 -19.0007259355945 0
76.3141936855354 -1.73601632797301 -23.6052838449522 0
152.539525417283 -3.83487012395058 -21.3152321881554 0
197.54474268821 -17.3234075061668 35.8149206697101 0
174.152412706872 34.752787463464 5.25960904269923 0
12.4237500468268 -7.13589318286597 2.18105933792704 0
147.104350992339 19.0723109804137 -13.4600247649119 0
207.014268209067 18.5588332581756 -6.43179055257482 0
133.242587264427 -12.1728679707989 3.91572667640679 0
57.0055042356902 -10.2653149811292 -2.65177718026658 0
195.586182656687 -11.7294709554387 26.5362508476682 0
199.202993262574 31.1370013482147 0.297585989663441 0
208.442972064105 -6.73013293288844 9.72795673026413 0
171.119206601893 13.4730819712945 18.4974643455716 0
174.120747192986 14.0700330666756 -24.3503947902795 0
48.4233681094521 -10.2605431014475 -3.53808836198436 0
146.721312806001 19.7338794268353 8.01542977102215 0
175.151602415258 16.4492861573267 27.777746519974 0
159.463672832268 -24.9531012175806 8.35779022295283 0
143.451269745631 20.5825837507239 6.03610186563531 0
78.059277839795 7.00871399341461 -21.8679534659628 0
178.008791734131 -21.376441613376 -17.5576868673342 0
128.26355630972 -5.89438575757353 4.57997692901749 0
156.13399177934 24.3177943229988 8.01233333739333 0
49.7080828393447 -12.9588828984228 -18.1499544676002 0
203.779622311035 17.5721084062758 19.5503170352303 0
173.99144657088 32.5261174586695 14.3750286070348 0
218.08607210831 -22.4039847166941 11.0723761919334 0
140.228696486763 19.6235896473505 5.3540628415296 0
64.4648467686824 12.4329063307737 -3.94519460444752 0
1.1213460340357 -5.16641787683112 -21.7228903386469 1
71.0935469005615 -7.4507438648903 1.006900163637 0
207.611553604631 19.0649171859661 -3.82066608593947 0
156.189234190763 6.69346921568132 9.28376931927057 0
123.693391848416 9.89325288090468 6.14984507827753 0
104.611285780893 3.80189471546673 4.72387958714679 0
42.0666318420941 -8.6174619434787 -1.41169733719292 0
173.07416332792 -11.8908381154121 -19.0042143546296 0
157.554619725276 -4.6675729307772 -20.7139840147369 0
113.557422154565 -15.3704171525989 -0.606565723008069 0
178.419178795571 36.9306781202151 9.35370008455894 0
164.532950574786 -24.9508780624692 -10.228387077445 0
191.066108435342 -39.5346456073761 13.2381247025846 0
171.766377370659 -10.7962562881656 13.9197352915332 0
194.322585702789 -2.27041728058359 9.98429795712348 0
164.37054951562 6.87262543351331 11.6653533041414 0
149.969524340283 22.4814544998694 -4.92892495217948 0
167.536812282843 20.4079077035379 16.8852604224239 0
156.959192463865 -26.4723778376926 -3.16348924774876 0
180.287229458195 -24.1598884623877 24.573788380832 0
70.0989978466807 13.9599559438585 -8.89341459230901 0
140.077589697657 17.9205367901875 6.78565719638033 0
151.605037120489 -19.5520574615389 -14.4601753085921 0
135.261845430268 19.4689809085639 -6.53920670595737 0
122.07118016371 -15.3362770796918 1.1289133740849 0
165.118447984826 22.0799997610792 14.9180226149334 0
48.2449514055254 -1.19540036398981 4.04221402939903 0
195.054168998367 -32.8983942747317 34.8510467626489 0
155.101181028394 17.9484452539073 11.100709214864 0
119.893657745197 11.236437455174 -20.9518324903731 0
13.9013807154445 -12.902572555926 -11.1054636252543 0
36.5037119452665 -12.8849569239581 -8.23246543168336 0
194.415503867915 -37.2710326865456 19.9170260056895 0
191.204225804591 16.1382710954762 30.9691946192089 0
167.632885266859 16.7387123993403 -23.3903712290638 0
59.8789783247306 13.6210040794965 -10.6473169508172 0
124.390065905894 13.5080216858372 6.21564604918226 0
201.776765043593 -35.21305840052 20.7913726932477 0
173.140730081189 11.5433408484527 18.8331516081669 0
74.5290352372396 4.23844382514909 4.34003627368993 0
212.931739660846 -25.3869826920593 -4.94938798488664 0
189.664540590461 -18.5157229276988 -18.1999029185492 0
160.078121200522 -10.098398203715 10.947272529617 0
173.203105258311 -19.1557487910391 -17.6951216072955 0
190.146044454489 34.7536458466588 16.7649432027629 0
19.1999751020497 6.07170611018329 0.0594184474169185 0
45.0885117763195 -9.23887352021368 -2.0722960563092 0
186.390123739729 -22.6716973567936 32.9241968360894 0
191.965932673249 21.7907381170422 32.7911791133404 0
77.6141792083382 -15.6658693453996 -7.49708934293909 0
120.236445408655 13.3936962987954 -18.6955016417173 0
1.01422403789756 -12.2618139310336 -15.7688721406151 1
8.73929171263589 14.4416025803522 -12.5788909578807 0
25.6781143377171 3.83919725799053 -22.4328765501474 0
171.256751622994 33.2301764520096 5.05307069707175 0
172.641663608169 -32.7808651040884 11.3530533962029 0
211.216981817186 -22.5529174857721 -8.69406518140956 0
179.456704374001 -3.22709308502657 -17.7830403882699 0
98.9963411800198 -1.76501777425587 3.23191527332582 0
193.424817910048 15.0943434028329 29.7298812445047 0
130.487396078478 7.79743952831013 6.12062531167969 0
116.579423247691 11.752652891533 -20.1919192900143 0
185.890277874578 -13.0159596124271 25.5163441395597 0
140.109741247719 4.96922763825003 6.44805552821601 0
164.993806643611 13.512114736454 13.7121083226928 0
136.468691764135 20.0556827648262 -2.12833414150254 0
85.8089989808102 -6.0091658398973 1.61310081549508 0
210.788122629401 -30.8261393361615 7.90533972796624 0
193.331996618919 36.3845128056469 24.8479484986693 0
183.399848654629 3.74709700223921 17.1263986339155 0
127.034156735903 -4.26664366025581 4.63826123546504 0
134.582650815168 -18.9768104438084 -14.600513147464 0
187.584944988274 -40.9611797787511 13.9149117834598 0
200.49907595868 1.14300606359829 7.17685106365897 0
178.237125207006 -15.7144306982034 18.7724663106397 0
144.920031766948 18.4826964426556 7.84905883214699 0
202.308313669598 -11.4076176395191 22.8819596397801 0
161.870226393863 -26.3598532175392 8.53574767875792 0
127.555760981858 8.91310449733128 6.15475654737988 0
156.270291395277 21.0316569057975 -12.9148012972645 0
191.771079728853 -19.9461680431715 -17.149906200345 0
52.0306725689594 -9.34725268059289 -0.847726732838887 0
69.2667352289294 9.00017351276476 -20.2993660610628 0
31.9801704165139 1.76316268440817 4.95399403197416 0
215.696863968935 -24.1137272536766 -4.43789792277054 0
33.872175458531 13.5819516040557 -8.49318879582184 0
192.015301966097 2.04274377909873 11.1649083659567 0
13.4497906312626 12.2415942811077 -5.38752168410587 0
144.673938300486 -8.16571184566626 6.77641161066019 0
170.561925472992 10.824615628954 15.6901576161071 0
207.716895467879 -19.1247532804096 -12.3602781529079 0
105.845127367757 -16.7196982991826 -3.24020627385634 0
167.995716310627 -12.1626365657265 -18.9832871168303 0
160.434569040199 -23.3725424428293 -11.3467937259617 0
34.2466784915004 1.16782862945589 5.07068301185435 0
0.524776333047111 -7.79767153903547 -20.3475756241151 1
87.6209827622603 13.1656671297785 -1.04900122437341 0
187.556390222096 23.4276735073657 -23.1910093684889 0
18.3799473659568 4.59513188484701 -22.2205882934951 0
141.896072186808 21.2968384706133 0.998542607500725 0
196.271829604346 27.3407825600949 -12.6844145448597 0
199.822031065344 34.3788883484638 10.1579717072054 0
171.694978007456 31.1288139359311 -1.184162771986 0
9.34616555584781 -3.29960173203483 3.99501154250915 0
175.910339147282 33.2003067315666 0.913106065820658 0
112.945115992418 -11.7281585378409 -20.1472797264712 0
133.463018620727 14.6840555756223 7.506579743224 0
9.49531701633871 -9.72152371294373 -4.75465562394253 0
174.244186730407 -2.34029804886253 -18.1816469827274 0
148.432155688494 -20.3732125487189 -13.5605967909964 0
211.339935071792 -33.4020500182836 18.105084775551 0
216.970888221477 -30.0913268036104 13.6260956786551 0
187.545701564819 -10.5867318964119 -18.4466046517605 0
92.0878678735655 -10.2713842642361 -21.0742628441104 0
179.390782232876 32.1218658023818 -3.38200523954649 0
19.0329256115363 -9.54058917514449 -4.10334740590248 0
173.538481897636 23.0771213794876 28.362828383501 0
116.225163491629 15.994537912247 -12.9590277522826 0
169.047680135686 -11.3038268039412 12.8447384819882 0
154.606534523061 -15.6564675767509 -17.3650566088886 0
157.857399018061 -13.399922568682 -18.4326197568192 0
131.437429206357 18.9191853835203 -6.36422169556895 0
137.952651795909 -10.5398007824121 5.03678416986395 0
157.760161097077 19.5396615877277 -16.8611998867829 0
175.629301451266 -33.6696184240302 -1.35613036856858 0
84.0011287668507 14.7266224602905 -8.0806858617256 0
215.562591882359 -14.1390403231479 0.199501248242907 0
166.354250699893 15.1295328651671 15.1531335765878 0
195.007763632369 -35.5525977788486 32.4812847745687 0
87.3231993631524 6.00404546663929 4.51077973913299 0
91.2699380428915 15.1231285940508 -9.46745726693947 0
199.223279255428 -19.7181065217556 -15.1661151030221 0
187.246843554487 -26.965107015417 33.1935451597361 0
181.080349321358 14.1090039022619 -26.1468024162721 0
143.705112605589 5.87636945808845 7.01653761602477 0
149.911131923219 22.0802647914236 6.90633636071369 0
119.444369893568 -20.2878313318889 -10.160381827301 0
109.90793123449 13.5967241334312 3.11578827378812 0
205.99369605108 -34.0779190226567 10.8665221683303 0
175.049451950309 9.11978159389818 18.6553615404464 0
124.430154495191 8.54396569420427 -23.018701837355 0
179.113715794821 -20.8210242169222 21.2430949462037 0
182.550519362871 -29.7597261362549 22.4445163304478 0
158.457798737712 6.82697436976506 9.88462166805825 0
14.8699014824799 -4.97180713479227 3.31587821968603 0
105.461649904867 16.0651857918996 -9.46130948919313 0
140.165202532767 13.2950290215515 -21.4645354817974 0
94.966964921509 -5.05555607987022 -23.0434777222304 0
208.900439862898 -16.9853855392753 -13.1685897384267 0
96.454529432908 -17.217410270339 -14.7917228593785 0
54.7324737906492 -12.362971978263 -5.97565660997326 0
16.5704623104821 -9.82585185687566 -4.62663109299819 0
166.270819315332 -2.25330555211722 -19.4698231425371 0
149.363850885989 5.83913330099948 7.85204712827767 0
195.775680000417 5.44132160032063 -17.0352172373575 0
193.943401228687 -25.9496198311707 -12.1912849810016 0
175.070100795584 12.7911092957325 25.5728426351012 0
55.087687935348 12.6625263134568 -5.55651662357466 0
7.8738318269883 -9.91407320214843 -19.2211199583528 0
216.538144758657 -28.9709335415902 19.2888235795425 0
153.219760714811 -25.7848792127366 1.44614511828849 0
167.631319282867 30.3470087293535 11.7667537685085 0
0.29844887477115 11.4098300910605 -4.21130412992734 1
184.80343784235 -34.7396821690629 -3.34546117301479 0
170.370241912897 17.467072956103 -23.9526962490403 0
135.185853344024 12.2428744938241 7.00320907940057 0
126.012021942533 12.9557669263682 -19.9445951089398 0
213.522802815438 -16.8597791460339 -8.74679964681936 0
183.721308406046 18.0929038912173 -28.038658628655 0
178.452667305434 28.4519231165204 -13.0268760869752 0
125.480271970166 7.81630952878324 5.88603365692205 0
152.529349652598 9.98362999945711 -23.366258759657 0
156.552838932977 -23.4155721600288 8.10635787208619 0
182.904104777339 9.15595915315884 23.9238299099394 0
129.955044297335 18.3580312116538 -8.60132818961825 0
200.76501553632 -18.3163049024008 35.6364496048543 0
187.845064617742 -5.126605509056 -18.5587177094702 0
165.50631125324 -13.756331193498 -18.4611402932699 0
172.317072659139 5.36586952201516 14.7842887078194 0
40.7630321494101 13.8504188307504 -10.7842858365954 0
164.743962002866 -28.6561710125783 -2.8851002002638 0
182.506933666993 12.1526451039642 -25.5335144134432 0
158.286006999239 -12.8128877382204 10.364216351492 0
171.917232545513 -26.2204605414248 -10.7379232660936 0
168.889741255629 -19.5382953273167 -16.5472002622143 0
58.6865882861276 -14.4185473369269 -8.53562366599061 0
97.3553037073445 15.1799992391061 -11.360585154999 0
75.6388680256279 13.4677214150986 -4.34193941130528 0
6.31436830543304 0.90856011244286 5.66015220669591 0
75.1161526050688 2.42785845603526 4.42649578975749 0
173.959710468647 20.7567048737328 -23.880598285987 0
125.250828721836 6.21361692877055 -23.8506732448897 0
5.1617849988736 14.2242386097441 -8.9745650495395 0
71.8951485303091 10.0098045073226 -19.4849877100069 0
160.933800060003 -16.8321181280299 12.7588698711957 0
172.434954655377 18.6339474363081 -24.3278486162559 0
171.364296602849 -5.5023722309456 -18.2599425022782 0
149.930840371753 -24.99788598055 -2.56357875608875 0
66.3080325576415 13.2910503173129 -6.01287936901799 0
195.552495987 -24.5278487059122 -12.5791731118517 0
207.376718522646 -28.8639851049577 -1.6319283289058 0
146.489656301524 -21.9379320692487 -11.3769044937736 0
169.766713644746 21.2607736530892 20.0095995735351 0
179.968958257227 -19.8970945231811 25.6536591266405 0
200.559654983341 7.33278770493521 15.6429834312238 0
189.569732966483 -40.253227939125 16.6011417608409 0
67.4398651934629 -4.7394047563692 2.23079759942251 0
204.696360005018 -33.8177260414487 4.43187094273548 0
195.067936623396 11.1977071480601 26.7785388293729 0
151.981057960048 -15.0013350581575 -17.8037492615106 0
116.483745620606 -9.59199300191828 2.53649098542315 0
132.499506581142 -20.5020900564719 -1.78564137234117 0
200.503110619362 7.97645186264579 -13.891451642343 0
115.969267650446 17.2886678335774 -4.08657481569078 0
163.43879143678 28.3776428660683 5.20323443912583 0
96.6878867987294 15.4660033544208 -4.78585692061456 0
168.72049120963 8.07162053664068 13.404800085171 0
158.982164482937 11.1946891185784 -23.1141377952851 0
181.403976678921 -20.6133292482538 -18.6684202477889 0
190.857705198368 -13.0908749869773 23.8122070635595 0
62.8975364199664 -13.6379769482582 -6.71867008055873 0
186.815798742367 36.5181896162083 13.812415369954 0
41.6026980107111 10.9049778674207 -18.2030048527476 0
88.3837424972809 9.99973788180408 2.30075764830849 0
179.929239160838 -7.37047566796137 -17.8867050666555 0
168.592859138759 29.5705137595292 14.1131728467605 0
90.2416720967101 14.2491558541909 -13.3274090314396 0
180.594574595472 -34.7626415214832 -2.19872301377747 0
142.502802351087 20.7881890915565 -5.6469143153218 0
191.23771509576 27.3954278279617 -14.0377085663195 0
181.633978710233 -25.7720665789057 -14.0466282672484 0
173.559805136208 10.1939546189909 -22.9846182464032 0
181.009563604255 -2.39308997586732 17.1116134689941 0
188.441166406708 28.9187650942062 -11.6603542570263 0
122.601400627765 17.9864634040973 -4.38473723717685 0
186.829710050199 32.7809259793833 29.810408404192 0
202.438600723308 -20.9202709040481 35.5587688865379 0
204.054331689312 26.4454929457312 23.0491825786196 0
164.451394462361 -9.08072399923106 12.009526937086 0
182.309698852615 29.9451276609033 31.7142589684238 0
58.1528886369361 8.58452807941353 -20.4930844513597 0
51.5520714059987 -7.43458413203647 0.988012959242278 0
193.244630556825 2.92370567736102 -17.768571499007 0
73.5988855130713 -7.69305038557075 0.83620736322124 0
169.195307815958 32.063863619322 5.35627667201369 0
167.043125902911 -27.9594554693489 -6.07090581877958 0
118.384984536084 -2.71134841750495 4.07378243374286 0
205.602486126553 14.9828898852629 9.36306002292083 0
94.101736717548 -15.0188822259423 -3.25098194669284 0
142.578649616186 11.7189283138585 -22.6109451130206 0
191.755153886025 -11.7780441601652 29.079027741434 0
124.291155180147 -12.2040177255779 2.88389406775945 0
185.98175632816 16.301298340498 -27.3814445784946 0
134.009314842018 16.6903996259731 6.66378036459992 0
202.709274766618 8.3042394302971 13.1401757924976 0
37.7863215748596 -9.25130982873135 -2.885419820993 0
196.801533841611 -19.7426386974759 -15.6896171650569 0
191.493199419321 -13.0988119165521 26.7410882324188 0
33.2459360629441 13.6540162242655 -13.2042683873551 0
168.888914596013 12.7489213308268 -23.399214424372 0
192.759477097119 -37.3878852117489 20.5441658299997 0
203.745875130797 2.93381071257603 -6.54742694680203 0
181.041261306242 -24.1886627040286 -15.8225103621137 0
171.357683120995 -8.90721200180577 13.5422370101053 0
166.314782588465 27.4875304458206 -5.34589547726548 0
12.2399261421508 10.2042951911444 -3.20504900193117 0
160.358235380428 12.6971902130797 12.2315742984627 0
5.79795021277971 2.07621167872193 5.10671963688967 0
105.927098560362 12.3956856277396 -18.609631093944 0
214.117285365952 -29.370506237222 3.40193101679791 0
112.250281281293 9.19588696351097 5.52623072834144 0
64.1168270805303 -6.65149135052314 1.28597564008892 0
193.677299590984 -35.6028550912629 28.5609612216404 0
206.572814112615 -5.24142860836384 -9.5396259404749 0
127.76936989179 -8.23332438829677 -21.6091051619584 0
65.1349328581057 9.14505770452683 0.157383811364731 0
178.144704688166 36.331521679342 6.42799724221628 0
172.130760537876 -33.7272777802286 2.56054160478908 0
128.339160810773 -9.12740963851567 3.89443880807037 0
204.500958786902 -9.82538994489154 12.1833871861576 0
37.6911292784308 -3.5057306596834 -22.9044315178515 0
147.342997945236 9.69876814218979 8.1896953141421 0
166.849510455218 14.3730867969085 -23.4977036675109 0
179.125628020934 -17.8822101464231 21.6874818637697 0
5.00412492507702 -8.81653515939838 -3.5070983873762 0
107.31764147484 5.48573219606035 5.03485513942117 0
208.745874159783 -31.3922514237978 30.970519705201 0
170.959118759475 3.42640382038345 -20.1269740809241 0
183.907277384292 -41.3570267442406 9.83870158899942 0
173.616860724552 -34.9949988900042 11.4472009658247 0
146.456840254932 -2.32441411961701 7.43422392651251 0
73.9582453110327 11.6958570702917 -17.5109004674202 0
74.5768004085566 0.347861584297087 -23.6226127538993 0
186.751730459112 -32.7275540700107 30.8386716071858 0
7.16149788833375 -8.32108380630554 -2.69052171271379 0
192.656029627993 -1.67498297651185 10.7203003679512 0
29.7193633751839 12.8102289949414 -6.38439012216284 0
167.892650011176 0.698226407433853 -17.6848118089531 0
213.217214279768 -22.0538954850411 -8.20393516675956 0
205.504318475409 27.3276858797573 -6.03114371295944 0
135.955281045894 16.9983446809207 6.52889346776687 0
203.858564070448 -11.4017294796949 19.8750932089559 0
165.606492045863 -14.4758978377246 14.2354234444676 0
134.519308265638 19.6604427573182 -3.68666618341673 0
206.774516209694 21.9137022287216 12.9055385317465 0
175.291885177032 16.0221228420515 -25.2179701602776 0
162.725601061524 16.43754112606 -22.0952145687453 0
193.267333892387 -38.5179393740399 12.6306904356371 0
130.338204581598 -18.4915551596204 -15.037384189664 0
56.987635163979 8.32638055723933 0.0955212426185901 0
197.056032369986 2.89584353971804 7.55405788336401 0
166.477960785435 25.0332922611575 15.300404321866 0
82.4906599861265 11.5905784954378 0.000904397126240265 0
126.761504258233 15.5675495349863 5.5519795427314 0
197.399080430166 2.41723875412174 -14.3909985578914 0
196.699226772009 11.2384886405615 -20.1842719967151 0
211.954208836402 -32.456407639606 14.5082656403235 0
193.635510035444 -35.6428873500286 26.1000603135797 0
148.627226382887 15.763378034214 -19.7498091584792 0
190.492095091598 -10.6017914654204 -19.0270510536724 0
57.2139185912306 -10.8664559067843 -20.2599714389462 0
58.7884918559428 -12.8240660257029 -6.09216382690372 0
95.3829742789389 -17.4440521011042 -6.78539208257991 0
83.4557734998651 -11.8074901419625 -2.01432014576719 0
19.8774613921695 10.1172417656053 -19.3140141566281 0
215.62261293855 -13.0706076773471 2.65540402889127 0
127.921360885176 16.2615820278243 -14.860646480997 0
30.7492032937172 -11.4417819781781 -18.9210222897707 0
154.689794318381 -23.1372244768728 -10.5735173255299 0
205.54130002466 -16.4947746244021 33.2472197729041 0
0.100904666239305 -6.57712673748523 0.568926344786362 1
103.497494564278 -2.03779399326494 3.32024448681299 0
185.223390010255 -1.7056382079152 16.2051900042348 0
158.589130206925 -19.1909355675061 -15.0424734945416 0
183.270440915305 -30.6378487897891 -7.9254312482981 0
166.725226245922 -9.73789760624673 -19.3221290969831 0
78.6679570296754 -7.55178857160693 0.82921700274574 0
113.698353429888 16.9420818603063 -3.16398303204791 0
177.665587148218 36.8989867998019 7.78721256165464 0
218.404538317484 -24.9505393212813 7.86661199681607 0
181.215479313325 29.8468136467052 -9.35076692249414 0
58.8748476406628 -3.86467135361859 -23.0478570193943 0
195.252744355038 32.5113400931509 31.1153078993742 0
10.3098292355117 -0.41098213733084 5.15463893706128 0
199.40487434618 -30.4968223307224 -5.4151153598571 0
45.5636023163441 -10.8613548836761 -19.9835022827605 0
167.631575479327 -25.6413986536231 -10.2143775904549 0
10.7918763994981 3.92006908777619 2.49215882322201 0
179.412466850827 -19.97231441774 -18.5258993103209 0
147.309301186044 11.6106212818341 -22.825883531199 0
172.321155067618 -6.96447418113521 13.6269128768854 0
177.729144420208 -22.388173714005 19.1710891301256 0
163.393127417089 -26.7931228857765 9.31990679048094 0
0.481446394048702 -12.4668338242954 -12.6107040736025 1
205.654310957975 -20.7613671746219 -11.8173832019329 0
139.879410538953 -22.1933247430448 -0.923122158643992 0
168.548586477335 6.90276879259352 -21.5060983962417 0
77.2446245154536 -10.8899927178283 -20.5704054896877 0
163.538328683685 20.5250693908741 -18.2710298782636 0
142.154025767011 10.123533534662 7.56007385911852 0
191.148625529839 -21.7898790244085 -16.3234143156767 0
205.071570993703 33.6602935228114 17.1841961542072 0
171.241541540124 33.6584602553642 11.4255522687794 0
163.385486698944 -23.6356483329646 11.8500192995295 0
172.432343331463 -23.5652263961894 -13.9932117359176 0
130.304127447771 13.255370647918 6.81283778998903 0
147.244920793189 2.84918396394899 -23.2517716562779 0
167.096319694797 17.5357021451024 16.5265209860831 0
148.544894086742 21.5511307468072 -7.29575568472247 0
172.487453261357 -34.2924890292212 9.72677035944923 0
187.579965371888 -12.2800723773818 27.5769684221465 0
191.748327496307 4.62091151426416 13.2294581105046 0
51.7686053760729 11.0492371186355 -3.06043099620296 0
5.98628381752514 -3.85095913808081 -22.3114272649033 0
207.436909201028 -22.915126768992 -9.31300274704897 0
199.692558801125 -17.9104645380321 -16.7853118943912 0
193.468102206023 -39.3149270020114 10.4309771426229 0
210.04952510646 -34.2058468990703 22.2166556314353 0
130.385166710148 16.8064873263618 5.52157266494524 0
161.259066301707 10.5598026329702 11.8164320125558 0
216.928737652199 -21.1303434231331 16.8800906074372 0
130.15204235382 -15.2763519471873 -17.8843520507564 0
0.730285852126402 13.869818875496 -7.85306445565751 1
178.747506416284 -26.3200496600822 -12.9056419987234 0
136.953090765509 7.01760869930453 6.46558277062527 0
84.8900348748027 -16.9803631159774 -8.98377957087888 0
132.988648673102 -11.7811785130769 -19.8747720278441 0
172.353054475131 31.3843221757707 16.1341573862471 0
169.509412419039 -20.7589323261919 14.8041112967209 0
193.283136999121 -11.3265734603163 29.2732276224696 0
120.540017136715 -10.633565437558 2.85015607002973 0
164.759385204047 -28.3825641237165 8.51567659716732 0
218.082449474398 -23.8411888764552 13.2917083727491 0
200.251356029383 27.5079366065225 -11.5193895807708 0
146.260597517557 5.13504972526566 -23.7194996023912 0
206.403671228597 -10.1506496344599 12.6507352002744 0
156.948623227455 14.6387507005928 11.8579675907355 0
188.682839905396 -31.8375421391163 32.6959703847574 0
184.038605431456 -34.2058878302672 22.352082830107 0
44.5718655272237 -6.69806604946137 1.85868188701356 0
114.827248354996 -13.3228458403741 1.02363983422279 0
189.696100487019 -28.4910850632939 -10.5669397499064 0
164.207295534938 27.7720940785493 -1.14135180122781 0
24.3916968474264 13.8961666408301 -9.94835044176858 0
53.7511129629376 11.1581040460961 -17.9128375700944 0
179.47590893195 -13.7087738317577 19.1519625590902 0
182.995241321244 -34.6214163656401 20.1932959824485 0
167.864240138522 -13.3179497726862 13.0616688139093 0
146.340747897088 -9.56475795198287 6.90649558379311 0
201.32837676622 35.9372110652719 22.5445028504281 0
133.188951158388 18.9547658277889 1.66993724775695 0
46.6452771203969 -14.1447915848121 -9.70590322267456 0
201.653242563514 -10.9329884000407 24.7192915581325 0
161.997170062589 -27.5671938899429 7.06965883754815 0
85.3030868872008 -3.33153146247709 -23.4384361150833 0
179.22232651447 15.5498223288658 -25.8931478144979 0
7.76040154884147 -1.44014315352234 -22.6895178810041 0
108.299461056405 7.6304558041782 -22.5925441114773 0
185.409171293103 5.79354105243525 19.535811496801 0
196.53547751592 -2.56698171752602 9.30510519585131 0
171.61595045458 -7.99302140997519 -18.8052037806488 0
152.77606817437 -1.74640903949799 -21.7120164832337 0
118.969265513137 4.04275551336293 4.99115938350752 0
179.352740152091 -7.54875690114244 17.8941081352379 0
170.415271411686 -28.8097369199415 12.0983737123769 0
45.9687053122782 6.05814828483455 1.12062114808254 0
189.790799514974 6.33874263377087 -21.6089770812332 0
64.0983418843305 13.1384508607111 -13.6749509994706 0
197.110637939343 -11.7891885731737 24.6928744483772 0
191.538144635011 25.7737733365375 -18.3089131376721 0
177.78786422757 20.2490204282418 30.4447766219682 0
181.817376725039 -24.5179546270741 28.415614015457 0
73.4032370513452 -3.08326985117294 -23.4166616553143 0
176.717786055923 0.803646256670473 -19.1002377224902 0
191.931459094968 -9.62612188771705 -19.50495510907 0
161.108719235037 -19.8300139165321 -14.7472682758071 0
183.562246630619 36.0057193819503 2.67866573426983 0
180.873811656945 9.0124956878628 23.0768860474697 0
160.319810449268 3.27877559608734 -21.4293599612766 0
189.044009841994 -10.3846047115965 18.396215065173 0
210.111809156902 -11.8519894851384 -12.1791673488383 0
99.3252575876617 12.0935662270324 2.3820515667364 0
122.479274269042 -10.8267043518269 3.03248320593013 0
71.1849824626335 -15.576744798118 -9.01209001870925 0
13.7300905495582 6.4937185292527 -0.315726072708093 0
204.837030091032 0.640504809722738 -4.83169908376563 0
55.7255465743337 2.30314794178374 4.86581327939776 0
189.647132180452 -26.5081920912292 34.8185556846319 0
71.9999713532885 1.50145314903613 -23.503744760377 0
209.2114725169 -29.113583468424 0.557460810799165 0
191.28018803874 -17.0296342327862 -18.6734626494372 0
60.6037633084911 4.3799028962368 4.02550985818451 0
167.99619292611 31.2096942068206 4.8156293804599 0
191.395577895257 -18.2797935911577 35.1425150944822 0
27.5421804548268 -4.0875909384105 -22.6934050044334 0
174.530628232207 10.7341687502056 19.2621247869384 0
47.8774144986665 7.48563586725838 0.0883146454400552 0
27.0793217545324 1.41552452728606 -22.8444929266866 0
175.059864470299 -4.53423076064123 15.3806971337563 0
194.62157136448 -27.0755114289601 36.3958711768307 0
192.422782437408 10.1281432420543 22.8101720432902 0
195.605967187492 10.1159537952387 22.8745458816489 0
212.780735382319 -28.5441808176836 28.3621640222086 0
135.014829714225 1.56702368183734 5.72568969221165 0
163.747264841889 -23.0737181471577 -12.363781377815 0
170.21166123758 -2.37229976844606 -18.77158154906 0
152.459141739331 12.2643483959316 -22.7345527835455 0
85.6586537980564 4.43595721308217 -23.1218460565438 0
178.615035183596 -2.70258778083253 17.0647654477822 0
127.848675493611 1.66317383609406 5.10967965427907 0
180.638479237177 1.41778298367926 -19.2270661414103 0
11.6440773046368 -10.6091394740069 -6.04698542707628 0
119.002678598969 1.79403601215213 4.59176058652082 0
159.483465387267 -19.8621346406398 11.8133252166043 0
62.0107210242043 5.08312783400109 3.18916651361631 0
84.8150534498485 12.5275208161921 -0.687870280307763 0
183.274342832877 20.4771598716197 -26.0221862198556 0
21.9178861654989 -2.43589868726599 4.33056157265314 0
171.525614271005 -32.734105417612 0.201652170866589 0
201.506702667919 -32.1410789327476 34.8184017590859 0
69.8570641856417 -16.139134766751 -12.1983724279442 0
105.314140559219 -10.2848954302855 1.12618648677425 0
140.672780889339 3.0479037906991 6.39722710838378 0
195.787581594503 33.7820310016875 4.0366549489034 0
176.740166909463 -11.7190861433625 -19.0247493254466 0
166.579992106697 12.7403390300296 14.3722540842929 0
177.629485695924 35.5638235556013 4.80181262540683 0
103.764488922693 -17.2648071623376 -15.2936257466665 0
39.5740830950026 -5.92034074946289 2.26829707485349 0
198.832377009208 -37.9824244934775 9.5719909986188 0
179.735828801725 -5.57381594385045 17.5648892263468 0
181.84209779614 -32.3965123456584 19.450597058842 0
204.853242461548 -34.2542370497102 30.559897212368 0
188.300332914587 36.8090299296884 12.1298287882457 0
204.061804354571 35.502539665391 12.2363916467045 0
207.13248161617 25.4832057596154 -0.933574992829153 0
138.044955127702 16.5851666077648 6.94804600001907 0
157.924641613238 25.9213912024409 2.91661341016876 0
188.139031324478 25.1984830823682 33.4917510774364 0
195.131084135042 34.7259014581083 19.4193970297108 0
191.953025162166 29.6307015845178 -8.42666333470397 0
176.717891389098 -28.6942669388294 -8.87139589950226 0
118.587871366731 16.4202865963792 0.745432292827397 0
178.457205717206 30.4698575296489 27.1559945097953 0
116.30155853517 -19.7037273331025 -11.6332503873276 0
209.538416698526 -24.6426027661789 31.8453434148191 0
70.8222744470976 3.29223317656537 -23.1791960619049 0
156.971230690885 -25.7942152586373 -5.56301557679855 0
151.468066640049 6.38109583879074 -23.4697832342193 0
118.367389343545 -7.73948019305235 3.20737061589241 0
41.4003783407001 -11.6875767621668 -6.05117923176954 0
208.902546859234 -16.5035472002481 30.522769979377 0
171.371528819602 -27.5715660561267 -8.68706703908215 0
33.1205055265823 4.6969986921035 1.80405984507379 0
22.8539828214344 -1.8595903341682 -22.7915264119797 0
175.265132579123 -9.75477139957443 -18.7784536841864 0
206.794460317364 -29.7752095178165 33.8060439934304 0
94.4800319559951 7.35193636814158 4.61908687620108 0
137.429231024937 15.3470444768489 -18.6933940270551 0
176.717777913086 18.1594131183906 29.1746865614462 0
78.0778979057552 6.00380907374464 3.70056112523127 0
186.567852142765 13.4344331994115 -26.0828622538214 0
82.4781785354232 1.92450258293659 4.17147466861832 0
4.53644612811383 -5.85664475942236 3.26793715621958 1
204.271039334009 -28.2749417781141 -5.16879601955303 0
145.901425630227 0.568674486440309 7.17020591633485 0
180.893459075905 8.00599849553335 21.2905058354308 0
188.848504442148 20.7477629072081 -27.3992747949772 0
178.238244874399 -25.671518379614 19.2735389791622 0
111.354358559099 8.27551979232143 -22.4200022002778 0
124.331409231858 10.7049308963267 -21.7369880289976 0
178.773017134116 10.2008226647984 -23.8693282148949 0
47.7640771470629 -9.88160974834669 -20.7639912865169 0
62.8083273300631 1.96945042705472 4.55627425904706 0
199.744351790898 -35.5518346880872 24.976711673325 0
204.649070169209 11.4030023244846 10.2896090843342 0
98.867638157765 -10.228705712912 0.432467749427665 0
15.4976507942874 13.107204607452 -15.8191082442659 0
198.204954202791 36.8248745234567 21.2597690372557 0
158.859232209861 24.8949632038914 -5.13880951208201 0
51.3043372984987 12.3154838121109 -16.1367763283137 0
189.209333023243 -39.2275575035561 3.73616950021791 0
181.073756162737 -28.5833717816447 20.5167583512433 0
13.9723581835033 -3.16738448286575 3.95105940653701 0
105.325792153859 14.9759386081998 0.14377880760638 0
62.2685255062598 -4.77525297114983 2.34688761536313 0
169.40670393225 3.86205847144123 12.9060599737076 0
206.01493079616 -5.79748148068865 8.37543775378272 0
95.9839762287542 -1.98116056622146 -23.7365822415833 0
75.2778913576949 -16.2771349409667 -9.94000165279191 0
211.412837323978 -29.3415847205396 3.18388509396221 0
170.000842561244 -0.26965794652053 12.8551213372151 0
12.186336338156 13.908500516968 -14.1561435932462 0
13.3327533026879 -11.9043552075032 -8.2112937688459 0
190.532562073291 30.7591347255141 -6.15874977376518 0
183.472202677348 -11.2659151405608 20.2706099467585 0
163.137580024791 12.3752704400562 -23.2488408657611 0
180.827917788808 -39.2055493476801 8.20692390814063 0
103.687746763467 -18.7856987507975 -8.48591414910944 0
42.5954730423221 -4.85783320752908 -22.7025622534858 0
48.5430675073755 -12.6038675741784 -6.88180585550231 0
197.633572313858 27.7349201766946 -10.6203587821488 0
77.2543472310012 1.57554316045399 4.15354895707226 0
199.306886296513 -35.3492735008046 29.2873106625237 0
174.148567626018 -35.3599449645386 6.08444481671465 0
186.837734322299 -14.5542170001132 -19.0892596658653 0
154.248222705967 -11.7383491637427 8.86381960020845 0
199.803891108034 -8.03820088225788 12.9110655607067 0
173.30448820755 31.7147392450677 -0.592057243205236 0
120.84602884883 -6.11572709711614 3.78506235163273 0
163.349999341702 19.4538848464769 14.489414529639 0
101.226773277731 13.9986736631018 -15.536867584697 0
166.474565492785 24.9563226944799 -12.0599640969154 0
24.1357887583535 -13.8139397766997 -12.5232681682314 0
170.236205644973 -5.9181509410439 -18.4933218585336 0
145.293231681228 4.59572113448544 7.11687779776511 0
198.170302424589 -11.6722889012615 22.6904201301433 0
215.029346849658 -19.1376268509475 -5.32090622920688 0
4.03457578102588 0.852766902845545 5.47769087426101 1
10.0648883663678 8.63763899243717 -1.84840447515672 0
171.095025393701 20.3129087493868 23.7106557677939 0
137.606491769071 14.3185864483584 7.40390606504043 0
160.43443551126 14.4602068042599 12.7590607852357 0
177.608597020888 -27.5119236110912 -10.7420267843816 0
83.8892223910668 -16.9747181945048 -13.4350936751902 0
181.746178615037 -39.5808379728379 6.63363651556361 0
174.248508648583 -9.61634310697397 14.7449802388384 0
155.669047317291 6.54368005582468 -23.0593801332112 0
195.694453496511 10.3204297025389 25.3642105942703 0
148.726384894476 20.0425034970309 -11.6172942369794 0
170.653330691854 25.434761416859 -15.3140740764663 0
135.537977403791 -7.99739513070982 -21.5294076332886 0
159.616456497524 26.4212933366471 2.40204150186472 0
214.45512305368 -26.3412270207496 25.7360126783181 0
22.7685507548782 3.95997154301012 2.28539395452073 0
188.730442143086 11.7555871095612 28.1669768537144 0
213.651144045266 -10.6914216661292 11.0662342935515 0
183.506136316148 -29.2623171769229 28.8680793617979 0
186.298837317537 -33.6075004893193 29.2144821189786 0
200.855737552488 13.5798852916631 -17.0453295532 0
38.1379800317339 10.0510061749109 -2.77413354835667 0
110.721041527263 -7.46589490406655 2.64885548648234 0
49.186421387425 13.050065091902 -7.0378629693429 0
180.765080402272 24.0420371454785 32.483937722807 0
172.094050138008 22.1438077471134 26.7513418575857 0
83.6756133317086 3.49483989320731 4.79981495513338 0
79.1609856018348 -9.56113482481452 -0.661517447549195 0
91.1793479574417 0.86649222933381 -23.8796550347021 0
178.817546383798 27.5775579325752 -15.1037565208868 0
211.892251424045 -8.21550769618417 6.45053360059433 0
153.240305194398 13.1001485208783 10.2221321259987 0
