82.9277153289669 1.18425107621187 3.89131774796656 0
-52.5688850211014 -9.8962289030062 -10.6675984039885 0
-208.222524863573 19.4923201389364 24.2374121073198 0
-75.8620921311244 -1.18819518415485 -20.1660539099957 0
-121.022928466647 1.51855162835144 -14.6062528753078 0
-161.649750872287 -20.0126164871463 15.9071072200731 0
-38.2600520880004 5.14001489849286 2.4794407211133 0
-185.609964731318 25.5090717881989 0.234697935017422 0
-28.9600683807734 10.5807832459083 -2.78587907764529 0
-139.660283730649 -6.01160712388775 9.11765522382063 0
-219.627878343305 12.1276590206182 13.1054500567243 0
81.1638140189419 16.0176086338675 -13.3815959453525 0
-194.435943473895 1.04735928550838 26.7195318161179 0
46.9939058717327 -10.9764856625069 -7.01645641623272 0
-197.558137037065 -22.9231491251616 -9.95337367222737 0
-162.038185573736 -15.8808673543595 20.67891862303 0
-59.899985105675 18.3901003422576 -5.77497303981291 0
-34.3454324175682 6.41412783672996 -24.3696911766922 0
-116.563695946791 18.5874735272229 -5.1004938292556 0
-128.81340273916 0.0118326500381519 -12.8666448088888 0
124.70744582341 15.8634423583309 4.83048898303068 0
68.3531709841613 -8.45673809938646 -20.3778243239959 0
-195.781364404984 -23.2548934960794 -6.63410647828058 0
-164.377373199644 -21.9440787893174 11.5517184562222 0
-20.1737713607846 1.2535243718716 4.34833022063701 0
-170.763742184981 6.7031730474978 23.5047119558763 0
10.0545090308796 10.3779543663849 -23.221196625396 0
-171.501000332598 -5.89311060661808 -9.64211058674863 0
52.7818265086751 16.4099822500363 -10.3753696119743 0
84.9965536770111 8.35231303937111 3.49713671963098 0
34.0213210059542 -8.9713909641282 -5.12381629043326 0
-182.090447568223 25.1237963362418 1.8640333948381 0
-187.135027769501 31.8874143860171 10.5365947194818 0
105.591116433093 -16.242998099287 -10.1408225093134 0
51.452524474961 2.68640855994752 3.56218219117236 0
-63.0960571777278 -9.53757464700403 -13.0511595155828 0
-172.904598249921 21.8594009857699 3.7378116136824 0
83.3046837347106 -7.55099227313186 1.36718636805581 0
-119.838213629025 10.9219694657947 -12.3646489710434 0
-169.725289309547 8.40895154189843 23.0894661321377 0
-128.876477645477 9.72110979754537 15.6875265131201 0
-93.8222026551989 8.20155974990884 -18.1688252073291 0
-92.6639650354537 19.2792923291424 -1.89911333879581 0
-202.32862620446 -33.6569717889339 3.08210369773894 0
-214.733180950748 -42.6090075029131 -13.1564105911584 0
112.672319556819 12.6895177273976 5.15474777886642 0
-231.714410532509 -29.5265391752075 4.10763571057333 0
103.608191324535 13.8549856614658 -14.9736019104739 0
-31.1530920493452 -10.1700262148453 -6.26208377610759 0
36.3979811622997 -8.90727337748087 -4.80510513964247 0
-41.977728523877 -3.19865838233199 0.564012722754591 0
43.9336590256528 11.081982421296 -22.0053907968584 0
51.5536420826547 9.28156308424239 0.0142376995950852 0
-126.432731439124 -3.41804927069343 -11.7448260323091 0
-82.8979724805881 -9.83883030866266 -7.14010314612549 0
-95.4787337062313 15.3791095767398 -13.1661825619485 0
-205.277640682238 17.2943848968068 -2.1563319448396 0
-198.917698732477 1.85298015668175 -9.86431199015415 0
-167.407751602975 -22.6673600909401 11.9859195648667 0
-100.975967076035 7.32794756908021 9.97123303779029 0
-122.329902251324 1.61690942139248 10.1661944798302 0
-32.7271613338153 -5.66572014006184 -2.03252593157326 0
-177.952281360572 -13.2428047224287 17.0197059697248 0
-102.781696369211 3.92504658925638 8.54491864629127 0
87.1377401855242 -2.73635774276889 3.86238535073724 0
102.570436518426 1.0052947370902 4.73146209955335 0
-61.3223090072581 10.0867882560559 -21.3458730259564 0
112.530913946924 -16.359961988176 -11.2147039236069 0
111.276558224274 10.8551804570911 -18.7871267313039 0
-25.1551201209186 1.56622519107885 4.40713276634084 0
102.578383746654 2.95783133361415 4.84774737822639 0
-107.810071369578 14.6722145977344 7.14317166360341 0
-136.607462093729 15.7569323187122 12.4036052245865 0
35.5818672140357 -3.44446960350487 1.43212842077121 0
-79.0413655373379 -2.15206850154853 3.5938121164732 0
-205.686385715805 7.31604183377238 -7.20063223096155 0
118.460667862295 -3.67634126126293 5.90674331274771 0
31.9839989130338 -9.19811768039646 -5.66533670976665 0
-186.761825304059 -7.86598734872339 -9.72568825156839 0
-203.650820979737 2.95394299278836 21.7897085797596 0
-211.890323936243 -3.46700133946613 1.64927173710217 0
-205.881701265324 -20.2125295604221 -21.7289695791584 0
78.8633553176432 16.054403760827 -10.0685606014257 0
-140.234675479063 -9.21270446245142 3.0356415417877 0
-123.472780706142 9.3590542178001 -12.5800045480467 0
71.81511142431 -3.42244112959748 2.72842094484626 0
-4.78684142782233 10.1398556461962 -23.3980283785889 0
96.4026239077239 7.15127606350141 -22.5863216403671 0
109.016923170793 3.00488482029892 -22.8699014688621 0
-185.032860145565 13.2991198285096 -3.38734588363363 0
-233.696577230044 -21.1442659345345 -14.5853758477125 0
67.6796034347795 -12.7963380460172 -7.82042918639294 0
-137.408296461913 0.615907749107779 -11.9503834945096 0
125.103268125392 7.71061753714889 -20.2590464694951 0
-7.09039326596316 -1.95832518257717 -23.9864020835122 0
-160.291458290122 -16.1133145954933 19.0729374613912 0
-167.177830720271 10.2302834996292 -4.39551421072117 0
88.5647552461373 -0.775664952872949 3.99228476484741 0
89.1651388095114 -2.89016928877321 3.95665965275196 0
-41.7112481491169 18.8006263351998 -14.3817053168675 0
-133.144483178175 18.6948790764987 -2.13432566779404 0
-212.12079809942 -0.805225816760415 23.3985626501344 0
-195.35746018128 28.5333416355073 5.43394522730443 0
99.7673132929148 12.2394769824121 -17.657023990911 0
-130.700089308103 18.957135149439 4.77782981672143 0
-39.6707915889668 -1.48420970085677 3.47739237703317 0
-159.569660115058 10.4020865485498 -5.2363851633843 0
-172.476142990857 -14.9958803322268 1.86245137646678 0
-196.937489554102 2.46402013530082 27.0542482156249 0
-203.712323158477 26.6200106896137 13.5072346405996 0
-196.539432080479 4.525894958268 -9.89327447288775 0
-152.32676319871 19.4330398094044 7.3488503798461 0
-140.749444484817 4.33412887696121 15.0020462713819 0
-107.179718521533 10.2801872522713 -15.2596766015475 0
49.9480996993168 -11.5284700311752 -7.73206670373458 0
-52.8259850840309 0.416617692180147 4.90691590496507 0
117.646660322693 15.3984425961503 -11.3472793107893 0
56.00775249028 -11.2123137371098 -17.5797782962838 0
-207.646071276324 25.8211959580195 7.78332973104995 0
-212.655616688504 22.8088549633419 12.0390615397145 0
-213.041035308894 -5.61623875898982 -13.6170150270468 0
21.042126882115 16.898165622451 -12.9372104350701 0
29.2541243885791 -1.50462928030255 3.71640568110292 0
-187.58796462101 14.1245292701442 -3.33287881235931 0
-19.373454010815 5.91697450251927 -24.943044495807 0
-202.480835075809 -24.4864971036227 5.80914259839111 0
-1.93195818110543 -11.4987395012315 -14.781268426659 0
-192.037922849985 -3.51083130511763 14.9134052067307 0
-194.236288103554 -2.89845147896686 -9.37186549135338 0
93.2637292547656 -14.3733846709267 -13.5486943248683 0
-187.337554268433 9.01102406307945 29.0011876621332 0
11.0406762574492 -11.5870114942353 -11.7899951643727 0
-169.438339056865 -10.2211104963442 -7.33123999663326 0
-166.462586028033 15.0119382509733 19.889600581917 0
69.4394331723623 -12.0131132550053 -5.79569433927816 0
-204.856609840373 7.23625532943626 28.5894651082046 0
-192.717244415665 26.8359283732163 1.53708910375578 0
-207.270497842203 19.80383440909 1.37606443692063 0
-42.6281506927054 14.0634305065905 -4.34024310659174 0
-46.8958114747274 5.44577012229451 2.67055582575595 0
-184.113400660946 4.17261880306916 -6.76395520132702 0
-102.261392714642 -6.60617444734386 -12.2913367638337 0
-160.698895981662 -13.8097968160913 20.5219136053788 0
89.2602995914921 7.39687399833524 4.19215539787484 0
-123.84349455296 -6.65236307738541 -9.27566696840039 0
58.0997831705403 -8.62310721981694 -20.4504196887111 0
32.9493386644512 7.54347377934356 -24.4031631112172 0
127.540315205053 14.8356263730604 -12.9047603286687 1
130.604415033067 2.82212852629985 -20.8505132738198 1
-152.684195552349 15.2582629763087 -3.06933883213098 0
-150.315090196991 -10.257001011134 10.6727597018086 0
-219.892236165143 -14.4987835414837 -23.3691616593401 0
-181.874032513454 1.85184872137117 -7.4420103409902 0
-230.239081621155 -36.3844572411238 0.0739255441572773 0
-207.163545847414 -6.6296892430468 9.34363963567115 0
125.737195579815 -13.9994500975831 3.96215319789579 0
-55.9703775799867 5.01004753272482 4.10294386466579 0
123.678308576899 -2.12773606618596 6.3441482486014 0
-209.582621143593 6.33200842824176 29.0826640353582 0
-156.93860133297 -14.6663732652259 16.4299655218922 0
-129.020241176908 6.53148038744157 -12.8130414603808 0
-93.0280978737167 7.99578688665829 8.7323489271019 0
39.2666354581364 6.28561542608335 1.00616684440025 0
-200.469665950554 -2.4164357104475 -10.5961386574711 0
-198.770594296979 13.2498902860002 -8.14242079676816 0
-66.2879113583821 -1.95827392918844 3.74886889656762 0
95.9934647991844 15.8311202735502 -4.22073292647337 0
120.291012986512 1.40080322805314 6.09448414381662 0
-41.128743199248 -1.91446943277068 2.88679570551218 0
11.6906334171332 -4.08494884575716 -23.2493166508151 0
-202.981962468316 -6.08707868644134 -12.6028217325682 0
65.3192822686137 16.0412661473193 -14.4931387568339 0
-191.991004047914 -1.65206183210875 23.2458989075876 0
-197.725725212284 24.4088491314091 20.5026184902196 0
-6.86889466018463 -5.6618605946001 -2.96905374940342 0
69.137636325113 7.8686125452806 2.26440319627285 0
4.00604596118445 8.90696911981012 -23.9636598795688 0
124.582463530548 16.2811635784229 -9.02118584622428 0
-198.770105779601 -32.162863848862 -11.1525958468995 0
-216.922036522177 -5.6636080537373 -7.06198661718193 0
-194.244944771549 4.91196227530907 -9.30848046293994 0
27.6366324186482 3.95500121763047 1.80027756250946 0
46.2734431902541 2.97264609308155 3.38698769965883 0
-72.6567820544547 -6.439487602689 -2.46242917419061 0
-210.581685140909 -19.2884215395084 11.5457583747377 0
-149.150528103738 17.3308299838391 12.5325342294776 0
-138.71033713957 16.5349365195687 11.3576944618441 0
-192.537005742894 -19.0194153925424 -7.76171692838204 0
-164.44239693999 -8.25166885925219 -7.0838306076137 0
73.1259476203375 -10.3764801198719 -18.5627963800076 0
-201.582135533796 7.11311021140203 16.6418210568577 0
56.5272965805003 14.0234874789184 -18.4283210364462 0
-196.945563372541 10.5806094287921 -9.27524389165256 0
-172.468165385409 22.8367540497106 10.205415926834 0
-21.1544737048394 4.66131889263809 -25.0686998716619 0
123.684494480678 4.91636153279221 6.58866557276307 0
29.3326243890127 -10.7412092404424 -17.5626546271033 0
-175.684883656512 -11.033100684699 19.6588942999123 0
-179.74696189069 -10.7810765681688 -8.17019550543537 0
-64.444857863154 -2.10973906380081 3.13235250942358 0
-185.696557585342 -12.1041872258582 10.7515701211495 0
-94.8608833986882 17.6469168601516 1.58113231382942 0
110.560611471146 9.53941413888039 5.87918549281534 0
-210.665793033822 -41.180713677668 2.98671229435598 0
114.101147343615 13.9971368744068 4.35724733149092 0
-215.775171916884 -24.9112789179615 -26.4718248835442 0
-216.882148359839 13.2254024995555 7.89870377609059 0
17.0105465988249 -7.88019782820732 -4.97514135692635 0
-197.816402240593 -24.7176723214379 0.3883898916123 0
-98.8774206616129 -9.78037521566596 -6.35224299711697 0
-95.7864457055938 0.921051730532282 -18.0587642025022 0
-181.991469161533 0.278759104758912 -8.69190514114584 0
-201.226585784156 2.94233980523176 21.7424022042473 0
-136.739290291988 -1.3927311832919 11.5717546216587 0
-211.545172983351 23.7203582658239 3.79448489891978 0
-133.029950310689 -2.92419625081309 9.54609340936631 0
-196.581301828364 26.2090082626691 2.44163604614726 0
69.4010199980804 14.9908869458004 -16.4137427096433 0
-1.69855387850284 -4.29355122362364 -22.8409250964626 0
-206.494657331983 25.0632418488585 17.8286031987292 0
-156.657533606673 -7.42213646383855 17.7712951969207 0
-179.295443753302 -11.2237732875927 17.3669986292676 0
57.4568583154033 -4.79778829365569 -23.0529028767409 0
-118.857238135893 2.75858142838154 -15.1628690247638 0
-213.693400544394 -43.6392585653377 -11.6543272841685 0
-208.059264613562 -41.5490062543363 -13.5184986329446 0
52.3048365178725 -9.09486748347787 -3.6938776611225 0
2.88166654307868 1.39050737943251 3.69092456687702 0
-204.582428084495 3.93853375906865 9.44386562793417 0
-207.263064084215 -3.75232112290621 -12.2252575006009 0
-229.001145950113 -22.2071134276779 7.77100209434239 0
85.5066436523184 -10.8598587482583 -1.65933189055439 0
-32.3681229951953 1.41113796536015 4.60720379206797 0
-48.8531764822335 4.59348678289043 -23.711775519806 0
-212.351857941126 -6.03837333386997 2.88056699370447 0
-74.2718390004191 19.9517110509215 -7.07200093485269 0
77.136764109546 1.14647416054183 3.78084859796801 0
-102.320072405955 19.745093911074 -1.57604250706147 0
-212.050329553081 9.54291187149719 29.5444831647099 0
61.8007451822242 -12.9293940013506 -9.96356188561223 0
-160.742246585164 13.1993063934574 -3.76065569225742 0
-227.349521202258 -10.5165169390694 -15.3023384063227 0
-158.49559435092 11.4294843570905 21.1258047838658 0
-215.062450440113 12.1185424067794 7.38083221525778 0
-211.77749169883 9.80892143396088 6.65135591688842 0
-195.972184306582 1.19305207758469 18.6520731530125 0
-33.3619379252704 17.725188581598 -8.69222648682478 0
-14.4776082315671 -9.84153230074445 -17.9644325312375 0
-43.312308925683 -0.0188652023790133 4.34838732181504 0
111.162839483304 16.0474134484555 -8.37692083109122 0
21.7860086936344 2.17537516966668 3.61725333906245 0
-108.067970790532 9.95173219004397 10.9900751016046 0
-232.98281100274 -25.9098002998545 3.22904667935863 0
15.9652470131648 0.709103049044201 3.95518491364489 0
-26.0138037172081 4.30781939782418 2.72300273508042 0
24.9519459826273 3.08072199843098 2.62986786456201 0
-9.23511291749396 17.4713224690774 -17.3409879554017 0
-222.428339180041 -40.6302962176566 2.42591271190724 0
32.9228764517325 -12.0378377654565 -11.9746592256175 0
-105.964047697861 -9.02669502594877 -8.29053451881428 0
45.8521383830688 9.23250876049848 -0.378688800927329 0
20.1468162433565 14.2374451196077 -20.2391582115059 0
-200.369294674205 28.5624995959396 15.629870741933 0
2.41491039818203 17.7276905331546 -13.6226709795736 0
-129.121553526408 -2.43960883849894 8.91374575225445 0
-201.658932985066 -29.6703322649076 1.493657527976 0
82.3601626821607 -9.96188403250087 -1.02238479794919 0
-176.930556038876 -14.8742932828382 -0.860741147971834 0
38.9076089401187 -4.18951873220076 0.590391103552492 0
-210.074844906233 0.270072812505505 23.0804944697877 0
3.05359950456459 11.4443931577303 -22.4305074139711 0
-211.084061154867 19.9655697839916 23.0885453435772 0
-107.466328969887 5.29004161892122 -16.6091825666593 0
-89.7986293360238 -9.8243108071995 -8.92505350667398 0
27.6135969665765 16.7265444318428 -12.8534349048536 0
52.0319426089204 -12.352298504462 -14.7179247534146 0
19.999293983104 5.0994252861683 0.735980979091339 0
-147.120617426054 -9.20405177753966 -1.14936554022243 0
-155.579278271968 -0.521963021183994 -9.33121064808593 0
-191.438533896884 17.5436233048987 26.7116683764676 0
-144.935826367881 5.08082865283064 16.3148956164871 0
-163.484381542626 15.3445141202317 -2.17918467607525 0
72.328201886852 -7.29950305127904 0.363862752176867 0
-117.70042917295 1.54587068922124 9.59583749945054 0
-151.860538498263 -9.01518920826991 -1.97719690559532 0
41.1088006943894 -11.6813833199293 -16.2243844252363 0
-86.6086312257175 -1.67378527057065 4.90309261733233 0
-185.218083508778 -12.370318891151 -8.36898267544119 0
-208.239661309929 8.04175222502833 -3.11373305398925 0
-191.383653764817 29.8623021178871 5.01056344198587 0
-174.878703607054 -18.2490171354142 12.2506457789761 0
-218.658686222882 -10.5314440482453 1.5434121707088 0
55.7537599893338 11.5249462462214 -1.39952032828284 0
119.262593387927 -17.0019310073712 -1.52685131121642 0
-27.82734464209 -8.16889542182199 -4.14834116404228 0
103.120248244534 5.74892608735037 5.22950440998073 0
117.104322362815 16.2471416214007 1.35725698876574 0
92.9275431541577 3.85405859908345 -23.7550674296021 0
64.1073016004397 -8.40348591988659 -20.5477942033638 0
14.7159123446767 -3.16176373498263 1.17285338154118 0
67.6892446613709 -2.51025054719644 -23.7830491316197 0
-157.572265740681 -13.2863374988193 8.24724495336251 0
-15.9729892772814 10.7480346272398 -22.9936828727199 0
-166.194751420853 21.0403472374352 6.43182859563229 0
-203.154508856497 26.4981674133123 17.2125978877844 0
30.6219973718206 -0.440645938799259 -25.0100275170732 0
-207.724776951917 -42.461345704965 -5.07198204522537 0
-55.6991004971341 11.874469372018 -20.7225750046075 0
-218.731825664486 14.1308017788046 18.8485817883009 0
119.651679999652 10.1354017466961 -19.0399836272003 0
30.4722088092178 6.55429292177758 -24.8360077979244 0
-194.117416823216 29.3297152897688 16.4087539534102 0
-66.1584385632185 19.9008609680037 -7.90127884226585 0
-220.822584103929 -8.43982443454121 -1.85932770261243 0
-182.135610353038 22.2324706660146 23.0710541977108 0
-181.482240416943 12.2336472652161 -3.42740010912577 0
-153.915689351581 9.9896185054764 20.9204583251523 0
130.60348127314 15.8726326729248 -10.5998320429887 1
2.86164668465866 -2.20413933258091 3.30082971787773 0
-178.191697263193 22.9954704180341 15.8625584322939 0
70.4319725897669 -11.5809186423364 -17.1493793714425 0
-167.153615161503 -0.45725182558415 -8.17874814420507 0
-167.956219462617 -18.0043849501872 7.67957181857378 0
-211.510820195508 -43.1854987838146 -2.24928926928655 0
-85.2307269909232 18.36413794026 -11.184896225009 0
59.9765876111162 8.35691066194909 -23.4259586850515 0
-72.1708133634474 19.1924351157599 -5.15143778803159 0
-179.82990053037 -12.8784932059303 14.1552602682299 0
-99.4002926468108 19.7065399180353 -5.16159779246005 0
80.8947943938045 13.4007313166634 -17.9022624261464 0
-23.5126648716463 15.0255026402252 -6.99434557849501 0
-40.6735761510701 3.98087235854017 -24.2494459116703 0
38.3187043631432 -11.6477385197278 -9.97052066033693 0
-35.7690449007141 -1.92654621628436 -23.0915760202751 0
-130.758684955933 18.218106045404 -3.57811689734857 0
-33.8429939560987 -0.233096604895141 4.08524764917051 0
-8.43960254659844 -3.12967283035324 1.25048086932319 0
-206.27205829142 -41.8798340627864 -8.99196004533999 0
112.008589764891 -13.8138041395409 0.499315719807957 0
-62.2695610446411 17.5470306616285 -15.2525437163914 0
-179.887886855652 18.1821172986442 23.501758183373 0
-123.621196833558 -8.24560052946045 0.982021101815904 0
-126.340234566698 -1.93424570749889 8.68134036568689 0
-166.82274367041 -12.5462491015128 22.8114863086951 0
-45.7373318903134 18.9830839079259 -13.9539314613485 0
-170.342304125159 21.3409799422118 4.18531440488804 0
-139.628138292979 13.5455743848638 16.136977866787 0
47.9435023006215 14.046272449118 -19.082148972663 0
-190.413837897489 -9.52072251075088 -9.98483822030334 0
-12.5038992492 3.82493489192563 2.42527090629709 0
-199.905202743894 -36.4599094796774 -4.23776456175842 0
70.1900872718237 5.93203596439131 -24.1400740629635 0
-197.506272590111 23.5900595913119 -0.205683745145533 0
-208.635961302217 -28.3801629536293 11.0762492846668 0
30.0568424489994 10.9319262664137 -2.7986242264798 0
-122.18117051781 16.8512591408902 7.38376842713399 0
-202.235484700859 -38.2029105262158 -1.56078280141178 0
4.01562684941756 15.7076602697836 -19.3689140515351 0
-107.694842362655 17.2136893039762 -8.95701382554678 0
-27.0932547741815 15.24558249892 -6.99516554342876 0
12.1920688268131 -3.80445557745092 0.0183536676223946 0
-207.697827643207 9.61508305142064 29.1771383976737 0
-192.458375700785 -2.90282972134417 -9.1887834036066 0
-211.415145922626 23.8349027739031 8.52562783803004 0
-115.882953150824 1.08687918575432 -15.1131266981518 0
8.27039874775869 -2.02267620669335 3.27354307731299 0
-212.800453108953 -2.30944923879746 -5.48594017951347 0
33.2216792416336 -6.6742625274036 -21.7598274772355 0
-209.81811952942 17.4636499814524 25.6714845325966 0
-138.352780305984 13.418839944609 -6.85252898970441 0
108.63173096309 -4.28571521391333 5.19892484503673 0
94.58096981091 -3.27257877617005 4.32797992612803 0
-43.9607136138256 2.07710406318167 -23.8481727125019 0
-189.487736043495 31.6477835986767 7.11591866496631 0
-86.9451143620933 -7.96212611552316 -2.60761502157033 0
74.9851755213823 -11.8685966252854 -16.8979000211425 0
-172.993191036793 -15.8812477718472 21.2206961130093 0
-80.8545037241483 19.8014558975576 -8.3599162601325 0
-182.067704977533 16.6085566152799 25.557057518186 0
-11.0004982205965 16.5342825970943 -18.5921154767393 0
-175.490187081312 -5.00094482949848 23.0373268455603 0
-209.210558019222 7.22574187791847 -1.59575469326118 0
-46.7215103837697 17.6266141351777 -16.0624964914066 0
-47.2920740135861 9.27844843263733 -0.38319727950539 0
-109.813157583304 4.47014903756034 -16.3745943295506 0
-176.265639168787 -17.0701852552072 11.6194150274337 0
-207.117133451948 16.2228450589275 -3.08767067546865 0
82.2599379220114 -3.95475731832174 -22.7563214817761 0
-32.5886124801184 -3.85086329482659 -0.492291965350745 0
17.9644958831179 -1.96879535376478 -24.4519385929679 0
-141.454713645055 8.53714504436016 -9.55878537757597 0
-209.469397548232 -5.77784485825567 5.97250372094497 0
-205.163460494558 27.1099547349097 6.82353876261856 0
2.30014201969546 -6.09749291523595 -3.29643791728914 0
-205.064655343443 -14.5327393718298 10.1296464949697 0
-172.911707794349 20.8529060028185 1.86562635191907 0
-115.090075135404 7.53073399573972 -15.0036114335016 0
-28.8947164492123 -6.18820163355981 -2.59014369176291 0
-38.9987057723779 -2.46055566350412 1.7680588268817 0
-23.024969164288 13.6476698647147 -6.0139729245089 0
25.8006912960068 15.5614961757633 -9.16712393738877 0
106.056873969233 12.7979870246375 4.10670797014221 0
96.5957261868203 -6.49272603490786 -21.0457738109578 0
-221.977229520705 -39.2866591793144 -17.3466894413765 0
-217.688440690759 18.6757612886087 14.2719799000926 0
-154.104117390505 -11.2206257842242 4.96807424475182 0
-213.453687329171 -7.0007022876361 -15.7712318547292 0
-121.611671054822 14.0772353094553 10.5540440301914 0
-212.254420029285 -42.8906774560543 -13.1074037067263 0
-207.579384305478 -21.3558653057031 -23.3779137504056 0
-101.987042580715 14.5367127416325 6.11866995961684 0
-193.886072782588 -1.02164566031613 20.8593034743549 0
-35.2960061783455 -11.2019182219959 -11.5597709337593 0
-11.63776750567 6.00472054960705 0.59774566487868 0
-180.570915951621 -9.41367408256876 17.8266522941739 0
-217.451845215265 -27.1134364308729 -26.0903654221772 0
-207.322230819212 -13.4707475284117 -18.9512181355731 0
-128.155512981555 7.52439691840449 13.6203055093428 0
-38.063597186487 -7.12417844353819 -3.32846503194788 0
-2.44018006909699 12.7595775060762 -21.7213215978454 0
-182.866375707629 25.345269553457 19.6591714303554 0
12.8158256023823 3.6658510318127 1.81236475744344 0
-201.391080965132 14.6875539661727 27.9530913594833 0
-118.601009190644 5.13477599224256 -14.9332026480121 0
65.5202376553567 -13.3697662732074 -11.8073840845567 0
129.075335312774 -17.9138384785143 1.34784143784271 1
-182.50564792006 -5.47570936876669 -9.91834339772561 0
-137.172271848843 -1.87271724838711 -11.1287306969564 0
-92.2694738594961 1.18989503843785 6.97093108053193 0
-204.325164121143 -39.5308013036665 -12.700139947007 0
-98.1188097335591 1.6395156910005 7.41622493504258 0
-90.7803089972162 -1.47840743053186 -17.8762586466349 0
86.6163652648282 4.98423635171009 4.64237418070172 0
-221.760927944758 -42.2966806762487 -10.5399639235217 0
-214.652958158665 4.27231814836966 27.7189956428247 0
-155.136740296753 2.98199286249887 -8.78368484097411 0
-30.987024336503 -8.73137473490019 -18.2984454830242 0
-192.776228924834 32.2235122198301 11.5842478790071 0
45.2866675480148 -8.22872020716536 -3.2133643894918 0
2.86789249253252 15.4452721422608 -8.74408884579961 0
-31.067348371023 -4.3910113598867 -21.9161546658887 0
121.120601201736 -18.3798980685375 -8.26478526728257 0
-199.275852103771 31.06046657298 10.4186798984403 0
-185.89476554134 -16.8129877204135 -4.81838344756133 0
-5.9154561353746 1.57289405006538 4.099419309032 0
-1.55428340477436 15.0561911984686 -20.0187684271566 0
1.31718887838496 -7.76537033842091 -5.55793653281994 0
72.3282258015723 5.12973994053328 3.45427774508798 0
75.1844998462195 -5.37415919757689 1.99168233127182 0
93.3887731013427 -8.61615053258217 1.86754335363031 0
114.500761228359 15.1222074455686 -11.9878162727402 0
18.7919340672267 16.0191204534177 -18.3450946300371 0
-202.726704845085 16.6258844441344 -6.46552933730711 0
61.3678459928125 15.4413755392725 -15.9641359559568 0
-181.568644678288 -15.223409833697 -3.87722874802321 0
81.7163044792097 14.8487425170013 -16.6912608207906 0
-207.861364949465 -23.7123842846379 10.7636687761042 0
-148.496807861502 1.10793325419236 -10.3545332337573 0
-215.710661244948 -11.007261802082 3.7583148225193 0
-175.640387808895 -15.8384326449607 2.19127017011263 0
-216.211822471484 15.0600882732619 22.2995329588498 0
-120.534520859876 -7.21134012196327 2.48375726829884 0
-153.527319139805 -6.77224969986906 16.4164069641309 0
-162.853112755264 20.6049204749173 6.79419216541696 0
-230.797336433209 -12.4209890836832 -12.0154810600096 0
-11.1428312112748 -3.87151669868514 -22.840426511463 0
-49.6274293062723 16.3404903903507 -17.2251058887632 0
43.5962008185025 7.37088825284801 0.677619947105034 0
42.2891166883805 -1.78804619642051 -24.5703585722976 0
-142.166016988416 19.2194237315024 4.74638622045936 0
37.5451805998916 6.77109894283641 -24.6959514489768 0
-56.7007600787296 3.25467208258013 5.48177969260917 0
-199.036759847042 -34.4080345149071 -11.2945539086778 0
44.3335915607559 15.6826105053544 -8.46212762618519 0
-118.684993352574 14.3123486082559 -9.89927849257776 0
-174.988257279319 20.83741382095 16.572012017721 0
-188.801191152356 -13.389638741803 8.85569541276452 0
-164.267181771008 -7.59442377153226 21.4324005559143 0
-172.744871145743 -13.1380001056595 20.9086997863714 0
-45.8849699971601 -8.55114188298069 -17.3026367125266 0
-203.593377691979 23.548736326652 3.77186509819785 0
-195.056701739887 8.3354217462021 29.0710932066418 0
-36.3725300208517 9.7190630925031 -23.0507861769474 0
122.850983756568 -18.8436856445889 -6.3818829214477 0
-157.315516418623 18.4039032420424 12.6583191101313 0
67.5552037542581 -12.8386302444115 -14.682506298832 0
0.457606832860061 -4.22910542374831 -22.8902583674423 0
-199.613594820454 5.7942137836143 19.0744769192706 0
55.9443149152853 11.6478128148735 -21.0563561052047 0
-200.311741201633 5.01943268905574 -9.6558066208279 0
-207.011966066782 -8.70150101510312 -15.4167792052493 0
-209.147963125779 -32.7926364359612 9.9797020193065 0
75.5110857442435 -3.87346248356306 -22.9993723406557 0
50.8607618136741 0.0966170876067288 -25.0045753645158 0
-55.0350460746055 2.92374886182677 -23.2232466560499 0
85.4392094190165 -14.4046168186675 -11.3443186418633 0
-172.125697241036 20.6660367552249 15.1418798158585 0
-2.80818152643574 15.9503103217065 -9.16750807801478 0
48.3325031828978 -10.0707821981684 -5.36159485932818 0
83.2701104491085 14.5146176821865 -16.8404592177635 0
110.762297347644 -0.96152127682405 5.30733603495499 0
-208.973076206494 -5.50989718127203 -13.9152514297995 0
-200.132462198553 -28.3404926894502 -15.424092459642 0
-5.63049304621772 17.5218994874708 -17.1083076694427 0
96.6240094288832 -5.53962595391396 3.81334995542942 0
-188.031948428557 -2.76334169262713 23.6023083658921 0
-216.806858636469 -41.5042186644008 -13.5110015748764 0
16.7178828911351 17.1386220429528 -13.4560181660882 0
-190.643231881555 -3.73914099736384 15.5822674856723 0
-224.042601151496 -7.00572024889662 -8.47956016019925 0
-231.437113912043 -15.5199611364017 -15.0168067744983 0
18.5751388902249 4.93433410735559 0.777869949082819 0
101.705450507666 2.21640764480043 -23.4634924872344 0
-218.240659764155 -7.5583905550169 -1.41880517507049 0
-75.1186436102428 18.6931247756631 -12.2331370307024 0
-53.5093968161811 11.1769933930725 -21.4131303511497 0
-4.15815274810032 -2.40856631186286 2.86951785125792 0
-171.966344619191 -8.44698236758657 22.1603162881511 0
-202.135120316335 -15.839923056031 9.28692983216266 0
-91.4499892773766 19.1963612628123 -8.39739053242448 0
97.635298593945 -8.46430027666553 -19.7979819513614 0
-3.80831137497303 16.6277000537448 -18.3765029904684 0
-137.005500176942 -4.1405378585255 9.87233112095245 0
35.426325343264 -5.74502910311924 -22.4202122249819 0
-217.767396445566 -15.0648992640438 10.0896465137483 0
67.1949885129694 1.218019801847 4.21151171130646 0
-12.1337048484202 -5.51609503699891 -21.6886942747432 0
-42.5906260524699 -8.76605293771932 -5.91955363635434 0
-213.948866203756 -36.595380639251 -22.0888169368835 0
-152.689710384214 18.5235883712859 10.6938463699571 0
-66.1895160351683 9.35885750285364 2.28581798526332 0
-107.669900535144 12.0596017280575 -13.9485107756036 0
7.65053353119848 13.9199808722465 -20.815402414746 0
-189.547276425018 -3.22875364138206 17.9828824902254 0
-184.332872006215 29.2199556860143 4.87468414422426 0
-196.279026346598 -14.3693278763709 8.46916873477337 0
-37.4771997034669 19.3076254178503 -11.6402420515709 0
-109.696289458422 -5.23386322609605 -12.2641187973304 0
-204.428255307067 18.9105626816899 -1.16662080648125 0
86.1508396733114 -11.4620664485541 -17.64360395818 0
-54.0539105609251 2.93399741027742 5.44573881566059 0
-199.418565972959 -26.7715705565947 -12.7026574707589 0
-177.182492301392 20.3257138020626 18.2993770331927 0
95.0903514356744 -15.1213005122991 -7.80679815184275 0
-204.939041973699 -5.8425664428565 10.8701968451296 0
126.396159417763 15.8993971749636 5.07023104148891 0
71.3987607735109 8.06696189608684 -23.1797739815002 0
-204.652833032815 6.75914019919141 16.6717666873575 0
-234.000300048168 -17.439868198827 -3.25548530274613 0
-205.7262283205 -0.652034462964431 7.41933025126075 0
-19.1126044958227 14.45628031549 -6.76019630762011 0
-33.9827265734575 12.5547629272446 -21.2695878426782 0
-198.225044570223 1.41537747328447 21.717891470615 0
-210.008785266765 -38.6768358296789 -19.1434626778005 0
48.8715560640412 0.508838005334005 -25.1010737498502 0
-103.020742923051 10.2757506241793 9.38036074560885 0
-71.4454031517172 16.8921241396908 -15.1241926332859 0
-125.448168807635 -8.98413499541602 -2.92560953457965 0
-208.349061180605 -14.5537033087279 -20.6409837211085 0
-128.130093485653 -5.64503230043829 6.15546948497863 0
-169.799195296688 21.786063767631 5.81565308589693 0
-199.117433743169 24.7854843840896 2.11609066186037 0
-187.518063873766 18.9268793705859 26.2270615900531 0
121.649591440129 3.37344565670805 6.3021853835333 0
90.559819206761 7.18718189511805 -22.824533890561 0
-203.328060339435 5.65499320919453 28.0595159917003 0
121.14479442106 14.7033965999237 5.18140766798899 0
73.4408535766663 -1.90644383575589 3.2803938903024 0
-57.291669831105 -1.65313517811506 -21.8665419492856 0
29.9532902746628 1.66836038054349 3.52645200553596 0
73.0773437117511 12.5515091304051 -19.2690244687095 0
-9.16849301316198 -4.23638195290782 -0.882489642737137 0
-5.18511837187335 7.78680687260402 -24.6642741121777 0
-175.033331835722 18.5396818050862 19.366854446558 0
12.4732687248903 -11.7875153852906 -14.6371533995943 0
16.397748863096 16.6020709015278 -17.3040084894972 0
90.3392280694531 4.04260468049785 -23.8558269783432 0
-209.067463634721 7.95309637166925 9.09997475275952 0
-79.4425640600049 18.93790169651 -3.59504877429028 0
81.8195039484556 12.1171780843806 1.1781091620538 0
-203.760162271417 -12.4035831456457 10.5192719738317 0
128.88849449857 0.0723518169806049 6.88107192517064 1
-23.5961904197507 -6.39472400839795 -20.8991027065651 0
-210.401865588502 -36.3070824814572 8.39583777787606 0
-76.6931494110831 -5.97200610905687 -15.6493821123532 0
-175.629773195421 20.8156941272426 0.870763596363647 0
91.2681263532275 12.3294895589245 -18.1367669787888 0
-205.725725222895 -35.3051281778604 6.51706433167821 0
-10.9839239278412 -2.49037359414047 2.09450831292668 0
-207.150742184955 -41.8391015700987 -3.12969243816809 0
-5.04032905881017 -1.84796957877899 -24.0750382369561 0
-68.2553424513346 -3.8635647889726 0.15960061162184 0
-202.73609161163 -17.1061156554769 -16.6342502332593 0
-199.076053075954 3.49044263953451 15.25479262717 0
-216.755446750361 17.7624709322257 4.14796507391495 0
-89.3987603007603 -9.71446769203937 -6.27434462882318 0
-151.228753883132 7.41728809636382 19.5683864462975 0
68.2187044225581 16.2044874760473 -13.1408834778886 0
-11.9970276372088 -10.6172856310774 -16.6088128337608 0
-100.985306629463 -9.57580056007656 -7.51192657263048 0
-198.838208763259 29.244164570121 14.9003061310975 0
-207.141431433929 13.7182066259789 28.101910298285 0
-4.72188824198551 11.991506353111 -22.2140059175168 0
-111.493372204919 9.41533542528978 12.2052146592887 0
-44.8187643708852 19.5017960125504 -11.8867868941766 0
-224.486068946576 -24.5242930848765 10.9380436635923 0
49.5877961202617 11.8088827203048 -2.20519686154735 0
-200.434860788384 27.6050044373347 6.41264224301188 0
-110.463122452874 19.0814007074975 2.31150685620867 0
-101.562872992984 8.821947168254 -16.7487505366985 0
-34.5698763100678 16.2107322310619 -6.93586620998389 0
-61.2580441060889 4.34765508870647 5.34677074632015 0
-227.373552687106 -17.3084186346867 -20.9685209235092 0
-70.5735648479122 -6.40329492411072 -16.3836042676893 0
81.3440270728184 -5.90525902405919 2.27836385631453 0
97.0202989954008 15.6278803985789 -10.7712965819728 0
36.1241592689977 -0.235310494109322 -25.041925459595 0
-121.081167558287 19.3561668246959 3.03911842949669 0
130.120818867679 11.2984837944476 -17.8866284169767 1
-156.379031281478 9.53878232539801 20.7609273687964 0
-42.948122490657 -9.56433519772808 -15.7588497642049 0
-100.79480257584 -5.04458120770505 -13.5585072247264 0
127.110316455576 13.5059274382646 -15.1916251873927 1
103.771116678374 -15.2524669295448 -12.6234455398967 0
-181.382774981168 2.97792922049581 27.5014983701993 0
-82.4369192781113 4.23218489939657 7.35744785349426 0
78.1311654969004 -13.9619052514338 -10.4073980618541 0
25.6679361342993 -11.7698211264829 -15.5329100346735 0
-216.338326454037 -20.0563554499786 12.63454800392 0
-150.091744199689 -7.66797805654555 14.1271086280145 0
-25.2085477793773 -7.31390984020696 -3.74949863285603 0
-194.879672374256 -19.9653897284932 -8.91282423371892 0
-224.201875734884 -7.87940822361393 -4.28565347951227 0
17.5001145210101 -9.18925249046016 -6.83647110237507 0
-64.7259483987337 14.6606509828712 -17.8689080641263 0
75.3630801882296 -6.12634489080397 -21.8848203540083 0
-19.39513859136 -1.39361809511535 3.52281608485939 0
-69.3534489122719 -5.35886991713953 -1.65499813842528 0
-172.048608805312 -7.79971376943844 -9.30332067105934 0
-124.986978842681 -0.329472112916343 -13.350424054591 0
-175.362518661354 15.8338219533482 -1.88497152978943 0
64.5443767938066 13.633380708642 -18.210051944959 0
-165.859690294447 1.61641190864085 -7.68898257536311 0
51.630670408917 6.05320905482614 1.76763750605432 0
51.8018994513142 -7.55155678787947 -21.3378874927154 0
98.167841988249 14.7775655627748 -13.4789797897499 0
-189.795398846325 -0.443672152818917 -8.97481631173619 0
10.2277447236686 -11.7875105559858 -14.1219356377414 0
-135.20579984957 0.763516247359362 12.1766112650208 0
-56.0435886532532 -1.72167119478616 2.99984808522697 0
-221.94137369869 -38.0743365509235 6.21786661618801 0
8.42795477839098 -11.4078969920058 -16.0170796378006 0
-191.929007600829 31.8945136319546 8.30519257644086 0
-212.385353824155 -39.436638269226 -19.0911060391865 0
115.22899905169 -12.5675904827875 -16.3779874395862 0
42.8040374473879 12.4438747880995 -20.8175549295969 0
-112.767360416058 6.14754598264007 11.0309798443344 0
-208.544490511408 1.04410667005605 22.4362363102973 0
-25.5531133930832 10.5629016690369 -3.04273740201274 0
-27.994177027196 -8.54662329406079 -18.8363269512293 0
-202.020936822866 4.97265052088764 -9.2250477873215 0
-179.517179328457 20.122384987704 20.7797400546819 0
126.47174247333 -5.5962574842647 -20.0023543040945 0
90.4700016755265 15.1810268001371 -13.3358816724348 0
-204.795157652576 -2.88667942432484 9.87720556870974 0
-202.139684547389 -19.8020395974245 -16.8386004926002 0
125.671886039626 -2.64971582691293 -20.9027218382888 0
-91.3101422493056 11.8728995135363 -16.9039068786695 0
-20.9661974546339 -3.43751089740176 -0.100839547254231 0
-188.230885121638 -9.42447420419248 -9.70615555965015 0
-148.891504904759 -9.9370804932157 0.858555186203007 0
-92.7678967403096 10.37519691508 -17.5430718377049 0
-159.132867669886 4.08970641176441 19.926014735755 0
-124.47009812613 -0.921819124082203 9.00266785543057 0
-218.1716064838 -7.2211178099117 -15.661725060933 0
-216.130236459583 -4.91279685268399 -10.103315557618 0
-173.11218213413 14.8339337313402 22.2989736227565 0
118.852473899009 -17.8748528013798 -3.91657555722649 0
-166.270821416449 -7.0753079507908 21.8952735286185 0
-224.68657708431 -37.7344787096211 -18.1993406756051 0
-222.339804201129 -10.9665937496981 -19.4816588402961 0
84.3152255198139 -6.9065245669762 -21.1319435235144 0
111.95452772944 -15.2332042369264 -1.58351416687439 0
-125.152202644381 19.8102814186786 0.279399144312952 0
-102.198757801178 15.1635172973884 -12.0685295969794 0
-151.568685780692 18.7940819266094 1.62245625978156 0
48.5470313697421 -0.809890115732533 3.19765278497978 0
80.0279510866368 11.6973855117678 -19.732383976788 0
-78.3887960620051 11.0069124441892 -19.0138708455699 0
122.65399612562 -16.3075753098144 -12.40685539578 0
-185.534269606405 23.1609303949824 23.747910088774 0
-208.846679470153 6.45565807511807 6.8789906659235 0
-208.278421526132 -26.0242001449967 11.2072684019626 0
129.514931754099 17.7511509548421 -3.48573403346634 1
-197.59541542976 28.8686864064594 16.742494738528 0
34.1551366382142 -11.4338075412761 -9.92924278901869 0
-91.0924235928607 -4.93059614923809 1.15574120530141 0
-204.997205128301 5.84009293948566 10.6263866318235 0
-216.277173735499 -7.08940376335558 -0.919778641161625 0
-173.802453042979 -10.5967453042659 20.4449257693147 0
63.9658676954753 13.5905782413032 -3.11432821295862 0
53.6742294103419 0.0216153394889521 3.49642223738092 0
15.3150366203822 -4.70984010064691 -22.9390413075159 0
-155.956858103076 -10.7793921638072 0.591486254467406 0
-201.233399810496 2.49475891438963 -9.61316105183026 0
-1.06433853517109 -10.0784329028271 -8.65969289999032 0
63.8392401610544 12.4975324049867 -19.54054930977 0
22.9183859284777 7.55752235813591 -0.729511704467068 0
-205.848629423473 -5.02039866250035 9.84587744315383 0
90.0691198092583 14.5579048153182 -0.849284078052509 0
-25.5915464348891 11.5940845413362 -22.1353176172611 0
-125.224550642109 -3.81703369927072 7.37774218605343 0
-168.452061925555 -0.692664683608163 22.0661250865032 0
-219.814636132447 -41.0532883683966 3.1781060208171 0
-108.519019079823 -9.00977122587691 -7.71296143165703 0
-199.198958360944 -18.6528768254334 6.85832681752715 0
-37.0683839481385 9.22584487544784 -1.06251255948912 0
-11.9776141928532 -9.5608327979841 -18.6562917623862 0
111.220816311667 5.45444939517146 5.67050146437777 0
-203.681824781214 -40.1402926599179 -5.77553079466696 0
118.112997048853 -8.0037839956407 -19.4119962780034 0
-195.094802520895 28.5603293998848 16.8508902857601 0
50.7404901047971 -5.87759501514621 -0.43917164712655 0
-198.909005816741 -12.1289709805896 -13.0277625753602 0
-185.814492171615 -6.43140556360387 -9.78174289853248 0
-24.1373794339434 7.72164463280698 -0.442460311243036 0
32.3608039389461 15.0843788607334 -7.78247717407845 0
68.803532579402 -4.84651294521213 -22.7485297098105 0
-84.4969893204795 2.25970140100017 -20.0998313485696 0
-5.27406044237683 -6.22745283769473 -3.86788977741355 0
-153.881728172129 -6.46664094442598 -7.31354168604392 0
-211.239346873466 -12.3388701675221 -20.8649627669226 0
-215.630300146093 5.70856673196279 15.2124720208996 0
111.453295664398 -2.20773980840231 -22.1233747791347 0
-31.6653796200629 3.11088113019843 4.28988854524371 0
-121.249851642279 -2.90916587283162 -12.5489301563358 0
-190.295140927852 -15.4678770609439 6.9311504584905 0
46.4318618750059 -6.37982507450139 -1.08229452207985 0
-126.564076709893 15.2336362378363 -7.49676195671777 0
-89.7731337434763 1.06280827162749 -19.0960396253397 0
-207.27005206785 -34.195134437571 8.34329049887483 0
-41.1893818251069 0.609112882201412 4.57889910266169 0
-183.720633230693 29.5290881520448 6.74450256010911 0
-194.26129244696 -5.15987401832827 -9.61034228474369 0
47.1713957239751 15.8097604923051 -16.5993587123561 0
-203.047852087177 -27.046463079832 5.19764702349855 0
-63.1258539966961 7.68293916267906 2.90543271059858 0
-29.8447057666774 0.982557656562166 4.43066960563774 0
-115.209210921947 12.0532241751592 10.7682575217912 0
-192.771345870493 -1.83611528309703 20.1468112193459 0
-167.867822920251 21.2373843248259 5.42403108092193 0
57.5316885276963 15.361465802793 -7.35779627593361 0
-210.833190060274 2.25492160147343 27.4330817259488 0
-203.597695665204 22.5976669657171 22.4050357622965 0
-226.790948993988 -32.6018125687392 7.35793161143333 0
-175.433890791244 11.0738016467451 -3.91274635005115 0
131.326991434536 18.0091803483785 1.01467109596409 1
9.37145420729478 -2.50989073009094 -24.0456562510352 0
-165.76370617225 -22.570319151268 13.8864965914488 0
-224.294342042783 -18.1671448054777 -23.3696823185417 0
-178.134378814753 21.4639615408443 17.6164514103305 0
-163.640188005104 5.02888912850702 21.3833823549222 0
5.96914473782466 5.99754405654795 -25.1362388607433 0
54.0732766308205 10.1973969762064 -22.3428041897741 0
-224.536108233553 -28.478501690311 -23.7937231593837 0
-6.1035213637476 13.2787130477692 -21.3736824303713 0
67.6105521456119 5.02726817957106 -24.48084779245 0
-83.2094430109664 13.3576760985709 -16.8372841388912 0
128.412625259049 14.7115902780649 6.79451744547083 1
110.535264932117 -8.31247912125231 4.19631554457773 0
-17.2343507961086 18.1469361567489 -11.4732156081511 0
-214.85428136734 -4.21030223366253 -4.70090274748429 0
16.390303054777 -2.91648174589739 2.27775237330442 0
-173.550498335713 19.3659958937749 17.672280663299 0
-64.8940102036445 6.55332705609539 4.17636565045098 0
0.276070500651122 -6.48141619033928 -3.93044416591686 0
87.3798571381461 7.73422103828986 3.91116695804598 0
-198.597256564098 0.802701089909939 23.8990591831629 0
-45.4493510971501 -8.68368584418386 -6.46487617498001 0
-156.436799713863 4.06644279556226 19.242100824981 0
-201.420361272548 17.3616135062966 -5.05585072192808 0
-168.134440965676 -8.42420726179027 22.2647639901727 0
-48.9555658439812 -7.10426103804038 -18.7166525775221 0
115.975771159531 -17.8514405249544 -7.92241055996828 0
-206.825520463153 20.9223938495334 23.2943217515978 0
65.3192301661119 -12.4212362272535 -15.5180173359935 0
34.1904126688439 -10.6227292647983 -17.9797851539225 0
98.7515249909408 -15.1835569885888 -12.2116388155082 0
84.8336841849442 0.379564473859673 3.90305693508672 0
-50.4942850497435 13.533942113723 -19.825147350947 0
-169.189077332599 -10.5532140250266 22.5171635296668 0
-157.037954093061 6.79121148238049 -7.1660410126266 0
-186.912189496713 -0.478781679519147 -9.12449890764203 0
-82.2242532705188 6.49463534009036 7.52902257503016 0
-203.088338982635 13.4835829356308 28.344143357506 0
-28.7877321029359 14.2687296500502 -6.01814883592826 0
70.5292955170486 -1.75249504103712 3.12270329816808 0
32.1810176561289 -11.4735945757957 -10.1467342143076 0
-203.64038618784 8.85429784642487 28.8214949888299 0
-9.87341074052111 4.39651022905255 -25.2236499774429 0
-9.57613957412459 7.7652654127148 -0.848621361182109 0
-17.0593696515193 18.2262818693079 -15.8048825018594 0
-105.650301213839 12.7683636314845 -13.7872746171996 0
94.556081800434 -9.92902531220347 -18.7982828588962 0
5.76561225014034 0.601667355346567 3.83734400664996 0
63.9065332316438 -9.58180603460049 -19.507008702397 0
-69.4455875837624 1.00862081148034 5.86546345634374 0
63.9136350799085 0.720191252997956 4.05638618982384 0
32.0134362068127 1.51660553199919 3.5483482802269 0
-176.478641681268 -15.862664040294 17.7240600976153 0
131.460788874077 17.4300883801437 3.98866305269073 1
82.9473525047633 15.7623136701536 -14.798471452686 0
-199.94428032329 1.90953780123692 13.6468416376662 0
-194.837056579392 26.9147486472522 18.5952031046191 0
-205.641663860476 9.0387730914163 -7.17138589597776 0
-218.478069525513 17.822667227868 12.5107760605667 0
-148.81609937607 4.65527533671954 17.4895812164934 0
-22.2033984597052 12.0885535352268 -4.79387982518711 0
-213.312938336526 15.0320221203637 0.248259752702545 0
41.3501219995634 8.32308780950702 -0.150958711540813 0
-217.190157235058 19.1843965276153 9.45754942838835 0
70.024415095954 -13.1475139746131 -14.1997471999663 0
82.8389426139212 12.9751280850588 -18.2529720370154 0
-25.5020242566957 -4.99610578533051 -1.75505627510548 0
-181.714885244089 28.3368688782395 10.5276681425595 0
-19.1659551919819 -9.93389084639193 -17.5357682657005 0
30.7892154370881 13.9399538192999 -20.0121095917589 0
-201.857295689224 23.475195263099 22.0520731050975 0
1.02056683175193 11.6567363365573 -4.83212036857825 0
-182.703107757592 0.372819903361836 26.9849233321865 0
-112.026138525328 15.3990121427315 7.46830422019141 0
86.2765547820976 2.48653708284694 4.18669025850397 0
-168.594043450408 1.43960136632143 22.4029455447701 0
-168.694973854494 11.9880737787016 22.761173455504 0
88.1734052043263 16.0886580606941 -9.84260797835869 0
-21.0415205825767 18.1534225641708 -16.0097360466404 0
64.336602945398 -5.94320389181433 -22.2339815418018 0
-56.9563444980146 2.57051334301251 -23.0491513285306 0
-151.897724153862 -0.156792630904969 -9.78625624392882 0
-191.339973047171 -6.23381846710129 -9.75888181451884 0
-191.451398622681 -2.26073231034611 20.981505529801 0
4.90594317804474 2.47542718233102 2.80561327559755 0
48.6058050611657 -6.43828893882398 -1.05034253264052 0
-110.669021661831 5.83406891062204 -16.0466408150328 0
-213.546287428484 -44.2039502341541 -4.8004566104126 0
86.7040500309564 13.4474082238988 -16.9172348525611 0
-181.772858438255 -7.9837601570779 17.4518142231145 0
-53.8287763641789 16.2392208042592 -17.1160535782248 0
107.926671281469 15.2907295245097 -11.7830533598481 0
31.7424465402308 3.24092550866535 2.37567654333983 0
11.3295532709897 15.9279940366445 -9.94907031891059 0
63.0117422831898 10.3453498083853 0.297793817018535 0
35.4424503147205 -0.410051801857671 3.86526582175515 0
-4.4350032589283 9.6210027524342 -2.50134616252866 0
74.0026409149383 15.9524595927652 -8.96470793610745 0
-176.104797918473 -17.4110289439607 9.18755095627769 0
71.8152142343805 15.9742674015027 -13.0610965158097 0
-234.950955374251 -19.3271033057571 -7.87107635182023 0
-20.864547555951 8.73502329898878 -1.34808334450041 0
-128.640576872437 -0.901435045974324 9.74702299838831 0
2.39046702425184 -4.9099120642795 -22.4820560810977 0
-147.100881580646 -3.05281448930952 -9.52059979455965 0
68.3671608585954 -13.4811918900037 -10.6346773451074 0
77.2195919315699 13.8041629706189 -1.57854040971348 0
54.8953328072184 -0.889147400763834 -24.6855449955569 0
35.6454350297023 -2.96762129978602 -24.0754045323765 0
79.3798214633509 -9.35118715665097 -0.753044182628192 0
-164.623753973733 -2.59927497634685 20.8112651597366 0
104.405934764828 1.70755973228758 4.8411191800506 0
-194.03979388911 23.9719582794354 21.8280771565647 0
36.5376277105741 14.2266735613911 -6.15283008281423 0
-185.874584680634 17.9766276258767 26.2999974404272 0
77.1446902316808 14.5309713219344 -16.8539222381826 0
-209.011377867395 -22.6123514433948 -24.7283394314944 0
-21.063415456755 -1.43461107607692 -23.9174083378018 0
75.8141356677485 -9.89640138545293 -19.0963078194827 0
86.6788070941353 16.1859240004511 -8.16649358522258 0
-71.6489957625358 -4.92351008699204 -0.937956525240898 0
-211.841913318131 -11.0610912831683 7.8324391723221 0
-156.910885478961 -6.12572127935933 17.6526406714129 0
-218.331867504325 6.24871711483801 18.0779322207607 0
