201.666772764658 -6.97221964100934 -9.06270029283911 0
179.308719537651 -22.5674179081338 22.2210036205806 0
145.703247640827 6.39547125553506 23.9603790899689 0
212.246452772938 30.8132568378193 -18.8025502339526 0
200.609455572115 10.6825267616082 22.7373543645467 0
143.80768820235 -26.9470060429879 3.11984974961078 0
197.829409105644 44.4567921889026 -28.5437185203749 0
5.23502402526034 5.65991482944903 1.81276486714212 0
152.405324819633 18.508376708169 -11.7517710738048 0
193.70126536046 -35.5883048321989 0.283622574470922 0
183.186570728466 17.2365368489345 24.0056729172498 0
162.471889378943 -17.7892775111388 21.5981063110167 0
85.8567795601474 16.4818103344138 21.0914949500141 0
203.811914256042 -16.5883232052539 -7.16065437696096 0
160.41192442643 24.8920160972452 -17.0494548050601 0
203.186022677223 43.4239173766734 -19.6315403693426 0
25.1684499974709 9.81923527834085 5.60900974963382 0
61.4336297460777 -1.12150765639148 31.0187090363035 0
158.545913424576 28.616919705147 -12.6866825296656 0
42.6424480055059 -0.982386593091267 -3.93478982812769 0
-15.5586469000483 -7.32754898150757 30.2804640462137 0
50.2476207615758 -15.0199998831316 2.53653893080886 0
172.532608091556 42.7265759023923 -8.25399384001586 0
60.0948925482673 15.3392784117355 8.33591182289049 0
176.14922680407 -3.38802227909434 20.2292735839838 0
160.968525349145 30.703983767118 10.1594486646689 0
171.562025459458 -18.2409619396827 23.6467218973485 0
84.5824499143486 8.81863756064042 -1.55161571838674 0
170.641649472173 -33.7249657671837 8.42578936374904 0
-1.99243383660483 -15.8898997584957 21.8283969811504 0
-42.1338601495763 13.1859582932956 15.374817859578 0
171.864575460338 13.6139286754853 -27.8389962331309 0
102.16724736462 -19.6871058448746 22.5637553978662 0
79.6392671649782 13.400411249773 1.89142532321825 0
190.672622678171 -1.89736776045278 -15.025152838033 0
129.00060145568 23.1021280497234 8.23092173111288 0
172.122737450839 -16.6437763766198 -38.5179071043927 0
-67.8679879971623 -16.086559749922 12.027483036685 0
165.559762526051 6.65912664453478 -16.1318323979131 0
194.838015525918 -36.2460232254771 -7.09256582421732 0
191.340178105852 -39.2225622355841 9.55517321035774 0
191.323469092064 15.1994734793192 -20.2162778561949 0
166.446426111823 -9.08486801992554 -22.4862810072488 0
178.88692110852 -18.4325554953352 22.2102734706168 0
171.446948699334 19.1463694357864 -21.8219868951606 0
-14.1548690678858 -15.814597176476 10.69807396809 0
117.904359860121 -24.0976674420376 13.820343699557 0
132.921322553217 4.95117624029272 25.1927718573448 0
66.2709224300871 -6.46210532511225 -6.1926004375139 0
152.827872858301 22.6166135321873 17.0188725664051 0
184.652928276019 -38.7395553937053 -10.732308366501 0
184.449754926138 -24.0263881320297 -42.143148935294 0
166.238977387937 3.47812632077841 21.7021433360589 0
-37.9704820092938 -8.93453295374531 28.198656929717 0
106.201022083904 12.2001935395056 24.1365275680462 0
114.269472263921 18.5654437092669 18.4758537576642 0
191.979162120898 -3.26975631077341 16.2843370229421 0
3.84297585324679 8.35883466581662 5.19466962856126 0
136.496871111685 -25.8087272244027 2.28487960944075 0
195.730682693245 -19.250407675405 -38.3396153231048 0
146.643808691558 21.9413723038961 -11.5254254896727 0
-89.756473617216 -17.3320527134956 13.1382913892143 0
184.971164606211 32.2673548951691 -36.5665647589458 0
69.9407851834048 -20.4826735408966 18.5503165885873 0
158.044997559157 -30.1772819903321 -11.8206702811891 0
164.500381255123 -32.29544958715 -1.02781782343542 0
144.243545321261 -0.441007909982261 -10.7143468343533 0
82.5626242140254 -9.05250563065077 -6.97076842398304 0
145.950318643583 5.2209590010017 -9.76058162891798 0
163.69973441018 20.0781503548212 -15.8876261610219 0
161.441691891145 22.2658175100169 19.4404329899258 0
201.319623407405 -15.5771762721595 7.51120316603588 0
204.654473452073 -23.6590763725204 -3.32520024409687 0
35.9620085493022 -2.85919330279534 -5.09237941220188 0
88.3133353966433 -12.4390566912307 28.5098464789166 0
125.740104752406 20.8782691904268 -2.94630769153474 0
177.820445165176 33.1240473717186 -34.2870211745519 0
39.2344810303083 4.07546560828123 -0.78331411970007 0
182.985583964298 -21.9092743894026 22.410236120479 0
201.229308282568 14.5570194533684 20.4259362539005 0
-2.58013303188593 9.41795511479504 6.62715997516637 0
172.32437101601 35.2575342854781 -23.9393702880877 0
180.267909637197 13.7172548840268 -20.3142775439102 0
164.708655167031 -4.20509252354533 20.6585208479709 0
163.083324683148 -33.2540199276513 -16.8963213126156 0
138.779499041529 -25.8669841873069 13.8645375735223 0
141.050784025628 20.669025310261 17.2204475178114 0
65.3279488598484 -18.5605837024319 22.590011881337 0
-47.6565895462462 -10.5445700885361 26.590720811637 0
194.781573202048 44.858920369863 -22.790533224994 0
171.837299847262 -4.7563343818522 20.397882030434 0
80.1697283102811 18.5590283000336 12.0749222321647 0
188.754872664843 43.982877227959 -4.39164901527452 0
-34.8063582987523 -2.10727001383014 -5.68840382426005 0
152.08124624496 25.9459799338261 -11.9040112465129 0
175.976843513457 44.979453803444 -28.9165220891238 0
169.577166094317 -37.1637867638233 -13.2176418086149 0
3.50434343284558 -10.7956379280221 2.14554042489176 0
204.12171320583 6.45150175144716 -8.86926179304853 0
130.033464324821 21.7453946191411 14.2508979054989 0
167.619437323994 -35.9971255213987 -18.0976857401992 0
179.20720607049 37.9545865590895 8.29103412681309 0
145.979328835491 19.7376939965485 -11.2852199811114 0
82.6955350981272 1.13220150407926 -3.54409228981442 0
-63.4549580932278 12.7381778073623 15.5477413871833 0
149.389932571308 25.6760950219666 -11.1372213082428 0
192.511874638623 33.6102250195818 11.4000935566601 0
201.992806780568 1.29429046592538 -6.16078016747894 0
-51.0891997149603 3.47730357044877 29.3368762932591 0
138.564008925142 24.537925582411 7.94477919317752 0
163.071552499833 -31.2261509019613 4.7224273766249 0
166.60434436428 28.4175458782955 16.7826606507651 0
-4.52604433163223 -10.9236269081771 2.67555884626933 0
156.885108066225 5.3499071537254 23.4367971980562 0
57.425351033063 -4.06158168190896 31.3832248962455 0
111.517797825787 11.8762803360562 -3.64346866892579 0
3.84195431746491 2.64356506860622 -2.52902227535278 0
167.45492894784 -8.50848614979756 -30.3731066035117 0
82.7437844569089 3.54158175692138 -3.59252633655281 0
-88.0228725989605 -9.15014117078063 23.9188870837748 0
47.808981105081 -15.7016080807601 25.3682492408646 0
-23.3145092433787 -10.5863189074081 2.61579690208296 0
31.3232520583027 -7.1706550135388 -3.71295037538379 0
-40.1347613191705 4.77002820439408 29.6284506893335 0
54.1592841290064 15.1135017238718 22.9435703124744 0
177.24999665693 -1.92734561722956 -34.145846054602 0
196.787128943288 -38.2909957846775 2.69741269378168 0
138.186239551562 -12.4728966761595 24.7485790072044 0
130.5137445749 -22.4993967437637 20.0887013050448 0
-56.4741543811248 11.6186175587558 10.3747442381838 0
186.302280595424 -28.2147815353114 21.2824712480269 0
121.381555944881 -11.4606635397283 27.3148670443576 0
-16.3117657578527 -3.44605860652767 -6.01752136953888 0
126.542112109531 16.6673455596052 -5.4427379551044 0
32.4243724479371 -19.2577617596082 13.6361317483251 0
143.683527607384 -8.56147140063172 24.0050874140839 0
165.488538576291 38.8807513203572 -8.16361445511924 0
-48.8194931109998 -12.9564858691065 6.02094957799368 0
191.75956102071 15.2160199833809 23.8155171260478 0
191.120512479005 -1.19127705270227 -12.9426555304368 0
-24.4003984666496 12.6791482888875 23.8584732507768 0
68.4561277657578 -19.9521963207463 6.34269797848407 0
-77.7860275395841 2.64701344856246 27.2711533184016 0
203.535676439222 25.8127716088265 14.115399765556 0
143.865953463517 -26.1653772897845 14.2244098669976 0
165.557554378507 16.0818107114772 23.1239632323853 0
26.6536514013496 8.69197304240281 28.4308640360867 0
147.84515383802 0.124770025526086 -11.2643303193109 0
99.6178261511615 8.45791865991426 -3.09647463222176 0
24.7470052486818 -10.1733997672689 29.9681921842861 0
152.175564816259 -26.8777422438872 14.100194812449 0
97.1642795707511 -7.13683860749542 -6.48334197406137 0
141.036005696987 -23.4531026535553 -10.5367448918305 0
-28.5007845436175 0.522988915839868 30.8801682577645 0
4.87535170046377 15.0243113442097 18.6057577101765 0
164.296512957701 -22.0183407721674 -26.6577936091625 0
161.884305673672 31.5666539191703 -12.1031781915551 0
-91.9000700560241 -4.02137986098882 25.5985381337303 0
181.023647842464 -37.5585754428538 12.7891097172083 0
159.278040425711 -10.4841972049449 21.0489308347396 0
189.942455201894 41.9256039863157 -23.0562131778727 0
-73.3178434105313 3.74036892978187 -5.12541324170744 0
181.167171151051 -36.205114763863 17.8372311697681 0
175.881290396987 27.4190848129072 -33.9311060153782 0
204.00152582377 -30.3939262511164 -13.3615356137681 0
26.5103659302458 -3.99999950117613 31.7902700646144 0
-45.70857824164 -12.8616195154196 5.84310559841127 0
199.941449745106 30.03737297394 11.0175533151017 0
175.495918792023 -17.802226501101 22.3736351637039 0
50.530101621642 -8.49133487164277 -4.31410812543016 0
163.347776721652 25.5330177566342 -20.7933268593912 0
204.393517780702 21.8256309494443 16.4296401930716 0
0.259538550453012 2.51317005863514 31.2175502244482 0
55.0419940547834 -4.60907062176845 -5.46040789941089 0
-5.1042613693522 14.5484527619175 17.4655648947474 0
74.0912584927741 2.19712305052339 -2.99740745267884 0
187.937240999224 13.0542988428869 26.9534993056658 0
164.123433495873 14.1217560397041 -14.8260566204928 0
197.684945517074 41.8511640114971 -15.0338555393225 0
172.617862677861 -32.4744228723923 14.5125167042109 0
64.7441122635214 11.6708786719237 1.74685168187145 0
-66.0077134101144 11.2136032356889 8.64422038818349 0
154.000564682587 30.800623790943 -4.95229938297167 0
194.957156800516 43.0511056465673 -3.81788875461635 0
184.1482368163 43.8760521091371 -11.833301578342 0
-45.4700017742607 -12.5847112164098 24.864888199001 0
77.5897772535503 7.87516281735299 -1.22000224466647 0
150.059201454688 -0.170182650484128 23.5652904545723 0
164.42381953069 -16.3547607171887 23.9434363447427 0
61.2997767405232 8.78527230371562 27.9202774324221 0
-80.0304738640159 -5.64670968838656 -6.92161045687398 0
162.215205624723 -30.8946364182027 -18.0055508552755 0
202.712347119005 -12.1450396469841 -1.57045635797399 0
169.259172154942 -30.66697588236 16.8845921106422 0
-52.2933766680332 -5.42373137210187 -5.61770703168099 0
127.694062051159 -23.8978351119353 -1.04217828454821 0
148.3322821889 17.4612884145608 -11.2337456456881 0
207.016409599013 33.8546597363981 -27.2436314641706 0
169.375618024066 -0.668309262169383 -19.3452290617202 0
138.024843386877 1.94644421286087 25.0310481518392 0
-77.262194986344 11.9163199902141 19.284811558759 0
35.3632171647404 -4.34166829543022 31.8195557081548 0
181.314445663151 -1.95574013474108 -20.8784195569908 0
-12.8017277461372 8.11115953688269 4.9351756536505 0
199.185339021761 44.0559908944404 -21.3110305204006 0
161.45706517584 -13.3611998630143 -22.4749966795311 0
196.289721133965 -39.5328181926068 -5.76085134845886 0
200.972458169064 -5.38502175218049 -5.04368504451539 0
168.785249883878 28.0052574419828 -28.8704943217547 0
21.5546834820007 6.59798733901288 2.02347222138122 0
181.68986696378 14.5312716644143 -29.3991686366502 0
21.375720568292 1.54212961077184 31.1493571721099 0
57.0884690239402 -7.31283814710438 31.2046756894174 0
179.770458848453 -30.835268497589 -32.7324018700148 0
139.548405094129 11.0312187547312 -8.22789668492487 0
-71.7865587100288 -0.529435618358276 -6.14227353337825 0
161.770036907832 -31.3344417219903 -4.28165471761171 0
-66.3924569969869 3.4242073203096 -5.0753128832906 0
192.516680243207 -36.6277990863527 -13.0083736647075 0
128.424510436766 6.63979341652132 -6.80409028444126 0
117.206925145768 19.5923204272524 17.0502785115956 0
21.7991526234981 15.2332348428893 14.672303519338 0
206.4205049859 24.8028495483487 -29.0464522468186 0
182.640550614089 44.6720212418873 -2.68681103584177 0
201.385213567111 -14.8875447099759 -30.7839781662052 0
199.720869632495 3.4568583625569 -10.5135148343543 0
134.286982073959 -25.0842910140453 -0.331807681054875 0
177.333331513406 24.8196721065463 -35.0732305239729 0
77.7073848956656 -11.4744553134542 -4.52025037830943 0
206.446695553142 9.85831117157391 6.75572410078106 0
167.18912754803 28.4294037104496 -26.7790738608996 0
-74.3500102448126 1.0813445836829 -6.02938246806472 0
166.403588718351 -13.7722571470509 -31.7605396704271 0
-88.909780104427 11.6334650848772 9.76005025215663 0
-57.8919020070325 8.33765693846284 2.89114053706055 0
100.856938346178 -22.1149331313014 18.1525277120888 0
55.8685909603181 13.1438926913116 5.3809690243265 0
187.286546349537 -8.51413270312763 -37.389059299177 0
192.965426354674 -35.404487427572 14.3646590474203 0
-32.7479374339636 -13.5164999197125 24.0833152611435 0
106.350583873041 -5.77419982892464 -6.70526902768451 0
205.505615601231 10.4942832067754 -12.5106297771333 0
200.954897296354 -33.0645199729927 -28.8905837505809 0
-62.1494850274284 6.05948587691038 -1.96913679790247 0
181.373443785453 8.09579870223326 22.6658300334322 0
-63.543874046258 -5.26461882265373 -5.65576547998423 0
181.428494075385 20.4621972460897 22.9092106016669 0
0.700624493424113 12.851098937439 24.7168976095842 0
148.976145729536 10.3243400139016 -10.3180366765641 0
119.666483178661 16.2726898704198 20.9261304906635 0
27.6560522660246 13.8502002223152 23.8628247692546 0
160.853277276623 32.3573589798216 4.80574841679591 0
154.214342163398 -0.899206356458218 -12.9351201371728 0
66.1182268335081 13.4634671590745 3.83801347387637 0
-13.9893154669287 2.19272503227174 -3.70098045204414 0
190.176201917091 38.2378497984584 5.68266021263986 0
183.110120017143 -13.0900225709315 -40.382557064992 0
165.633461479338 33.9259675320868 -14.7340066782404 0
139.568180329354 -16.5026719214368 -13.6000944338354 0
176.072400506043 -1.60389273336862 23.6022211994233 0
165.393008540525 -6.40748002309278 -19.4715915082553 0
186.152176228639 -5.31868525490888 19.5572220389123 0
17.8431623704219 1.9148170584588 31.0165797856617 0
42.7854973293989 -12.2382512044112 28.6228360980791 0
29.0640349628987 -4.9071678459895 31.7407603499195 0
19.7168254163627 -7.65956635080338 31.1805997169751 0
205.294363556984 43.1089439198876 -20.5284704576376 0
191.661520111495 26.6879233979096 18.1415092458876 0
17.4283317659709 -17.0517822980348 8.10391301044102 0
213.106477181927 22.3323064649524 -1.32251225461143 0
17.7166012662101 13.5098026889672 10.9843767231121 0
177.380569273563 31.0294694722535 -34.4579967351326 0
-73.4042531547839 -9.08991976152074 -1.05619106179163 0
114.609421176469 -23.8410243500796 6.04260288455564 0
143.191465837828 -26.8148369651796 9.97260014374437 0
53.9016625511328 -19.4817530230666 19.3339122499721 0
173.105680541959 42.0565339989906 -4.15315936109163 0
176.056302888511 29.6614447440158 17.8851857130937 0
173.597191516742 39.9335924384128 -22.8778812365634 0
187.905523254644 -37.5625759988001 -4.62215998189899 0
81.6399187777945 17.7848020968914 8.64367040446383 0
21.0718798017026 15.6356019151028 18.4131666281816 0
165.272929041324 -33.7196900291414 -8.82636810704746 0
166.420708329891 22.4689036511193 -27.9535617161827 0
-60.7469691269258 0.781021326540352 -5.43408545985019 0
17.4178114552922 9.40806850766418 5.6717853292622 0
-95.3194704563761 10.5085633868697 3.75556982508136 1
186.152381587309 -33.7858031719587 18.6413164534893 0
211.158084460263 19.7785372919464 12.07611909707 0
194.818393060741 45.2857439424106 -29.0599493213647 0
197.660908542009 -23.0006347428799 -37.0875035525509 0
138.520778530025 -12.8140112933036 -13.3658726244708 0
212.722327081479 35.5208458666389 -16.2557266484772 0
161.092489930822 9.42494654748877 -12.8258265192412 0
168.215726196799 38.647995517675 -13.4554467436654 0
204.474970358522 -21.3644496053318 -24.7238893460677 0
18.9651073572765 -10.4152638896407 0.921349150976263 0
209.707952285214 29.9876594432549 -24.410069344842 0
-64.3138159669501 -15.9914024431399 12.411331507705 0
59.117699651131 4.72578536964611 29.6913594365305 0
-77.8495403022539 -0.531765135386813 27.4734013804113 0
-82.9144959738681 -15.7434306535018 8.44730920771146 0
193.022876112823 14.9673139931035 -30.4681397734369 0
92.6714904942126 -1.39541019481365 -4.55475496967433 0
70.1627909705549 18.021340540412 14.2350527777879 0
103.561001196069 -10.2902069416931 -8.41228056285304 0
189.367161719107 -5.28724372409122 -34.2925817152724 0
178.663968890217 -29.3909547105027 21.8805772399548 0
36.6700104213085 -8.48958559349407 -2.0046853286881 0
176.222194563702 38.5273187810678 -31.5512781088963 0
157.972815861299 -29.9679837459816 -10.2145328263289 0
99.1240260795705 18.8390103434527 5.60650811244903 0
207.724196274565 27.4712920032914 10.5069029437983 0
142.429137116044 17.0601753626437 20.3841249122174 0
-46.0973072831812 8.95490309521901 26.8339988384149 0
202.686722539901 -27.7867693725047 -29.056889008866 0
117.516931989019 1.54043430359646 -6.27902715939777 0
-2.81595866641817 -6.20659249282626 -2.55101423275249 0
-41.0205596217977 -3.96481803636143 -6.183328537594 0
137.291799348036 -23.9459242543495 -8.59785986417531 0
-12.9546790502579 -10.1840618708921 2.1873051172558 0
159.995469029573 -26.6375299939046 16.9290738384537 0
-9.97986663040283 2.45197416384305 -3.50028790047412 0
174.962748619345 44.0534822116792 -12.7139643058217 0
98.9967005239172 -6.14830127850624 29.3051347850499 0
62.596491207093 -0.848717313621889 -3.65083920944063 0
134.190603660466 23.2441198678572 11.304454285587 0
-90.1391175514379 -0.519729154948754 -6.84108735167323 0
139.758410560955 -20.5331566021223 -12.2547029195672 0
133.000165001121 -24.232018645145 -3.32513359736144 0
178.540268416419 -33.7240939146042 -28.6005055764633 0
210.198747054778 19.3412033629534 -20.527869067481 0
6.58885545858539 -17.3525514667905 15.3220348246461 0
62.2097149754976 -17.7980982756055 23.6957564739974 0
-9.54475268933835 12.2835183550424 25.0763149146245 0
208.409756033601 36.2148329934096 -5.97642763618771 0
95.6045981662789 0.046959374512247 -4.29417060643665 0
144.643284703182 14.1742726160682 -9.92362857272894 0
98.8703825623263 12.9605776810447 -1.84638158506208 0
203.530660301718 -16.0919785086602 -0.00763735453701987 0
140.541070620287 -26.6190690401032 6.99556656938425 0
-20.6012574458512 -4.66074311044416 -5.31364467298595 0
-25.0969711250058 -14.5617128320427 8.6894341975928 0
110.077905334904 -20.6525230238768 21.6575684740432 0
96.6447334324717 -15.2329131512214 -5.28299392558062 0
186.240951975444 -37.7060453614391 8.84274856961341 0
187.157562705714 -34.9859314156027 9.91014043261942 0
149.516935135766 -27.582867772136 9.57429713370453 0
111.11596011819 -21.7055410351388 -0.370134635115411 0
-81.7658964645189 -13.1891669214517 21.800845561468 0
155.740160971363 15.8148170211219 22.0595268228611 0
123.837295077962 -10.328681778371 -9.97971999019971 0
9.66675010859901 -2.19803932169948 -5.48611550044782 0
-27.6875064153752 11.5901790741602 25.1481839148645 0
108.181205699078 -23.1785643840834 5.43294320770158 0
171.12628127962 33.0434692162714 13.4771242169723 0
198.222720288102 -8.7897225217832 9.5266631776676 0
65.8330982589981 -20.9675511842635 15.6949193387602 0
92.9535388237779 -12.0486671035665 -7.07455198653483 0
24.8219757607739 -12.9025337335208 27.8030084626429 0
13.3154789304046 -13.5485504495287 26.5172347853286 0
183.220590859837 -1.07427371293049 -32.9571026592654 0
191.272464790032 1.67301164370455 -10.639426492098 0
157.425493481866 13.0607415855947 -12.2510331921118 0
-38.7105903806736 -10.2987741458013 2.27492746371504 0
174.937649125261 -14.4635492934821 22.6629872145457 0
20.194227255416 -12.3260387640909 28.2892421797104 0
173.695446425326 29.2631512744793 -32.0413575275217 0
170.93805987182 19.4221516136751 -23.6963620729663 0
29.4934298143411 11.7909102713374 26.1720403197214 0
184.109031206695 -21.5721236588046 -42.0245233168927 0
-22.4669600813071 -13.3115619857849 5.74046205949671 0
148.454906212091 -9.35756102103395 23.0064665897447 0
-59.6505868342443 1.39274698012271 29.0934294046587 0
203.789478918919 -28.5260949568952 -25.5266342374338 0
-84.8847818759066 11.3923055632421 8.83254524903286 0
171.833741941618 29.8121370184304 -30.4813118558437 0
154.078405658236 -28.5587042293866 -2.38165205409518 0
143.54960021161 25.43410241305 8.02509545461503 0
164.815141862315 -10.7014459744336 -30.5920470040536 0
166.356619108716 11.8700794083468 -15.7631415930957 0
176.672578530475 -3.64989871566147 -35.3570378738737 0
144.739039016912 21.9879286892767 -10.8678623034486 0
148.634602074209 5.29275338011949 -10.3368878970633 0
-10.058348490412 12.33137350494 11.0587244719352 0
161.556981996553 -6.40078894456696 20.6447617337026 0
107.023445659796 -23.3648704997699 7.94717237448929 0
180.516256365985 -39.5036686956681 -20.2083545900341 0
164.116020288627 -10.3796403419068 20.8625529818263 0
116.480289766459 -10.7063179007485 27.5576472934724 0
-76.4123434674122 5.55967906972911 26.6723990204649 0
214.488355081126 29.7239710853453 3.65203274857802 0
177.398381833386 32.6088983565765 15.4270012743833 0
-46.4184025800289 12.5542628893356 21.7495257720351 0
-53.6015435012931 9.59247788719455 5.48733915476064 0
177.12074752408 -13.3642719973317 22.1836087983169 0
162.923703756197 13.2708235841252 23.0246762920362 0
176.101189182436 11.9539998781971 24.1131161071816 0
193.80112165951 43.2086623089844 -1.92398788728711 0
171.083753522344 37.8454369525155 -25.6958749881208 0
91.1722167739009 -9.42739786378687 -7.27912731925457 0
175.724250617291 37.6302892931884 8.74097553209924 0
144.376989713019 27.4216363947494 -4.23026822603797 0
-24.5315931471454 -13.8051970941328 24.0924944112066 0
194.359501934945 -2.94306238740374 -26.0067566401255 0
158.053607819376 21.1421654847837 -15.4341210035899 0
134.336372433263 -2.65414629118718 -9.50431956728629 0
165.51064767035 36.935003348411 -2.70531394494435 0
180.249166509772 10.3902516196743 27.8194012324684 0
59.645736668795 11.7130541911445 2.60256608302998 0
79.7157815626943 -5.13629970334757 30.3772963147922 0
-61.5493851863307 -16.4434475706189 15.6117674276623 0
161.332790043971 18.9118135597214 21.3249718641217 0
143.361039413055 -4.34400972359619 24.3568808399528 0
1.17484513388508 -16.9196960494012 17.0785225100422 0
188.560874159123 -35.9604714739762 6.698721510554 0
75.9066463493497 -15.9535495269938 -0.624623879936068 0
110.944115038528 -5.55527576015934 -7.18315407796183 0
149.363797213063 -27.7083000635836 4.86219226926106 0
96.6135055715065 -4.79476796650746 -5.55390072264252 0
-93.0309099670279 -8.97153922122395 -6.1744348662612 1
181.092802685737 33.8868084937957 14.3392189213966 0
-80.6341995703014 -16.0316117224838 18.2594128603695 0
178.774295842099 -0.367248214170063 -20.3240899538914 0
163.210102000043 9.50408779951953 -14.5556683278716 0
147.640706446364 25.9137717778739 10.1710019606225 0
200.271674443812 -38.9712034060629 -12.1604518526463 0
188.273070337362 -35.501462025994 8.99403177431511 0
135.829535974013 5.02658406784909 -8.08238536427335 0
168.038057619317 -28.7040831233241 -26.8591280280311 0
108.204041208701 -5.61783139708359 28.701512951865 0
169.176122750425 36.9470968216137 5.80428193750067 0
199.584267365495 -21.76377178773 12.2835799190722 0
180.882437120518 -29.8166239556858 -38.6815075360143 0
-27.7762118330397 7.9106141836755 3.32174689438449 0
132.516589790742 -9.74276744988765 -11.3787870120454 0
-93.0108676851311 -17.3690718763085 10.9852465765494 1
-95.333441414439 9.05565391870259 21.8869545242805 1
44.01980984388 -17.4692644042632 6.21623353522576 0
187.630886861627 -5.38262751190284 -29.7913401639968 0
68.4364116288578 6.36454374721392 -0.946645327841354 0
186.28150793049 43.5834986749128 -25.9753569981633 0
192.503490649362 43.8879794977832 -22.1444256793326 0
214.117140687482 26.4326065356474 -10.1179550037022 0
194.077194520933 -31.3026340781526 -28.4700398079271 0
109.904755652995 7.97290934984218 25.8006794014709 0
14.7873005073205 -1.01704368082533 -4.90569222092205 0
201.905821312172 -10.8984247708698 1.51920065480908 0
148.77996415901 13.6994226260103 22.2602460171954 0
190.678662624864 1.15086603156867 19.1903548929917 0
115.053545864443 20.1814316403975 2.57502529674724 0
70.1836496746936 -0.894922003202673 30.5288729031255 0
175.851895036511 -11.5573332780857 -38.4595789806799 0
-60.6455367639589 8.8061748779927 3.71762202361113 0
213.890526472379 33.6885144533629 -12.7151345061532 0
208.209138726906 17.5256689933303 -22.1310340434681 0
162.423635409566 29.04143720942 14.0637661045815 0
189.308693925425 -32.223690830535 -28.2494152104893 0
115.906350750271 17.4194313529317 -2.43619121645414 0
8.38037570166381 14.7135454469318 21.3560809028146 0
193.212272786074 22.9348255142378 19.6147058811339 0
159.245653706083 -30.0662575128964 3.02344402067085 0
169.684477563449 -15.51809800597 -38.0314221694498 0
187.111876357013 -38.4223463172944 -10.9232200174861 0
99.9792859631171 -22.981973862739 9.10186148066726 0
157.029116753915 22.5241185811634 18.0740124624583 0
99.9187316498339 3.01834675299826 28.0125230903047 0
180.055886963296 -37.5192376790555 16.0301897884007 0
160.064711772504 26.2756513004236 15.8665530220575 0
180.794895291723 15.2076830193715 -32.5566919216121 0
-50.5854498985779 -9.47646680338159 27.0175162156118 0
152.793516245581 15.0234192055796 -11.3644031829351 0
193.151360182136 25.7586263670244 -37.209420064503 0
159.645291600777 -31.9859035041497 -12.6628993531889 0
165.966040228808 31.3331106010994 13.1983084309734 0
130.133922159074 -1.5906371363282 -8.68820790443913 0
-68.7203356726656 -15.3180653698691 20.1181835088123 0
178.078669980316 36.9656101149928 10.1649077818505 0
175.905505619436 35.8193820901415 11.5228884700064 0
174.951199156489 -33.7335938794838 -26.6685086612872 0
167.105802148231 18.4837168560809 -17.1594393148898 0
190.046860001722 41.7231211603871 1.72323107070384 0
60.6894240018345 11.9403165191992 26.0556972704174 0
196.986652036705 -2.58169987022552 -24.0045297051619 0
-56.1186612903485 -16.2186960681888 17.8018343083922 0
203.208823312654 8.24684141265733 12.3196171668151 0
115.076801310222 -7.58867184224413 28.0343998155518 0
193.753190091261 -36.320354945826 -11.3224173329238 0
6.36882234009056 6.25293132247746 29.8419067920398 0
25.9825867070205 -6.11382444571493 -4.36409510699779 0
173.461869954279 -11.7185624953795 23.4039493456938 0
176.443853156318 -35.8240396082367 1.24814705347148 0
-46.6979154812712 -10.9712784979315 3.03158830392506 0
17.5571331699398 14.4752483336126 22.571722962063 0
92.1551637932155 -18.8359974175973 -0.391953957322567 0
169.272927740437 -32.4965377600123 -25.1778857738717 0
-57.7515700199541 12.3237318190803 12.6954411344449 0
-49.8776993431724 8.2697899071921 2.76851455052875 0
162.783654580877 -4.66164536981534 20.1242288637499 0
189.710323536012 43.1018356544174 -11.8071109346715 0
-64.0514701439469 -0.708663285270792 28.7592236146549 0
-31.0283551824273 8.86460005031582 27.6396158401205 0
0.704672667641412 -4.44810929120982 -5.28512232813814 0
170.708187574552 33.7783822431737 -22.9660918284779 0
173.944251313727 -34.9529171331364 5.69464997833793 0
190.752260522727 38.7047651043144 4.52162046004891 0
185.481605197844 -39.4397153629518 12.2481960446463 0
139.061528268382 -7.80146421617412 -11.9817778624106 0
-92.7847633461255 -17.5441741056665 13.5381166532382 1
106.465989188365 20.8724365678991 9.07842158872604 0
159.309871119396 5.80430336315857 -13.2141481585124 0
203.609225888946 7.88223287710733 -15.5838022890157 0
126.803589083051 22.6740018472633 10.1051218018334 0
12.7739901373471 -16.8330176423484 20.0278137728563 0
-40.303923459752 -16.0258711134048 18.8652975134588 0
188.656826523195 -4.76036576804557 -25.1132785736156 0
4.70266728373495 -15.361635917333 23.5197115297975 0
-93.8589965020693 -4.22528900334588 -7.67164204648883 1
171.921307324498 -37.2297320776671 -20.3415675158364 0
173.007912581897 -29.5623567596509 20.636355571064 0
101.820207423612 -12.3306240190763 27.9714543634071 0
156.694829590865 -28.1571892887485 12.0056531450192 0
-33.8880290760387 11.4871814322491 10.030265308346 0
167.410793075241 -9.91314295260089 21.5476735548832 0
184.256127010657 46.6993679158066 -31.6020785934061 0
162.021629194968 -27.7101237601371 16.2157363368159 0
156.793708425721 30.7156423115236 0.658341413085228 0
204.778016880609 35.831478128645 -2.25659322395172 0
-94.7791175362139 -0.766674849348419 -6.98252922795632 1
127.108066764061 20.7607796432763 15.8377971190695 0
191.028691524678 24.0280597872466 19.7164456318427 0
186.079647761086 17.9258403498126 -24.9484477231305 0
178.976049252667 -1.17848891936901 -33.5288216576586 0
112.011126337251 2.6730120739036 -5.41943996906107 0
78.0619969087382 17.7305073734861 9.69005922453535 0
77.0418554307673 13.9395932886758 23.9584884979076 0
169.046871239452 -26.5153748282691 21.3183175706919 0
31.4776952043031 -5.1009202560408 -5.61255448661367 0
126.127136436989 -24.5872998083823 15.1930837503213 0
200.37752841856 40.6032396992661 -14.5277446100379 0
1.44526365481967 3.895338144893 -1.07766585292586 0
176.399245824185 -2.5599942202271 -30.5848268669067 0
192.735383260074 16.2025665483843 -23.0525318628779 0
131.578272994491 -10.591122916091 26.1610843084404 0
159.336316662893 16.8718760967075 22.0702219779119 0
149.605885277118 28.9221729778585 -4.24510594630913 0
179.289113324523 40.1584580060457 4.72832493771822 0
152.777011071063 -6.3361958149893 -14.4342119506452 0
89.1352007861182 -22.3999312574771 9.81038125125956 0
63.3028047656055 -20.613318656549 17.0522198059635 0
147.086437722574 23.2319625640218 15.1386716708779 0
194.594756662955 -38.2290105592871 -18.2115016958918 0
54.0728161703078 -6.70573859648984 31.2509150098047 0
-62.0022238499492 12.8327093098879 17.1006711358795 0
43.2726798504742 -11.5799376325668 0.173711845976788 0
77.9401959640313 -19.4303840231142 22.105652789665 0
209.590526334609 15.773753132285 -16.8958826449542 0
202.920038081144 21.6751384905144 16.8437492825248 0
35.3501622614733 1.66781321498264 -3.01712061105284 0
95.2555095465653 -10.7418335346627 28.8236610610992 0
-7.02015901502164 -16.3411474936708 11.231808430157 0
164.474210968608 0.48937432452344 -16.5607176896961 0
112.577930755165 16.5334488777894 20.7436017978822 0
176.115054490311 -7.9000966494039 23.13369447517 0
154.711657507894 -17.6661859141004 21.9093960420141 0
187.448338619636 43.4862046398574 -8.5863907848582 0
195.907011145934 38.3591205036546 2.17909238449536 0
-2.09027964915067 13.7975318283393 13.4760369357509 0
174.97052626123 6.22215917750071 22.711400001778 0
-70.0507231567492 -4.65063855256324 -6.41487082716047 0
198.139804314607 42.0400537216533 -10.4718407792602 0
178.493783434397 4.6750326671837 24.0181068567002 0
161.712593698956 -16.0043870856922 21.7705318576865 0
20.9490109097677 -4.360712843345 -5.24534784389341 0
123.135154401687 14.225205186219 -5.13510640121577 0
166.458161772655 -9.42190966682697 -33.4743823251921 0
187.041119324746 35.3426330031764 -36.1797478315977 0
172.731905182003 -32.0810628202897 -26.6602201827405 0
-76.0712466039707 6.82555012401173 -1.25600637534393 0
213.130354225141 36.5384621260264 -13.1144649423771 0
-54.3932608749442 6.46295022665825 -0.975470750094915 0
178.40821775436 -28.5029286796834 -39.334141799917 0
189.42468560034 9.51720729642428 27.6489494827158 0
181.717542701432 -31.9691285726422 -30.9331751629926 0
144.790982672504 -16.9958465772508 22.9618656068497 0
185.094451304847 -36.84935260007 9.57379232729349 0
-21.4990434247161 6.95412530580443 1.98124479630241 0
-8.96282078263891 -15.0302538150916 7.57692766682143 0
29.2095466966763 15.4353405630958 14.3992875671748 0
-60.1123754226271 9.95935620647543 6.03979568377086 0
194.152256802469 -3.47171411028998 -31.1698728290167 0
203.618643324223 -17.8836807340703 1.49824176513749 0
-57.655529840222 4.32569175190866 28.7304310283714 0
35.094378654841 12.1922258739913 25.9096769852198 0
61.1330591265338 17.4683124349464 18.500356543747 0
120.011633142388 -22.7973192308486 18.9437557955641 0
134.610849667797 -10.0728223001652 -11.9306345179213 0
36.0384833820812 -5.78365260965277 -5.55192533825025 0
179.730886498001 46.0540669548323 -31.046101477209 0
169.211367687039 -23.7931471415448 -37.9998028738739 0
168.402859714079 -23.4690768290433 23.5250626001543 0
210.530593440196 17.2684773699594 12.9000978834915 0
66.7509893348904 17.7059043415377 13.6485318781179 0
49.0532493034217 -16.9003984161712 4.69071951220687 0
62.4797021348489 -16.6802613571363 2.60866545412549 0
178.678555892778 26.2330959563021 -35.6587738343815 0
14.7961822758708 -15.3297950241626 24.1345005737306 0
153.589210186099 29.2896383555214 1.62265100314729 0
8.59362538795678 2.24507170034491 -2.94518483529496 0
-29.5654208267374 -4.90972511554661 -4.96216133861961 0
36.8483983659811 3.50933782724051 -1.2146675050111 0
180.400205585759 -32.2693652625533 20.3894725737767 0
-81.2228432552826 -7.51397653069638 -5.30607383223917 0
151.052106685748 18.3462465390675 -11.3103551774909 0
204.048201875321 5.25201926040469 4.33672947864984 0
211.294558883262 39.6988907330914 -16.1078775257485 0
204.139194233366 31.377588632685 7.33995928786658 0
88.3098465519814 -22.2686874558419 15.6698705509021 0
-28.23146137267 -15.3107678167049 21.0148666458881 0
179.398719733992 -36.77173653503 -24.8323597307117 0
-19.0766814425417 12.5274006099182 12.0203923210902 0
174.433839888119 -33.2460492952944 13.303017476561 0
-37.3356570683827 11.1710196572146 25.1271956438165 0
177.086152993189 6.25166090765932 -19.4142677736623 0
70.9095546526751 17.1213276874681 10.0327172253602 0
99.1497885187435 16.464056787604 20.9991216915988 0
186.972412213093 44.2946191548493 -2.28691102352741 0
24.3270657996253 -17.5044291487241 8.59948127941604 0
188.170473418117 16.3556797285056 23.30901769059 0
204.239072768224 8.81740402841964 18.2051326545067 0
172.960538745345 -22.42661469882 22.7023629168435 0
170.398354169049 36.1791816248982 -24.1974309954187 0
83.6583987378103 18.789144717099 11.3874165028397 0
177.470296201436 -26.9547327217 22.3234653329926 0
161.04897579419 6.05657396431109 -13.8910103683723 0
204.215039920225 -18.6905521203158 -6.9520340708635 0
194.850406872462 42.8722244481809 -15.9253702148143 0
166.472801657475 34.0759437773414 9.08404058493336 0
176.246883008239 -31.2286848412521 -31.4667142302568 0
208.444818815958 36.0776967059319 2.15702503852948 0
59.6867605852457 -17.154275571281 24.4890137813095 0
196.347852845812 -3.65390138916632 -15.8856842554324 0
22.9156288688594 8.95355245785917 28.4373251571367 0
109.276190522312 1.36535232890143 -5.36829057054359 0
203.4942551796 3.93492019930002 1.71305274293121 0
34.2158230179629 3.19744800679153 30.8456167626584 0
199.035634944636 -3.55037296505044 -12.7036284273585 0
202.365305265826 -37.165011652951 -12.4530736211414 0
195.898041770781 42.8013383173999 -13.1412004866424 0
124.498793425439 -21.6969720589148 20.9190877408711 0
55.5359906332389 0.337595593169393 -3.36321636640587 0
-69.9292368356631 -15.6489212288216 10.2467153569008 0
164.529865358061 -11.943861415507 24.2444850330051 0
197.002067707578 -29.4754125394216 15.0468828366529 0
-75.7916241714579 -16.2482171024208 11.0670124937051 0
176.921724130041 13.9213738363709 24.2752655609904 0
185.230855779175 -34.7208009430474 -24.4800783829155 0
-84.7470891826844 -7.67909868590228 -5.89813013027816 0
181.190903683947 -34.0147202637306 19.2081570058138 0
80.9078663270794 -0.336041906345283 -3.77979808792945 0
179.371906980165 -16.0384385502168 -40.7856803594898 0
123.699450824795 -11.1605025150427 27.1833804217864 0
-49.7271709620554 10.9289184471133 8.6569017433822 0
145.312271425499 -5.57309919093218 -12.3750013169705 0
-21.199310691955 7.27775130725089 29.1144989536789 0
122.666738877781 19.9223777536837 -2.61968278190354 0
13.097047855036 -17.7702697477495 14.8571532955907 0
209.512894089449 18.8062390407139 8.86307240020155 0
203.764909032721 28.0439149153786 11.9102275385195 0
189.519749096629 -36.1183194133296 5.81878599737573 0
-27.7707114981786 3.75733742800646 30.2875017985892 0
-68.8448438042781 -11.8600006027377 23.9456939099464 0
18.5730789177208 -9.63227510817477 30.2390644390846 0
24.8952838313618 4.36360542753747 -0.391719799760364 0
101.278935265948 -19.447531820201 -1.71192770924825 0
174.614265469535 -31.8587350488205 -29.131495554908 0
140.031980187653 17.0668073910595 20.3076045514344 0
181.11037435459 -0.965420920607922 -32.4272321862539 0
-48.8745983784056 -16.0713228889562 14.7893363960501 0
-89.1308856819831 -10.4781285438775 -3.24057834947172 0
127.874893354121 4.69785815073012 -7.01245705655698 0
95.8529661590063 -15.503190615834 26.521497284263 0
169.216020788138 -5.59518076629131 20.482031215391 0
174.342915016367 -26.1187356377199 22.4292270331532 0
156.421368386488 27.6440868392583 -11.8826568944681 0
-87.7454481239126 -14.749363809415 19.7109303557369 0
159.921657143782 -28.8831830448523 12.285570102737 0
14.5675357353497 -5.29963974809115 -4.15316696570448 0
120.518377572193 -24.2950194254917 13.8878524297242 0
193.010347926524 32.001386574879 13.4192789916259 0
181.872336932813 -38.7589712660857 -12.8416419265774 0
-51.6099732447094 -15.3273211553554 20.5028752202441 0
158.287712108861 -29.0546023724411 9.57040536162185 0
209.702339153964 40.9697119033087 -10.5618622418125 0
145.916319345858 15.4475519386087 -10.9920140170078 0
176.332085282946 -37.7533913040732 -23.6041711294289 0
68.221695766258 -21.2025347324583 12.7778514176773 0
-67.9005255728204 8.39669868070846 2.62033871824093 0
149.380390527923 -27.4402403875049 0.31080860855533 0
-12.0032379816196 -8.52415393358073 29.7574893216179 0
153.108539003048 25.7178354700939 13.6638979132141 0
187.290074830069 18.0034373827302 -28.7855350072663 0
13.3876764354819 5.99576461850391 29.913531159484 0
62.3737898090266 3.2758689589871 -2.31425090559373 0
124.745058460653 -24.4078385472767 2.79547681356056 0
50.3699354735257 -5.95333991343503 -5.93287536890585 0
191.285480255761 -2.27777352212739 -32.8745479780644 0
45.3570854663967 -6.05956331837646 31.4598967001219 0
159.194673104104 -30.3879685607207 -4.28750436772629 0
-56.6947318942394 10.8774740950322 23.8365984014371 0
10.4368340547688 -12.1681241233601 2.91969900244509 0
185.251876330157 -3.7534180183654 -35.0976844706309 0
87.029331824896 -10.054484215898 29.3531413435202 0
177.44986878589 5.79108462613852 27.3825986559296 0
170.601444479983 8.93290883779212 24.0096854558793 0
141.42407562084 0.814250100224034 -9.88678867973001 0
176.926984416049 15.1610507617475 -24.7569061409257 0
209.142263408361 20.5741158015411 -23.4258776350418 0
200.620719508765 -37.3541993693853 -1.24009686905195 0
54.4134799407892 7.9723700587549 28.6192646414922 0
204.306585089438 -25.215726194202 -1.70620880951903 0
149.813453070153 -26.4662301252701 14.825058815265 0
-17.1630380062943 1.64764327890006 -3.96534366449371 0
197.040521154518 -33.5244687917785 -20.0195314609545 0
-62.966486976951 -0.479723915161551 -5.7779881032029 0
-57.1804390742845 -0.823767352133611 -5.6783056014865 0
200.804746800814 -12.4143854572637 6.69668404155886 0
26.3197975453041 15.8246144233224 17.9622901396187 0
207.74528543046 39.999467610864 -23.5833654240008 0
113.208978878932 5.45743937902344 -5.03442604399527 0
160.678503722219 -30.9350487671127 -2.89993763825477 0
192.094283295825 42.7636180494027 -20.0206281175147 0
162.222126080381 8.39671819114088 -13.9869694080885 0
183.749501111097 -30.5170414332951 -38.7600050910711 0
60.1708726657259 -14.3649828390933 0.557955631375485 0
175.259286005995 42.108947064189 -25.7123400112864 0
167.846007403423 -3.37778211979136 20.5108446547962 0
3.87838355584168 4.69112471451575 -0.059814544246477 0
-43.10126572787 -12.5392863303225 5.20213067071976 0
73.5654927233664 18.2421073086257 14.2482689477266 0
153.887072255016 28.9676389913076 4.38416865818208 0
195.556730382398 -36.5621779135634 -10.7263916620158 0
56.1987559548381 -12.8934075896534 -0.23546374745741 0
153.079755774834 21.5952466721697 -13.0657605286733 0
96.381287428609 -22.4967306709186 16.018498053524 0
176.790882405226 44.4259206699937 -17.9422997524975 0
178.352705182931 38.9476767501246 -32.4817886099819 0
168.103963474729 -13.9768439168138 24.4692996832285 0
196.723161807402 24.6933514862769 17.6564827490131 0
129.283441348783 -25.35418623718 9.80798889061036 0
191.084165436205 42.5676277089229 -22.0249209512741 0
18.6238738322528 8.60546557121947 28.7608682622147 0
184.29529916352 34.640995260837 12.8874491545661 0
18.0568086127074 -4.19742028292745 31.8266645171295 0
178.318924691975 29.6349563935173 18.0573186713452 0
-24.8787166355409 -12.2192676493146 4.25550961048172 0
176.19523961247 -37.7394656096421 -13.461119756132 0
161.122330716968 33.0776109281297 1.70487671287943 0
99.9760772127834 -17.6733770413111 -3.70838400753265 0
187.29644803637 -39.5511266430591 7.64568464374563 0
184.265671465177 40.1674089008162 5.13054873287554 0
1.74571878408237 6.4680660633673 29.8430647079428 0
177.773115071765 41.4259540576844 2.49067122269127 0
198.563018525643 -34.3754164298772 -29.8438730393844 0
175.370704526105 -5.29117837745099 21.0582872305575 0
121.01257636255 5.15670406236286 25.8676815744221 0
159.086125571679 20.8285328480211 19.7200678191292 0
135.76254846263 7.59585110815771 -7.66466941457512 0
175.23660320067 -34.7852270816343 7.95081689449617 0
100.241757011772 -23.0910749582854 11.7600921772515 0
-90.8757075921584 2.18102059053766 -6.85099859176331 0
169.856866341059 16.9018262661647 -30.8022792368718 0
171.755324514484 41.3619417032172 -15.2301718598564 0
123.283927079409 -24.8008926428793 9.47667837110519 0
188.297554004687 -10.3536420058452 19.1368184338446 0
139.532694669702 25.8390849728669 -4.97014091427583 0
172.712374046587 37.0856575750589 -19.9392671034552 0
183.564581819337 5.01190183095074 27.7209669918435 0
159.40032211406 19.042699117443 20.8594490630451 0
130.134273655096 4.72699285032104 -7.32917194283594 0
203.720622573656 -31.8382431196115 -15.1116919160988 0
195.470049769439 34.3487630156378 9.39428696017353 0
109.562513464983 -23.6158035444626 8.53240525170318 0
202.474328133963 -12.4958963582257 1.07274771014167 0
174.024382311764 -29.6726274375648 -33.4352633564547 0
182.430182316073 24.3020271371617 21.3810931342687 0
-77.6830378523235 -6.4635943974298 -6.18070414916268 0
171.470886140586 25.9530394910524 -30.2545821613251 0
158.281546379448 11.2395156229844 -12.5464050313772 0
198.533526865034 -37.4470935496111 -28.0756330987445 0
-46.4937438227058 7.67586913047752 1.56202096722703 0
204.054289283487 -15.8625270264179 -19.8123846316529 0
83.0226179359467 -13.5118458053027 -3.96199694601804 0
175.94826365765 -6.02595225228885 -28.4717607984557 0
-20.854102308191 13.0368575027915 23.3852192730167 0
187.613210807204 -29.5211406236111 -41.1153911224315 0
-43.4589890990611 -4.44476734325262 -6.13756633332206 0
170.749245707064 -27.6824160145351 21.6339021085558 0
159.860403557494 32.9652288048723 -3.0729219092433 0
111.589864292343 -10.5408898189361 -8.78160151854773 0
93.7149047271022 -18.8498000688151 23.3346594291444 0
116.802537277106 -14.5937667443513 -10.0408116670722 0
132.95665122324 -14.1887256198518 -12.1355535433775 0
-59.3409027510129 -6.59227371865311 -3.77360265106007 0
131.095997713673 -21.0204933890121 -10.3719745500315 0
-23.0396073016978 -16.1893205699738 16.8737888466856 0
181.685269592655 31.2069624532195 -36.0846972660963 0
-50.0596682990225 13.113369322174 17.6803865911581 0
178.303002380382 -38.9342029673741 -20.4727312667219 0
152.279802572975 -27.8552566783456 9.59258615440799 0
187.040657847259 41.6346765475295 -24.5082959222821 0
152.281789671849 -28.0168763330505 -4.00990638081269 0
129.104388671816 -13.3023083629427 25.986729102876 0
174.346044871776 42.8383046673486 -28.5466742780077 0
8.48105495980319 -15.5424936309291 23.4067458212591 0
190.597723510736 -29.6292605876711 19.6524787971323 0
198.894294053694 -6.7707554781201 7.25146669053176 0
105.386613617897 -18.1874924637497 -4.46459386665945 0
55.8367966900906 -20.4579645019917 13.7154030500505 0
147.147213487409 -22.5246410919688 -13.376354573376 0
-87.9669340009842 -11.5341546006144 -1.56193899367983 0
210.63385423905 37.0916977414903 -20.6152428773276 0
-30.6606401769782 -6.17023847527876 30.0944209552786 0
132.04668320444 1.05618648520132 25.7486174157023 0
196.324845679166 -38.316792272059 4.87637339037813 0
181.571825645297 10.3620896523427 24.964627558315 0
154.38074641834 28.7630595355898 -9.9169723811564 0
90.2420047515598 -21.7893257865111 17.9767055602747 0
192.956355162929 41.8320211826491 -0.34911116655197 0
119.966418202216 -21.4947899033343 -3.71527726158359 0
163.019896243391 -5.94988183762976 -18.3968349650256 0
-57.0499132274491 -5.9628099536603 -4.88034856155069 0
150.258876765727 24.5974811562175 -12.0766619667011 0
45.9040839784949 3.71486884071083 30.5163081589475 0
-83.423811114817 -14.3841085304636 5.16523016964038 0
201.152241928791 -3.98921389280989 -18.9073058034445 0
122.476852464612 -23.1681556699447 18.4740164759303 0
92.4091543790199 -20.8809179402534 20.2475279393235 0
-81.1688064968079 10.7218599263317 6.72360399628801 0
148.223362284749 -14.5447492622466 22.8594750520563 0
137.652594433538 -24.550049561501 -6.57130595218815 0
151.208017809916 23.2180209943102 16.1185510159316 0
136.788597708267 24.4035457338645 3.8381743699093 0
-59.0814770490704 -7.95105566340483 -1.15243084269469 0
-74.1278392070918 11.7537492136826 10.183169806058 0
181.676546970859 26.7186755767576 19.8558482023964 0
191.059931901092 6.16406394684921 -12.6564619948315 0
79.0910647969795 -2.2120093754542 30.2394500080931 0
135.253237677514 -8.84544312050839 25.6296987095904 0
200.99999761006 -7.29082595541277 -16.6110605345632 0
-58.1200248992245 -3.99556943241091 -6.17970851830209 0
194.359806403868 -37.8150819250275 -15.1421012984932 0
153.635288039859 24.479817176778 15.3461314547984 0
200.949038971235 6.04156310013621 13.2568388937862 0
54.7444937228749 -4.1419119543592 31.4435579775215 0
-15.5205706658835 10.6050571196488 8.27038276151218 0
60.5418590937567 -20.7741482769122 15.695742608993 0
51.1350522188637 -10.6866750215332 -1.53244244982988 0
-49.4231814727729 -9.92685355446315 1.71798109444955 0
-82.2602116368039 8.33463388132986 0.715910550213078 0
211.145857542137 17.2704834748958 -15.0595752576406 0
-74.3219054955971 7.96664816140093 1.25847666193081 0
195.978068730021 -31.9230476620899 -36.1037054815532 0
-18.8244007961961 -13.4007657158255 5.61955990022617 0
168.587257493304 -7.50247579063466 -28.9924588426239 0
45.9150773115548 -20.0494451812538 13.8903768472766 0
-50.9885145693225 11.8292963206105 11.0140928835766 0
203.96278664701 -17.7954208944197 -25.714646527767 0
199.544549218359 34.5187025258126 6.0091521803477 0
30.7888549263166 4.59757037097107 -0.134961571846152 0
168.958966013105 -17.9217789856906 -38.4421513696056 0
164.298379129236 8.86812786188431 23.5653654484061 0
183.077065702748 25.0111118637559 -37.1979965102924 0
204.226942125469 -17.7847058714538 -11.6849185152977 0
171.447237569117 -23.4449627617688 -39.5379699346452 0
191.426839660406 -37.0740110884432 -8.65178760936369 0
-52.9379013189869 -3.39574369045811 -6.33067490541247 0
156.077033422353 -28.8298152675728 -11.558171584466 0
168.629314516338 -24.7811784625004 -36.4886829425826 0
193.741652717978 -32.018517433523 16.758458419981 0
147.014500372734 8.95641939119427 23.574315088447 0
200.35865949965 -16.7513368857292 9.97749781443715 0
188.276328111149 -33.0835613879608 -30.0062201835777 0
141.265735753208 8.45867555309274 -8.44921199435036 0
208.431038223998 34.3749955694374 3.35081551509736 0
168.122101326734 -10.2976167170614 -36.2264477268176 0
188.919590076592 4.22857826818373 -12.9247051035132 0
-94.5814091658142 -17.0160051471404 15.9377036218782 1
57.9839567882458 -16.2535138899378 2.74750871470971 0
193.796214525515 3.51548872892609 18.8039790606587 0
175.128919198772 42.9404671792513 -3.64043802524849 0
