18.4918557629259 -2.67078495820814 -6.01336901993683 0
205.863731914915 19.5561217837611 -41.7745794088055 0
100.864783233584 14.9445763713238 13.238603573974 0
-3.74435822037464 -24.4761350595561 9.05042205018139 0
122.549123830266 -11.8396517675404 21.4342150309447 0
42.9176935552415 -5.31356685573274 24.4444826659615 0
99.626414060965 -20.3377300210232 0.202471478517047 0
147.768464761942 -18.9414781845279 13.2747707933315 0
183.772111712666 -13.6993763432565 -21.222265795548 0
9.26243112236305 -1.01247278460449 -4.60809647850754 0
-10.0283054620218 -7.70223758655421 25.015676345471 0
189.84981981358 6.16680611624608 -17.7128139331261 0
222.660853715797 -33.7474231630759 -6.21400790539443 0
183.810323710967 40.6615935032245 1.00994622894106 0
219.458016408151 -4.60610786945306 8.36309132237379 0
180.467012378406 24.0153996974635 -18.8401186411917 0
133.121439668018 8.96654701557803 -6.1545980438733 0
-17.3511611011812 5.76375553125329 7.87790832153989 0
181.20853504197 4.57177806893719 -13.8601268258417 0
221.576333061883 13.9821064677422 -28.0245194469392 0
-4.83848262548806 0.805086148718489 -3.00351566953165 0
190.804373341583 -25.6702737044692 -32.6830989102836 0
178.036842999858 4.68033272760487 -13.3590159154267 0
185.489289307586 -8.70065028236136 28.3514725196431 0
208.493792333864 -27.2655008313327 23.9977486724803 0
165.182449670889 7.46595547479358 19.8590315035401 0
182.251871679016 -27.9062383285575 -17.777382862566 0
228.294578178034 18.8381674666102 -26.5562164187696 0
-37.3138503316516 0.970018726487149 -1.35142433298669 0
171.273069333351 3.4395642737138 -11.471950212953 0
142.768986388694 0.865482613647549 21.2363482508648 0
175.775657154894 -19.4423447181043 20.9928574161374 0
226.07922253441 -17.5001095114626 2.62865982176472 0
144.600231274965 23.2050979910844 3.2558686890781 0
158.433347276937 -21.4122688422895 7.73187181124824 0
227.933884649093 -31.9320884736111 -17.9647034456802 0
221.378222262816 -6.65607869898338 4.61152916565825 0
207.049800388587 -12.0219396277478 -36.2828281832362 0
205.795755482346 47.3025130741818 -24.9459205256746 0
96.7977653425117 -21.1483007705157 3.44315323837231 0
-50.5974553120679 1.48021355555023 -0.594838726623511 1
210.104711206066 -29.2621592087502 -39.0089579630228 0
87.3245950299472 -16.2557706259628 -4.36222653929558 0
145.933169980852 8.08837340928059 -7.64716696341884 0
-41.9391339965103 3.48013561511861 2.45564799885195 0
-13.8095326339416 -13.2272937400923 25.0589739071594 0
-6.81445527351326 -24.7103465084429 13.9769499677156 0
211.055330494803 -5.23184792079858 -19.7281231987973 0
10.9000146035521 -22.4925919510228 4.91829609427113 0
60.9334909096989 -22.0473415504778 8.82299379707284 0
-10.9854559881916 4.38307048593437 17.7138158206193 0
196.571317986418 13.8028085219617 -22.2475214805216 0
65.9412053517597 -18.346523304818 19.2562155974014 0
-3.69585981677003 -21.5612257228715 2.8197628534642 0
217.47905412633 14.8655573593819 -20.4335657264919 0
189.561855625538 -35.9608349349214 -18.7409988996337 0
-11.299103768776 -23.428735985475 18.3091471956307 0
202.418547398785 -29.599877999199 17.9006426539496 0
84.657916422008 -15.053189753221 21.0053562824874 0
181.746947767868 -28.2134637191454 2.75131477152105 0
116.233393353221 0.196181654880492 -6.80611550535379 0
185.006453680776 -32.0296445572355 -6.99845227615452 0
143.479960159851 -19.579167803409 -5.74138133085981 0
213.340546983965 -23.3402245486426 27.7572254948558 0
174.928620567514 -17.9800048619557 -17.4248621036158 0
191.505348992903 38.4998427626676 -31.4159769473157 0
211.131960564377 -2.62885607650239 -15.801710570309 0
32.4486082924312 1.18778054572788 22.7229156075443 0
198.079358636191 47.5386477347612 1.36041570257023 0
-40.6398466990911 -7.83119074710828 -6.61910247066187 0
167.750292083184 19.7410441391075 -13.1396184035301 0
181.812038643961 -14.8462003873933 -19.9871503366892 0
-46.6677657691782 3.11850092399114 16.2896196145272 1
106.987478555059 7.95732209342801 -3.40303291198627 0
206.882066425335 -3.86182097437812 -23.1852295276315 0
41.4040138309934 -20.173986321095 19.2952929788261 0
221.45069841582 8.49001292395474 8.79357238202264 0
-18.810710523693 -18.0243033324029 23.6547587512796 0
198.075975386067 -30.7672538392278 13.0184893597148 0
-17.6992314064938 -9.97547999684677 -4.50677529058909 0
186.98216519535 -25.2213896089902 -23.2462103789517 0
-42.21306769188 -3.01969555689596 -5.41437610505512 0
57.2826732730469 4.40560713864882 -0.0904685204107851 0
104.695019267226 -9.82700006384637 22.5585531608917 0
182.422842327146 6.80502434144321 -15.1938596855348 0
43.1540445730174 10.0074095066557 12.8582812661971 0
133.877221983431 -20.6914314492219 0.137776708915563 0
183.726047292818 8.42188356842073 -16.0061953026872 0
169.225231154623 15.6014377516506 -14.6747548139274 0
21.2585607401779 2.87226168099135 -1.87523009237425 0
216.66022568193 -10.9443578939467 21.8201740871722 0
197.886298814332 -0.599778142415106 26.9034773640733 0
66.2584699000559 -19.5010849138036 0.1200716416906 0
79.5701845989152 13.8198985150375 9.77800059263531 0
-33.1230834473739 -6.56429170803269 -6.65328917351252 0
219.308131391521 1.39089550635836 -0.232296857755984 0
226.804905005149 -15.979148216201 -13.819713513471 0
225.513509841373 -17.1957014584452 6.19447684969887 0
218.263500786912 12.8351805417325 18.1055672808199 0
46.2002266933063 -16.3690397770024 22.5236811136036 0
190.128814331628 32.6612151551612 -35.0856273781366 0
-41.4392858851952 -26.1571103794431 12.6859658286822 0
225.613528373811 14.4915168814158 9.35259885069681 0
213.149649866011 43.8254637309315 -1.96088179973664 0
39.5416424270526 -6.11029516159641 -5.73811648594522 0
53.1414107963438 8.56769775455264 4.37488916645915 0
58.9780340005169 -18.8911893270341 19.3497102325641 0
171.757992203148 -23.632207008597 8.73613394355021 0
84.6878728028682 14.2729705400953 7.42101125096499 0
177.464218679786 34.2480259899459 5.35831033436227 0
182.373767255086 11.2428536011046 -17.4433217608704 0
226.831718553007 37.2910687114721 6.59239832536472 0
98.4458994027637 13.6703760385873 14.8855300443507 0
224.825419624396 -11.0211500843962 -1.92102024421215 0
158.034386412323 7.57210114462869 19.80558214803 0
47.2672495060872 -6.4518779799188 -5.87574052286409 0
-33.167573745044 -2.23426368824511 -4.91477718955098 0
196.949920040034 -23.6252065740953 28.8900232175618 0
215.207550931342 -4.33695383112632 16.8602211146466 0
82.4876254349098 -20.0221217754651 0.152427312181646 0
153.665979375554 13.4194799866821 -8.17729813196458 0
71.7845933149898 11.039868622044 4.27019341245067 0
-25.7695931221701 -15.177447762946 -2.77536695561373 0
180.516102408431 -13.7393940740592 27.3568690217312 0
209.938044784143 -31.5604233403462 9.532467014292 0
193.357236977974 41.8513577570095 -27.4621011685405 0
196.401502155085 34.7022454062975 15.6970653585172 0
191.872476334676 47.1389473387153 -21.2546652507211 0
175.296165322779 22.7506247494658 16.3471723584269 0
184.799477295947 3.30969465591542 21.5267306642012 0
29.7837948220285 -13.1351496446895 -2.96858466041987 0
-47.1183849190503 2.67251928821445 1.07905547645451 1
83.4208349173505 6.87793363024472 -0.990237938502125 0
171.521734771781 -25.4086607516027 -1.31160184483705 0
16.7042957563411 6.16933796757847 5.49834840659981 0
131.723412054486 -20.8408267018647 1.49768237857799 0
85.7368141935764 -11.0649736433147 -6.16735069303857 0
228.296921049414 26.8780349668197 -33.5544886201348 0
212.003946251054 49.2249245848566 -12.9417716866726 0
68.9316672870668 -21.4187940435459 11.7148150784825 0
225.353494417434 15.8359873154682 -27.1264289252402 0
209.845355827354 0.546476718608711 -8.47795832601377 0
127.221786867251 3.74117797801171 -6.85180606242677 0
209.479902805304 39.7465889270503 -42.6390498035837 0
90.2713658015883 -11.4658618666054 22.5698167202657 0
221.566569429292 -35.6967271823078 -17.0546054308906 0
198.197480040506 -18.6710317042576 33.7922973154895 0
136.046271014486 -20.1481454835633 -2.29012232909114 0
206.489628559958 48.2583215312837 -21.1593873214452 0
195.982973049135 21.9308379912915 -38.7282824490603 0
193.807772521225 49.9520824384801 -4.48572354005866 0
180.546418399765 37.1085219495631 3.82476319246452 0
219.261956596478 13.3257977654718 -30.0576172563201 0
196.815853714626 -32.7967581418988 6.56830330996391 0
-39.9094821745115 -25.7180709081042 6.92495893512586 0
-43.0704366059043 5.38035112586301 11.3033101486695 0
219.5112075869 22.2643164801882 20.3808689681176 0
187.078654259659 0.146422721585633 22.2272619847663 0
226.54088121134 20.9394584848354 13.5912668352031 0
200.319615296037 -5.13882172797675 29.0620957243807 0
177.320166291963 26.085438089213 -17.4601031928911 0
186.943754256896 -24.8580590812888 21.0594341297433 0
-34.5280396704726 -25.9971285332829 10.1469629871507 0
225.372755073019 -15.4383987166905 4.70696632070762 0
167.019906502383 9.24616606931884 -11.4106204908005 0
166.152712062741 -22.4362092248125 7.82362264076892 0
171.502128950415 -16.2251682079021 22.5208153651725 0
188.118763377202 -27.1251874787624 -25.0042235073717 0
220.682623949007 -17.83558877564 19.4185346743529 0
170.210994664183 -22.4473243129587 11.3150906938059 0
178.18968597204 3.41793162763958 20.9599798490081 0
114.663909227599 -15.334956843078 -6.38605785599228 0
210.31911147828 -31.0503850841296 11.3309209900453 0
174.520266428741 -20.587828032191 18.7141798609846 0
48.5346583654012 1.26890124282533 -4.18123641585718 0
35.0336383858095 -18.2425849281313 21.7921113131378 0
187.824464998666 -2.42447773733983 25.298828530664 0
223.678067551025 17.1335977262557 -31.9233235212485 0
221.300007480677 -20.0677074976239 18.8086683708384 0
223.723818886708 -13.9058808918633 9.28624690545312 0
201.628379148877 -36.9428262787876 -2.2926159841795 0
10.1293378851483 6.24469289617075 16.8720162311966 0
159.824350110188 -21.6648874945566 -7.29567514291857 0
223.210387373313 -10.4278927058971 -16.4627635971789 0
77.285821756158 -21.4706201138219 5.55930824674835 0
16.6029670335581 -17.7690931523294 -0.606573088279025 0
173.773798619948 17.5687221942894 18.321676713837 0
181.231118588286 2.52799069621419 -13.5670884049101 0
196.045978348213 -7.74639210253666 29.7638334785574 0
215.462579262195 -23.4266471050553 -37.4083193388235 0
208.80767863167 -4.49962195741124 -24.3549342935323 0
204.234078100868 39.3797468888263 9.60684744625884 0
107.863047999253 -20.7614067468954 1.36682157492048 0
36.0442531240026 8.67595078611488 15.8634637495335 0
-25.5068953023626 -23.3622689233998 3.88501040582618 0
218.487192710858 -31.4448560373604 -0.890438355046871 0
215.17509897565 -12.3993686822338 -34.1115777526683 0
195.951062579448 -6.29350370509939 -28.5802077638463 0
7.08873970407528 -7.00291075816205 -5.62362094126074 0
92.790108259392 -1.64445408903042 22.9149355716803 0
229.058437403956 24.90521095322 9.85763259826809 0
9.72203484210465 -14.5737051017733 24.4400947719153 0
211.459329231914 -7.81846561236705 25.0422624469373 0
204.226511658137 -24.1945595664616 30.9007057450735 0
81.988567720888 -19.0214189560222 16.7021336895781 0
2.79495849496848 1.13710762939973 22.4225639178936 0
229.781633174963 38.2735577599402 1.71820127163366 0
229.557236003744 42.7916918497617 -17.1557227226172 0
191.17570226324 23.6400857118804 -35.2016922163804 0
44.2219889807545 -8.0576728199913 -4.90268755110575 0
-41.8378301030779 -22.5140515732418 1.36485977236186 0
171.072539501247 27.4047019319453 -12.1486088911656 0
99.8328946682498 6.04643144813796 20.3660655225518 0
228.365292779716 15.4906755667037 -18.2158198519562 0
166.346972706611 -23.9534262153234 -4.21621695476835 0
189.073266192979 33.402867948617 -33.3762913734909 0
199.956903249496 36.9462077614412 12.7864250621163 0
220.545737884916 42.4095798826926 -5.64961923859085 0
195.275809647806 -32.1125997155919 -31.7879047505673 0
214.248748159224 10.3697667351987 -14.0566661709169 0
133.782428593748 -3.26075156273891 22.2034540631344 0
-47.405610206835 -17.8925631841799 -2.69318326986119 1
222.433955515964 10.4412308266344 9.8823068674214 0
153.820342601376 -17.9108586106787 -9.70377163231773 0
209.839996408856 -23.5244656435354 29.7942710587393 0
196.637247538711 45.4341631149635 -27.1971613144487 0
219.20989884509 39.6904495758402 -39.692753941057 0
209.43790317443 0.12406177616414 -14.9452058937884 0
-43.6813894444581 4.8479433293122 13.6725043561948 0
201.655735121302 29.3508832376102 -43.1458995541763 0
190.777928609529 -16.4275003188349 31.7037558154856 0
119.59900836148 -4.92522452228334 22.5511642920847 0
192.538210261802 -31.4094559927641 -29.0553135612061 0
135.55781505567 -6.02225104420626 22.3884936038518 0
200.672030062242 46.7866217655757 2.10495403500956 0
-3.59485786355659 5.12784842346635 17.1111237330761 0
181.412454663188 -1.4439551551435 23.2161003213517 0
221.129405931644 10.6496081302918 -12.9736693115373 0
180.704788810569 29.5860461551619 13.5588712081664 0
122.797146539127 12.7473752741975 -3.05869807004039 0
179.078887170365 20.8567091254173 18.5521832004141 0
17.1382724111219 -23.9367104247689 10.8065904598634 0
214.026946687965 8.76696045409626 -12.5746713125241 0
192.315000996194 5.83565050756068 20.4560555298717 0
163.245693114348 12.3157511439244 18.4461867885732 0
182.756813239303 -17.331614860677 -21.0568035491638 0
5.41888294480559 4.20718596038828 2.98642105280814 0
177.768418374075 -27.5862972716061 -13.0634497829589 0
85.6252985091512 8.71710343937244 -0.139494245380592 0
217.151796716017 15.5397968624566 21.3823464347086 0
169.597805748732 -16.6163200645186 -15.5414314493758 0
161.390583251308 -14.0421957880803 -12.8404683573502 0
16.8712732900001 -6.66227053292294 24.7800453963094 0
76.4129802657588 -16.3492902014426 -3.62084885323166 0
-5.73186534688352 6.79704469049001 11.3009285847955 0
77.2485827350479 -7.57859610936464 23.7346146647637 0
149.43172650963 -20.7271962623205 6.83890953543556 0
227.044371645526 29.1287358544483 -35.2979802312449 0
203.064262996199 -10.1762311208886 -34.9408203863262 0
130.237209265497 -20.6112214608803 0.077134680989269 0
224.697206040361 19.8082558151151 16.299624522159 0
195.806411722844 38.5393436729379 -38.8282620827009 0
143.41924870193 -18.2636595010185 14.8406937929939 0
201.516756223577 -34.4288823181005 3.3270751276888 0
165.124997379896 -20.7224701685249 13.0635958120444 0
177.019070055676 32.0438172920333 8.4704227827486 0
206.800991876945 -34.5182676389795 -25.4152705602245 0
38.855735718859 -22.9389881366911 11.256072765472 0
173.631717658936 -24.5639086946673 6.85634235705209 0
145.611836360257 -20.7410823476027 6.31896762611147 0
203.897732734476 47.6766965575513 -0.884530211484825 0
226.659375212291 16.4194639066791 9.30769064608908 0
124.848932816009 3.01218514359357 21.2721414261564 0
228.025514076953 38.2342754730645 4.21198964762589 0
-43.3628038629801 2.17338525329833 0.34913172689121 0
132.559800308747 20.2906000173209 8.62051209154226 0
189.609413834184 -3.80557303773182 26.5167429418905 0
225.674091475575 40.531052439883 -5.97029703222652 0
98.4461444969198 -17.8650107787561 -3.59902563815662 0
-0.370497956392803 1.21884618621268 22.2300022624725 0
225.734020511744 -23.3197898750042 -26.1396006647827 0
4.34457627362438 -22.468478645908 4.63561395455024 0
184.875467644307 -6.00425930965622 -18.2780049799057 0
197.451535178922 -37.5759323190317 -5.44871921220936 0
217.785524064754 -36.2705133665651 -28.2891166023623 0
88.6179466575613 14.9669872001175 9.15745176577247 0
169.578276348575 -23.4357615970893 6.98303107799631 0
83.186165133263 -21.4813418895999 8.65581601908571 0
156.310992366143 -21.3300541074188 -6.39075663059903 0
165.136329532049 3.95416093636336 -10.3710473432527 0
-2.48304737326914 -22.1393882366163 19.6794778005474 0
182.741692482242 -3.10370669885417 -15.8375533499649 0
182.920840588806 41.4224696375946 -4.1706511719292 0
179.434879366145 7.9945763262512 20.4418036554357 0
179.966515692726 -23.4552013594559 17.50235711671 0
191.541627789952 14.9217265493317 -22.4859140845656 0
91.0331624428644 -18.6138987358443 -2.41312497207767 0
-19.9395727462721 -20.7468715587856 21.9231392804421 0
165.44946192278 23.6935784820509 -11.0999740686065 0
183.092953854349 -20.567395709976 24.3685293013499 0
93.8234538817728 15.5167449680174 7.94499758402598 0
224.753906141646 39.7667952962636 -2.57287751131432 0
86.8190797880582 -18.6478420171076 16.8667028009841 0
5.49524208805525 6.43034928852967 15.5318030130976 0
155.828191329053 -2.50171118054214 -9.9432822244784 0
93.6668113089692 -1.03161885113578 -6.16674348902023 0
96.9074832489598 5.21666095224222 20.7197820778463 0
144.886737314141 -17.4650431692057 -8.25401979255172 0
210.902522935098 16.6508748584079 -26.4106635218126 0
147.411230039096 5.8068310046479 -8.12524134306888 0
169.428426933033 -24.8320924350771 -5.78380800610131 0
-26.5377462721162 0.919502067216529 -2.20800943092596 0
230.444199256399 25.0132968031482 -29.6434492621347 0
76.4237451835904 4.52330082740299 21.0517497885584 0
68.9484388089678 -20.8243011723552 2.60998674052379 0
180.270759858321 -3.77555430504852 24.4244422237675 0
187.309297944222 -22.4113432743965 -26.4240932683668 0
174.740770569403 18.3012944993214 -17.9533017787443 0
205.447394308233 -23.3712312600069 31.6264218685705 0
160.971991522858 -11.2932768958133 -12.1978663371915 0
216.259511287866 -6.29201662864093 18.0773943716661 0
230.807156524066 31.0967553236318 6.60335596248079 0
185.478575618745 6.70536671331671 -15.7970515386268 0
-11.8058594454087 -11.3846829555304 -3.93838308540959 0
41.1695212046643 -15.7914680331961 23.035381846045 0
122.611109440278 -20.9291085375663 5.50112316395818 0
173.310700311395 -25.487426922106 1.35455960724797 0
197.430921308587 -30.4072830119158 15.0289274528392 0
180.454999101421 28.3258043010414 -17.6773179441624 0
170.314620541281 -19.1630015712941 -15.0623877832501 0
231.176221789824 36.2130789121341 3.28164065320533 0
178.767908884071 24.4573053678485 -17.9933213064794 0
190.790293717149 16.6787607322059 -30.0914852595199 0
90.4450325987224 -17.3296573164316 18.4874453305223 0
156.488589069281 -14.5305565544696 20.4921398700919 0
-28.841419682501 -20.6574714528945 22.176862561048 0
-51.161480330433 -2.82520739531593 22.0426953680032 1
129.770034136916 -19.5375469855752 -2.90589759486595 0
217.809515030698 -21.4045236162529 23.5996281566853 0
180.210282564878 -18.1037343770152 24.928955309137 0
45.6324976496036 -12.4241806926801 24.0789420012041 0
192.222380627994 26.8714346227877 20.413074570186 0
196.682394253858 42.7072786196717 -31.334338944943 0
210.823888533856 -33.1632890569283 3.87558959098229 0
216.947666933935 -12.8729064530558 -33.0911576986147 0
31.7953813026511 6.45511468675073 19.0356947950277 0
217.371372970062 -33.2665226201764 -4.21834379761286 0
194.352363648141 -15.3635075942561 -34.4994403889215 0
34.3612588615491 -22.3054598393923 5.69867038419893 0
23.4715399240916 -21.823454728764 4.17029395635092 0
182.605915699158 14.1458024198775 -19.1484396025998 0
15.2624601893214 -4.00282925860128 24.4939795945992 0
-0.879049463754899 -1.78159467406715 -4.31321394562733 0
153.578405623579 2.51930392436972 20.8680177204873 0
234.36925785053 35.2976939373004 -8.48538267062998 0
212.710375250068 47.9734035646444 -20.1091800274984 0
73.5580356677984 -8.47166829166296 -5.80739630756247 0
167.44841109783 -7.41895198772273 23.529749910626 0
67.8532085953007 -1.64547687992024 -6.03624057304186 0
166.414781349012 21.7655702413533 -12.3780158019818 0
40.8155343797051 9.510667894618 14.1937014045354 0
194.127163058012 35.4874451537425 14.1759241728062 0
226.099416356218 -13.678550591194 -3.39100299980265 0
220.38564517287 4.65945896744397 4.09860571365226 0
55.6198655950274 11.1424626146151 12.6651941894123 0
220.634452350442 -21.6234067835641 19.7099117568511 0
106.563382497643 -19.4484791269009 -1.84654080866663 0
203.184590466692 17.8799647215731 -40.0287510000781 0
163.228420770636 -15.2835033441926 -13.4928655054848 0
63.1309284761478 -10.8995640023175 23.7662256211516 0
172.731794487192 -26.1497604749408 -9.21487816521858 0
57.2057517726572 -13.2946749945996 -3.93260200908282 0
216.084451695509 44.1746321553065 -4.04806181479092 0
161.104097093752 -23.2613724398245 -4.45254142416729 0
202.173900129553 -35.2455584968357 1.46142466488752 0
219.785086259862 -12.9058182783756 -30.0457839165626 0
19.7581445011739 -6.78047379546225 24.7755028134967 0
46.243842262058 8.43414550800014 17.3865213522689 0
112.092674367424 -1.54056219560644 -7.00357266431644 0
-21.6992805513728 -14.9859695621331 -2.74121056894118 0
120.495608592694 18.3895969977987 9.7884124800259 0
-29.7525559976516 -4.94444307784909 -6.21914862126143 0
70.4890416887932 8.81983878785918 2.14630278073648 0
184.157548069534 25.0736440060869 -19.681696770586 0
205.095493293873 -18.8154884812838 -39.1483633705089 0
159.636785036659 26.1537401581683 -5.46786313785924 0
51.0025727122876 -21.5518653958874 15.7600407689835 0
47.9370284800914 -17.8026888153388 -1.13810654902893 0
210.588054260136 -27.5658187848116 24.071954689784 0
202.112393973602 44.2661199454971 -31.2512114851855 0
188.260471302554 47.7572310557733 -13.3034928677151 0
204.068934562232 -31.481232490004 11.3407004767996 0
186.056988817276 44.2587992497278 -3.12089243040478 0
40.4394369892328 9.87312525193654 10.8554574217842 0
210.951908466157 -36.885028179767 -7.50803893886585 0
18.3850382385257 -1.29303124928009 -4.67152235827349 0
230.283196032208 17.1493595688608 -18.136201536043 0
211.472507969341 47.7586450814877 -4.95239268933962 0
205.41732643129 -27.9865483996323 -38.8064091949539 0
224.78614951225 -23.5788188621053 8.65044277170289 0
107.046954208259 11.294132499016 -1.45029841478271 0
116.821212643055 8.4665288099432 -4.45947878668174 0
208.60993633784 -32.2151500954498 8.28178152778773 0
168.886148014308 -15.1613299483246 22.3657286600288 0
178.417132635967 14.1128807505859 19.9551940196321 0
225.394307462801 -21.8575403963515 7.41243685378836 0
205.077412635881 -0.403168888213357 23.500799631119 0
-38.1091497779377 -15.507303341059 24.4780549756238 0
208.134240600119 -37.5175600224426 -6.87781723649329 0
207.048530815396 -28.310691111098 19.2121294680062 0
-46.3891213101705 0.028637313360385 -3.19987080864496 1
-4.40353704046681 -10.7317274731186 25.1525327657451 0
224.714842887687 -12.5798826886574 -15.6799245083587 0
192.185814360611 39.9783408850487 -28.9421771179057 0
88.1192146116956 -9.6647695711438 23.1372155613771 0
21.1718093484552 -23.0744513209387 6.7950775774537 0
164.271472708561 -1.01221516434928 -10.5741254324098 0
220.621291154614 43.9140728174365 -10.5010293397344 0
223.710050713384 -11.0095656636933 5.01063951641643 0
-18.1099792604257 1.55318533142715 -0.916566371301113 0
194.958996203634 9.58880389855795 21.8095771343817 0
155.336787889716 -21.9386182136572 2.00222614500132 0
15.8234642152421 -11.7422476444416 -3.36281902170999 0
11.5927907643088 -10.4794236623768 -3.79382438301449 0
167.332791831242 -16.9370139996707 20.416563251948 0
221.986897506609 -25.0749970549372 -32.8564416785329 0
175.573832004315 -27.2250615939102 -4.61154112908043 0
231.211685527709 17.1360545974511 -12.0146814884453 0
202.536042023974 -22.0122524963946 -38.9775233772841 0
184.653394934561 42.9036318638049 -4.00326184673053 0
187.910557070578 -0.663261496122464 24.1632391073823 0
217.116693756016 47.4883232546646 -11.3788949988841 0
216.682197911604 -23.0323512804684 24.6771108065187 0
53.9185549058665 2.26403922617761 22.2126086447061 0
52.9964118738214 -0.722169214616899 23.3617605123521 0
-31.445012234121 -1.5627213131282 22.5912339362741 0
196.004545957665 -17.9136726518489 33.2171400243969 0
100.610549655255 -7.62235232786476 -7.31774048105544 0
151.218753880471 0.732196552192301 -9.12012644416052 0
221.397311370069 36.9861920811933 7.4590615176333 0
41.1936842268655 -13.1000889051792 24.0473895779071 0
216.367550716123 46.5054390585722 -22.1970831450695 0
-11.1516919512925 5.682494216601 15.1891850931662 0
216.285563901942 5.12931100826599 -7.43568569669001 0
220.60392899934 -5.9514301690887 6.59066570702759 0
134.224861142771 10.3198041566241 18.6737515694483 0
113.272046339347 1.63344545410783 -6.35338784963902 0
75.9937856847074 11.1406773296765 3.60271079873829 0
-29.0593655308369 -25.6533155792241 8.50433880665634 0
-45.6591124686308 -4.4158979832078 23.228114957973 0
115.466708422752 -13.4695817066229 20.6926041600512 0
178.758159639089 -21.7040356473736 -17.7422447045419 0
161.097651997305 -0.859036688248891 -10.2293059755856 0
211.319680067943 34.295668113782 13.9206139215082 0
190.108340095161 -0.134130896080398 -18.7485489386855 0
228.061505351712 -23.1599525540733 -4.12902451993733 0
193.42564732299 29.9746530626077 -38.2340408592689 0
120.957093855233 14.6605340566878 15.2765904909032 0
76.6060211919685 -21.251990872712 11.1504511962483 0
131.371892132334 -6.67825695421195 -9.07245662678654 0
213.375943598039 -1.44316581012901 -10.0124180998623 0
224.683024053302 -14.8798643356317 7.26878295514443 0
11.2964502249545 -7.31949629097917 -5.20011525429625 0
223.989417633377 -9.63066577213917 -0.0871910946375166 0
204.607488532114 -4.65160852987196 -24.0944008804349 0
137.066941947394 -2.71042475969836 -8.61820144654394 0
187.554641352133 0.0506305770744707 -17.3356077541401 0
163.372908935998 -21.7503520486879 8.52427382198286 0
189.378766311608 45.3261767054076 0.598108469760831 0
28.3866620493261 -5.85532101402663 -5.6982947072441 0
105.736138099705 -21.1911314424807 4.34321500555341 0
186.451180555712 -2.13411358085257 -16.8649511508627 0
56.1208340046319 3.64813130561441 21.5497136208161 0
171.412455793611 16.0973708089543 18.2786889250579 0
227.934312748788 -29.3750403540206 -6.61780600149608 0
208.996392507641 29.9542828230268 18.4398127850768 0
51.7534200797126 9.61535860304996 16.0618555896055 0
42.9586708944212 9.03387064494431 6.93931464139222 0
-16.4891207434876 -20.2158073003933 22.2189830555553 0
34.3141404813587 9.25063284495891 10.1227930564517 0
60.8434093032396 -19.9867651206736 17.6376454079079 0
146.465475407227 -19.5648701623691 -6.56720380851953 0
-31.4058592660997 -4.4142016735699 23.9719590506155 0
161.549118056803 -22.97409171234 -1.29301780950909 0
177.586787415211 -24.9463465101061 -15.8121261700847 0
145.673920593964 10.0170219708094 18.9744837813502 0
155.120697451099 1.14072696468188 -9.37528986369883 0
228.651351150554 29.3954667943364 -33.4409172802801 0
79.7851169343373 13.6571213600989 11.8005473259265 0
208.313619137644 -14.4405016672425 -37.5650047262835 0
87.2543132144125 -20.0088355400044 -0.0845652968558154 0
202.22636618612 -19.4507488914589 -38.7243143118266 0
185.509087210675 -1.94272425764113 24.4430887875061 0
63.922718209267 -21.812178116371 10.6258907158523 0
150.310460300444 6.32578194153407 -8.35081437109104 0
53.8526208663141 -6.85960054308766 -5.74262423367697 0
95.7903836022309 -10.267752333377 22.7172803926865 0
227.917654013837 -18.7581406614067 -9.93016577343272 0
168.506825982612 31.814114317767 -4.0005339394426 0
146.242825429378 3.77054962837618 20.7060911283825 0
224.367719173223 -23.6895378665335 10.9512115752423 0
136.272185200881 -15.5682704468206 18.5304306617569 0
185.662951093127 -7.38239917132533 -19.807142932283 0
223.341591394051 -23.3351572975613 -30.2693379366781 0
-11.8579816267493 -1.39190477063572 -4.06579202793473 0
222.367382698238 23.092169901539 -38.263938791094 0
124.220821338312 -20.9153981113182 2.37232410695453 0
207.619604770083 -39.2472985687233 -15.4342436994027 0
2.99758361209047 4.5344756354363 19.1266107293537 0
141.960692972838 -13.8607427515036 -10.1383260316649 0
26.6671560781984 -18.9636360223498 0.364006046742928 0
225.419435073322 26.9776867782447 -36.6616817407448 0
191.126741788916 3.62163770563563 21.6883841289072 0
11.8148133727611 -17.6709594340829 23.2359587966485 0
215.14983177924 42.5475784614695 0.0407224360669879 0
216.504007880401 -7.8531232423156 -29.0156930823713 0
-38.9929727008486 -20.3895380489858 -0.333084207230001 0
199.859003846762 -40.0225587895131 -14.6978563759475 0
213.717914347648 42.8032165954086 -0.209400031989753 0
-35.6643837638092 -24.7098239004909 17.0859780742267 0
219.981489800543 -33.5986948964439 -6.45775237414366 0
117.372313353976 12.445522007287 17.0101821022126 0
157.117641776246 2.1149534120079 20.933945993337 0
35.8374214117119 -4.40148006918321 24.4151752104873 0
181.759635132336 -29.9378297975303 -15.56145005349 0
11.7887920766178 -3.89107615927075 24.5469995361473 0
50.7129538991932 -2.72689286192455 -5.75336687517683 0
97.2617318802634 -3.60144567107291 23.062465481037 0
187.48047436275 -24.6852893797606 -24.7645956729269 0
193.80651156486 32.3961746694686 17.486224898655 0
7.13899844299197 -12.3873615115101 24.8440088754189 0
204.965101474699 -15.5275993085439 32.696021343975 0
155.705459526006 -22.1942639190057 -2.34834341685344 0
218.746261852454 -35.1178655878208 -20.9951078491392 0
193.999884622487 37.0631715882328 -37.7836564225371 0
221.719703296978 -6.91657850740015 -7.16467881934748 0
219.086826324626 -21.1160040890271 21.981261554995 0
214.226627889563 44.2874273142884 -30.5098730586523 0
198.197145782529 5.07043761785179 25.0206911234443 0
13.9236486509717 -16.5477214621284 -1.45110312782881 0
-3.61466532675181 -5.14419586551194 -6.55620922657478 0
117.509334014832 -20.7355293676146 7.44701626753857 0
136.227814705117 -9.45430017122467 22.0586152700943 0
218.422640153729 -17.2234780510206 22.4457016775568 0
175.653875690372 -12.0012010344126 25.5295084059782 0
212.292535420466 -18.5681616791194 29.0502422654879 0
161.199703674891 14.0667410335271 17.7272178520242 0
-39.1205839910461 0.47814567697114 20.3244277050121 0
54.0749235727522 -19.82351884879 18.6588162683245 0
9.71693525538186 7.43800498279153 12.9289159531338 0
231.187503298278 41.3772235444515 -15.5153931805268 0
155.320075732466 12.8312996796494 17.9019210491089 0
222.093270958788 -21.8554173912538 -31.9008503059809 0
117.818535310176 18.7218358127414 6.70100450223449 0
190.917850318928 -12.3452054439914 -31.229704465593 0
191.247930089557 -32.6685361184748 2.01358899514237 0
163.582126723523 -19.5552406839404 15.2525282970687 0
223.571320924579 -28.9919960936315 3.70171021624173 0
8.60285532502501 -21.3660968442936 20.2779394623683 0
217.352255323094 -34.4986718287737 -22.3877993710005 0
227.057790474174 43.6317225025569 -22.3158239930002 0
175.987485685975 37.2330572453374 -10.4760122800113 0
205.95291815786 -30.5631488720144 14.55832605919 0
224.108864718602 24.3572948387094 17.4583232936144 0
149.901521907682 -17.8223435360589 -8.91517168516599 0
40.3145404378588 -18.9531328728624 20.8145957118405 0
125.076413749659 -4.9961440729334 22.4839546567141 0
103.619618983266 -21.1014503144788 2.92461056048194 0
113.560786161296 12.0438003746169 17.1665846556708 0
-40.3803281039181 -22.7514469775631 20.2206956326689 0
206.425047660293 7.3929186329591 22.005121029582 0
212.536980057182 23.1609401149245 -43.0994694015311 0
-17.2832194248977 -16.986669875001 -1.53067461612861 0
215.885737578683 38.7767374556987 -41.5528902101799 0
111.199427347825 -10.0254054334339 22.2778781020625 0
197.004034199104 -12.5776893954885 32.0664101009836 0
214.171190644176 -4.75127534296222 18.9982424027414 0
-19.9061871229611 -14.8226996158944 24.8506513613461 0
190.143340545226 42.3691979368872 5.151832779551 0
182.317499448997 23.6536188799586 18.3097154455685 0
171.701368767703 22.397613638145 -15.7592612524512 0
117.416466948922 4.02840752185203 21.1445446642061 0
197.103297992573 48.5516127928671 -0.620032574028781 0
14.1040297380935 3.68713651514569 1.96030314323473 0
158.159616710571 -21.9408685737484 4.60446154915554 0
171.651358003088 -4.03266257421575 22.9895816305722 0
187.633561855748 -26.919906353574 17.0795627416467 0
139.034359186836 6.78044940529351 20.0676298061568 0
-40.3321019810285 4.99092872105797 6.26752925869311 0
220.107034879133 45.8145103875062 -20.6752001112158 0
167.568911412 -9.70110793365288 23.7650366346031 0
-4.79590827729913 5.25803683171541 5.51510514153353 0
153.453663534755 11.1373627879317 18.5572903583155 0
82.0380869005346 -10.0169066852577 -6.09840589255909 0
205.601306315588 -17.811387571971 32.8316783100057 0
12.0918679900576 -24.114099035294 12.3845802612355 0
226.021690221117 -22.7112421576374 3.74361280458597 0
-35.4799291581722 -25.4223171760866 6.55878817823031 0
206.540102597091 43.6468212862961 -33.0429856443856 0
216.777406008057 -17.3685118622528 24.4611044171418 0
179.709008207951 -26.1208510365524 9.56538381665562 0
147.66203530561 -4.39963061286816 22.239788310021 0
211.951382956651 44.8634556774435 -29.707374586339 0
-17.9706111199065 -12.5764151493807 -3.59661084793586 0
192.621247773869 13.4537137837214 -21.5029683076463 0
206.890522851574 21.8770041940588 27.2516410339176 0
171.091773052303 -25.5354803502386 -7.24079318440014 0
203.871837237869 32.8452572175872 -43.5324667040431 0
-5.03953270235701 -2.88538443995229 24.1242573216171 0
209.362062120313 23.210627825485 -43.4655960847571 0
-10.9223787703699 4.25685530038741 3.85985995241226 0
172.53090456234 -3.43235846131606 -12.5776693012562 0
224.675421964617 41.5659455872936 -10.1440214052652 0
-5.46043564149405 -1.46826252336332 -4.08332390834452 0
138.483686576918 -7.02593138928216 22.3494002394714 0
37.4597222727739 -5.99481512545332 24.617786488283 0
172.983049614363 -18.3708488123905 21.0333191567052 0
187.816295043434 -31.3015440031315 -21.1857640036754 0
189.221014384482 45.800879437147 -18.6143892213935 0
199.35233319298 -34.1441590935599 -28.8858270833578 0
164.24306249095 -18.9599326680223 -12.9628860720545 0
75.0868786634391 -12.0211496901659 -5.33439682690511 0
184.460997560623 38.2902227494951 -18.0794823025146 0
11.6471870575599 -11.2000370801013 24.9951361703256 0
16.2653699830565 -19.8223749889294 1.35530959166452 0
220.640427005503 43.8369413781793 -28.6201394934899 0
43.0630702141162 -21.2749487038248 17.3540428874183 0
225.344243598755 18.8079583247576 14.0516812602803 0
198.26768242707 11.0165494666808 -19.7263364428787 0
213.376807794169 -5.30455257158105 20.7757711612606 0
39.6333857038079 -19.8841479392381 1.24020634795341 0
14.4702384302998 6.54253608144957 16.8672981392053 0
218.531940975549 -14.906340333459 -32.8623852487446 0
223.168154264666 14.342995963769 -26.4955597431176 0
154.790088100142 23.8279995086514 -4.83515044934777 0
147.447725583058 0.852000657609218 21.2093520870681 0
234.565637352903 27.2508382023209 -13.0128421367603 0
165.139289909947 -1.61529666169309 21.990113936404 0
232.71769462745 21.5846338987689 -1.58917148863484 0
141.550421158518 13.9382962412419 -5.67846617787226 0
42.9255475479263 -22.3306152892796 14.4736313642734 0
-36.8204376750227 -20.437070153906 22.2188704912231 0
214.76755115923 -30.7390280715333 9.1976819536151 0
205.241066115087 -31.9307156714972 10.1229014001501 0
234.269416537233 26.1639477359833 -15.4668404801461 0
178.539210832923 -12.5466638989519 -17.0877939621355 0
183.986564405354 17.4348063949158 -20.3080530113239 0
217.103113628101 -28.9442394039945 -36.8196246449016 0
108.57278492212 -17.9973243360964 -3.87526240313331 0
223.645970156588 -36.9020583980111 -17.8647623661417 0
221.155057632347 -5.58116131065339 -5.10899850667042 0
182.901880493131 -24.7616816236723 17.3891989482275 0
205.731690347701 -37.5797716979189 -4.94176659827046 0
226.575275381597 -15.8366885580295 -2.39519445638568 0
89.0114600978857 -9.89554046897702 -6.49899677566163 0
214.774634064023 44.1085293071806 -35.1454715636148 0
233.920550636946 26.4448277243075 -18.7389297124116 0
-44.1319564144708 -17.5855899701016 -2.67295956273142 0
176.958710584741 11.6930899154436 -16.5195287928756 0
63.8568389781151 -21.0073518746132 14.7289451643245 0
51.2585810010675 -6.97115505354917 24.3924895337539 0
-7.18806463603698 -11.8849066961091 25.2146319000173 0
168.481013276309 -2.12440194195046 22.2771814020808 0
181.609049556292 22.8404972484519 -19.079501879814 0
217.504334822828 38.181960032345 5.32068022571537 0
79.0891721041857 -13.7599637790858 -5.05742125689091 0
229.708891264872 14.8892461454378 -9.38527053591358 0
184.233089750354 42.8508593459103 -6.00373995186695 0
182.622852317582 41.8420582373181 -7.04564907827887 0
231.056273952476 23.857284419199 -27.7392669109262 0
227.687518239691 19.8725093753811 -28.9538616703262 0
16.8507110121933 -14.8884404642075 -2.2925628740216 0
54.524977861228 2.6944492947993 -2.08146997963981 0
62.6023287705596 11.7366465672781 12.6366200424767 0
199.417056781219 14.5169462542409 24.4063869747413 0
115.309407050947 -19.8801703377604 -1.39110501116423 0
130.114858340779 -12.1390284281297 -9.05774213241768 0
224.985810903464 -33.9416892825652 -6.28774975875731 0
108.636929812031 -20.7539205618348 8.97178116929871 0
215.187442399347 37.03822451337 9.46514391356921 0
-33.442591625438 5.11919991168821 6.68253714640749 0
103.560789883357 5.65354725441133 -4.26813477863044 0
205.702756040931 16.4257143196809 -27.3887228071102 0
32.2828163926544 9.19046316314531 12.3867353747342 0
119.750016563566 -11.0314816233501 21.788521120931 0
214.523455199311 15.5347869916364 -28.3134770053234 0
219.834689294366 38.982426260991 4.09176244393686 0
229.556476951053 22.8730170925158 -29.8775815436564 0
226.605825853394 20.6271350544781 -31.7239391344434 0
13.0332275536287 -19.4604846003165 0.994885077742663 0
112.639772682124 -21.0931352194715 3.85657736661285 0
194.120984069049 -16.7818411892025 32.4531376930234 0
189.020762576486 42.6683587144836 -22.3274456356979 0
210.145081508172 15.8612293519496 -23.7572858478566 0
224.506507039172 19.1219700149121 -32.8062470596481 0
59.0975357249996 9.8817125011218 5.19483008687927 0
79.760444801538 -21.5406847057555 8.78398381031064 0
56.941088778992 -21.0696458555743 3.27941432667083 0
228.527448496058 -25.4849396119803 -15.7550736299748 0
185.812908602397 47.4246281872594 -11.5383375241463 0
195.417567419468 -1.69662655310129 26.6375814450843 0
196.310986894105 -5.13866660611555 28.7158170249666 0
183.471073727161 15.744393490473 -19.849593940517 0
-3.12130916938058 6.6165494289382 13.8708391481337 0
176.156262460053 -12.1939097391112 -16.2662061007261 0
194.945216912706 -7.61008386878786 -30.4737759483193 0
63.0842499345262 10.8958517720029 6.06033767376671 0
205.68262776786 -38.4042896121483 -6.88353098097573 0
186.632397362529 38.6597906502808 -21.4572995455877 0
204.801438403867 41.4579228618843 -40.9891708113222 0
231.601821211945 29.1928057698105 5.01549996655063 0
192.364238345874 13.6423287730407 22.0175322661732 0
152.84832238944 17.0474116953809 15.7525198059638 0
214.826600016773 -32.4795864286001 1.08794428037932 0
-1.92906444682883 -15.8142235136091 24.3496641230162 0
211.072355580406 -30.302503542364 13.3267158566017 0
79.6785711360147 -20.1583335509733 14.7504290284177 0
183.588019225833 -31.3924224926228 -17.5950160626044 0
195.836555759336 7.91359814396152 22.9959122491382 0
197.566062378322 12.5016435296357 -21.0670140052077 0
208.051913466799 1.51949193618963 -11.792852064777 0
200.186457088599 -32.2841189739523 9.50490297718369 0
225.498870044549 28.4064745938639 15.9469630945054 0
176.286910143363 -16.1801008381324 -17.7760997764265 0
54.7375324721346 -21.778257109538 13.9396433984031 0
228.144245678699 -22.3767446316669 -18.1403109624642 0
199.059811991092 16.5733931384076 -37.0934400231787 0
-39.3511540877003 5.56417406801577 10.8197652528337 0
74.203009097335 -12.7749651832137 22.7152798690331 0
195.604658961387 -33.2002546934724 5.00148856832432 0
184.550944785591 5.4200241185351 20.9983128211533 0
204.766088585623 35.1436572628047 14.4121209073702 0
182.334487292288 9.87341032066214 20.5434437071821 0
13.13786437689 -4.69565542285511 -6.21755372443773 0
120.042038575641 10.9102640655661 18.0964284066595 0
175.524701516881 26.5007765504212 13.8822883287236 0
198.577548848518 21.9723918913871 -40.416075564861 0
213.0377799218 44.0997854422815 -33.1895892011866 0
50.149381575134 6.80904487416696 19.4819847172698 0
195.762653730374 4.09488240254347 25.1499041783553 0
185.634255164834 31.8339047244432 -21.7228081954942 0
159.308601030507 21.9097725528125 12.5671149870638 0
9.88258456456297 -20.0981284708492 1.59015878721506 0
192.977078444353 2.03097812032257 22.6474050602546 0
63.904470649209 -1.26084452086793 23.4308990682903 0
83.4022703035326 11.7777233877146 16.2525899491723 0
190.472731966287 18.8906787245245 22.4752339780554 0
206.914004300768 -11.5588645878479 30.5712984410258 0
-14.7327884839955 -23.7683643867282 17.7268546977428 0
-0.941745241791825 -2.47529907394013 24.070043699369 0
58.8052208557635 8.89017716950696 17.6644894075672 0
211.448315399662 -35.9117686578544 -16.7556080413074 0
209.376632380134 -4.98088140498089 -28.2526318601276 0
176.340178579412 27.8390506292697 12.8944488100213 0
36.1126576248068 -20.5603360660266 2.22904527108752 0
-44.7876830374695 3.12249687777725 1.77816887045354 0
128.490419957015 11.8594870431549 17.741804381336 0
28.9955026242872 0.340526797827608 -4.06161603515704 0
190.29160202152 8.22004724650415 21.3631921549454 0
95.9537007319584 -17.4542168526611 -3.9070320663273 0
113.331800610624 -19.2722947556184 13.2519201763921 0
206.70466082352 -7.26063068390759 -32.724635026006 0
188.293220807644 0.383191165137881 22.5142512130268 0
198.871050288677 -33.0175628270484 6.54361383489619 0
211.305091710917 -10.0999752973631 -34.6676843242136 0
197.979812827802 -35.2457721592975 -0.0958393378955389 0
-26.4368491572041 -10.6153578119186 25.1517950479187 0
52.4013063689195 -15.9705460141494 22.3297985956644 0
88.3642808201319 -20.4109607367592 12.7478386189337 0
193.976598393911 46.5843610195042 -23.0164462686743 0
187.444071233076 33.8078671251332 -29.1443690321949 0
110.138315734145 -15.9035293589802 -5.70059288516927 0
226.9094225648 26.702911724196 -35.1692783945015 0
208.785663215492 45.5190665334472 -0.353166858776092 0
193.09334698678 40.8831071597816 8.57003773446664 0
2.9733418699865 -23.003315098311 17.8817006020592 0
185.2939849814 -21.0173214788881 25.528117280051 0
207.485595347269 -31.6915800027318 10.4448474438201 0
194.204787081978 48.3272437406837 -1.05233159976443 0
-49.7658114234271 -14.9492742143779 -4.27246472820936 1
3.22742296610715 -1.41753586498488 23.733944400948 0
108.256348530421 2.66555850392003 -5.90774007302482 0
189.071191300834 -26.4533425781564 -28.7925706244943 0
159.04250018729 15.830088834291 16.7989252306982 0
-35.2591552456312 4.52648925017494 4.90354526358327 0
219.525363464386 4.48179403407715 6.49459590847311 0
-28.7721716489557 -14.0699077952593 -3.37960842165993 0
166.699681624742 5.16056528788279 19.8105688330761 0
63.041876358115 -13.6191228123496 22.9592211391369 0
207.289316395049 2.36578586857851 -14.1139850244601 0
198.874797520374 -31.5429476556843 11.2545251425329 0
7.15618726378073 -15.0109208985332 24.3625000083557 0
214.482429502743 7.25281816274346 16.3352396386639 0
22.2881201352333 -11.3313573641286 -3.52887825164499 0
165.815097018071 -19.6646241873478 15.8977917790206 0
171.821239201137 -19.7795952011039 18.5276568511465 0
211.060748500218 -33.7764194356806 -26.6633415102455 0
88.3735173269628 2.28007049052069 22.0342359558982 0
193.326759209115 -31.2028084247293 8.62963743654407 0
5.80806778688916 -8.01236954917094 24.8874019782904 0
187.250252321714 -7.31870126439893 -21.9070883317885 0
217.090521214416 -35.3580559633588 -12.2531669767238 0
197.328839995893 1.84493610039491 25.8650626278812 0
34.7480736258521 -15.3238188196575 -2.30464356071731 0
172.904024349447 26.9986350504692 11.9207593895859 0
200.774885267232 -4.97745803332341 -26.449193673202 0
193.460990826552 22.3585455068407 22.8156321150506 0
-39.7934356114907 -4.63957472733292 -5.9995090670442 0
-32.0284056252322 -25.8787924437096 12.9372903977369 0
186.977130898231 -30.6058807113897 2.68073449521093 0
192.092938258006 -33.8220763549207 -0.918287708270832 0
188.765706218471 -8.90567008786567 29.3969511681877 0
231.635799964207 26.7606790148322 -27.7746884184082 0
29.2376527497572 -20.18245023056 1.79584852977835 0
188.223219990696 8.48491844818997 21.1580082993999 0
208.801336763517 47.378845070992 -23.7979546300009 0
155.325429493139 21.2630752269137 -6.40237759010075 0
183.281369780085 45.5887705886966 -10.401983424643 0
175.547583573115 -27.3398174969521 -7.01140424879857 0
215.801117339105 17.2840941758997 -38.3480729675437 0
134.091438005652 -19.2797946228093 -3.80488372316953 0
223.263740335109 38.1985184867245 4.35674548290535 0
-13.6920965067002 -15.248265494287 24.6755718925655 0
153.338335234708 25.6801128905235 0.222972635116247 0
227.291054282978 42.6849018363933 -17.2033812343869 0
17.0012506272133 5.86824609472414 18.4187751797401 0
231.539933501571 38.9411588363819 -25.281309992543 0
180.914092688151 40.5986544994056 -13.8172565797709 0
111.809037264884 15.6072673709737 13.5380046657951 0
227.727151193755 23.466582057172 -32.7519663577227 0
90.245545072278 11.6606061298605 1.40610800813131 0
219.947141895282 26.7545452024857 -40.6900219062496 0
-2.56754929186561 -23.3766338740839 5.79870021233663 0
175.244143007096 -4.58894918609669 -12.7356784035466 0
164.336679314154 22.612215364692 13.0227415126199 0
179.484574222156 -7.69793784611621 -16.2181558212378 0
-13.3130590690209 6.37646220554364 12.9344400897939 0
184.834401619137 36.0735919318257 -19.3956646360697 0
1.66285025524978 5.45261468069068 17.1351279287585 0
137.303293879043 -17.2575078808839 -7.03568813948541 0
230.731676131575 16.9955158251468 -14.9922388717978 0
152.970932800076 -13.8727460922911 20.5846757690351 0
209.317016798024 10.8241010485137 -15.2170975569019 0
70.9291933913618 -19.4053918081303 17.243148115059 0
204.477309803066 -33.0071904661694 7.36763462389981 0
29.2214584314852 -21.8693793064401 4.46200461884684 0
209.015773616592 -7.77691652640719 -33.6997205838968 0
198.768133579289 -9.44369737673436 -33.190136548652 0
219.828523039811 -25.0994001657888 19.7459679916599 0
153.477372387523 -1.25126184390681 -9.56028655772868 0
158.444742181077 4.28648399092062 -9.36922524203933 0
80.8362442349815 -7.55930407845119 -6.23924008506438 0
224.380660492031 24.5373222009675 -36.9863878147927 0
215.235482497551 -20.8270480294617 -37.3046515370098 0
107.918571857784 -21.1573337906812 3.81743415045289 0
29.9419095622675 -1.69169125915257 23.903283072226 0
17.8134168481096 -0.893593031938267 23.6703114474759 0
-46.3980328963768 -7.38123943317523 -6.81530301082161 1
217.806148578829 -5.70238615497118 -20.1713663252043 0
26.6286575228422 8.81939453079297 11.996508431635 0
-29.5682081254933 -25.8992780646786 11.4191707815455 0
220.365198558227 -4.34968641466436 4.66963397298526 0
128.128903042426 19.5681779471924 2.95169775343684 0
155.828197002925 25.4680882842738 6.00254013427511 0
11.9023412842749 3.19575113295913 1.1555416306759 0
177.605320839215 -5.20657829330932 24.3921659333606 0
60.4934800028178 -10.4207984936043 23.9577584246035 0
66.900197028419 -21.3006527900268 12.8526689845013 0
219.164904535625 7.18432163028481 -8.68546344502231 0
223.9821453756 -10.2146595482907 -9.16932284156842 0
184.052889906672 25.2592697724833 18.3378152018345 0
129.652307671732 -15.8291209895958 18.3326584898799 0
213.154946850462 -2.67234470067935 17.6232359274902 0
82.7500456114792 -4.15513995248329 23.5349039632629 0
81.9145693615822 13.3630981639414 5.73309023262859 0
203.578778125164 27.3467665623976 20.803397667492 0
199.189712076283 -15.4453611820389 -36.749865593205 0
52.5824893088809 -21.910654318422 13.8773544703887 0
105.863549921356 -0.957669059543484 22.5426075227462 0
13.5637708681007 2.70833456690282 21.675662386344 0
140.139083328872 -18.2708064952734 14.7202028266787 0
203.696799525302 -37.502475539538 -4.23068063534307 0
147.781834418503 15.7236980190935 -6.28122344843157 0
209.154959281074 0.86843137569039 19.0790654922743 0
108.504569374918 -12.6904605062244 21.4319151398248 0
170.719417764117 13.4935374424199 -15.1433208815122 0
215.14917065652 -14.4975792392252 25.4634311026111 0
204.177585402686 -27.1687960989617 23.603855595955 0
15.1053158213273 -22.5214210412596 18.06268496263 0
218.547658773163 13.8452088434321 -17.5886084606062 0
