-176.501780928677 -17.1693445896143 25.4251850928873 0
-166.803405422576 13.833198543283 5.07509554558886 0
-180.114474185776 0.482074517728924 19.1779249514259 0
-148.056772420966 -15.1982815610171 -2.97261214649265 0
-218.179726818862 43.0482448895162 -3.64450955066942 0
-10.2199700270571 -21.4225856207179 -12.787571294395 0
-158.277067424309 -4.12402696762141 -5.03968888525298 0
-84.4727696749791 1.97116329088573 2.16157279299902 0
-73.5157846583141 -22.9734166463789 -6.52436306627433 0
-175.787927251212 1.70441734219358 19.4588056978703 0
-190.712073828957 10.4928840608494 -10.7895381128016 0
-92.6023965494932 2.61514998270203 2.73496198887427 0
-179.706392740266 -30.604939726457 12.5129353559037 0
-113.508600074848 -17.470092749257 8.6574103092337 0
-178.252691090082 -19.3887258357182 25.4188912669003 0
-210.585054307336 12.8572064553921 0.250690259917888 0
-131.002175833334 -18.4575648038574 -3.39563493465657 0
-172.295251368644 -25.988348665861 7.61083987832767 0
-144.394796495643 10.905024574122 10.9194203703132 0
-1.80244868545332 -4.4828555024949 -26.0392884452093 1
-148.98975611047 -20.4860011734135 5.72223137367089 0
-93.2829800335363 -15.8584026342941 -13.371851066827 0
-93.8841465021799 -2.78734853808397 -16.2411820884849 0
-175.053695121608 -25.0504974498478 1.75747234137461 0
-112.486376911701 3.88612949391198 -7.34636848384024 0
-200.98911250135 -25.1037090353781 2.05280010104806 0
-87.8358390201397 0.747229580252104 -14.7665257311547 0
-183.562330292815 20.5820927934026 1.42162707649895 0
-193.371093138495 -7.3357968306501 -7.54871701245451 0
-209.023726019638 -8.09541186879223 24.8635410090026 0
-197.537170159144 5.81087432672365 10.8172610714596 0
-161.469478424928 -17.5514600330976 -0.0795476520621627 0
-149.949584267465 -19.6430507853611 12.5683180080867 0
-199.732620520167 6.31950394620251 -9.84977950357542 0
-136.489081436404 3.03388274364522 -6.97877825270585 0
-182.752699172382 -0.399583635704851 -7.19904928525644 0
-211.193777724312 -15.4179655011329 10.9524893068302 0
-137.904441876787 6.76572855917255 -3.8107468740792 0
-5.55156688000724 -14.7209414299261 -6.5256158941716 0
-68.2916563906933 3.72975365340725 -4.53456488075651 0
-191.677401022688 12.1843412839969 -11.6259839846079 0
-180.543981280382 -11.3649149235315 -3.46117707117675 0
-204.101079511382 -20.3695790689252 24.1358946778919 0
-197.583004184907 11.0551506455818 -13.7147980818231 0
-101.06836271896 3.98037093813793 -8.357686073816 0
-209.983638523639 22.9084918720533 -24.432680085473 0
-184.678078445947 -19.7431362566805 -1.60684672704097 0
-194.428643444906 -10.0206745575078 17.0081707553323 0
-173.33395698165 -7.43679454342603 25.7821635661877 0
-223.580308794678 26.2782118990949 3.69944274386748 0
-176.850410286048 12.694392694794 8.50080345792996 0
-184.736693138775 4.12647918292492 -7.71586047197789 0
-111.919393487863 -19.2353080780654 6.25074179475832 0
-191.506523372571 34.9270088784837 -18.2193541088682 0
-13.6855442839679 -18.1353426322357 -21.2018767471292 0
-98.608477920685 -7.78188061275834 -15.4071881497613 0
-176.853218011235 -26.9599287313954 16.5588324600194 0
-73.6427263229523 -10.1910295136163 -19.0450162233336 0
-40.4458552258457 1.16279126012967 -2.12532390696144 0
-199.39267588121 -13.9518520447673 -7.07166301907957 0
-84.5891134572935 -14.7034469516486 5.83354616520588 0
-203.000319162141 -5.99845722969983 20.8255656367533 0
-162.955158475484 13.5209589437709 2.99417175887734 0
-202.301542279416 16.1265991914375 -21.3141299633325 0
-62.9849298249458 4.57128722450021 -10.5814860122951 0
-127.397806006539 -8.81457816391165 15.3679102769552 0
-184.505814163637 -21.1897621315983 -2.3916271806495 0
-37.5091047690105 -21.9277014717078 -16.0649022888361 0
-208.71684557674 -16.690263901728 22.35347797442 0
-5.20519959899029 -6.26701448782009 3.01268465434786 0
-175.655866494399 2.74116240084001 17.6472639949176 0
-185.207902921256 -14.8373064315334 27.6966666660212 0
-109.04580597173 0.00217996415540332 7.75676284084088 0
-48.5318862898851 4.79381862554034 -11.7812468384013 0
-218.23375528289 38.4479364415471 -17.363196243947 0
-206.158304464163 15.4782266382581 -21.0551201102619 0
-30.0226455800635 3.03402920654733 -7.67522940216527 0
-11.6230526641515 5.72500488289732 -18.2980880159512 0
-161.76307303323 -20.8874636306443 14.8164029882654 0
-2.26777463964312 3.64243095243992 -9.25429388392826 1
-76.1498911071997 -5.92723537867038 6.70644592357558 0
-204.874869039821 -6.73397431431138 27.2316794926657 0
-203.407619061126 -4.48577392040682 -0.603475992486526 0
-24.3497300302987 -4.58059291226255 3.48981994262244 0
-58.7036506786528 4.52965916571729 -9.26681837651147 0
-138.614431770665 2.17204542078006 -7.31304490915261 0
-120.200466060819 -18.6250045278251 8.36922158375503 0
-181.368702693499 18.2501863540422 4.17399617206645 0
-216.978570272514 14.5702623993345 2.69718983636132 0
-211.176966352059 -21.5128171852667 8.48672163974884 0
-165.800232374474 13.3633076799548 7.15592323067585 0
-179.362947925654 13.4875983377013 -7.02669347157482 0
-167.822632126834 7.22655997720376 17.2026191713051 0
-176.481915274485 -15.8272830674453 25.6661371634421 0
-183.475733648178 -5.6308877270271 -6.93016305214513 0
-203.011924974741 1.68681155294875 4.59517530623509 0
-203.874887301759 -25.9834848045049 6.57274188137961 0
-158.936463416399 -20.3195531734792 14.4857651185702 0
-100.482826191783 -6.22337952331629 -15.3003155381022 0
-14.467317470699 -21.050961594723 -18.5500692452046 0
-81.0090100738604 3.03456336741275 -13.1518054293401 0
-134.723288193898 -2.43498761240483 14.3398622228857 0
-48.7022816614969 -6.84132900704146 5.15381536177274 0
-131.980553930128 -17.0327855533361 12.4710217660786 0
-29.7897083860602 -12.6652227259704 -2.85184057397763 0
-110.275573241474 -16.5818035551039 -9.87842279042492 0
-49.0418508009199 -20.4284795318126 -17.2094686859528 0
-145.818481496762 -10.5447926339333 -5.82133090330917 0
-93.0508247814674 0.867695860174787 5.66571370078739 0
-208.915284317178 12.0388501875955 3.18441561066476 0
-198.592066764862 -27.5880766400592 13.7661798141118 0
-20.4225315363598 -9.32356201821291 -0.0782124857836642 0
-192.800802092964 19.0392611385719 9.16878737631013 0
-142.445695567556 -2.35413466234011 16.8990868946434 0
-201.568404965081 -5.70956587911296 24.3199200412162 0
-200.464525115724 -22.2049000299906 23.3383728198626 0
-187.56722581851 5.09192920793801 12.6891632069528 0
-208.963148845478 45.330333920884 -4.61407045480307 0
-145.611324836686 -19.2355780194602 12.4266114897688 0
-161.447921865016 -16.4649056199776 20.1072939761479 0
-135.236350495084 -19.5299348377109 9.39685098946937 0
-145.201239283714 8.29053293117613 -0.351043752146551 0
-102.679086064022 5.54181962623681 -2.24070421081896 0
-165.152987294334 -12.6119345844837 23.0074436308062 0
-108.02012137461 -15.0606912648286 -10.8255480254697 0
-52.2275190235437 -19.1428706339832 -17.6811018629729 0
-194.351575995529 -23.516520668202 23.009836248617 0
-111.508054447325 -9.80643809883907 13.1103383611045 0
-7.43272850694398 4.69279565816103 -11.5611154331284 0
-135.12152729324 -14.4731717439844 -6.20095661911486 0
-92.0639361261886 0.212854726735687 -14.5680943754189 0
-189.978864531436 39.4782063587975 -11.7761818201899 0
-201.281600505503 13.6677485742229 -18.2312326329602 0
-204.558608649997 6.4060968038975 2.92902764053585 0
-25.6808488767386 -14.2720205155745 -4.88539154943233 0
-68.1320708314072 -9.78896950255564 -20.0174233579962 0
-39.2552919506456 4.04294979296162 -9.27514494006072 0
-93.9626427862641 -18.0185349584109 3.98039634030808 0
-89.7300335988207 3.52781554729813 0.403364922550674 0
-171.522552203734 -21.3014113577655 1.91407179966522 0
-31.7518819352757 -22.5090139216143 -13.5571618894084 0
-41.4827472305047 1.89538064779953 -3.95783829773771 0
-70.4790673468245 -12.124806852233 5.14288353949058 0
-32.9162403977134 -8.80258611555373 2.10922504111004 0
-202.061136082975 45.4822257588692 -16.0479824252701 0
-183.663146661036 -9.45744140082004 -5.10751421601509 0
-183.942837787185 -22.2508017306605 24.4811446247998 0
-45.5828078024751 -22.8007903099603 -12.8942600992732 0
-196.867929681798 -11.4088889963939 15.5922339911896 0
-194.452229681292 -30.2444297382723 10.2583075351689 0
-181.523765569649 -0.550236706804325 20.3490667851242 0
-196.739575992721 15.3324100015801 -16.1053648438875 0
-25.4990703730987 4.45407909404412 -20.2953926925153 0
-44.1189726324389 -2.04542630968703 3.29861962629928 0
-208.562324134239 19.1919056886537 11.4552815119886 0
-197.59385599144 41.1358968610414 7.64975471868789 0
-151.46187197289 -7.41672831453728 -5.31709831923633 0
-118.389830220162 0.355278236187664 9.14174369901903 0
-50.5931904653963 -13.6616397960647 -1.03201106679537 0
-34.5457380784927 -9.85236205977312 0.866835563364458 0
-140.844926227669 -6.36241694563937 -7.65595416135578 0
-182.557020605883 -4.26060639297353 -6.93104320024184 0
-130.429094602175 -12.830242207487 15.9901977890758 0
-205.157636725943 26.6110852631754 14.0473776761478 0
-205.566864691579 -22.3244768923026 1.91804676388134 0
-133.000022434583 -17.4804958159512 -4.22835188135485 0
-177.707331045946 -24.6938112562869 -1.28079863691675 0
-203.998857274978 10.2663688401193 7.67449543383059 0
-177.295561056241 6.34142850774252 13.5563213752759 0
-151.617972335748 -11.2387322453424 -4.28035571838885 0
-209.673846661245 -11.8423886082926 11.9577646939119 0
-206.08885969032 9.2857767285229 2.56634538900993 0
-224.598661035004 26.6028207711452 -11.4784925798297 0
-139.711177641502 -3.52793207502754 -8.29669312970569 0
-77.8681801739545 -11.3758423961262 7.35536910919905 0
-195.155228405449 41.9123733508796 5.05499402406941 0
-201.843717495782 -9.58299462384584 17.1111609349858 0
-195.689500261471 34.1908077241137 -21.8650205472474 0
-100.022902430393 -3.73828596482161 -15.4243537756968 0
-199.685849554007 41.6076365860753 -19.4728286157381 0
-200.881432812652 -28.0737554315493 8.49915146538372 0
-91.5401792780412 -15.7443741230313 -13.6625866152192 0
-86.0337311792986 -22.8288950958306 -5.65725990917721 0
-76.1214904211073 2.27135391024259 -15.4429329562819 0
-194.854043955636 -9.21669786580591 20.6109853162044 0
-35.5748877042318 4.90883933314701 -13.7721539849141 0
-166.975730466298 0.274995163578975 -6.27406927090557 0
-199.054765916232 -28.2386768401027 6.45812919408092 0
-97.554894385031 -7.25731241283711 9.8972624998081 0
-205.14960349864 -9.58070637060185 11.6269508781881 0
-90.9952106311579 -5.59240889820788 -17.1956597549488 0
-199.162489798574 -19.7181511533116 25.3474369101971 0
-209.365065369825 11.1228223230881 -0.500925527067862 0
-36.5454410619318 -13.4631242902775 -21.808265410604 0
-174.737128422848 1.44559188774814 19.9027780289665 0
-170.47601257006 1.75182305721679 20.9461550892173 0
-189.557140494248 29.5109215000601 -15.8377701870123 0
-141.211264048252 -16.5579812678966 15.2236677885572 0
-202.138387192139 -13.6837285740592 28.715795642672 0
-135.646279858645 3.75266508502671 12.6822767376949 0
-121.794776104157 -14.1118915262791 12.8522294218336 0
-208.233010185308 29.4892340054706 -25.2611031335174 0
-136.501671237722 6.12053370373922 10.9356771462828 0
-149.467837780814 14.4695100030752 19.892008514102 0
-181.749343049491 17.4080647968206 -7.12989292647125 0
-14.3532687223499 4.83640411586121 -12.2960332107447 0
-179.985958921161 -13.100449365216 -2.76251736235774 0
-128.963200184611 -13.8031794294773 15.0784734186417 0
-167.252980355341 -1.31510783137813 23.2765876431907 0
-189.659266392701 24.773528694858 -13.5438122582262 0
-195.607528338935 36.0506953142955 9.60627218158115 0
-174.900590486392 -20.0031706342802 24.8106236060881 0
-141.435667673874 -15.6945330751118 16.3220176644951 0
-213.617337912341 45.3618317743028 -8.12558604820708 0
-202.606627936241 3.10023752337684 5.96231015011737 0
-115.912726615947 3.68525028099331 5.75281972247158 0
-8.66698656391176 -4.80724116720179 3.05527976607583 0
-188.832515293135 36.0167498047221 -7.00473130231763 0
-195.285457562811 27.9450028423828 -22.4047474298498 0
-181.24941914591 -1.60259058636356 22.4945245909645 0
-169.007076077239 6.30936322690558 -6.87210008030809 0
-30.4949862708202 -7.16479195340325 -24.4285416408734 0
-140.731528925365 -20.0220033693893 2.42684532941081 0
-188.172726374719 -28.9520339094699 3.67088624245111 0
-167.559856139048 5.14840957187398 19.1810712330924 0
-188.838236163482 37.0701759624437 -11.7261954762491 0
-207.162518188883 -7.55585972049232 26.3938510910335 0
-216.467333447547 44.0523471092218 -6.87871128546869 0
-16.9666253154374 -19.3307741091404 -20.3974420081647 0
-6.83651576127259 3.29896351760086 -8.49262468773506 0
-178.331805515911 -2.37201146901983 25.1158956497294 0
-158.305147741659 -21.5143625166736 8.98275803989536 0
-185.692053684605 -4.86323506191373 26.3154535426704 0
-177.25772849364 -6.17858245511626 26.5844185493417 0
-205.278370857261 31.4963207684446 13.7342746534698 0
-205.426461377472 -25.5856336419402 11.1161481108274 0
-168.943227618054 -10.7776619834713 24.4345357309588 0
-203.992731189616 -8.71905901202347 10.5243481975977 0
-37.6125479466812 -9.47238391569257 1.89496009820284 0
-195.685553045653 -4.47218810146749 12.6077029270394 0
-186.833778375957 -30.943722124378 11.4795051513931 0
-61.7721445462211 -20.7775558032334 -15.3838057351539 0
-198.820668017046 -17.9675873143836 -3.98453067226279 0
-199.967968267089 31.3735388111029 -24.6015530333567 0
-127.24618368586 6.94691263185073 -1.77078107402951 0
-80.9202292026031 -2.20077886128164 6.35870754949651 0
-181.602542828483 -14.7592177931237 27.2216612631286 0
-183.550120961159 -20.4618591179705 -1.99436861324908 0
-198.585861842046 15.1095581855077 -17.729597789457 0
-216.159860747161 37.8008099398969 -19.5140212684195 0
-206.056047454132 -15.249552068959 25.9413716055985 0
-148.264962341569 -19.0346771015948 13.2938008486791 0
-206.526368719628 24.3307770366033 13.8699199350117 0
-178.3433590483 -10.3837257253298 -3.51921544253089 0
-200.385741303935 -8.22958566405205 11.6514034040262 0
-168.269783925332 -13.013251508729 -1.87520019630268 0
-196.729516217424 -3.89773740464857 11.7725293943835 0
-216.288018616821 41.2866037247519 -16.0066185381225 0
-83.7373896261374 3.38490445744283 -0.289358931125875 0
-163.913018846593 11.6444008152153 13.212630867987 0
-220.406864318737 35.9209407826132 -16.8348622899669 0
-186.494531052012 20.3077572293815 -10.507500678649 0
-100.489555969442 -9.04019850629476 11.163904535526 0
-198.86741325111 -3.39809044278309 9.81559115532823 0
-186.982149803491 20.9017809266336 4.412412240703 0
-56.2214628972386 4.7014740142213 -12.3843654884947 0
-212.247689822958 -20.0206872231383 9.49464719301868 0
-206.244826523811 -4.81012205910217 24.0569248740819 0
-155.76537206458 -0.715596090694115 21.1704275294799 0
-89.847054475446 -1.11581272577398 6.65587162063275 0
-218.295096939706 22.9996498866404 9.0774580896358 0
-207.832328952102 12.6069367524294 -18.4028382783253 0
-122.081730257671 -17.3394773392532 10.1384847800894 0
-207.757919257668 -18.7475673163188 22.1132044123131 0
-169.77345231185 6.81827679223903 16.0915469424553 0
-172.802762426418 -5.33138876715155 -3.70815081603469 0
-22.0872059027899 0.73694834668955 -2.24721246305682 0
-216.494723422273 13.0906969343032 -13.9457903413332 0
-41.9808356198306 -4.3820750856732 -23.8639207153857 0
-210.872718265504 -11.4837325387083 16.3336503485139 0
-157.814493015203 -5.27409167363351 21.661157629064 0
-169.124487637483 1.81089025795024 21.6213745581771 0
-183.637706186895 17.5479684155358 -8.61713489274028 0
-186.584470816757 -19.8694683894642 -2.21508205878825 0
-169.464807884167 -22.4925470631885 17.5206134056325 0
-207.254954770713 -16.9691269333755 23.8802449600045 0
-62.8329382368938 -22.8684394470104 -10.8602546424859 0
-56.8538303431925 -5.23571224794001 5.07129648118125 0
-60.6643041276633 -0.133474853095037 -20.4129628553727 0
-157.786569051334 16.7325823787164 10.347653941563 0
-204.57597177593 -20.9741141039039 -0.535956704645031 0
-186.969565080486 23.2514752291939 -10.4552501952535 0
-83.1355137904177 -8.80624730231346 9.0427960736798 0
-89.288533635627 4.36615334639924 -9.04167072990658 0
-142.704069334366 -20.4620872289835 8.3832822655156 0
-152.024050650156 -17.4453043287449 16.5847496782402 0
-146.320787905186 4.22877988631077 -6.99969961047462 0
-144.291457929011 -20.169962513445 10.0166540187466 0
-138.87188000885 -15.4155581143052 -4.84981417691727 0
-184.452171560616 -26.8716365982078 1.10496558970536 0
-201.362663975123 31.9805298125434 -24.8002411512183 0
-218.558510770932 35.8478748029572 7.8541554470861 0
-188.360070513602 -17.2883353313935 26.6905398913308 0
-190.29131488361 -5.28609546715349 -7.34337112005564 0
-175.597692609677 14.5798232868585 -4.85972799449584 0
-180.463010709805 -28.9906216124697 16.8216333737377 0
-107.853945159098 -4.8773707886085 -13.9876669262319 0
-216.068172911258 18.7209579650024 9.68267541785458 0
-176.00506025837 -27.8873972562797 18.6449107159647 0
-85.7748778772289 -11.3298070266126 8.5254341532583 0
-175.37859516038 12.2502253753956 -6.02395178121189 0
-186.601042887454 -24.1502554703736 22.7858123368988 0
-29.7770188172266 0.752661270850982 -1.95873024277599 0
-185.319947018437 -5.05910120000658 -7.36302602742741 0
-99.8199291699712 2.07179005642394 5.63733594120504 0
-116.641578917467 6.01698172730796 -4.21214932678541 0
-38.6202636496054 5.07237410118998 -14.9764742580655 0
-65.4590211452019 -13.4673661301464 2.37253833475558 0
-32.6615896769606 -17.3807641969445 -20.6522115708962 0
-214.157869878874 12.9322836963348 -16.2080792908715 0
-209.697884647062 10.7066830548575 -14.2386596330004 0
-7.28215274434748 -20.6429099018803 -18.9547728886 0
-61.0612066060204 -5.85349717631832 5.7065042523008 0
-46.0368703936643 -6.08868918660834 -23.4272225933275 0
-171.12077783392 -19.2608571712385 23.0220659649875 0
-31.2637913712517 -4.64630643795212 -24.7451302363921 0
-161.793868171607 -12.2130110491917 22.2411683127466 0
-104.043778281747 -11.9028678270483 10.6944228683363 0
-167.365812910092 -9.18904368805192 24.2271980831721 0
-165.990397923278 1.87715933412989 -6.76210997503129 0
-83.7206349420775 -10.7306253935639 8.87455637388826 0
-211.596606514132 12.4138359140384 -16.2835185652973 0
-162.917777865696 -2.81434906524543 22.7525059803025 0
-215.450667278892 11.9222503159917 -5.08982643922637 0
-132.127981145708 7.36860300613308 2.83048061171627 0
-153.228535154386 10.6912778740444 4.48283934823231 0
-40.9385077924316 -1.47385731317605 -23.490440909507 0
-41.2445181313253 -9.21123450112918 2.86849934910133 0
-209.640528064801 -22.0858624281804 9.5222880909962 0
-168.766187895111 -21.5124846056809 18.5805170988796 0
-55.8889354182977 2.64669554467075 -3.94708602615178 0
-19.4587611439609 1.64626346456464 -4.78119592869432 0
-194.919540818206 45.3388908749847 -9.225117007025 0
-89.2486024827741 -10.3789010384958 9.37394816167939 0
-38.799486996113 0.692679498237612 -22.8249122602801 0
-14.6747032112439 -9.54401903199798 -24.5935256520311 0
-13.2044237923295 -21.8438621642954 -16.4352851605764 0
-82.8830506006795 -19.0344130401782 -13.2872414204023 0
-219.150497369254 13.2991785110503 -7.82138462445449 0
-208.28896423734 -18.2252100285613 1.41328387907343 0
-52.2152584827465 1.01166132002137 -20.8854172617942 0
-25.4351655362952 -7.37700528916176 -24.7048332600608 0
-182.796285640589 9.41527049857125 -8.19412308402015 0
-170.851683383844 0.674615046210482 22.5820252765337 0
-202.533240296035 -26.9562657086081 10.1380180063536 0
-115.0510832006 -10.3708808126907 -11.2714356809699 0
-169.883557780578 -19.8637171150496 0.992932785685284 0
-190.768907139254 -13.8238802597291 -5.20336350798943 0
-79.9606165132378 -17.7807678932421 -14.4777772244301 0
-219.794374796466 25.7837767098256 8.56496895448283 0
-25.3560534639821 -1.20555801376058 1.77731424554723 0
-187.927221142701 12.7183881284433 -10.1067410478883 0
-110.657666860255 -4.47363238538608 -13.383931474113 0
-145.221455827374 8.89294654712115 3.13324964713925 0
-139.838309662148 -14.2203479407992 17.0766522063202 0
-12.6932270829771 -21.6586243178831 -13.1883338985603 0
-186.786931947528 -16.190335983216 27.2273545716651 0
-190.808861369042 32.8236302948994 -2.10137327464829 0
-139.902643279927 -17.9251497471707 -1.71586776165808 0
-83.7557340679511 3.97603939753082 -10.8083576474605 0
-200.764304107642 -2.43756472043937 -4.85247719681362 0
-210.236807002398 17.4518285252774 -22.0583260868152 0
-92.7682953815683 -13.5383251686202 8.32620513203155 0
-129.860136858428 2.86801404608436 -7.5155747556711 0
-197.750173551168 41.8504806540001 -18.3037277912892 0
-42.6156625237169 -21.3708413611139 -16.6728995599559 0
-152.65375789296 11.1152095630823 6.12359225473622 0
-143.856148222871 -6.15291257813872 -7.08482612849109 0
-173.736682224868 15.6126219555461 4.73054562484008 0
-160.152672631067 11.7967613932406 -1.08966537889912 0
-20.3308185418111 -8.20877415002086 2.16316797890491 0
-154.22736745251 -18.6606342815425 1.62958336569842 0
-120.101781195245 3.5350369127153 -7.25638059717326 0
-179.486666443941 -17.7267893647439 -0.739080212195926 0
-62.7916061114565 -6.47034187115104 6.19032186440244 0
-203.587943094296 4.59093378166449 -6.74966817605662 0
-206.481309219819 47.1283192884822 -6.6110064353683 0
-198.36607487126 39.2723170824377 9.44743028834005 0
-75.4694732174782 3.96804711704264 -12.6570359594448 0
-110.234295470461 -6.8029149671978 11.4101948783422 0
-165.491891902077 5.33337889084702 19.5840678806526 0
-207.257073133304 -10.2635703082773 11.9719250694584 0
-153.937035330781 -7.26273482248935 20.4397371733906 0
-208.968917792906 -13.5372547963626 8.91714628023673 0
-161.551443616516 6.40731492999061 20.6057641222333 0
-193.165673413544 23.7757107890174 7.47782492727257 0
-192.900803040356 41.8641883564074 1.64989284630742 0
-53.1395293747079 4.08020538018847 -7.59828773782224 0
-217.56331043593 12.3838670943833 -9.16967049845589 0
-108.218197699471 -3.26253457150794 9.91508364641979 0
-125.450953769839 -11.3644588202802 15.3680348292892 0
-173.009291049485 -26.2049401400211 12.923866900241 0
-215.636928411932 44.206028070153 -5.05327546865877 0
-195.353175773196 26.289078700479 9.14572146331629 0
-200.535306972599 -24.0257864784088 0.43933214134587 0
-205.623249109408 8.43769822307489 -10.9643658617702 0
-59.6560364592658 -0.0753951840905476 1.62726478440715 0
-87.7928930886268 -8.75020634151145 9.60112004732353 0
-142.561893353259 -11.9282655076483 17.7835690658703 0
-7.52862095701321 -21.4918168629254 -17.1000814557002 0
-10.8838108127152 -17.2808639591959 -21.6621508711481 0
-183.961918195583 22.3594797500967 -4.68890398564091 0
-180.211966337153 -25.3570147820211 22.2300003158117 0
-201.992019201763 43.7565296289039 -18.0022694112629 0
-193.338818939079 -9.07090846895888 15.7170328397835 0
-191.621991158477 40.3888086130963 -13.4612549928975 0
-153.919187715726 -20.6900999480273 11.1593676697009 0
-190.097788475432 -18.4340046165212 -3.20029958227677 0
-168.867646540153 0.946142225884313 22.6568534196117 0
-33.1405853611996 4.87455866099069 -18.151629277824 0
-92.544550286135 -4.5573782529794 8.2767285488913 0
-34.8504816591381 -16.2446505703395 -5.39152220940102 0
-138.681776827797 0.392388130657984 15.4430507707681 0
-85.2148418753098 -4.28498973891218 7.30006806262 0
-212.521439508762 19.0837382161947 -22.2660256265581 0
-178.230517027293 1.18256204385644 18.6426366503566 0
-204.705723850596 24.1857664850707 -25.3691658605157 0
-54.7674471817248 -1.61451185019273 -22.0997743037532 0
-220.707915280352 17.4966397057039 2.61562996871354 0
-100.710709706574 -1.36294807235707 7.61122222279267 0
-91.0229617874092 -10.191599264811 9.39070177865672 0
-185.731473147688 -17.9955146985973 26.5724928732191 0
-107.932649928481 -7.75315721009612 11.5405947041859 0
-139.922074175899 7.39055513880847 -2.01316596149574 0
-196.595486913498 -21.2958728131128 24.2994283779118 0
-31.2063093297226 -3.38646631182185 3.13262925357107 0
-170.113422394845 -13.6735537102594 24.3982399583261 0
-206.61006325506 -10.259001494413 9.98752199107036 0
-79.5578478664729 -22.9971399550474 -8.58263083859831 0
-193.739436716578 43.5378724250206 0.179080431434148 0
-207.992025518796 -20.4020776452051 20.1702212748801 0
-23.4784370968814 -14.8622291197642 -5.59023542413725 0
-56.0449221450198 4.50122970727727 -9.08758406141909 0
-170.924107248715 -13.9106322055355 -1.68275830769639 0
-32.7958328275303 -1.90951979107694 2.84286330214912 0
-209.358334981553 -17.7290355925775 3.36246559919101 0
-196.042395712811 -8.22207741791793 21.6268880790421 0
-196.776617043261 46.565308047529 -8.4907921134448 0
-128.610130834708 -15.5516219053537 13.5119094678845 0
-3.38038315183578 4.19077189762159 -22.1763209761614 1
-185.138060159517 -3.92038815523261 25.0028328698554 0
-0.993092595970994 -19.1982605249514 -20.7729437565774 1
-200.707082162889 48.6210835785232 -6.14348189659378 0
-183.373026919842 19.2231689258404 -7.79297125307968 0
-37.4813462927241 4.52731864542146 -11.0970542221122 0
-190.505094793861 22.9362854846492 -14.2156695294695 0
-205.291777756003 -8.76753804953117 9.16203523211871 0
-154.880576772956 -17.6844824555109 16.9612916394694 0
-158.160330641783 10.652817668901 -2.33754671028849 0
-121.985859505127 -12.5065894521517 14.0357250325851 0
-117.136759863808 -11.6614353744094 -10.4062087574778 0
-202.088916037308 -16.889202559957 -4.94566060731989 0
-118.755274486175 6.04675543975695 3.11161225042493 0
-124.177126436118 5.73805798536384 4.58241195098601 0
-188.387832754617 29.604805319874 -8.75086260411478 0
-193.63089727359 28.1616933775607 6.01305565604584 0
-190.617641860924 22.1032125499744 6.23909123775925 0
-111.374937377 -19.8803025887594 -6.61879039630844 0
-191.436439833607 4.59311196773045 12.6156632480582 0
-143.342467334189 -20.0048060460732 2.6637991630686 0
-195.206504759817 25.8786921696225 -22.0661722629629 0
-212.814206374672 16.7702989823752 6.66434921552027 0
-183.453612531628 -30.7299867798883 13.4980411242335 0
-60.388701010991 -11.86585815189 3.36654641604997 0
-182.675182339856 -23.4853174738917 23.6859224967883 0
-29.3151448123799 -10.1860415141137 -23.5050552692062 0
-87.4292018920724 -1.74039098172721 -16.9684146297166 0
-224.257441731364 22.9732885246691 0.177554764974854 0
-203.119594290477 13.1344063910696 -18.4798607456985 0
-202.175201429094 -10.2595593060277 -2.71424930774322 0
-0.88920890011984 4.76356298856153 -21.5202893027793 1
-58.034440784226 -18.4663372249909 -3.51791493776711 0
-204.113637150558 -0.451836602400216 1.62381750372648 0
-189.552016712556 -2.32496456730551 -7.30875937354897 0
-95.2596323277935 4.53483562564563 -7.80059128363803 0
-16.8830486835427 -10.5638045175842 -24.1635566153235 0
-187.712824346264 12.1764929741593 -9.14736489776404 0
-54.3697167354538 2.30549355185609 -19.1859693232779 0
-195.163859166165 13.2901832418536 -13.9447038368089 0
-146.980855044385 -16.1367313451202 17.018500291995 0
-143.02482069279 -16.7520141826824 15.2623471055251 0
-215.98188607903 37.07041909416 9.06343779214682 0
-210.214005805198 29.7227916772249 13.4695650656899 0
-132.289164479577 -11.5565659692093 17.0245050381812 0
-190.021832391537 25.40145145714 2.13748846242333 0
-178.729647018154 15.7108221974764 -5.80802238148355 0
-157.033261514267 -12.1465310497357 20.7077553807195 0
-214.229112697077 45.0244352010698 -3.7358265898246 0
-142.165007026882 8.24391098314989 1.69560378409174 0
-178.660954726062 -30.0182820562273 13.7575292842768 0
-83.9052400384398 -2.85354494456988 6.86054544949096 0
-194.372909026135 -15.7264718421466 27.30302260836 0
-131.393402564788 3.98714136316472 -6.53452299158241 0
-160.907674246041 -8.29866339365504 22.3321302822622 0
-11.7629253545381 1.88716702813888 -5.42978987663955 0
-209.939749117575 21.9931693562449 12.881193988352 0
-189.397290882924 17.0069135175084 8.63284316550186 0
-172.74227646508 8.21910731429362 -6.59423944296737 0
-199.40958736154 -6.06608481411074 24.603310366559 0
-2.95673031596605 1.40926973654945 -4.60310536891331 1
-195.35039290967 -2.31352338933803 12.1812468276988 0
-64.2754777621765 3.49374846245249 -15.6780996359183 0
-135.414108910377 -11.4048188224633 17.0989252727498 0
-113.672756206289 -3.26085031997223 10.5811539713647 0
-9.61172554593372 5.06712394299746 -20.7349590175407 0
-202.50377327538 41.017705275386 9.34342743905144 0
-211.415554526323 -14.6671744056607 15.2957438096503 0
-129.756387686878 -5.32244199781174 14.2061682034044 0
-164.774033831396 8.09609843253868 -6.02071258466223 0
-211.724675436304 -15.6961590490781 18.7523051303779 0
-98.4078301425176 -19.7808975018934 2.69533460232513 0
-131.05036553238 -9.23064355070688 16.1790094450076 0
-177.875846825349 -30.338883824566 9.78332864143377 0
-200.077183925057 12.2382529310835 -15.7401114948907 0
-149.428828506087 7.92615415646762 20.6983751443929 0
-202.931472474973 -0.834904012683258 -3.54410651426313 0
-145.465679003515 -6.01199615598023 18.0491819913155 0
-204.952619908555 -8.63048365346373 4.93262645735199 0
-4.57914131145665 -9.05714877776082 -0.20993663531635 1
-22.1562606991783 -7.81176577315294 3.21715956410974 0
-223.220180216491 25.2341773150131 -14.2279795153142 0
-186.952206719516 16.0617066369016 -10.2515536351612 0
-156.689122363906 11.768355876727 2.26915583451642 0
-215.325646443563 40.119216770526 -18.3617968555369 0
-181.611516428369 -5.52481906989414 -5.96181058731413 0
-99.4729558633774 -5.80975866603109 9.2881412179479 0
-6.1603677043273 -14.0310880692949 -23.5884035551767 0
-196.587320022385 -26.1186302038379 1.90364121712683 0
-208.44564330156 46.8420856479468 -13.5443056440002 0
-179.422410963774 -30.8877248131486 9.88340442560219 0
-33.0757278901059 -21.87191990051 -10.5210247543665 0
-151.136460748193 -14.3020192985907 18.7828162604209 0
-191.425652723093 18.9092641806351 -13.7998029608221 0
-191.27858647859 -0.962417041817535 -7.40010629303228 0
-117.50746642689 -15.8583809789796 10.8176626990644 0
-141.638971000977 4.89640471747081 -6.52726679923675 0
-211.438441932267 -19.9768723709762 17.4503091969559 0
-32.0157922383828 -21.8143276885457 -16.4579033336153 0
-189.761386872105 -20.2006297798072 25.3156904854601 0
-44.4837089260676 -18.1116354589828 -5.39544584539598 0
-189.848863479701 30.9439974294304 -17.657024795946 0
-169.614551593516 -0.430773887358809 -5.90202006209863 0
-184.115935157713 -10.8558657648286 28.3003790224048 0
-186.248036175663 -13.1006445166475 -3.91148757406099 0
-214.261986937327 43.4950006160619 -14.5814123624412 0
-218.520061184531 40.4659381103655 -14.6743556990085 0
-217.734236163653 11.8434219046389 -6.52671442291937 0
-222.531569046969 27.1613070698638 5.76485156564707 0
-178.94202222618 -6.52428534556935 -4.73151992081073 0
-197.686527994435 -19.8020685683601 -3.12240223811695 0
-206.526070063305 42.3831850107474 8.46078029911999 0
-188.391709658478 -21.0106144052671 -2.76375675278553 0
-137.476772009287 -20.3290191879522 7.5311126520749 0
-66.1483085270452 2.84146095033147 -2.45019679100333 0
-185.434247939253 7.07963472197449 -8.18306107671986 0
-176.039080914617 -26.9488769294287 3.78936897996941 0
-192.55175249833 11.65590231132 11.2857119800807 0
-196.186952944264 -14.5430025383474 27.7053520907281 0
-124.22704972311 -1.33841018689878 11.5828137202361 0
-186.615617284035 -30.4452635133306 9.72333742127877 0
-58.069533305279 -0.753115496258763 -21.1972291572055 0
-182.302793343313 -17.5261849534953 -1.18968755148722 0
-210.518655950353 -21.318504931675 16.8596694011241 0
-50.7154138563009 -5.95241201350162 5.02538416762016 0
-68.5013976810182 -0.0182275133231311 3.11463841971181 0
-202.247516802254 2.68430300059154 -6.71790174789732 0
-174.953079323434 2.41414769156486 18.7519694861067 0
-172.003672740771 -3.74665273611705 24.9340485856872 0
-221.521144948654 40.0004370742387 -2.58093201084377 0
-166.988024825249 -7.13737277345491 24.1704086546462 0
-127.004781846151 -10.474704393202 15.9542805989998 0
-190.755366793615 31.3559354635043 -1.71142492300562 0
-209.291360486016 -15.3307817703885 7.38684108592038 0
-179.515104397035 -22.4195621258108 -1.47762544166046 0
-18.247164613649 -4.72133384037044 -25.4418647705607 0
-82.5645965167923 -1.426810307912 6.28300860061523 0
-51.1687166963542 -1.31664924485259 -22.3544836717868 0
-58.8657087999754 4.61818264643805 -12.2468539354016 0
-210.43295648958 -11.8030989354169 22.6312981192012 0
-136.804467368489 7.54913169172026 -1.52003102054542 0
-152.832461024306 8.70824658552583 -4.66493770703414 0
-43.8838000375415 2.50707885518114 -5.32406648514156 0
-222.592700124818 30.6010107680039 5.3244779365263 0
-200.170182236985 -17.1430096250501 -5.19866473611313 0
-173.656940988149 -0.145980233211668 -6.41710167599726 0
-192.955232759714 20.0376524203601 -15.6934766049408 0
-42.3710676698701 -21.9377350177711 -9.45595779860656 0
-56.1103633193244 -22.9623324753129 -11.1992926347604 0
-152.465543177714 -14.8397532868743 -2.70158512353202 0
-211.587262049342 40.2546439227683 9.11731037623599 0
-187.928924524478 18.7352625826538 -11.5679007912817 0
-79.2130267016044 -0.9371850777583 5.77684957715889 0
-78.3675990187522 -3.04055205399212 6.06622312276832 0
-194.944369481669 -6.35130469664387 22.3738230351061 0
-225.096936565753 33.5877156023547 -7.25178918025689 0
-34.4979716044363 -8.53113609771265 2.71677378535497 0
-165.127579179996 -7.00620979583505 23.5987387824349 0
-208.011709683885 -5.88178469446127 23.8518846507841 0
-213.305103891067 45.0440118798938 -6.51838923286489 0
-52.782930499587 -22.7591950988037 -9.9286435726352 0
-209.675661730735 -10.4098359174611 24.2670724277295 0
-207.238693913189 6.85313990722527 -6.38737930449745 0
-223.359451926122 21.8621723625408 -12.2317913115704 0
-199.275100182367 -25.4011168023186 17.8672582607964 0
-82.0872787223348 -23.0767410341126 -7.48565561168032 0
-215.142939428211 45.7203275374792 -6.43433608814211 0
-11.3346106474622 -4.63109111171488 3.05947999675204 0
-22.7276021389327 -21.6175287805489 -17.2609650894109 0
-102.785962987236 -6.89474990580871 10.319582579182 0
-66.2327551402938 -22.8667503417128 -10.4437514411397 0
-198.132278937311 -11.6163713351616 16.7652771276562 0
-93.7082579372659 -11.699801517958 -15.0373776176172 0
-214.990438134872 24.3821887923637 11.6564379763106 0
-169.586158278025 8.0953703737304 14.1947550403427 0
-192.964138064645 -2.26029956048512 -7.16396618139587 0
-35.995978033828 -13.5478909582733 -3.26014127781858 0
-192.529359289152 29.1118618883116 -20.2910462457454 0
-48.4131890318982 -4.51739332571388 4.28500819214362 0
-202.465127885932 27.6129669607479 -25.5160270308126 0
-194.515383200537 -21.7521388549657 24.2944609590554 0
-123.613358942679 5.53125453098845 -5.20760777395303 0
-220.792642271309 16.0649389973538 0.169174535625246 0
-217.293355211672 42.6109222070463 1.43146541856843 0
-225.311734535938 28.723551672107 -0.844086288576656 0
-211.378511057481 12.4520987551397 -1.02199685754931 0
-220.618451161663 41.2960619725647 -7.12323248044586 0
-194.151912619306 16.9284719433811 -15.4136781847471 0
-106.114066013361 -20.297465835667 -7.32095207992791 0
-171.426427237007 -20.8390789231509 21.4098488551454 0
-221.168102673338 19.6137382988186 3.90240216894905 0
-166.223507396165 8.17387208083022 17.0769318079857 0
-206.025237229808 -10.6269142275899 2.09182766978003 0
-38.0466841270075 -12.2831423524041 -1.88640705344189 0
-221.232868152892 25.8942677049123 7.07482265929847 0
-181.911005017682 -28.1782297356074 18.3169311610588 0
-194.475304813436 -5.95013616119407 24.3674511418015 0
-186.970832604934 11.2475082802934 -8.94788156847995 0
-200.527311756912 -4.61467963400647 9.40789881251042 0
-149.05802311745 -14.6408050170107 18.2953948529244 0
-203.291331501899 -11.483992518724 28.7295044744322 0
-131.612919964381 7.75255655397637 -0.284083970325366 0
-171.904384462979 -20.2443150123864 0.673126380087145 0
-106.853848947349 3.57886850043012 5.27417426350945 0
-10.8586499753639 -21.8842104433552 -15.3475923658106 0
-35.050961849072 -15.5387167537415 -21.245205868182 0
-9.82464623356792 -20.4221592933482 -19.279818807842 0
-187.897573327247 27.4579683459916 -4.96052872797425 0
-155.767712023195 17.872965013074 11.2196765867307 0
-121.11646236525 -7.84507191558959 13.7102953446254 0
-122.686194167285 -11.3556746780615 -9.42076715702662 0
-195.685771657114 -11.2519952555101 16.2444688710572 0
-33.5018673924531 4.66558402065998 -12.1411345546774 0
-76.8131736298776 -1.23717726952833 5.54938518317968 0
-151.747386507217 -20.7667059097482 7.21690098960197 0
-184.768242017539 -27.6713215381579 18.2205113133097 0
-210.89935211214 42.0532812159786 7.9280386664706 0
-175.024640492996 -21.5993466843387 23.4371383376727 0
-206.68248717171 7.11254798595632 0.355333259067051 0
-195.69446571408 -29.782193797609 10.631003165134 0
-38.1883837434645 -0.296172366843535 2.31720411924021 0
-37.7492443072074 -8.12758424957383 -23.650926639045 0
-185.829710064431 2.09304922626756 -7.55959074174856 0
-187.708732224303 -9.60411242268298 -6.15807424971258 0
-72.3303555003252 0.591334262146638 2.3588932824926 0
-178.821908077551 -24.0007572731604 23.3033795430673 0
-159.676643082527 12.7778943487279 18.4666443869311 0
-222.590294973027 17.3414437717484 -6.93884667579527 0
-195.719562449341 41.3044640650621 -17.3685583457009 0
-174.682810940408 -8.29417879975214 26.1014665326187 0
-141.997025105044 -1.10067436605103 16.6035117117132 0
-160.113900513144 8.49889356835571 -5.48160156615584 0
-189.298610517018 40.3174291814219 -6.23662885740958 0
-149.231884702725 -12.8201578772334 -4.15080630631791 0
-211.684210583669 -15.9888307933145 12.9416736840857 0
-168.3952523306 -12.9351543032757 23.9009038883265 0
-154.371516120438 16.6839903783102 18.1931025038607 0
-181.421027537259 -21.898381120983 -1.48988029423897 0
-193.999847596972 20.732187782715 -18.7552087304178 0
-164.277357088435 2.63867530376685 -7.48983343787145 0
-171.839043601967 10.2454285430204 10.8331938206899 0
-172.315351835726 3.51803900307966 18.9416852824395 0
-106.480741600947 -21.1444595300913 1.58594054550799 0
-206.539013027045 -11.6843041773235 3.56410289804112 0
-28.0541629867089 -5.40617959111466 -24.9139805009082 0
-170.729347453047 -4.84875753621756 24.8476724078325 0
-6.34867360582659 -16.5843289627864 -8.03201703300278 0
-104.104708813712 -14.4333410607436 9.61636931678676 0
-163.930350442444 4.29068377056466 -7.18733466278727 0
-137.886545679794 -18.1947312892747 12.4742508509316 0
-211.803317031405 -20.4658646522361 15.9266322884777 0
-26.9492172223174 3.00780365398905 -7.78581176680982 0
-102.315087667071 -2.97372915196533 8.40256552471025 0
-192.699021863395 40.1462508300962 -15.3159514558569 0
-36.2280536076516 3.5714584746584 -8.25223071144504 0
-213.015419131526 15.2968637748697 -19.2318643634972 0
-49.357344854005 -22.5513694026229 -9.69461214398858 0
-175.432926919493 -20.070318861447 -0.0963174131647392 0
-146.942188060912 11.1132054964516 8.8533662407145 0
-128.133377442505 6.54266072513702 -3.16399280593194 0
-206.855652358938 44.6597936712033 -16.9251281341874 0
-125.226916868072 2.96719386993839 8.83274541050553 0
-35.1391563832501 -18.3010219298434 -19.9135235849011 0
-195.7190015094 -8.02410196068267 13.0394205119157 0
-134.458689002721 -20.3040243063507 7.12722077549713 0
-204.586589816566 3.72032814783485 0.199153549538854 0
-185.723288796519 -9.36806871612037 28.2850928920921 0
-103.568018874222 -21.891314527653 -0.745168711742187 0
-193.461235818595 -12.2718910822616 -8.15832000193276 0
-202.676118378745 -21.2847196256266 23.60400920098 0
-82.6053927358452 0.513805661502893 4.72386819586482 0
-203.322162526382 -18.0461071971028 -3.88519861836216 0
-199.138133137086 22.9623871402648 -23.6064149229448 0
-179.183194519091 10.9975009885489 -7.45289668018196 0
-32.2781918640732 -9.90737947542089 0.303504319218189 0
-178.167296317574 -20.8426211292251 25.0827577640001 0
-87.8338683651268 0.0179403583142405 5.87966112759828 0
-201.968423819951 -22.5956824537678 21.7345412325683 0
-18.1894899076536 -20.8085354385396 -18.8165442779244 0
-55.0141801780474 0.858589225063444 -0.398980688803773 0
-196.696680993826 28.0754733839089 -23.3825465026575 0
-201.751198987445 42.9096286752131 7.568824227886 0
-89.4192103986859 4.93235588062641 -6.26167680247676 0
-174.865656794065 -24.3989770116565 19.9205694414027 0
-190.675527730665 -0.524156225686004 13.7714173535496 0
-199.36736299012 36.2387215201467 -22.851631283085 0
-84.2878498913427 -6.84316921772253 8.04841981977127 0
-172.060607289685 14.1889930875628 -3.10083964642338 0
-119.589860448878 -0.0691950465588053 -10.4472997229903 0
-35.9262584666239 5.06980356627252 -16.6200055685222 0
-152.144071251958 -11.1526014685694 19.4541995115165 0
-174.963898595614 -18.1904336573924 24.9296850614863 0
-169.777415935483 10.7835685166204 10.8190703425337 0
-6.25544790563165 -9.96543304234471 -1.50061142793434 0
-130.036571744282 -20.2661861804192 -0.397869507040784 0
-35.8694715653428 -22.0692436321417 -10.5718669449371 0
-208.750227589434 42.3942730561772 8.20663287257345 0
-190.03133346708 32.8299765155433 -3.79177405658885 0
-184.529754943868 -8.08651598225702 -6.16460215573582 0
-203.659716642656 0.925687902390829 0.354654051430936 0
-218.59607126289 21.1837548829237 8.23826431425265 0
-148.375281966398 -10.7156056450426 -5.07050685829003 0
-220.668469572332 41.3244480096548 -4.59504684301399 0
-182.362326517405 -12.8040803783147 27.7555881897184 0
-192.141672656917 26.7040267659565 -19.7650774582348 0
-190.901197415033 -26.5159777861129 2.26921373379628 0
-70.7334407412987 -21.2347091193396 -13.4624127362032 0
-99.8443545910722 -12.9332721195657 9.63975848154053 0
-146.237294457283 -20.2898730239928 10.0797403124035 0
-144.952779269716 10.7981245393475 16.3667075251054 0
-22.5188558931242 -2.59722622501908 2.59152189180282 0
-195.338521087941 45.3413848796227 -2.21292939702348 0
-202.757871465223 6.62397258301136 7.12812093827356 0
-192.172516329621 -13.6882926283431 -6.67359351327309 0
-177.903381888231 -28.7641128408068 17.2513997619273 0
-196.278252136221 -21.3749749177157 -2.16799067585757 0
-211.071816891786 27.5693447082713 -24.6936866139376 0
-167.795835300477 2.26592241319107 21.7118405852078 0
-223.863251313529 36.6717058024685 -5.42487618320908 0
-141.138029707173 0.372039765016072 16.1336881840469 0
-188.731857552597 32.2351427343304 -10.5898679590353 0
-207.714564825874 38.2420193481765 -22.6476123193946 0
-102.810283994709 -2.71074365427208 -14.6545086660562 0
-189.876460822034 6.64772644116574 12.2433749857047 0
-169.016850375907 -24.5787355497618 9.87130439658136 0
-181.985628732137 -21.812316515084 24.7480834102085 0
-147.826288335616 -20.0740019255288 3.71555603209953 0
-128.162802259897 -20.7501583894542 0.81772919308415 0
-71.9207910834071 -4.32588805544087 5.83231157914025 0
-115.085152750053 6.16048594573729 2.07487685238613 0
-102.486649359913 -13.2491628464232 9.9473114783993 0
-9.51649015185841 -21.6238974842647 -16.8201608903835 0
-38.5213023245204 -7.97518377835391 4.07577011362935 0
-189.415623042613 34.6568311621651 -15.3627412539732 0
-165.512936026602 -8.99605036306945 23.5934711296228 0
-55.4467617522528 -20.7100776894799 -16.1078733097307 0
-103.474853143566 -5.13155927994846 -14.880688350061 0
-173.679852124883 4.44854676503126 -6.87868327149444 0
-205.628380656879 -24.2682615543138 4.54321743813885 0
-205.748357935261 43.8876834267308 6.99864502885853 0
-61.4302684415227 4.34710745107072 -7.87970302667965 0
-199.528673323212 29.6295226556936 13.0171285216995 0
-97.6324707395078 3.98993168398711 1.44557410302958 0
-209.28239283189 10.4824159358086 -5.62321354688387 0
-198.9929652219 0.60089874733022 9.32554103943012 0
-124.952532309727 -2.62658316313431 -10.6559858213824 0
-129.582707714881 5.20224390487027 7.1498706712011 0
-169.206624416212 -18.9141382232582 21.9076804044009 0
-73.2466887930918 4.4302762411412 -10.9817546450061 0
-5.02441588174158 -15.942277848353 -22.7799130825813 0
-204.358355460257 1.73835432367504 1.69958365015548 0
-197.617835848537 11.8491399437432 11.0533067116549 0
-122.027046058454 4.37998604079677 5.98764639076096 0
-215.731314300204 45.2901607875781 -7.84951166912792 0
-72.5148736040613 -23.080144735849 -9.0086461620945 0
-170.938680142595 -16.9955057363752 24.0689450205292 0
-221.704884208143 36.4310523591861 -14.6275879543297 0
-195.873549406223 -10.9499092605776 27.6726514157311 0
-172.212135119033 -22.1966262414204 20.2225807025507 0
-181.922909961554 -5.8355725583018 27.4477856060458 0
-123.584941101311 -20.9620126008366 2.93994497425224 0
-201.994732144354 9.57605188237002 -13.4367215621008 0
-182.358774625262 -12.2983524606532 -3.42261015624902 0
-145.836659794191 13.0614926273595 15.1140544370725 0
-195.629333343279 -11.7026220259202 -7.8098883167531 0
-123.415232572154 -13.4373300572925 -8.62821504887136 0
-218.46903206374 24.9048832789191 9.42509425211775 0
-100.02644852937 -20.253623427637 2.35510966602765 0
-149.289927930678 12.5156899323159 8.81288399275827 0
-207.785194746019 11.8606933120731 -17.080857632167 0
-167.98974433968 -15.7629209186704 23.2321633658729 0
-190.143397519248 -5.27710369943377 17.7960530266383 0
-184.647055793115 -2.34982524908172 22.2000187548748 0
-151.769962536325 7.23426311491925 -6.25877747494647 0
-183.771114799345 -20.5634401357473 25.3294779132476 0
-97.8772978369535 -21.169261102621 0.829401017813778 0
-34.5911583188572 -20.9784980713571 -17.7209933221433 0
-46.0789135667117 -11.7772420039645 0.0504199777338931 0
-86.5971017278765 -13.5447478176102 -15.4234406441405 0
-139.909356202706 -6.27326908824644 16.4956655516738 0
-186.547212033733 5.4734373495979 -8.08007811825166 0
-206.249747179969 -16.0517698945782 -2.10645008513219 0
-210.255657091556 -15.2517813662561 21.1124192311704 0
-193.343944569658 9.44391023460174 11.704911435179 0
-149.353587644669 -17.7100029107926 -0.126736087110524 0
-132.372232774672 5.33906099150235 -5.4228887497027 0
-115.249841396212 3.87807911395969 -7.16477035151 0
-175.627647741642 -27.0316818876694 19.6271468364893 0
-52.6879659110205 1.32127978931122 -1.72644083587625 0
-178.07253845915 -0.366836084743671 21.0877502974622 0
-137.277427959943 7.83948610097634 2.32284450878885 0
-97.2384773256477 1.25318916346735 5.92135021156896 0
-204.098047806631 -15.243323724502 -4.35169019884587 0
-160.235558865599 -18.6174738272304 1.50771166176778 0
-188.381706955576 1.26931829377654 -7.57987507416369 0
-129.275386496291 -8.72778387810237 15.6197566988347 0
-137.171920772762 -19.7019557980282 0.846289304209759 0
-1.53817455953404 6.09219743144131 -18.8558339299983 1
-138.153416411277 7.64337696850306 -1.19016840901645 0
-122.73153202101 -0.610339682709996 -10.3245495550708 0
-155.448926290792 5.63995154068126 -7.19770872862186 0
-86.883319608886 -15.5888411035623 -14.4452447523477 0
-73.0197647103073 -9.68284478356019 7.58561300497953 0
-66.2038346433003 -10.2711314065474 6.29285814124083 0
-128.029983531638 -2.22711664933429 -10.0430703482751 0
-199.286051514731 4.53370750207254 9.64434530692808 0
-197.580800726691 0.226799638469652 10.398301239045 0
-58.5949546648598 -16.048348324905 -1.72327999139885 0
-197.080818540313 -14.8049794121726 -7.98714322500168 0
-5.22062399321846 -21.63941986015 -15.7929241547189 0
-193.189201657419 -28.8968721088987 6.73882713712794 0
-100.695161919038 -7.08998607833819 10.1448769332476 0
-150.877327423898 -18.5381014409058 14.7651047878721 0
-140.012234606415 7.86881956761099 -0.142663699408282 0
-144.753272329931 9.95234549925277 8.83756839553723 0
-187.627074441518 -2.62489570220696 15.9342002052415 0
-167.354927410014 8.30150730010872 15.3290997359566 0
-122.000255557718 -19.8411283002051 6.65239761522677 0
-218.301595844281 29.3520266842776 -20.9830470288595 0
-206.572710828879 40.2654934857291 -21.3054607759906 0
-194.491568597432 24.4128156963811 8.68356369258606 0
-172.963048878488 8.31279895329615 12.5146374065874 0
-43.7269778841184 -0.266231918014526 -22.7559076475007 0
-90.7619073906523 -20.0347878234113 -11.29060027463 0
-182.449691289519 19.8687964638651 -6.21784986658727 0
-111.268979897538 2.5969450665112 -9.04561695167495 0
