-172.338035601547 7.0411116222296 -12.9223830011488 0
100.74254190269 3.57945993217355 21.8945035392438 0
28.1425697877503 -3.12657378387767 0.0734699332741648 0
-87.646827540541 -4.82668765984361 13.6127792421448 0
-24.0241977557986 -32.7353508831232 11.9564456515164 0
-54.0592563455969 -4.56688184481411 2.37044406400149 0
-179.07202781852 61.0542229235571 7.13147328115621 0
103.686729302587 8.11737030823624 20.4184704332846 0
-208.774917200838 -24.1956576228321 -19.2553568765275 0
-186.970153761137 -26.6504166964232 10.4559645301151 0
84.0405646776144 6.29051662238354 20.7152949062294 0
-201.955279478805 -11.0532656847795 -10.1434751313416 0
-199.539849399875 24.2437033305656 -6.48075512970457 0
-138.71336824823 2.60728842472822 -12.4641187051396 0
-126.636459994789 -0.954991177721305 -8.80486762648263 0
-111.252546674667 -8.5622733425043 -12.1806148263889 0
50.369367110397 3.39080815189712 5.70350363695638 0
-97.5384404373966 -31.5147106346442 -10.7925684442101 0
-59.4668423448637 -14.8684370366939 18.7025420627656 0
131.114480223106 -14.3020503212283 -4.90455303803665 1
-55.1505936430396 -16.697301249614 -8.23179279817149 0
-165.085578377197 -18.2244750601076 8.87860178417814 0
-31.6751068909047 -18.841694713773 -4.47936334661508 0
46.5408631050222 1.06984754288325 2.66008959191294 0
-90.7543174575622 -16.4556968019089 -12.1114434130819 0
101.587839392341 -17.3507389477884 1.58762373748189 0
-173.834647627596 54.2306300925331 19.1151866893311 0
110.721898663312 -13.9156594190776 23.803617613902 0
-189.796718556508 -8.00347255279679 19.2444025073418 0
-188.334533474636 -15.4244887357459 -30.7068478701518 0
-210.756507876867 40.3171311039368 3.48730792776248 0
-181.157427163907 44.2789460847291 29.1262951233752 0
124.0939426472 -4.35464025480843 25.2238329738698 0
-198.117963073386 56.266351256299 18.8962634606522 0
-160.185583371453 -8.34875740423258 -28.95737208201 0
15.1745040916364 -10.0409766238362 22.8047350298314 0
130.236008379988 10.7241790721112 20.9979763661865 1
-201.065708642522 -33.6927780956332 -4.3202424036566 0
-139.875037211963 0.988691457696955 -1.7340518781464 0
-77.0999348780078 -18.6328439688256 -11.6813552951675 0
-178.826844526147 24.3820317305452 -10.0851247347468 0
-175.464434300893 18.7108951155315 14.4340394787975 0
-176.068629126127 26.2453658336436 18.1030286131144 0
-198.258506237389 50.3808142540662 23.9849773833666 0
-190.001478284874 31.1576098180198 -16.9629422513184 0
-156.155589116891 10.7142501612131 -5.04019200868134 0
-94.4554433110843 -32.1472874625778 -9.80463552363081 0
130.509324292405 -17.9172304911632 20.8967956364632 1
-170.670132085895 -23.7559868294286 -27.6365561740396 0
36.393617254806 -1.99445767983747 21.8674447491587 0
-202.661690435251 -17.9420200528385 11.6828510588169 0
-65.4440393317694 -5.86634041140913 15.6627981349721 0
-193.12336032985 43.4742092825931 29.253080176022 0
-145.116359774336 6.30538812924754 -14.4026434676233 0
-114.425113944136 -34.3352628859991 -8.1739817775817 0
33.1145284394351 -15.725110299734 0.752682826152934 0
-140.237557619387 8.38402821690486 -24.7683519835763 0
91.5778101012025 -23.7630856834812 11.2353494006844 0
6.52750797695125 -19.3261510828239 22.873282341427 0
-171.523454497111 46.1827689638708 23.4599669972944 0
-174.168646440506 35.8983770493549 -11.2669176183939 0
101.304049765382 -23.0584752528887 11.8140809738622 0
-39.7625180725268 -10.7082614314338 -3.98950566117024 0
-138.704037710261 -34.0255556271551 -8.99102015061592 0
81.2061579507961 -16.1037764814841 1.49384990604481 0
-188.12215880174 -9.64496028638832 19.3690852701205 0
-199.945485852746 -6.17511892371321 8.12347751668142 0
-208.463004820526 -17.2388462976314 2.88425847200674 0
62.7546662638185 -10.4037229783283 24.2424083221792 0
-167.99847549684 35.8730484160995 18.2648889224824 0
-190.266698227205 -34.775813571011 3.4335806224965 0
-197.114754002248 -10.3990385510678 -10.3350606883538 0
33.4780512677469 4.08796427500972 14.3037204781818 0
46.386913188663 -20.9210503537757 4.54539077508686 0
-191.28305560019 -37.6327127064865 -13.1775882546527 0
-188.168832984563 -12.1165882565621 17.8010207948603 0
-205.844550805301 45.1686848666117 -6.90593848222491 0
-68.3549858607793 -14.8511377695082 -8.91942688398989 0
-200.08003739187 -6.48981589810556 2.48069338534705 0
-58.9358758268415 -5.11763481050534 15.9799000909175 0
57.3108426335334 -20.5807757737595 4.61365998398361 0
-49.0677913398486 -10.5628511292632 18.6255057431595 0
-35.5848603643237 -29.2187304149968 1.7548054060385 0
-139.255256593184 -18.8161705997156 9.46767041188558 0
88.8167632941 -24.0340752179733 12.7825468127201 0
-208.167745494302 -14.0813114738943 -28.5543577295141 0
-132.482889956401 0.697182024190774 -8.95314461708836 0
-27.1938693663331 -23.3157467034207 21.5224214866422 0
-58.0762786435069 -33.0731670926025 1.64168302495012 0
21.4757018816359 -4.45410225355723 21.9631267090871 0
-184.113826953901 61.8766481970738 -3.74033682809972 0
-193.157627912645 60.3438063419575 16.481758946939 0
-200.492775780038 -10.1778107712916 -5.97646443720089 0
-173.119611404585 26.8853753504101 -6.47489980324355 0
87.7360305393349 8.45952184698159 19.5387221656875 0
84.4513552996191 -10.2767123759045 24.342020017793 0
106.497191645736 -8.85408387553344 -5.51435628541853 0
-186.519490800382 33.5371439692934 -17.8685465035888 0
-205.514182978145 24.2304989110093 13.6067675932709 0
-132.995202599936 -0.00958151975814522 -0.85544192814188 0
-178.642315966733 38.4423037974741 -17.1398593019516 0
-175.649618972478 0.783798493935283 -16.0080105711337 0
-200.576122465344 -32.2820793036115 -15.3715461768124 0
-210.072277539223 -23.1592491554987 -17.9729458448769 0
-206.714774419907 -18.8901998872227 7.1188505584986 0
82.9507152003063 9.91708465132041 16.5535646238212 0
-175.89902806843 2.89698815291989 14.3380975925107 0
32.5213596732447 -28.4637392460286 13.2189970746276 0
16.5237037656596 -5.62850932752847 22.0521780254253 0
-196.609741160782 5.11549981595718 3.0920412795722 0
-23.1489968093347 -4.61562476757174 18.8480621052348 0
-196.792107653984 8.1971301573794 11.1198490638145 0
-6.3774727099657 -0.251050744448968 16.842204633409 0
20.3497212657708 -2.70572868483659 21.4077998460668 0
117.753121745425 -12.1664331410422 24.5213578242447 0
-196.669065173616 -5.84261813490137 11.9396247691001 0
-187.332889842817 63.5871302608152 11.8438617354722 0
128.197449147642 -17.7165118585439 21.147827441247 1
-196.036871320222 42.7821792161424 -15.3998561545184 0
118.383419896723 3.29436058546295 -3.16348455869482 0
-205.770219754139 -22.4509978096259 6.92675921909947 0
-71.5784175924548 -34.8991104822887 7.77036229100568 0
-169.699890883722 -3.45118811116233 -26.8092439903465 0
-112.449607568439 -3.55607828640916 -3.48826829329498 0
-171.176963476941 -2.67994262102801 -25.0300140295828 0
19.2167756235969 -12.2958323846892 -2.78570190313947 0
-156.805683698876 10.2241727970461 -28.2561711105722 0
-3.79467803144304 0.863775446964829 15.0218624910146 0
-85.9674546087353 -14.714990346121 -10.9183773220876 0
-193.239399955458 57.0501757498566 20.5961157799102 0
-135.861732289737 -27.2869757821325 -22.6642351444557 0
-148.263569366176 -25.3605667910766 -25.1958284820741 0
-92.9457206707292 -17.3845141115994 15.8033300815389 0
-202.667208352051 27.4596880332935 21.3829346254263 0
-157.724998279949 10.5204905796926 -26.3951843296486 0
-194.884625863457 29.5716495565586 27.6844619907713 0
8.69508528052739 -13.784549501574 23.2083036355918 0
-160.83827591033 -33.1741292563962 -17.0772511759358 0
-39.7004846024417 -30.3523851424825 17.2654749276896 0
102.919597884166 5.84706277892821 -0.310225904249585 0
-67.1747517494716 -34.8840790593596 7.33124910075524 0
-122.674094387068 -30.4935726141302 7.06780581656257 0
-154.172801404215 6.40189655584483 6.64131047382778 0
-127.497796553434 -1.2348198997112 -3.83792529302466 0
-182.925639693772 59.0599769273131 17.8979215109634 0
108.985669308227 -1.9450024353594 24.2067485529251 0
59.4709325714319 -14.3573698685845 0.354567015473183 0
-198.906540419207 -3.78092570222801 7.51295647953949 0
-201.271129600285 -24.6046840689078 -25.1932257846487 0
-173.640681015166 32.7944523630695 22.0535661999186 0
-139.894255837199 2.22389254520907 -9.57551456996791 0
-123.17072200437 -28.0701809145645 -16.8620577805964 0
-201.083143466254 31.4301147334791 -12.0087314460549 0
100.911321520519 -22.5161475777434 8.25905020465204 0
-176.748548911639 -4.71213737871657 -23.5669024672237 0
26.575149632821 -20.6372349592754 22.4147011039495 0
-170.81387823904 11.8018580560978 12.509308504885 0
-164.098661051869 2.06019167784781 -22.9136882545724 0
-189.07003025912 13.069522026226 17.7482784268534 0
126.297109755279 -2.75717763434582 -5.0714263545557 0
-207.598292353723 -13.3670680650637 -3.54296847903054 0
-197.01678030767 2.83678702286368 11.5813336320521 0
-144.647331942174 3.68968144403731 -8.12891426699335 0
-163.618399508061 -34.0498362999264 2.50099292828572 0
-186.085383255452 57.7522183808982 20.7195156829066 0
-183.172295909957 -13.8055214218298 -31.6342210611687 0
-197.062572207987 59.6556424662415 15.2222641982185 0
-210.354540288404 43.8357613351329 7.78262026842279 0
84.3803225804147 8.66634294652528 18.932813836623 0
-161.175879232785 -1.8594840048937 -29.2052213836411 0
-186.823193632175 32.8283112281958 30.0592951793842 0
-191.790352523591 23.4480598030148 -11.9957518046796 0
-134.004220285245 -24.204959210321 -23.4729992958732 0
13.8752428655081 -14.8251700721235 23.4146699650558 0
78.8570146626606 -22.9662862909661 7.66768733836622 0
-180.410732749357 -19.272749048628 10.8493380153089 0
114.567249480766 -8.9761868510382 -6.06515531492122 0
-52.8086248482172 -9.64507476322204 -2.74153957297647 0
-76.4877743080145 -34.429776979761 -1.05440485283388 0
-130.114569009599 -3.64089441483529 11.6346586676984 0
86.7927525800475 -7.63091149432215 24.4497756365833 0
-126.900131457912 -0.930462084690505 1.17748801316367 0
-63.8595360509917 -7.58755579497599 16.3712008783946 0
-89.8834659745377 -9.99995115706112 -7.5509965933052 0
-209.952407209281 33.3418689778331 11.5116749006422 0
-142.087028564298 -26.7925083021225 -24.6870140103681 0
-150.191001078091 -34.4756947264239 -7.20806256381024 0
-178.615729805204 -17.3599838233112 10.8987591111017 0
-180.431504349303 52.1316695604425 -13.0176449289805 0
-170.122362858966 41.4423945782519 -12.0259920569446 0
-191.265373974892 11.4032466265122 16.3579311825111 0
-63.8190712390878 -26.1125763792048 18.7250162254428 0
-87.088617080473 -34.9836410419243 6.04821314868373 0
-174.531032145589 10.5434007905098 13.7065810594803 0
-198.816326773169 -9.66620580680247 -25.6921637736793 0
8.26456806797841 -30.6963646049321 11.5623619425904 0
-181.368152661424 27.1109839243407 26.2806935354351 0
-179.108685081822 22.7268184170703 21.2338727617 0
-138.451705668413 -11.9403835813023 -22.0669449466646 0
17.4549560557421 -16.8900122713353 0.926344746124218 0
-188.936814139762 27.5040397635757 -13.8136230394111 0
-209.127362600449 48.3687220604017 7.6135598399196 0
-48.5319052967551 -1.05316628681119 7.68348564076799 0
5.90402781913093 -15.5751552609058 -0.90195077667046 0
125.803803720114 9.508108521022 -2.6449031128595 0
-208.727101741229 -18.785471927174 4.54072739230072 0
-155.978131290024 -33.1663038955704 -15.436895454482 0
-163.168618283946 -31.1841638242899 -21.0830827952859 0
-211.497121597508 -20.8635113016705 -18.4549891864351 0
-186.392291643188 -6.24797019709714 -17.6200116995227 0
-160.382357537221 -35.532790532212 -8.4601797256396 0
-171.77368183533 40.6812867634085 -13.869313546637 0
-78.0664379544544 -20.1463804258572 -12.4673505063267 0
1.46393703343328 -20.6267026274757 1.73288097569605 0
-196.880746536651 29.4611421727813 26.6297249290321 0
-193.156541391443 19.8900633475058 22.7224050313024 0
-185.364469620687 -38.3088659841657 3.50613599059691 0
-204.925261691462 -30.492933264606 -1.9323619267503 0
-22.1374749134182 -4.7010820937291 2.38320188068116 0
-159.63875258548 3.48465319676037 -29.4627606708529 0
23.3771123967521 -29.2078580215559 11.6922704625199 0
-67.2061865719634 -12.3515237996539 17.4094089484172 0
-174.333238885568 39.6323805847378 26.997180033321 0
-138.948202852897 0.821031695458344 -25.290514889479 0
-109.866865375579 -19.3226887526217 13.5662814158703 0
-143.043873051527 -3.62063078348454 -27.9978615094769 0
91.878449768751 -8.06415503639458 24.5849815760046 0
-195.874226619774 -30.3719743979613 -21.5200593063486 0
107.131638334286 -9.75596754427396 24.8156082138566 0
-200.406363045367 -30.2986791066352 -19.6457045050395 0
39.2341112057588 -2.68950765199263 22.2989623737697 0
-143.349995367315 -22.4835185051483 -26.3875626152188 0
-205.747534902373 -26.6534126876598 4.76984768958316 0
-209.21441597927 31.0820833424683 12.4105730313603 0
-200.345184269073 -6.27048025667376 4.27390718254026 0
53.1691367033003 -7.14324594378824 -4.59427632602947 0
71.4722343911253 -13.1651839336007 -0.477300158669166 0
-112.357552973066 -1.40588005254464 4.01047345412356 0
-198.937583571011 -16.7511986827604 -29.5252766790673 0
-187.645719016842 11.4188428867471 17.5379674064115 0
-145.414119294569 -12.1962530378504 -24.9066342836675 0
-172.533769954286 48.4089834074829 -10.787059777461 0
96.6695154782174 5.42657452915206 21.4281449925719 0
-133.761129278866 0.177919801472919 5.89184899285304 0
-165.91560970134 -13.014818552379 9.48480741968766 0
-11.6833102169809 -24.684488674725 2.73302524492319 0
-196.419860295031 6.30142883823079 11.24629373534 0
-178.293551443918 -37.3328332888449 -16.7241669650286 0
-158.879484057917 -17.0899247280151 -26.6893480223382 0
-191.693237847194 17.0120361641725 -11.1914200684824 0
96.3885628939 -8.21698428330985 -4.37677673855913 0
-77.6393082195219 -18.2442074063696 17.7055711581674 0
-145.756287690122 5.64231730684493 -12.4394474390189 0
-211.469367168042 -23.2472093779451 -14.7433718921242 0
-176.208265618062 -9.86412631127696 12.9711291425309 0
-45.3888676922361 -4.43253077749184 17.2557363369845 0
76.9765654692846 -23.521177025578 18.1857038747524 0
-142.373785254613 -19.4510358908688 -22.9923219372676 0
-180.646727173997 -42.2695134800984 -3.15896111854336 0
-155.048377719572 11.3867983777735 -11.3729127586995 0
-213.522850034381 -12.3224026354498 -21.9480432277111 0
-195.03972304077 15.6154899739775 -8.1134430154885 0
-4.28688429377474 -18.0908347525817 -0.576741527528762 0
-189.495601484153 17.5159140717854 20.5143279756645 0
-208.333381546635 -28.357772814442 -7.40902628876286 0
-197.444992572872 47.1012433822795 26.389856999454 0
-212.778986943498 -10.5812320729408 -11.0340786308895 0
-5.44700525235491 -24.2748385007261 3.25503331694282 0
-212.559949526853 -22.5025883938948 -11.2072141558692 0
65.4433727144183 -9.10271184804905 -3.32312301300747 0
-170.308837795235 37.1775561963728 23.1458845515908 0
-110.980003317692 -14.519520628115 13.1764697583134 0
44.8282891884658 -12.3905832620048 23.9462989202328 0
-97.9249129664064 -24.2207858903879 -15.2862521328483 0
129.017406122081 -7.29093419806146 -6.10295428302587 1
86.2888010691207 3.11967716766204 21.8027027119912 0
-78.7391301255152 -24.3933630414633 17.6777749240988 0
-195.470941923537 -7.17426084206548 -6.26195982193333 0
-177.816432358421 33.7705078207048 -15.4704930898591 0
-113.09228155728 -29.2079893988141 -14.2365362024066 0
89.1272566381326 11.6255419151988 12.0065629599108 0
-209.533007163736 -19.4377090471984 3.31538133023276 0
-2.11992347420902 -5.77934910604189 -0.560448212897671 0
-86.7946602638671 -20.4774787949524 16.8819217296293 0
124.866351965508 -18.7253630182034 20.075591920582 0
119.840649756355 6.18843009981247 -2.4969405287621 0
-24.2974220269897 -30.057564963588 4.92191599411275 0
-75.925216516764 -29.1702946763395 -8.54484201649636 0
125.785195852424 18.7596209316273 10.4406563523576 0
88.8830484043387 -6.3488206042746 -4.43176721873435 0
-18.4640507188926 -0.558885297205008 8.29950363758423 0
129.655957816838 -10.0567520371531 -6.33637481089728 1
-56.1745911011197 -5.78956059970654 0.935819027371649 0
-202.971263255605 51.5561294574596 -6.58790652241346 0
-62.3501378121385 -7.73946869182651 -1.27020523574486 0
130.906929371756 -15.0204907791854 23.1862342782283 1
-179.524185887792 -25.1094587032523 9.88501739629191 0
-192.543586489788 -11.0583853998104 -14.041752094001 0
-209.403375074305 46.8727511267714 3.85699134092793 0
-200.338632145639 56.5364790514629 16.5203056485748 0
12.5731339067234 -4.02694092855814 21.3055844546361 0
-87.6325054690731 -1.75864950369853 4.24918288870473 0
122.419140485998 -8.97705537318804 -6.14101390189257 0
-110.521888626385 -23.4531032765508 -17.4046948101704 0
-173.368668213748 0.454073854962055 -17.1953556462137 0
-208.783795503132 -27.79397814171 -9.75006470651839 0
-152.936657365936 8.24216185478381 -4.77764198066394 0
-83.825820401243 -2.00894674890587 3.84422794796425 0
-175.917714551738 61.8205320154451 3.1091223018618 0
121.734570073598 -5.99119389341187 -5.60703986251075 0
-51.4595462955385 -11.1023736570628 -4.2659120849759 0
-169.43918671038 51.1833244810514 17.1546702675712 0
-198.060891058815 24.7542747395712 -6.72291421848697 0
-202.53340379754 56.7590566090588 -0.0346508086797425 0
88.2703427647178 -18.0255908224758 22.294802814629 0
-198.242943106985 21.6858137149547 20.7755102014517 0
4.83768075841082 -20.9425263489711 2.23550779555538 0
-112.955641392786 -13.0222985082012 12.7612319544543 0
-203.379818894504 -30.1632776608181 3.17110686930073 0
-185.950933597335 63.8678227717676 1.18496807948702 0
-163.4457911329 -1.90942094465822 -28.2760845829307 0
-148.472851728759 1.57956649685504 -31.7943901174943 0
43.2517608964746 -8.67492981204622 -4.69364111661078 0
38.8549575229354 4.49443781206144 15.5349614156142 0
42.1290814189413 4.85319686276171 15.3565502202279 0
-153.42563118309 3.72048652588793 9.94044497171949 0
-177.269966730911 18.856357904421 15.7168048296311 0
-213.071934455452 -21.0442650345309 -7.87107641766002 0
5.47275914300615 1.8341831479679 13.9780739921547 0
-120.235008586995 -26.8551808880949 -17.489527356651 0
-198.009652929032 5.36637750734835 6.43256961098756 0
-189.887941538985 -27.5581262369424 9.14466134019653 0
-179.503771365397 -6.74202807540356 -26.329343242976 0
-161.598730465428 -0.0770652817193633 -28.9763668728727 0
19.59958737155 -17.2473868390124 1.29310379755459 0
-141.259951251072 4.06628655224442 -13.6678653915338 0
-188.052226839104 57.4888999496574 21.1060285107224 0
-203.431335795785 -16.0817163962943 11.0320894602247 0
-155.025865002977 -14.3627454899428 -26.6311554860378 0
-97.760753069171 -19.4208906091319 15.358156560953 0
-163.32102028874 -22.5289557892712 8.13129306864707 0
-178.450567023957 -7.86295416205974 -28.0112479435634 0
112.094328776706 -21.5778596176771 6.82684354224303 0
28.7301523050661 -11.9301325981993 -2.63591617578034 0
-210.225150760672 43.5596971726692 9.41048729772487 0
23.2328201917394 -5.24968320783595 22.242486879778 0
-59.0249958036753 -0.751912914784139 10.9307635728485 0
-132.775059205815 0.0156710696926927 3.88962087913101 0
-204.811568038908 -12.5249929849415 -28.5242101636993 0
-203.859056710498 -10.3553305992858 -28.1927194235547 0
-179.872308351266 60.4901793391063 5.04724089696605 0
-179.461239136446 -18.4751680573466 -31.6110000519041 0
-1.41656597337404 -29.944860346435 17.3847395003934 0
55.8828955167059 -3.66097708360952 -2.91750033064298 0
103.283069357921 -22.6768600582501 9.40272031713449 0
-186.768898428856 64.2608061749122 9.9154613035629 0
-155.084767827496 -28.6910684505805 6.38705971660265 0
-206.088677500886 -30.3595865828089 -11.2862710772387 0
-211.491444632477 -23.6903308906249 -11.8255778099612 0
-206.300249596253 -5.90226584897153 -23.9034645646217 0
-178.209930090177 27.5381433268428 -9.96480153269852 0
27.7886234822096 -16.5002138588364 1.18435682533732 0
-42.6349006938063 -15.1936990676216 -6.46729850104174 0
-174.398995579933 -3.9475750666437 13.894357476655 0
-195.342232305396 63.5040448720922 6.73798814247022 0
-124.473674064412 -1.36262863783263 0.659546165494237 0
-199.109829054824 -33.6289605139008 -14.378388587828 0
-174.734028584966 35.3452818402813 -15.0105260182479 0
-185.737199816466 -41.5103359969137 -3.49489465390014 0
-193.773235330328 -12.5388858922538 18.1221863440845 0
-193.370434446577 -17.8067932360134 14.8188215037381 0
-107.350199904396 -4.93820572563168 -5.4895325139796 0
-182.086688760992 55.9577501764359 -10.7597777531098 0
11.4917599578038 2.20350632179949 14.4425300285069 0
-92.5641065276146 -9.74673388702061 14.3998081753514 0
82.4530217290932 8.29409267016584 6.06650005870987 0
-177.33851818602 16.0076068177299 -9.78741288855813 0
-198.634584487495 -30.8895726559061 5.04573582659407 0
-185.328822808358 -2.78648895735508 17.0516081906682 0
-197.257635404117 -7.74643627313741 -4.88962587443854 0
-176.386703764492 47.9859767289911 25.9538782678485 0
-209.72584221702 34.8257835486277 0.136319997192199 0
105.866890890023 -6.12961076732988 -5.38300516214331 0
-187.691126194768 24.1695461679756 27.1028261663295 0
81.3355931939407 -14.5258966076614 23.5779028097477 0
-144.196329588612 2.60943024103702 1.37046767287674 0
-161.723702374279 -32.2803867337557 -19.1394837252999 0
-210.494055252096 -14.6794365014529 -1.63809639719116 0
-32.2470435249282 -12.9840253113526 20.4247566907312 0
31.715889129618 -11.6081965270879 23.4968642556834 0
55.8343927808177 5.42818848547083 8.43860584279242 0
-206.496922252676 -7.38176442538661 -18.6087779347278 0
-84.7740922152527 -2.89338057565516 12.5149904764221 0
29.2298302373627 -25.946257438586 7.53445322373448 0
-207.769713599402 -15.7590524516518 0.903325662736949 0
-189.262701371317 58.3817505423331 19.9707456544064 0
-68.4401710150551 -8.04574714570999 15.9810412198047 0
-71.2176119070752 -15.5127512601323 -9.53685433364623 0
-35.9859231795508 -19.675597964186 -4.59000263142132 0
95.7573739558279 12.5643885606918 10.8883836847508 0
-174.423786582583 35.3359191864956 -9.87652690438865 0
-123.230153558503 -1.55649938436967 -1.46707693995854 0
-97.6849232553157 -6.01275447699967 13.4442586646652 0
-158.195996353027 -15.1389018283731 -27.1140096743136 0
31.7340873992254 -23.2533665827687 21.1550118028292 0
-69.8271827352345 -21.8366146523033 19.0661754026972 0
-172.543588304054 -17.8620541304613 -30.1323461345989 0
39.9571778305908 -20.9243218649402 4.3785040938015 0
-205.453143400555 29.184905354457 -6.95578712591932 0
122.649191188666 18.0298755727967 9.66611185249971 0
77.3262079276463 9.6065232398535 14.4414942770978 0
128.977540668451 9.93150490991217 -3.1424946704329 1
-204.248369167169 55.1999933809333 12.2280544142431 0
-210.575254283313 -15.1580413030759 -26.5010266304484 0
-95.1592082812104 -18.2969309927428 15.6342281932497 0
-159.233347377436 -4.3586467150325 -29.788267077675 0
-202.440665008421 -23.5088622439941 8.30064873705498 0
-58.9743837817949 -23.1056380800493 -7.45743038761843 0
87.0801149038294 0.191169607788514 -2.23547253436995 0
-112.495658076784 -31.0618660805772 -12.9157749416797 0
-209.283030023989 43.6011699087662 13.5639556978979 0
-58.0666659538695 -25.8417044740201 19.2879647516641 0
-139.035707223989 -4.4570658131643 -24.3897789500557 0
-167.014686217908 36.6476396969186 10.0315386920876 0
-186.767061239728 56.9975118280882 -10.2371609840472 0
105.972227952957 -22.1922576433481 8.0418090287195 0
-203.744782585209 -29.5875633736367 -18.0237531569967 0
-99.3257296652156 -2.81841227326226 11.4083323745233 0
-176.260421012469 50.1767452376674 24.5807511243961 0
68.926166824322 -12.6319828869628 -0.92280921054131 0
115.457818478752 -14.5749561056399 -1.64781080968252 0
-12.8452443811141 -2.05897496396991 5.23711136345196 0
-162.30986872081 43.5306983158798 3.75456808237742 0
-14.1907024021898 -15.9285018474288 -3.49867389777499 0
-146.807617796046 3.39166253489456 0.463632054358638 0
-124.285013701673 -1.80162985991362 -10.1548665659987 0
-169.60964186453 35.0040204451082 19.8910247908196 0
-197.93993628858 7.80849638377351 6.18105771450371 0
-82.8572066370247 -35.5448292366083 1.73601976415956 0
-124.013192472787 -13.1736696129792 -17.5919292893514 0
79.9663875791094 6.68213348481934 20.2389296757021 0
41.6153412008964 -20.5082486728516 22.3492592695954 0
-109.639013138248 -5.12294179640238 -7.76399350814185 0
-174.433145313712 60.232326955087 1.83351206430493 0
-82.4453464816768 -23.5324828052255 17.3344268044162 0
-173.671067041122 21.8795232077652 -7.7139371619112 0
-208.205400409972 44.3176055343811 15.8156680598157 0
-202.470749987278 -12.5232081647542 12.9211525871988 0
-100.533467131845 -31.5153708390571 9.76873669153431 0
-206.586707890191 39.3237319538354 -7.31099212806247 0
-32.5231658532117 -12.9811405764863 -5.96725846751307 0
-104.386069145074 -1.95791999793627 2.97860683478067 0
-41.6440840609039 -28.6874967935627 18.5475585610515 0
-97.3542520609496 -8.35173197082191 -8.25433822378796 0
-95.3711104313042 -5.86684009552804 13.4727751810275 0
6.86257444557083 -27.9238326832819 7.00079685902248 0
-80.8620693520494 -21.4986059833707 -12.7167111974596 0
-73.644282368266 -15.0106364771433 -9.54653529689403 0
-130.135304394289 -28.0907740233918 -18.9325832652565 0
-130.119748271184 -22.5519180442287 -21.2480668584936 0
-175.19751997856 49.0274110308385 -12.2592912816808 0
-142.181061390116 -8.55839672431285 -24.9094460315734 0
-125.013896740161 -23.2169524942203 -20.2858938392994 0
52.6856865305596 5.94859090310532 14.0258362257767 0
70.1212928646835 -25.0151386582887 15.4582284918977 0
-204.813026885071 -13.0396054223 3.51386799742445 0
-189.637122234471 22.6585566752643 25.9663718105799 0
-116.634213696659 -34.7294533132015 2.14282529600995 0
-207.620992418817 -24.5797168309392 -21.5859849167343 0
-204.266637532707 28.3798109369268 20.1457613018257 0
-158.455106785039 7.00789225103005 -29.6457438248061 0
80.5018877567518 0.181768593783222 22.3959812361392 0
104.579744708965 3.5328027617878 -1.72091604689915 0
117.631695055476 -13.5180460451451 -3.02915487943429 0
122.764399578105 -14.1620526405267 23.6316418652303 0
-203.819513956808 -17.8008872821649 10.4761443726593 0
-120.559417585963 -1.156212121456 2.98436806680784 0
-70.214295560961 -35.1614303134275 5.4479067858113 0
-24.5500936751136 -0.342900330716015 9.13978162523563 0
-38.1611911060927 -5.67539234104173 1.73275163923905 0
-160.217009635907 1.13795539262944 11.9499672329621 0
-198.302926009169 -1.77770903053056 1.61698279814896 0
-67.4880733191167 -12.661597200536 -7.84666820435996 0
-164.665374464958 -22.7159975446887 -26.1985879727798 0
-194.954881919111 -34.435647284304 -15.1504417367024 0
40.9986326232132 -27.3543532788297 11.2519341259021 0
-198.892238674615 62.2162959626512 7.12833521301214 0
-160.279447198704 5.43775579277424 -20.992494994095 0
-199.580205624797 49.2891806452015 23.7518382077764 0
-142.311914078028 -24.5197972669618 8.39986438829206 0
-186.610968390935 -7.19123628582019 19.3122539159455 0
-185.895602575808 27.7618061106662 -14.6437885728842 0
46.4181474521205 -2.56233344044014 -1.07167518354028 0
-156.186591772413 -20.2690863265946 8.24673933587427 0
-190.489887824383 19.6000914291217 -12.0341984796239 0
-174.137018899354 36.0440723262221 -8.38532421553705 0
-209.387372787922 40.8312969947237 -1.7464477458113 0
-203.21622690881 24.1667414919868 17.9696504422806 0
-149.551584326077 -14.9795129622127 -25.3665865606833 0
18.0166273286161 -28.1998725595136 18.0804252852386 0
-206.250015766779 31.2271183979858 18.8235710801876 0
-137.127880526768 -20.3598642054111 -22.3706212227998 0
-148.240948548599 -31.2986110286916 -19.3776832230357 0
-199.09279917212 43.0712827512451 26.8707632918169 0
-32.4427446172415 -9.42413311237664 19.621179850293 0
-138.348931634503 3.13348803556623 -23.109313275639 0
-100.582595229515 -7.29019247893479 -7.59655560096309 0
-16.7999676836402 -16.0450230756384 -4.00056324555372 0
-4.91641620020328 -31.9380001817863 13.2669415487141 0
-141.158020070505 5.31104489550507 -15.5414380917098 0
-197.526563795687 26.5946671456221 -6.15239418593465 0
-195.909496580884 38.3753725030798 -15.9635694386157 0
-176.490139096568 -31.0078392086745 9.44926525138341 0
-185.122943718097 -9.90663485328741 18.2318252931833 0
-166.972780126315 -19.7587957114883 8.94692923128652 0
-176.024506526865 54.0552095198853 21.110990713164 0
-208.354914329625 49.1351231585224 2.60463054042913 0
100.420870907767 7.18465175687837 1.09161956388972 0
-117.478629079895 -8.17389308095205 -13.8588958456159 0
-82.6331920896466 -12.1817233830831 15.8576428161648 0
-192.653278347357 -19.9383806962663 13.0885697890153 0
25.0809503286856 -27.1883428476277 18.5813683737977 0
-96.6490213797151 -16.6936779380904 15.1642306791312 0
-49.3696960537089 -34.2384519796005 10.1924130334359 0
-37.2864442635171 -24.5409235870179 20.7738215154474 0
-44.8698965384276 -2.0033328885029 5.80646787224849 0
-207.747970087684 -28.1356100129739 -4.80714927607767 0
-209.4740682083 -15.8036067083989 -0.3779805140318 0
-199.48426784887 23.7324065116972 21.6392677890134 0
-70.0499457302353 -12.0002422525326 -6.83132114659837 0
-177.93465994457 35.8378494252708 -17.0133475246877 0
-151.253490492347 7.30756721339885 -5.69431255429781 0
63.582883001523 -6.63585913098048 -4.27072653260822 0
-194.441330092332 5.26783714468032 -4.54832595894287 0
-204.7016106209 -24.27167988217 6.85935039340774 0
-186.822356796446 -8.73630544760876 -26.5915023014914 0
-191.478799095065 61.1188501995998 15.9711640196716 0
-106.808964065751 -34.8910159499817 -5.6701132725013 0
106.759776931344 -21.5985120841777 17.2332090891066 0
-166.249066822951 -0.993083105931882 12.5057636451961 0
-95.6224170295582 -1.6594827076993 9.951062202954 0
-183.632021921808 42.9444635435114 29.9714020342059 0
-209.859711051224 45.5686758781118 8.72252065545895 0
-7.7932371324724 -14.999578425474 -3.07935393181135 0
-45.5485968577099 -10.6979192898968 -3.75364963847294 0
-60.1955953208355 -21.1836282823735 -8.61029618400664 0
-49.4640950934344 -28.8788693612913 -1.50946928455385 0
-69.0480612950695 -19.173044712666 -10.3523690130245 0
105.644506972313 -2.24404113347257 24.0487193897565 0
-168.592459527845 48.4635834703484 18.6628952061874 0
-197.061920535564 48.2160717108212 -13.2577326268241 0
-184.466752251714 49.19107486672 -15.2012154632302 0
-200.664622933539 54.1500567151388 -6.68408269739042 0
126.735114991546 -21.0412806212319 15.6791146533399 0
-1.23313387825775 -27.5007233471856 19.7210351262749 0
-163.13233531896 -26.1495224218713 -24.0727638831824 0
-190.585441262445 56.7124874880083 -9.91948976949606 0
-149.869061588278 3.58835646678245 -32.6185710711617 0
-204.318280558447 -28.2400780602585 4.54879707057832 0
-187.888098465338 30.2997697458756 -17.3145405115127 0
110.578276259182 12.5521296520131 4.61968554027337 0
-75.2292143909837 -11.8909363647303 -6.84598630415658 0
-166.389839829196 -4.17079949257968 -26.527527062564 0
-111.168337724329 -21.7195407423825 -16.9338785852062 0
109.032251588465 -14.9357072855535 23.2979717104761 0
54.9980349881299 6.16136447812626 11.4423704311919 0
97.7719155483196 -21.3082592150678 18.8911216911844 0
-55.1362202635967 -4.1129938189577 16.1430920510149 0
-198.581812469398 42.8359627529704 -14.2349949977475 0
37.4638540126839 -27.6967263820629 11.281165385911 0
110.504877377583 -21.7694488411054 16.039521724229 0
-199.748803331822 29.9168858918856 -12.8490349005872 0
-70.3417872247634 -24.9583563953606 -9.31001032258347 0
99.0949424466284 1.97631552208959 -2.10565799206182 0
-158.131509339043 8.67418965712665 -22.553943254803 0
108.33822212491 14.9756141509156 12.1435261141345 0
42.4645810972285 -26.8996096596774 16.9885174336984 0
-204.775053557214 35.592847084289 -9.77119983583928 0
21.3048393759335 -26.8642647047385 19.2290899189957 0
-204.25351128018 43.6557484535209 -9.4545880080833 0
-160.325485879529 6.44522100783955 10.6969276280132 0
-11.4728046974112 -16.7352394839314 22.6903760461709 0
-188.430174676414 -7.66452379296233 -22.062980870591 0
-174.317852469101 43.0586813684847 26.7039867890157 0
-190.943848950798 18.8152519440435 22.2851497933937 0
-182.565373875299 -38.8556311578491 5.12014157744695 0
-16.8555395084777 -32.0024040884678 14.8853095242762 0
-49.7776738448635 -30.383909052191 16.9584782803556 0
43.9701417191004 -25.0078661298036 19.4008918257037 0
-147.566828307867 5.01378434353572 -6.58114975109016 0
-170.495193027643 -30.1193042911408 7.51200982130755 0
-5.00195146234895 0.995336413620183 11.888942250497 0
-137.55942560995 2.55256429039634 -13.9282034509566 0
112.298665794521 -19.2001822139925 2.59297170792625 0
-208.548844847699 40.1939268900242 -3.92908820531246 0
-129.306378087895 -6.71499226651481 -17.6114953221704 0
-50.6326461730652 -16.8104762309014 -7.35392255488362 0
-154.636865244033 9.3863865916976 -4.91670080255566 0
-181.894678773624 -5.20257690750173 17.8444819211292 0
-23.649368774105 -31.7119586891525 15.8500744887688 0
-180.793223103311 -32.7852649805393 -22.9534551813886 0
-192.812077168029 60.1880282969017 -4.88763306251272 0
19.5934804555606 2.60150292384523 15.8545747181389 0
11.5221455283944 -16.2493623304038 23.3511874382364 0
-205.03686618235 -13.2543597192255 1.57793886401729 0
41.4593214119944 -5.53082097521688 -3.70272399701307 0
-188.014226841834 -18.1101609132449 13.0444012393988 0
97.9480516465965 -0.128457427380417 -2.6996969915025 0
-187.173408472429 -38.684251230593 1.0518148171808 0
-205.711091301036 42.2659086668999 20.7965264839703 0
-112.18118138902 -1.5777128486167 9.51898951364417 0
-84.6627456383705 -28.725971041825 -10.3414642037605 0
-196.930869327755 2.81128004068525 4.7621878689361 0
12.2269894522102 1.29330074862829 8.45333724721686 0
-191.799502289699 -40.08061690598 -3.92015751442692 0
-208.347099551311 -26.5673845223412 -1.96625042420297 0
-29.0479767279515 -21.3402387473648 -2.09860832105544 0
-180.126302314419 17.986664303941 -10.2581253635007 0
-151.9845412096 -13.6778287315425 8.68122174532389 0
-173.577395187335 14.9076500725482 13.3934605143267 0
-57.4145900487994 -1.90145914002406 5.58780614529802 0
-73.492485094508 -35.2435796918437 5.18850396678372 0
-72.8609640389812 -2.23487615982988 12.3184490182283 0
-208.654793934959 -21.340835823995 4.74747819019396 0
-9.70092512061046 -9.43184925487066 -3.99019426323959 0
-185.885270495135 53.9516116227511 24.6554471598092 0
-70.9300338831034 -9.65418819467877 -3.90872161242541 0
-92.5609898435167 -29.9847041255308 -11.088787040978 0
-16.5840004766147 -13.6990799512562 21.7464649927558 0
-158.622411410483 -34.4875331483102 -11.6621116347663 0
-174.60094260784 58.942983961694 9.55750288359399 0
-26.9153494968364 -9.34870365640799 -2.85793834646736 0
21.5681927140858 -23.2147486825056 21.5544612650664 0
-135.34848095123 -30.0112161804404 -17.1991279824048 0
-169.343155525388 34.0539203079199 16.7681817447426 0
69.429812694026 1.3449213659281 21.8491580535972 0
-163.328086293604 -12.226177548162 -28.889916614763 0
-206.890102303672 33.0270835000772 18.5404458630241 0
-174.956387966127 -25.2698021699809 8.77998191108364 0
-199.279841762986 -4.31671442106772 2.65134622024324 0
92.950069596688 -22.8784268123018 8.23169848207564 0
61.8422639324881 6.45379358204736 9.02828790146018 0
-116.169565554078 -2.24078843059779 0.301738369645866 0
-185.958691512142 0.201097694683474 15.7274427918512 0
-207.011763859977 48.2309228933047 15.5163342610919 0
-176.398232109768 29.2920739827965 21.6695153835619 0
-164.818501659725 -32.5894516644703 4.84610891710702 0
76.4222671143299 8.82116349974559 17.1612296921074 0
3.86153789452943 -18.9851470476294 1.0270634364117 0
-196.586166158277 3.81857239449301 0.0448192110627616 0
-7.86795246252556 0.895004518848049 12.6910782105202 0
-187.58964685524 -20.1514452355601 -30.3893442326613 0
-182.677154460309 -42.1094855117483 -4.62021191485824 0
-152.962558739148 10.6276634386868 -29.4854274327904 0
-190.787314047696 -2.98311638069794 15.6249839872843 0
-204.219431706442 -11.755261533698 -8.93726958031361 0
-69.1950993551724 -3.09151030878014 13.6160082805563 0
-201.774208240837 -32.3501539872985 0.561814403814687 0
-206.911007591669 -17.1011555748182 6.53847484792032 0
45.9325208822259 5.02095503677872 15.9729661572318 0
-43.0270382680915 -12.0549321130586 19.3917389551411 0
-169.887730864307 37.1202157261415 -11.3268160214264 0
-110.816594527412 -3.20058737751645 -1.40537329919192 0
-149.335214250136 -11.7902906793198 9.29717822739198 0
-200.071269336271 -33.7678295685248 -1.83628749151177 0
92.908489005962 -6.76708544297482 -4.60881004257496 0
-200.288237132383 33.5836240493193 25.8657328523884 0
-18.8837540456254 -22.0322281375717 -0.181607917581024 0
65.3414237625622 -25.049512853324 16.6871132658128 0
-78.9702375735709 -7.73467057777617 -2.83406607315512 0
-176.892197118515 34.236032875982 25.3053888210902 0
15.8365788232638 -6.74560632865156 -2.90548836990844 0
-119.975078144167 -26.2055985878775 10.2759398463096 0
-91.2956128784563 -11.7360373715988 -10.4247281648866 0
-132.211574770971 -19.3798107745755 10.1681522381827 0
122.088121461005 -18.6090960845442 1.58615852645014 0
-99.7936133713276 -17.8060506722414 14.8973201718616 0
131.034294994269 3.17502155423613 23.7185067324952 1
-177.414695255192 -9.21190707605381 -29.6829837279619 0
-159.015709933427 0.127282326213642 -30.1200586070094 0
-202.128226406565 20.0539194409889 9.94411943016245 0
-121.066310081809 -2.25457891998956 -4.72433348325767 0
-132.118977416367 -7.19036982762887 -19.2630099993204 0
-82.9979317635531 -1.64005361558418 10.8955773968197 0
-164.685935562747 -2.87938725890058 -26.224641773096 0
-187.079477178328 60.5156960509174 -6.12803932156665 0
60.8113966171641 -10.9480531337552 -2.27141860013444 0
-184.421733875483 -38.6066924430237 -14.0439208441446 0
-117.402414371787 -22.8587458027969 11.886169116713 0
-203.476972504018 22.6689390171149 15.2834369675659 0
41.1619679716352 -8.0387830404384 -4.83716273653637 0
-188.694385142423 -15.7682752711823 14.3327480214737 0
-8.99756220660406 -1.16880261321064 6.52597366018079 0
-122.69571808297 -12.807724643648 11.6966281623021 0
131.584153685879 -17.5484380878964 -0.688247129104678 1
-119.339744528838 -12.937466066868 12.0294395307118 0
-175.519258515054 -17.479408518972 10.465233056995 0
-184.381050962864 24.3880987312119 -13.1518450500957 0
-188.195551061985 -2.19844193453055 15.7395293892602 0
36.5750395715945 -0.845128519965097 1.9920645718407 0
-196.859903532307 35.2631669695095 28.2515404865387 0
-192.730411439793 28.7351203435285 -15.9032794399493 0
-69.7977321437136 -30.9163780036103 -5.57167732204698 0
-211.676540974086 -8.91707896468565 -21.8763916729587 0
-186.640231397114 38.1247698351416 30.8421138427719 0
-202.961660109445 31.8923356005519 -10.7690514389259 0
-100.525279269907 -28.5893995846402 -13.1360671603455 0
57.6428139932997 -5.31533628512259 23.0731814159014 0
-5.5676095227489 -28.1719752052103 5.76516508618968 0
-193.067570025988 49.4716697294359 26.9465430221403 0
-205.955468624487 -15.4020639853559 6.10989225700029 0
93.3437960694553 2.17029763368232 -1.53604915413603 0
-26.2848644964171 -7.34068132273978 19.3493850801336 0
-39.8106719233811 -12.4603943052288 -5.76322869600914 0
-204.868762857392 -7.14207021548548 -20.8680496278556 0
-98.4859678956998 -35.6414930970287 -1.60951866680445 0
-172.364864781026 -36.6259160003643 -14.2740129780163 0
-173.148336093764 -20.9460674056208 -29.3131955364433 0
118.333389522122 -5.15846269285802 25.1542838893323 0
-66.2777028285142 -9.58712866767033 16.6731538968603 0
-169.232746060259 -32.411535583556 6.4003848012736 0
-141.24716329529 -9.13014841440128 -23.8579103795598 0
-88.3756204749282 -33.8550868023572 -5.94784452249529 0
-202.324761103412 58.4929618587977 8.2159415808835 0
-194.546688641023 55.1179629821187 22.1164203891057 0
-215.431517307814 -14.5168755853147 -13.0066030358396 0
-188.61199874303 26.5151440405266 27.89960007868 0
-31.4515965019867 -2.14243355930767 5.44838419459366 0
-54.9483672493297 -27.0327488600102 18.9691192210257 0
-205.371119285601 29.6673471316227 19.3459165087457 0
94.1500838323848 7.68898969459326 20.4394474485532 0
-168.348232415361 8.80480661442203 -12.8411494042602 0
-192.088397812892 27.3935449933711 -15.1435541900148 0
-139.429902992082 -25.3833546693821 8.32792020837158 0
-150.90558237768 -7.05792952163636 -28.9527945470218 0
-204.145910053863 33.9894628881978 -10.1877135809535 0
-60.5288556231893 -12.1361381556247 -6.46165784309666 0
-14.932878819134 0.235058269139202 14.7166059069809 0
-128.605601691877 -2.12994873307377 -12.9266967450917 0
-110.571953511611 -2.31126057333051 1.36789145410034 0
-42.456767639656 -4.07374600585656 3.34326047355188 0
-202.166049342111 52.8077346924032 18.5112041771232 0
-32.4683355658572 -21.1714426327696 -2.95886985897767 0
-80.5359329198905 -23.4608362403937 -12.0407449049254 0
-150.418185703109 9.73671331613707 -15.0221439686421 0
111.389528976897 -2.27516557945419 -4.21464656125627 0
-46.1463838873647 -5.98660043817324 1.24163733274561 0
-148.082049951705 -34.3247038155146 -4.14945625160742 0
-102.639946045093 -7.23563218655826 -8.94104322399308 0
-196.402649683985 19.1860823815701 -7.97560723716981 0
-186.411207295056 14.8365795332789 19.1789069808 0
19.3541805304702 1.06211973147117 18.7629986326046 0
89.6269558654241 -7.94843837375025 24.5577344673206 0
32.721371197189 -24.0944790922559 6.13748709723412 0
66.4297479120413 -3.47178842491315 -3.25034106247302 0
-94.8191406550175 -7.39606059377042 -5.39411206871456 0
-209.945326053362 31.3744303812133 8.02835391480478 0
20.6135950498577 2.20463554851562 8.95625861721093 0
-208.217217981172 -26.7492291287424 1.29247837382098 0
-196.357116162261 -29.278773067621 5.99452810980948 0
5.94109950733774 -15.4035433735286 23.2656557173376 0
-196.893656235771 -36.9716253285754 -8.80845852543178 0
-128.364984845272 -20.8364810497272 -20.400258206298 0
-171.772475309021 -32.4394617370243 7.73745316321654 0
-100.763588790628 -30.9322705358122 -11.6069221556216 0
-201.359898279725 29.1885090908332 23.4801743122876 0
-58.2288721606553 -29.2111141785977 -4.15193211517531 0
-173.890214595879 55.6206015289671 17.217521071349 0
-162.861490767276 40.5751278608583 12.6945458945823 0
-205.554989404732 32.6543816774755 20.3492795127237 0
-180.454097982037 24.8333835080764 -11.3734391857442 0
-121.560100470225 -4.53844466161106 -12.4517674508606 0
55.7712132122612 -25.5510645580946 9.90295878289114 0
-77.5379848585573 -3.44687682778897 13.3501450917916 0
-59.7823453798132 -31.8987620523739 14.9448785642331 0
-177.050641020013 -4.02480850044762 -21.4544928437037 0
30.896783929029 -20.099121129979 22.5111929066032 0
-192.314390354083 -33.142265869469 -18.2570071468193 0
-40.1695273304168 -15.298397667166 -6.63472887004698 0
-166.923633607143 0.828791028085995 -19.875543265248 0
-181.802932829853 -3.81179530348952 -15.8520819499963 0
-33.481752604162 -21.4960366145571 21.7544492760985 0
-210.011846250796 37.1701361222957 12.7786507595548 0
-162.711050077658 38.1084247315641 9.05867009597605 0
-178.862083340156 -4.92315779390756 -22.5485902176031 0
-175.882630281903 -35.043953995612 -18.3931234676977 0
-158.420296515428 1.40270965583668 11.8291214502645 0
-6.80976797967527 -10.9701603548335 -4.93243616698636 0
-25.2719497168664 -17.3209139139978 -4.64016217259369 0
-66.0210336442805 -2.52763713661258 13.4421415921686 0
-184.799556196187 56.0510773014803 -11.0323413612092 0
129.974234167438 -21.4913568320906 13.3544754739815 1
-148.857203767314 12.7466662227316 -28.7209477524087 0
-185.076145176095 -7.70677165868218 -19.327697743054 0
3.07654920665614 -22.7078451772235 3.10133879282998 0
67.6166616201811 -25.4263740814134 13.7550778859078 0
-185.90390374788 -26.0450626143965 -27.5951783867328 0
-151.652241566987 13.9389341800754 -21.89766810464 0
-107.688686890576 -28.2816308237004 -14.5489551234749 0
115.861753217452 -11.351838018852 -5.57977504228277 0
8.32947396777114 -30.5436571363768 14.9027643943563 0
-19.2051159260826 -17.5430152991035 -3.18935144504161 0
-162.256239391518 41.5763634065866 9.95080936938787 0
-49.5746894313699 -31.4342355815734 1.61900764768115 0
-171.92475095881 10.0528765143132 12.8581695049145 0
31.2932275526419 -25.8473909560904 19.4101879072801 0
-84.020512715158 -26.396486521538 -11.3871420973132 0
-194.711872423511 -13.4955602434128 17.1082060812779 0
-138.172540924593 -33.73170704769 0.428271777577335 0
-125.085759315186 -1.55130537811911 -3.86289129840589 0
-8.9631865103736 -14.1936197991622 22.3985333764001 0
-1.69602260132965 -11.7760268614016 22.3458904557697 0
-45.5587779545383 -17.5079838161064 -6.72695430894393 0
16.0647330317471 -2.07113561302369 2.71628801672958 0
-210.085648060469 -11.2847288161039 -27.2258193064277 0
-72.42770895191 -4.87020649229876 14.6528986032922 0
-191.154037415415 -32.4307180976695 -19.8318959630404 0
1.5838478279543 -11.2344987929018 22.407789320532 0
-187.597213844108 -36.71934703639 3.26638935230361 0
-145.13200111001 11.0668160665009 -29.7978758863981 0
-112.192856625748 -35.3409514000733 -2.91061403347765 0
20.8860429403823 -0.124375361478004 19.9908249696845 0
-205.521530198615 21.7087203390247 8.24265496575392 0
-164.493472110154 -6.17755542636542 -29.1125140746417 0
-191.096818570131 1.23723216685604 15.6524483589811 0
-71.9735184995008 -29.3856020463405 -7.40089103958442 0
-192.794475519599 19.0440961855289 -10.7919068070499 0
-92.6675807774087 -6.95603753385353 13.9475443685679 0
-197.585536212175 1.48616458384427 3.71902640945374 0
-120.336478909598 -32.0432731287592 -12.5965846139547 0
-185.080492720103 28.7626991679953 -15.5062641706639 0
110.358132171039 9.83512032814633 19.9238262996697 0
-207.86076841269 36.7931817842054 17.7890380485367 0
-195.55907509812 35.9642444347297 -16.037767546252 0
99.6838643929641 -5.99077742684559 -4.99900141159583 0
-184.858051585902 63.5871518473599 9.40181657792486 0
-167.298259301754 21.8033294584054 -4.39427840877496 0
-22.0335526173426 -8.94947420438246 -2.43136390629793 0
-203.588947637202 -31.7108762228239 -2.36413877850218 0
-50.7785951681742 -33.1380765557738 4.24595387265309 0
-79.8225537311807 -9.5136598224598 -4.72928043544842 0
15.1203159250761 -3.69230186653088 0.862812249101952 0
-0.016469198805806 -13.4686943224918 -3.41673166027452 0
-189.582990569302 2.12480069242447 16.1359275728019 0
-77.443288144557 -14.0877437265361 -9.50731796353447 0
70.9642290816802 7.92569795054654 9.20865164883794 0
-113.091929508386 -23.5995265916845 -17.607670657622 0
-138.869039339731 -30.7898789935723 5.08833217636217 0
-187.43365532039 -25.2710115874919 11.7551333388312 0
-188.952985883591 29.3272278466152 29.0666585065739 0
-167.684872620979 -35.5467695517468 -14.7110806138395 0
-51.9763913557109 -27.333827326206 -3.99060862580144 0
-202.588316623397 -8.6313424379603 -20.7829170656793 0
-58.7313448163268 -3.30046697295841 15.1620530470667 0
-102.995279994484 -34.7384806316791 -5.63962858628116 0
-176.558809473226 -20.7243468352142 -30.3668785262453 0
-203.854194952837 53.989301413505 -2.61801963121578 0
11.222999550491 -6.10266862108223 -2.26186228954026 0
-101.972021765506 -26.07915777758 -14.813712968779 0
85.7504594007326 -10.9664541237909 -2.14732593067404 0
-93.6380550054274 -25.2209572315755 -14.1334484047615 0
-69.7868430141459 -12.950270112549 -8.26808463768816 0
-186.310583894643 -1.6774483671916 -12.700922498819 0
-91.970473775787 -4.13212086701413 -0.0953971005730666 0
-145.498996818993 12.2762712608824 -27.0888106934558 0
78.6826796781641 9.87041190749238 12.5447231458095 0
-162.914628019127 7.60722653078483 11.0597145188689 0
-208.741195069349 32.7722241249513 -1.9516553572643 0
-170.922064105225 32.7908629541622 17.0403322853207 0
-169.494786378464 39.1728400827414 -4.32220018208828 0
-183.231076145342 6.79966696764203 -11.0256747028003 0
-157.495074083789 2.47757799303629 -30.7555239973356 0
125.094630645785 4.13524257894091 -3.76467010921547 0
-199.504218392133 33.8508416395434 -13.8909928693033 0
-20.1710847034207 -11.0621629472982 -4.99988853976585 0
1.26853455648124 -19.1858397309492 22.9045769608427 0
102.668246546451 12.0869535254899 17.266940786657 0
42.6588536205712 5.00170936099908 11.761966683497 0
6.9240539645552 -23.2180043832389 21.7318068445069 0
