-222.412334773965 -31.9344132423321 -4.37739991984641 0
-201.468488252744 -0.856179132313519 -20.8442508239488 0
-206.933072327191 15.4364498288578 -11.6965634141878 0
-232.081137678602 -26.184329152461 -16.2358268918099 0
-17.9643520211984 0.492625861346633 21.1137711813839 0
29.8579949928268 -14.1367077501215 19.9109216671146 0
-149.439193462735 -4.97639911281766 11.4118356597384 0
-174.630881580999 -19.813375959556 5.43493662955269 0
-258.293601037819 28.0239558629555 -2.16273476599851 0
-49.1442056261896 5.08513685219969 9.29931822862637 0
-18.6049210377635 4.31126165277974 15.9890414479278 0
-184.067949172422 4.35478612835816 10.6667423989376 0
-156.351264772227 -2.8237752476032 -15.4372981619578 0
-153.778800966304 -15.5257245588868 8.73795722494251 0
-181.630879973327 -0.175285756616926 9.24888495079585 0
2.93815722312551 4.32395653868743 5.61119736819437 0
-218.757037118594 -9.39315857632886 -9.63578589245058 0
44.917277667134 7.54129506259084 8.26541928380364 1
-38.9129129634411 -2.35382061851146 -7.39556115354722 0
-190.726458420291 -5.60166255775236 -24.6250228782386 0
-12.0330318972928 -6.60332662677452 22.9529391820986 0
-8.63178683934098 1.96568097822531 0.970508474809036 0
-14.2900023071883 -7.70310887103127 -5.52842920808703 0
-88.8292084071324 -4.49578962565792 -8.34490787926529 0
-209.472426843085 -10.1455669873868 -27.1805671015959 0
-222.151243246328 -11.7580665390329 -14.6655753562488 0
-242.719255458668 46.4845170309111 -12.1604104431047 0
-206.658714865571 24.751699998338 4.58341399040814 0
-11.9498942893024 -16.8224439168424 18.8859086350953 0
-70.0244870571152 -16.4668133578911 16.2493088289155 0
-116.71015910551 2.50537451058026 -6.63272665206701 0
-158.591458420156 -6.17316799992817 10.3582415557825 0
-29.6343886783914 -17.0966799805749 1.65203977775968 0
7.70530426132629 -20.3776411005674 12.0870476361177 0
-210.761184772245 -15.5677604312121 12.2840574815531 0
-70.6572354596265 -4.73991025360068 20.3043698255046 0
-220.461645591477 -16.51746293238 12.2758884162532 0
-145.905999792762 -15.940469895837 -12.7962345354986 0
-75.726050228856 -0.841938426953887 -5.73263635696957 0
-229.515364835764 1.79523679697395 -1.07745461843962 0
-230.319030773379 31.1852160273491 -19.4177992754635 0
28.4303817186546 5.35089246460245 19.1393337163908 0
-72.2175713170395 -7.61700974396488 20.5475178544131 0
-60.5265824091579 5.4219184143247 7.97718507515901 0
-120.627569066621 -0.314896537355584 13.0346266920977 0
-214.397622893363 -35.6896854645779 -4.27262344069279 0
-5.78100654810317 -15.1594349329359 1.4812353889488 0
-131.975555513258 -16.2794535868417 9.87430603888246 0
45.6340535658573 7.56603410807357 17.235349858547 1
-121.535215153501 -3.23820438406637 -9.79455063449437 0
-131.649356942103 2.1222847502723 -8.40299791485643 0
-125.510684464704 -8.90372834921589 14.1533978067517 0
11.708918215472 -8.25954224555913 22.7300006163223 0
-182.09773026159 15.3801848273248 -3.19552101226252 0
-169.404774398552 11.9288912106681 -0.821774509942215 0
-226.913898986002 23.2127419053492 22.2913246143428 0
-75.3888851356061 -15.979992321963 16.2645141113562 0
-100.573963282534 -2.09181740715174 -8.51134159395463 0
-147.435043770956 -19.8661150706983 3.35251010712899 0
-29.3207181048189 -1.73050113786997 -7.15203199515509 0
-166.769930641573 -14.283983160676 8.57791904164681 0
-229.683064821896 1.65210516543158 5.20496259432482 0
-228.521933199129 12.1689691311972 14.6395475830974 0
-228.358329713231 3.22114369302374 8.60570883197402 0
-215.893646520034 -27.4834281836007 6.67631892733802 0
30.7010736472267 -10.4916126696671 -2.8136094617643 0
-239.544140774145 19.5032608574649 -15.5632563178203 0
-127.940659889926 -20.5812863960275 -6.50064839506336 0
-106.326469122343 -2.59431087972204 -8.60324717594621 0
-177.969053617449 17.4452930304387 -15.3673785960302 0
-148.903097730005 -1.48667103164999 -13.4290557123798 0
-163.601508942088 -4.22854565736062 9.82568352977211 0
-223.145290455259 4.33904197001151 12.2694754678104 0
-206.444485910363 10.3153291559229 11.5369756232919 0
-218.444660588106 -9.39172867042418 -15.6834983831427 0
-254.096745238708 28.6515761542825 -11.1981517675625 0
-205.692654765339 -35.9499389866884 -9.35229319209874 0
-86.4021837136867 -8.37002222732609 -9.50237290209079 0
-232.388893589211 -12.7883229553051 0.329162019342619 0
-107.695926959918 3.51991760840069 -4.79995967181008 0
-65.2451223461058 -12.8903972523184 19.421885858157 0
-230.09718939173 -13.0072273738345 -26.9411517262088 0
-250.894389331549 44.4391091211185 -8.48065689329339 0
-115.249250228388 -20.4369954810787 -4.59888612389403 0
-166.777109426959 -12.5859821121173 9.03222953599372 0
-61.3274883267465 -20.6427781424841 12.121450577893 0
-243.764389363154 30.6850264241948 -18.5810814205868 0
44.5038730597482 -13.0045004215606 20.0785489033671 0
-54.2389636335682 2.03455640794406 -0.969057238769959 0
-195.764015040243 -3.19854870450978 12.0398973539473 0
-14.0195891152488 3.0842656320242 18.7874935131753 0
-212.577890868345 7.77275923977948 12.833010752957 0
-192.451374860982 18.0515560107449 1.85438310789576 0
-73.6496264480578 3.21955658618521 -1.00628233337202 0
18.1631408516971 0.315763695451267 21.847059035599 0
-211.972192083908 -36.1770405017455 0.0676571357581591 0
-131.741877036225 -5.06872850981268 -11.9127204969062 0
-246.502889585697 44.855047052336 17.0798509218387 0
-203.964622122358 5.8354580564076 10.5638799221851 0
-219.816629616945 25.0761508238849 -11.6187204590547 0
-243.798815585853 15.7318596831415 -9.46576323966214 0
-23.887321522092 -20.0838413744284 15.366856974494 0
-190.177017033782 -26.7621118365679 -15.094214097386 0
-195.975492998783 3.1284165516788 10.8146789554546 0
-215.826900496951 34.8821507411469 9.15972576032918 0
-227.005331320497 -11.1381572922284 -25.082381111665 0
-129.967230412396 -8.77857884770559 -13.5632545502443 0
-225.882236845799 -28.4277123499923 -16.8529050413671 0
45.2716053887258 -0.790626610932481 22.0941555678596 1
-130.74553162056 -11.406448108604 12.8719399119457 0
-160.854871896605 2.01865396011235 8.98889030096502 0
-138.549714868611 -12.861286808572 -14.2705154024342 0
-42.7286295207624 -4.01127503070889 -7.86578668523665 0
-198.112195295806 -27.0755639371937 -20.3630170552447 0
-157.050924955931 -14.4017277285609 -15.0276053296846 0
-247.128407662525 45.4318129277919 -11.1017945031277 0
-192.401207775372 -22.4604025044568 6.19629466737045 0
-28.6647709585718 -14.689410443913 -0.243783645348209 0
-234.197193078916 23.3829145005969 24.1721611584643 0
-96.4737175021878 4.50712029405987 10.6406705082362 0
-182.6901543665 -25.5248450751586 -7.20100127556777 0
23.7815512475532 -14.1851840667329 0.766663828288454 0
-230.600019820119 52.460701588549 -2.34803378710746 0
-89.4121617314173 -6.44711181105898 18.7446054741023 0
-58.7454035584974 -11.8918632791997 20.3887514660209 0
-189.388667444217 -25.4904551983084 2.682763703435 0
-102.599906597471 -11.4066098080131 16.5611446391192 0
-157.40877004614 -21.545261493888 -0.847870088398756 0
2.58532759792771 -1.06898974054533 -6.54472456225776 0
-212.691738307669 -14.0030496611085 14.3624756824371 0
-7.61980887408185 -8.8437249058692 22.7482071740749 0
-192.940226175312 -5.54950843477098 -24.9933664175304 0
-243.869745224381 19.481331269291 20.8526403638357 0
45.89790784729 -7.50895998634071 -5.97209510469624 1
-196.624521538071 -14.5928944357723 9.36854826032258 0
31.4302703589859 -12.5308677831878 20.9073011215215 0
-196.335964271344 19.5053964952736 2.47767525513943 0
-154.655456587334 -0.982745680642825 10.2127836513478 0
-64.9976039468065 5.4320946294285 5.14347915553249 0
-127.585588933692 8.51529436130263 1.7161428190754 0
-223.0906845494 23.3514591572717 19.6768378434017 0
-247.532866116928 13.1551730626638 10.8036026467935 0
-125.586470583289 -17.1425939810279 -10.135627575444 0
-194.42274428494 6.0875933531628 -19.2451614785938 0
22.4545501869469 -12.1388147995604 -1.16375530248936 0
21.2655080536936 2.00811497879496 0.639338458376045 0
-210.625233216567 -4.32604883696244 -17.1762787250207 0
-219.330563565145 12.7488000038893 -12.9878836851209 0
10.9150277420841 -17.3439297977896 5.16882044804267 0
-182.493082197601 -21.2800335842062 -18.7643686444116 0
-133.610867631758 4.06142406964697 9.08529933031132 0
-205.823798142979 17.1076432355484 -10.8483304365381 0
-161.704917968943 -6.49043475250523 10.0729417906453 0
-218.37809434609 -13.7837873776872 -26.2882516413221 0
-5.70884596722421 -15.8095581576822 19.565097921499 0
-79.5263915725699 -3.62153242036382 19.1233153723677 0
-108.612306825656 6.272176835537 -1.37826929884823 0
-228.435609249715 29.898449421237 -18.9536480034498 0
-182.463028312024 15.2156711998103 -0.970521219675012 0
5.09840997485869 4.83319950510288 18.1277604071476 0
-198.156406636411 -18.1398610416857 -25.2705671352283 0
-8.61266662741047 -16.3645940219613 19.1739638625911 0
-86.2767483655623 -20.0791397191248 -1.58140715275915 0
-250.637658023892 47.4033638697344 9.10515414069264 0
-251.341050151257 14.2890142340077 2.97136808382415 0
-176.328552492875 -0.539852355818129 8.89317945808963 0
-28.0297457047842 2.05110801012237 1.18226237057683 0
11.8649514688254 -5.35206708388026 22.9641240667508 0
-76.4299619291834 -7.38746177510956 -8.89836538988397 0
-258.718538379225 29.9900116636924 -0.514013365126118 0
-84.7364441634982 -2.55684824349337 -7.8867927233957 0
37.5427177089642 7.75649089606534 15.8161222740364 0
-43.1332483480683 -10.4759950915552 21.7749228560769 0
-245.863204887719 23.8973156242888 22.1806415833254 0
21.3415619846472 -9.29409159578249 22.4413545916043 0
-8.48851242770459 -10.3695600884392 -2.92872176939856 0
-221.644938301715 24.4452968228665 -13.0104040992754 0
-218.649122319575 44.2897985693959 8.09087583662317 0
-141.145858426715 6.72210991209215 -5.87804189882937 0
-234.572419235054 -20.0425560130207 -21.3244202190648 0
-49.621425905723 1.44847732036186 -1.51313695779774 0
-172.28197169267 15.1920674562041 -21.0909519239971 0
-131.573348073475 -21.2429241681451 -5.41732141452429 0
-197.85089383278 -12.0258978003201 11.589300404177 0
-237.202833460289 -16.9401757608043 -8.97424739199288 0
-198.572510466618 20.4475480959486 -6.07046874767129 0
-188.075336341598 -22.9197297509724 -20.1794974499993 0
-52.4475025389629 4.13005478662166 12.3653828553596 0
-201.561501388294 -33.4730879352036 4.28901258315408 0
-109.983142924514 -17.2504561605976 11.3086514149272 0
-24.948561713145 2.3472121387933 1.90055416545333 0
-48.8423451962526 -1.61173528921947 -5.96071444244386 0
-22.5632272029963 -4.81912260969313 -7.77274770569522 0
-19.3619525428592 -16.3381680939168 1.96566884394299 0
-228.386636717934 7.78373464270341 12.8613170809897 0
-32.2763565586882 -0.0281139624040857 -4.04361266937993 0
-127.76115333593 6.16482544828109 -6.18272061810842 0
44.1731866854251 -16.9776820977877 15.8622166792508 0
-235.126833887913 -21.0140972308305 -18.8755910416301 0
-248.19933468667 42.8858846349308 -12.5719159905333 0
-239.192530938609 15.3292864061755 18.9267033357163 0
-97.0604745490123 1.30891068138641 13.6613668319693 0
18.0360699225766 0.689918831723195 -1.72321009474513 0
-206.762785657229 2.95785130951403 12.0649424227586 0
-142.011621155417 -0.129602553569694 11.0537629978462 0
-128.694483713406 -6.84377751701325 13.8817448664142 0
-218.60237210467 -23.5583979399124 8.69312282235861 0
-228.452574381575 -4.40089826499722 -0.788688215869253 0
-174.627587398202 -5.6371480385482 8.97236576452419 0
-71.8369850923751 -21.4463061936734 2.45409159016987 0
-183.371096370457 15.4961704107074 -12.4406106291863 0
-127.04384560729 -16.1060487840926 10.6523731488929 0
-196.164943372802 -32.2976531241538 -4.03187328939922 0
-46.756315739429 4.99693770743563 7.57761010202369 0
-237.71983032908 9.68500889321016 4.74074444427722 0
-157.599986382383 9.54837108045463 5.11213262009573 0
-96.3637075812512 -2.00819560611706 16.3507418448226 0
-255.867595912236 39.0715374530531 -5.35823437489759 0
-205.809229553627 18.8795353407727 -9.8742891784238 0
-13.7260564284299 -18.5998251173017 17.4158948123063 0
-123.493187092102 -7.07382916824925 14.5586340434411 0
-253.350734081831 18.8635020233922 10.7428467159166 0
-195.572593982137 -5.49578069539603 -25.3114993987763 0
-72.1912278188145 1.86196678418932 -2.6478389334207 0
-230.477735891395 -15.4489854577418 4.40228139721537 0
-75.7710378481588 -4.375353273894 -7.83200217392902 0
-240.303128809632 26.3016119919873 -18.9172514218344 0
-201.073645257809 -3.75844799205423 -23.9556405134847 0
-186.73143383481 -11.3223458986311 8.50210779827678 0
-149.221321137615 -21.7264642833823 -5.67275409929533 0
-249.149802710428 49.3939156242904 3.30915978089366 0
-155.280026009956 -16.2848085940286 -14.3962327372953 0
-220.866288832994 19.5485604741194 -12.990849733993 0
-248.370558160765 16.0518126408785 14.6920715140769 0
32.4816165276629 -14.0403594890818 0.498292197661422 0
-109.544450786303 -2.38964858236811 -8.81984362002115 0
-66.4102006524477 0.273451989424892 -4.2617623653209 0
-184.400480230937 -22.1355311679337 4.77853751227711 0
48.1942331466364 -15.2928702999923 1.46409646168103 1
-199.195709382069 1.16910080025247 11.6709063707012 0
-49.3573655121159 4.4009403892377 11.8563956872059 0
-62.2304189279028 -1.96091972360541 -6.95356982838439 0
-19.5985971274674 -4.52921107442067 -7.98925148899763 0
18.1336336199693 3.2175369861929 20.5508623529949 0
-220.040648257051 -7.29789004188858 -6.74668278879165 0
-222.615329720532 19.4767981803758 17.2209950386529 0
-221.883656486247 27.3319264628099 -12.4783894505924 0
-214.505529686398 27.4924955117855 -7.60789816199729 0
28.4075462503234 -15.5185220746382 18.8877563976023 0
-243.809255911909 50.3451778540966 11.7247681444378 0
-181.20693970992 -23.2468300528739 2.14853817005394 0
-197.109540124646 10.1287327217818 -15.2448911668461 0
-221.360924977374 -28.0481386039035 -19.0730431807123 0
-151.217720526011 -21.822083854326 -3.65683507765866 0
-129.891437826875 8.20363268968102 -1.87536613780008 0
-199.962869871683 -12.1294388542054 12.1445689597366 0
-240.062121461884 52.5665593014014 8.35709658185688 0
-218.046835712201 43.8421089396434 -1.92730737055004 0
-234.063082330598 14.2663902591325 -10.791444339177 0
-159.639469645713 -17.1075887397034 7.30998701434515 0
-216.818839109418 -34.4760035671188 -9.00719599536652 0
-226.206191005817 48.1354888355571 -8.63359684143045 0
-157.616983009726 -22.0144103939042 -3.59092941498939 0
-107.226872423446 -17.7430752931299 11.0697285109229 0
-61.6093737049088 -0.0310761391744237 18.1282777343338 0
-135.176890292586 -2.62829099308453 -11.4399477414285 0
-157.33393685611 -9.48994027102985 -16.4779232442657 0
5.11896907857586 -2.31155551729008 -6.78075937765258 0
-170.954644076613 -22.2900320302922 0.145681971614465 0
-225.698876444674 -25.3552623744482 6.47950442981026 0
-179.334663783213 -23.6938763365585 -10.9471931275375 0
-40.3992892191064 -5.5356966962581 -7.80125567114748 0
-207.713568731373 -6.71526071360239 -25.3061128727811 0
-163.883649869328 -7.80431041298866 9.88351742157201 0
-107.026989805922 -10.5444028925732 16.3191521955674 0
-185.539504835053 2.20794073885404 -24.8100757189575 0
-241.821010576893 48.946524775512 -4.78276049229412 0
-248.495246584716 49.2013039500358 -0.407531098239807 0
-116.042251452635 -9.83367557349735 -12.1028709099622 0
42.3223167707136 6.47605562932194 18.6113664531348 0
32.6682748059006 -8.27047356028163 22.5429042858668 0
25.0322198280911 3.97064830926855 20.1639375370252 0
48.6724722688956 -11.6346992013329 20.8931203405883 1
-216.270549362688 39.7252285817009 1.19117640808731 0
25.9374244642227 -0.627014634483198 -4.78329229710621 0
-65.1004122267537 -19.3988945149456 13.5488326007754 0
-135.817663824179 5.19904220801131 8.10451751561606 0
-64.4126743568883 -4.73407918272135 20.8690341010635 0
-192.523334123878 8.18999806676484 -18.6414812480585 0
-120.453506197627 4.91990965846429 9.22600911248361 0
-232.534905742525 -9.43244504711635 -20.7123973969551 0
-228.998749547678 39.5704612181245 -17.3044841315381 0
-20.7923350071833 -9.10164229467582 22.5525392204318 0
-56.7358660819472 -7.40266299971452 21.6392586687406 0
-147.29075111199 -21.1926828381098 -7.74948104110041 0
-234.035556347303 -24.4325597469561 -7.78605114037257 0
-208.160872575149 -18.3841879599381 10.1647992509595 0
-230.672061385751 3.52512033847293 -0.825172160809888 0
-228.740975899598 18.2730649952177 -14.5793802223308 0
-220.967795081131 42.4362485684471 15.4345834494785 0
-206.513119821456 -4.4021268945481 -22.8084262080857 0
-244.914332386525 17.8372914004396 -11.664642157683 0
-101.165202393092 -16.599934556594 -7.56061117623114 0
-4.07952060311392 -0.136851584948741 -4.59971038971436 0
-224.954526222782 35.1739916352447 22.3027908658929 0
-252.74233059809 16.0157376140373 -0.78446256696506 0
-227.796030813655 -4.98714189727774 5.50913016530912 0
-98.8238359479706 -21.0143586731872 6.43444784948358 0
-50.6114636480577 -16.0122539175412 18.0750203898338 0
-21.2703886702448 4.8514272148331 13.5248285627609 0
-242.136776200093 52.2622678835828 6.43086254790632 0
-205.828973863055 -24.0437190694074 -23.2861906788068 0
-208.714476872706 0.711867923489661 -16.2136459334864 0
-247.374738159451 46.8525927609576 14.3203527799524 0
-113.948632526673 -17.5801186707586 -8.47457260039081 0
-77.0068381598888 -10.4288992006775 19.6228078795866 0
-228.942659995774 10.2063695676397 13.3682493298186 0
-237.785732464736 50.1405708619023 15.0954852093995 0
-162.605257746418 -15.7242516285101 -15.17488698938 0
-190.855503781499 -26.2858685161075 -17.357001920389 0
-221.061586729952 -10.6872899229345 13.496301416781 0
-191.935170492909 4.4451470008084 10.4607484687231 0
-239.935430710914 10.5599592374142 4.27418100290778 0
-104.037412946004 -21.2143404922806 -1.30154366726524 0
15.5067339099167 4.71013063539175 5.62291978523689 0
-189.769113308802 -18.9616782261021 7.13799898012945 0
-152.771671555097 -14.0757313983402 9.59946407476155 0
-229.508255503647 -26.4334457000023 5.27705065126264 0
-137.172947379849 -19.6470110707902 4.35628561310524 0
-111.868290222946 6.35785831871078 7.48053049948323 0
-213.592226502727 22.7950238984401 -9.71452038150335 0
35.1065533674265 -5.2281472872141 22.6587532368186 0
-201.173027766015 -7.98757522353766 -26.6747296598199 0
-29.6157983355556 -17.3183606670062 18.1635571865903 0
-38.5376772488659 -11.3378377771673 -3.15484206948368 0
-220.440747969261 18.0689777986418 15.3601000688684 0
-231.850957138372 22.0420371705288 23.2809594615739 0
-174.121879539442 -13.4143242307011 -19.1043851644726 0
-123.099301012932 -17.1476698406676 9.90065933555003 0
-129.649945872674 6.33229110343566 -6.10199497047187 0
-104.798133072503 -17.7428164642743 11.3319608189238 0
-229.427471305492 4.43655155010016 7.23642559546393 0
24.6572308589211 -15.8339012571004 2.94931867567517 0
-219.391006578482 -28.0038774373566 -19.660353309574 0
-172.565953527836 -15.2875825298526 -18.7842895582831 0
-148.555377558235 -15.4052395076377 -13.5136505590568 0
-184.119547242 8.98744486062535 -25.5766397445944 0
-239.062916836334 38.1169612233998 -18.7972282927552 0
-78.2429869430476 -7.15884947996524 -8.84096171350405 0
-180.34986766628 14.5760091459588 -12.0049366380332 0
-212.048009453956 -11.9808470670459 16.4636657498767 0
24.4799623210805 -19.1728700913739 10.1638743726274 0
-119.253505825266 -4.13062504388523 -10.1510470966594 0
-33.684943886734 -12.9010614501451 -1.89459498715301 0
-256.576799541744 33.9439916312681 -6.79851646370558 0
-133.808897770666 -16.0712754529505 -11.6413732998221 0
-37.6349682571279 -21.6737405307279 11.3048414513427 0
-172.59781248754 -13.0810638239621 8.81552872452336 0
-183.902303312725 4.03374561138044 -25.2776745865186 0
-90.8579182082476 -2.47236245474347 -7.95899997117936 0
-23.8677218657451 4.80891176804343 13.2053980619382 0
-215.961448341008 37.1268330191388 7.18463521902676 0
-253.736946106497 31.3506381038781 16.8812354928094 0
-102.013765889494 -17.3574481142063 12.1854844763165 0
45.3907849568899 8.43473408426596 11.8212390315405 1
-212.013068025948 -7.1158704883252 -23.5494194046647 0
-257.915171178271 25.8622978792711 6.95343741247765 0
-202.804683808974 -21.8029832828053 8.36570835310327 0
-31.2320758745918 1.90862627327457 0.670725816660258 0
-175.621809013036 13.8047900666206 0.794256878681047 0
-119.980470873601 -15.0248351812343 12.4734167100724 0
24.0361989734169 -1.98148109464112 22.4725721853229 0
-106.772563638024 5.28808147615581 -2.91040778812051 0
-238.09912715122 53.4432101319946 3.76052692422315 0
-119.288752793498 6.73476178119327 6.9657573823042 0
-229.073388961494 -11.0226135291525 -5.0078055958619 0
-153.70134299701 -19.6917216005932 3.73381526197639 0
-182.705292975017 -20.2012214885994 6.07515040495725 0
18.0520721022909 -1.40861998100883 -6.30353493872935 0
-94.4630594189401 -6.66616159925689 -9.45107687483843 0
-242.203461885331 42.4407139799629 -16.0603223876178 0
3.16805464738408 -18.5852575656555 6.28994870803748 0
42.4480015661849 0.14006710250603 -3.53967215938763 0
-8.85373420857378 -0.410398427140626 -5.16684980761925 0
-106.729233406022 7.14653187283136 2.90998966306546 0
-248.122282797393 30.647174529178 21.8430862258303 0
-129.100533764281 -14.678502534185 -11.687501416971 0
38.6791791942041 -13.5054324794165 19.9276727999713 0
-196.899774265557 -22.0564140247201 -23.1487743571113 0
-225.739815952086 26.2704011231278 -15.8764359555341 0
-232.424841147759 5.07953146595657 2.50433237995533 0
-220.429760203742 8.3701909702675 14.1050610327353 0
-116.524501883754 -18.88765071262 -7.58884987241275 0
-202.226158180639 -27.0841310644593 -21.2712661868519 0
-88.4974124698767 0.245952792059006 15.1849873567382 0
11.8904266946536 5.33971777737894 18.0660798173089 0
-123.75345907079 -12.8592524431945 -11.9519094886314 0
-16.2232138541886 3.75735257667015 17.6871754692703 0
21.2269806950263 -14.0249863618007 0.59093568002128 0
26.0067705203506 -0.984186261129798 22.2337323447867 0
-3.34837026878139 -13.4366848529943 -0.171953082835004 0
-98.3246832736482 -16.448921711909 13.7462281290098 0
31.7463693249558 -0.871417477303712 22.1705615656329 0
-201.397013576332 -27.0195123561097 8.01739778846727 0
-141.596927912284 -20.6413992571071 -8.3685022247915 0
-218.871434962033 -9.54656402913815 -22.8484095006152 0
-167.310691920723 -19.2697935289912 -14.2349572662615 0
38.7798593198165 -0.854302523593717 -4.9668471011085 0
-227.875103314714 -22.3438980214245 -23.2213811311613 0
40.8710692760341 -2.15485034838215 22.4345561639248 0
6.31693250969868 -15.1612882968061 1.9186853410457 0
23.6835242087152 -9.50359821734592 22.3667228284448 0
-98.7363760332788 -2.73243843411371 -8.65042939624353 0
-140.139866627567 6.16603587853315 7.1605182092835 0
8.90124479389667 -4.9599422408004 -7.49184558947997 0
-174.800590773109 -6.30493788056001 -20.2590181499964 0
-235.633205541474 -23.4318136023703 -9.18267207436594 0
-198.283561223625 11.0159604661659 9.6886128253377 0
-209.720923607606 -12.0376041848389 14.6596592264549 0
47.6056450604622 -15.1106301805401 17.9961968157558 1
-208.670732285721 10.585173568857 -13.2819615232186 0
-242.993319231917 51.6177337657964 8.90714995956296 0
-136.963549176629 -8.5385752420173 12.6385310637511 0
-144.373163846611 -3.22074589004791 11.7351985489683 0
-219.326547003105 29.1137080592933 17.7937051979034 0
25.1659782677911 7.18871740734684 14.6905897874205 0
-170.051314255406 2.42833952591819 8.82283216803023 0
-9.36434558423454 -12.5044417526656 -1.29663039049025 0
-189.889682857827 -15.8224244116689 -23.46675502378 0
-210.84929618065 -32.8224612583565 -13.4897010951063 0
26.5459236230345 7.22663400420192 11.4135909030014 0
-96.3196213766701 -2.82481616210763 -8.46526174522676 0
-239.90414164389 22.985847278915 23.7707862427209 0
-55.9485707618945 -12.6244599165979 -3.65543636296588 0
-154.492213323134 -21.687337165285 -1.94540634145441 0
-194.068200840166 0.0235812651284943 -23.7377762056566 0
-222.413843111746 39.1036066691177 -13.5437140698399 0
-182.409035139768 -15.5758249263351 -20.7213561313627 0
-231.784856116578 -10.8966122590206 -1.8571048405404 0
-222.594056222457 -27.3760657044824 5.54196561222126 0
-51.6223819253179 -7.7209092596236 21.9018281367839 0
-39.9868106333386 -18.0316282146703 1.29912913225834 0
-232.054790576915 -26.2952082607621 -0.98285156842234 0
-181.513507850973 -10.3208913556336 8.46061222939934 0
-253.706694305116 26.1273824958373 16.2808751867879 0
-111.991269214237 1.12497648784888 -7.02545505448174 0
-251.424665481594 14.4411009156572 0.576719091925609 0
-228.193314134916 42.0041013168893 21.0792475234126 0
-148.015078560682 -17.8800756548532 -12.0514681986968 0
-118.496353828822 -3.75599589200871 14.7676111079186 0
-175.017077849312 2.89729854754146 -22.8662927817593 0
-42.9316623742136 0.598469088455582 19.045365826593 0
-227.733299048171 -25.4603621505762 6.2823017982897 0
-241.476017440917 15.151820059439 -10.002407987104 0
-233.806799001946 53.7783601933733 -0.788757748681001 0
-36.5421226991384 -7.26729363950571 22.4987466595492 0
-205.147496868189 -29.8522023239892 -18.4029218942792 0
-17.1995881060093 -0.178474717189004 -4.91979783568 0
-227.022949588785 -16.0996850721793 8.42232559895888 0
-192.845325059048 -2.76571560179797 -24.597740598722 0
-156.639763536355 -7.10541389808699 -16.0095904236936 0
-236.350137543702 17.6702377131829 21.1755761742677 0
-205.043107753685 -5.64774036853883 -25.2149669602646 0
-151.394227587893 -13.0034661195735 10.0986469194611 0
-164.743314594652 -20.7737793952553 2.7603783333919 0
-147.6015934916 -15.7642166221216 8.83803615846235 0
47.0198951806359 1.04012762648219 21.5464775173646 1
12.7267999038719 -2.48637441783566 -6.95524550699295 0
-201.874252707839 -3.4118617338511 -22.3207663538595 0
-197.250548463062 -22.432753350775 7.30874968450603 0
-223.727345660788 -25.2238692159937 6.38422459990186 0
-76.3984204250621 -2.3808783945311 -7.22287455261293 0
10.4723524541823 -0.253219486141222 22.1497964812739 0
-134.828229038129 -10.3222844267626 -14.4852360593699 0
-149.774174405398 -3.04157476078894 11.155749976553 0
-157.573207817065 -3.11474541010947 10.3548904352203 0
-243.60017268191 10.7794782794145 10.4550529364683 0
-78.2372739938471 -21.6212499600733 8.07862074483588 0
-83.1195790462096 -15.4719076601965 16.1116023731277 0
-215.191361637328 -34.353286151227 -10.7546075208844 0
-258.505228642487 32.3408528689142 6.8426618641703 0
-116.954033189142 2.85575289357178 11.1249188383485 0
-64.1221225469598 -10.177410223199 20.7118080979867 0
-254.279787677109 17.4761116421122 2.29017702690197 0
-173.047586006332 -3.20655029721729 -20.0774767738017 0
-165.593718683323 -5.78320653715878 -17.7320512835849 0
-202.130550612656 -31.6212538464756 -16.4995682153353 0
-32.4325100917092 -20.9431553523492 13.444959473089 0
-99.5000033926936 -1.46446902491268 15.668758490486 0
-206.689588921507 5.77720182298021 11.6340917201802 0
-235.598252945653 21.1398644421557 -17.3520622309773 0
-27.132159821104 -16.3443057433347 1.27674967330279 0
-176.714977852372 8.5937253994682 -25.8986415489695 0
3.26095292369435 5.23386870080658 17.0642914508031 0
-172.876615450405 3.0646951534593 -21.8930674558205 0
-217.536995634411 -25.6122700474768 7.54420157845936 0
-207.662903813644 -2.87251287059425 -20.0425157669737 0
5.10126956616355 3.39527869150821 3.77852424532738 0
-193.546470689974 19.1562096291896 -1.13106831321188 0
-252.008199269934 17.1951736877505 -5.64258489345801 0
-208.252642984443 22.4342734465537 8.35508585476486 0
-213.211061314532 -8.43714721238322 -24.6729809512725 0
-64.828785335731 -21.4920282526977 3.43465637165692 0
9.98843287140935 -3.98119128582904 22.9371868387187 0
-203.07993656625 -3.81891708352691 -22.1092872934804 0
-240.531956878125 53.0384600821215 4.22143245702665 0
-64.3909592920067 -3.19138047154516 -7.61408212107892 0
-216.076099782458 36.2941122674141 10.1609421619695 0
-254.896074985139 23.808899406321 -8.2067423886386 0
30.60748703446 4.17206646251423 3.68746519474011 0
-207.347766029224 -7.73743625316214 -26.4500426888875 0
-227.084414584594 44.210310856836 -13.703891153634 0
-73.1372313643703 -10.1646983598446 20.0574268168919 0
-126.243481525856 -6.76125337288725 14.2057376361422 0
-197.676048342348 -32.8909775183293 -1.8497181503044 0
-153.70563441276 1.26370020731555 9.62241390687173 0
-96.9036665498701 -14.0502044562932 16.0016456154358 0
-250.040370844126 18.2837311661266 -9.04295802291117 0
-235.656713204561 9.0113583003539 -0.316671698638638 0
-225.656630745395 -21.6127589104051 -24.0536041631657 0
-213.950736256836 -0.0649060431152253 13.2346921863711 0
-222.351059630571 -10.844041540095 -19.994565749177 0
-39.3975862786001 -13.8219420651564 20.300200272826 0
-21.5541709995615 2.677958790946 2.60933085732937 0
-209.662970499248 -35.9789963094594 -6.16383381587031 0
-241.790872608618 10.3175669244963 6.22642970402055 0
1.61029388914908 2.94524846931318 2.8701738732204 0
-0.842389173219475 -10.3105441575972 22.3474549865678 0
-232.76806249235 11.4570502394312 15.324238035689 0
-250.75217758909 48.1750627477357 1.37727842561431 0
-245.70438118366 11.3993268439324 9.13107094130043 0
-230.311776120122 5.94778842104664 6.69445418930457 0
-178.586025314008 -10.7504159694005 8.74399819424473 0
41.7247328603523 -17.9844104436859 14.09861593203 0
-169.237054019822 11.0576304233302 -20.7680333358749 0
-181.711758112915 -4.99275894946431 -22.5489696354746 0
-199.148349721841 -20.9347044701489 -24.1057195854557 0
-232.677806315092 -22.8877938179712 4.70405296464405 0
-147.343158856897 -8.34143366353199 11.5183279331963 0
-256.282749941962 21.580438402407 7.13035476932445 0
-115.168401842008 -1.02478846299959 13.992988833531 0
-236.877121707193 -13.0555130111847 -21.2466599667798 0
-170.606404936909 -3.63764180768677 -19.2115685633195 0
18.0121347964793 -11.9900774761738 21.506162196859 0
-82.1528852838777 -13.4572886542543 17.7622129074661 0
-178.585143704513 2.74502958591327 9.83173621076513 0
-233.976685469407 -12.3679438348981 -8.25248260282627 0
-162.047957859064 4.90200835678761 7.90248573601188 0
-118.506527343111 -10.7360222897303 14.7591684348195 0
-216.489236120094 3.66877281815653 -12.543704438461 0
39.7169003275002 0.478629749198655 -2.80693467230097 0
-49.250040078134 3.56126010977743 2.38668182086547 0
-139.083763648744 -6.54907863685928 12.5554911402404 0
-114.798778925595 -11.5024553962178 -11.8132938096034 0
-222.355913924546 -20.0701234592112 -25.1385584766898 0
-68.4231004706334 2.58159729484055 14.2378975308319 0
4.69886307386705 -19.9691778291049 14.251499273796 0
44.9773006934266 -8.04120272569966 22.495307462144 1
-220.462331670166 0.111274316298317 -10.6277573694736 0
-257.134923355046 38.3581664851591 7.10921637308854 0
-40.3445457339427 2.83602242809541 1.92482460201663 0
0.775797914070353 5.60292841611318 15.5284249536926 0
4.63586419303678 -12.2728741528493 21.6919227635303 0
-11.9878986269011 -1.34310734684259 -6.74978934605736 0
-73.7123212650237 5.99655021235519 6.04778094884484 0
-26.1458172079249 -11.6855577197276 21.7404692197498 0
-148.175873536561 -10.7428603625563 11.0043472319486 0
-191.024697874217 5.63148797240088 9.95951133433972 0
-227.401842997231 -10.4144928014846 -20.5695881466446 0
-132.292901245836 6.17944342926784 -6.36987139076933 0
-219.112244425961 22.6924412179562 16.3516878245752 0
-198.421439780689 11.4136618038226 -14.2897125282816 0
-242.829589319772 11.4604459941564 1.31195097434283 0
-132.767412432889 -9.98341222272871 -14.4489095965389 0
-191.435546925087 -8.5879748476947 9.87098077418472 0
-58.7073937459222 -3.34819375092671 20.9387172253044 0
-238.297171533269 17.7006790023516 -14.028046393752 0
-168.23949141729 -13.7174837943337 -18.9154707324951 0
-70.5835300009749 -21.3274777001693 9.88578469203757 0
-212.678015937396 -21.5706401951383 -25.1030036025747 0
-218.660777556615 -33.9925662520735 -8.85103510617245 0
16.5253334604609 -6.24577357915418 -6.65323106842938 0
-127.827771513303 7.43453035315639 -4.15101845500302 0
-222.134103614457 -22.6624474526468 -23.9434823741087 0
-198.292411722771 -31.1098124962321 -15.2808824458612 0
-215.790613343913 13.5606773559229 14.2852589014208 0
-221.200179129837 10.5091635016869 14.8559950105317 0
-162.037562124115 -21.6728700163872 -0.541078460999249 0
-174.672588811409 -15.6749225350428 -18.878214310579 0
-173.712682195959 11.3806591069227 -9.78298681795468 0
-217.556050168871 -33.0227505058662 2.72887787727827 0
-9.94359417716099 -4.45746846799012 23.0109982193423 0
-251.03713288074 17.776202099193 13.4259077765113 0
-124.811474151335 -15.5266874262463 11.4371885323556 0
-21.542232430474 -0.188838975673505 -4.94355462311415 0
39.1722012044892 -16.1187602376874 3.06904026463167 0
-214.116234849352 24.7899997848835 -8.97224861405451 0
-237.52776894728 -20.733943794102 -11.7228298423551 0
20.4983339027206 3.45613478629774 3.2143828795318 0
-135.610755395441 -7.59758931575576 -13.3512169602972 0
-11.3044470256039 0.478547524887878 21.5046046535893 0
-165.568410976823 -20.5380746123698 -12.0971171931635 0
-207.772876319582 20.0791457393277 -9.47585331681248 0
-216.060565562735 20.576883442545 -11.3546183378183 0
-191.961482727822 18.5364580653786 -4.58563926842921 0
-210.531899162584 15.5584243111164 -11.8437753683736 0
-216.742608405075 -29.1254842297278 -18.8474801928985 0
-80.7125134317682 -14.4418543048418 -5.6826633079185 0
-144.556581516613 -18.5996924424913 -11.235422766481 0
-198.441025412951 21.3049681102387 -1.12392454791474 0
-196.48862029963 -33.9858287287019 -8.12937925730665 0
25.6737126867415 3.59640645606051 3.13180552962289 0
-137.191237498585 9.33913922626318 1.17335887531476 0
-222.897342939149 -12.115948625426 -25.4425744001813 0
-44.7671690849373 -16.7369618518318 17.8010444884221 0
-44.9413153696649 -0.968186107113677 20.5148740415123 0
-210.780132555071 -29.5396750846159 6.61203830304168 0
-211.008206731322 3.49723549902887 -14.3839899438515 0
-156.3550861676 4.41407343033556 -13.0858679839479 0
-87.283767435125 -20.9657221151818 8.45800059188542 0
-195.449359633851 19.9287887553819 -2.54425163338852 0
-169.068231543016 10.0522294241728 -11.380073841719 0
-134.690701649679 -7.33534152307751 13.0883508318077 0
-158.809116511594 8.05712718574868 -5.80280015025757 0
-43.6523188018148 -8.55974944975471 22.1476716315949 0
-177.792756726341 14.2119435938014 2.04267899062447 0
-116.900404804208 0.926671769563577 -7.72123164186545 0
-196.305629588284 -19.9216592616046 -23.9973735212163 0
-185.254086680915 15.3470347528283 -9.86702915621718 0
-231.73145864682 3.92065739937096 0.656430671553728 0
-211.469165405827 29.8176277111838 -1.63974118346203 0
-207.079131067422 13.3417001677646 11.4882167635222 0
-238.937093121013 11.7771769602868 -1.31643790062891 0
-154.656819105143 -3.37772263091791 10.6714591837512 0
-220.5746377583 -29.4621636049316 4.70551011893224 0
-210.321367309822 -4.76828339011025 -20.7212450679293 0
-214.174227018131 -27.7981583465707 -20.6048680839845 0
-68.7976497728404 0.692523673785411 16.4343339186633 0
-245.246445385307 51.1358605817648 6.7203250733218 0
-57.0868496252492 -4.99379591974872 21.55382105269 0
20.342800496056 -12.5320000975877 21.2091778955374 0
-8.23370704341056 5.52137266525772 9.59147303997808 0
-196.968035233153 -33.7225521532335 -10.4984849283021 0
-220.999104842305 -21.1988610499809 8.49849103616682 0
-64.7838899469348 2.35630220296011 14.816770003376 0
-215.450907425669 5.9993583031628 -12.8105539682341 0
-42.1563210911315 -7.48324709150797 22.3232751919494 0
-28.2306089244797 -20.0173851410842 4.75707244497355 0
-151.76024657412 -16.0499475392207 8.40214584614272 0
-192.862262958816 -29.3000797645322 -1.8885463433498 0
-257.705760625246 32.1303149009795 9.69028240168598 0
-180.367693967853 11.3440739266406 -26.7607748802754 0
-125.280512814836 -6.93561918420146 -11.7562115329177 0
-191.809183897304 -29.4519057915275 -9.19854294873554 0
-136.615667719179 3.9599459737159 -7.31427255083486 0
-28.9298625104258 -12.7942152121359 21.2184228839877 0
-177.089891920169 -19.3829934503956 6.06198757357355 0
-117.687398920972 -21.193887317737 1.24693294992351 0
-167.09569508695 -20.3485413071882 3.91366639117683 0
-180.752517981828 18.4856435776435 -16.2878603547481 0
-198.755875751723 -14.6223727964268 9.73950059621547 0
-238.037774159728 -18.7336550679526 -10.6728824660672 0
-225.095807514735 51.1596225933199 4.39699080439173 0
-72.0894786117246 -9.28297161165028 -7.87766402033254 0
-185.122726744882 -1.08923531403862 9.91186335108041 0
20.9778787078778 0.769858843923 -1.37220792973451 0
-204.177618861697 -3.53663137402028 13.2715651070322 0
-247.31145713207 22.0587085490174 20.5801022354014 0
-53.3617955308991 -14.1765522209228 19.3286845088938 0
-252.435091021434 19.6675480350133 -8.22946343783523 0
-257.167631911151 39.3505694775368 4.05431303088105 0
-236.335693646375 10.1232910920864 -2.21958025028434 0
-166.698470276234 7.54981949865946 -19.010935372623 0
-42.1313989972959 -21.2160895283462 12.5107783380361 0
-157.670326308928 -18.3526165355692 5.97830279551335 0
-108.949157612863 5.1646094479278 -3.84843565922449 0
-49.2995051757491 -19.0634651858952 1.40312828233478 0
-164.516783768504 1.74012598798658 -17.5870070819149 0
-70.5607280418472 -14.687182712897 -4.02793300872029 0
26.1398255317427 -11.2365458034939 21.7565267684907 0
-3.08244336521941 -0.373887277405009 22.1604677800737 0
9.89740191522939 2.19985473710662 21.1223280610886 0
-175.657466962881 -19.2238120630731 -17.9467795718814 0
11.0445042455608 -3.87784099847179 -7.37741599762318 0
28.9054860890723 -11.4381770801659 21.6088309568853 0
-220.164528097361 27.946139734685 -11.0149097988318 0
-61.3296121214413 -5.80828856396208 21.3288257216043 0
-183.851478193643 -22.9822653801857 -17.0479082444929 0
-129.318009935454 -9.60321416475649 13.4673480670694 0
42.1584561453612 -12.099514799149 20.8187979327553 0
-239.869890085912 51.5332515291213 1.70530488557384 0
-190.089578414617 -27.6481189220255 -12.6769379599321 0
-126.623987975099 4.84180054074887 -6.62446090737084 0
-197.45986435658 18.8416026441501 -8.42061221447945 0
-221.67602056156 45.2983203799063 -7.687811610239 0
-236.398957747256 40.1378774860482 -18.2402606015436 0
-202.748037604081 10.2106283220858 -14.1393940137371 0
-224.924038537031 11.6219068735746 -11.9671504953018 0
-2.15008972817683 -6.09387017832953 -7.09308235323064 0
6.7878394443913 -5.70132305928868 -7.18996680362417 0
-201.662173781833 22.0179670732526 -5.42399102655501 0
-139.958479502663 -9.23488433707094 -14.6564586594057 0
-2.1990675361835 5.34967424781764 15.7879697866998 0
-153.860285038934 4.73789809328412 -10.801800740159 0
-71.5806599747312 -22.196959066481 5.56877249877793 0
-80.1908406101089 -17.8709088989062 13.8990616489282 0
-31.5179074509499 -9.02481462302505 22.405655162241 0
-222.308445791216 -4.13363132152317 -4.47079227373274 0
-221.671876460459 -2.52141937739837 11.2518194750364 0
47.1561348859814 -2.19112001456675 22.3426577917655 1
42.739302244852 4.63991823465048 3.31418323046407 0
-254.1534862288 21.8048918640937 13.1641181160852 0
-50.0801312609445 -3.87138956877286 -7.92103214043909 0
41.4522648178143 7.29546051419465 8.27021666624401 0
-241.918069437304 13.435016599336 16.0104589464245 0
-130.128400338726 -2.48247774751065 13.0950159464862 0
-223.24139431337 -11.034483987162 -8.12328808456825 0
-62.5988974171909 5.40727364862438 5.79646564720503 0
-225.004192966613 26.9221682709861 22.4332110274761 0
-71.4814996179678 1.02861964692049 15.8486112575892 0
-199.927234055774 0.633502115207048 -20.4807523504681 0
-185.417765639932 10.9116395126523 -25.0353300266483 0
-114.610267293616 -5.5481990917656 -10.0583201722193 0
-236.600212363058 9.29075160313353 7.05400353841787 0
-200.468813566579 17.2996849359969 -10.5614397559939 0
-189.294459067871 1.53258008057577 9.38519426438331 0
-252.510524978881 29.6348961783277 -13.0928788523889 0
-218.779552725243 -19.8262020730532 10.9542973803372 0
21.6833304694491 -1.64211482817854 22.4374641265927 0
-117.98534301215 -1.3864834076626 13.8814858191219 0
20.5902488056964 -0.55462094303484 -5.0146195832111 0
-141.421981054702 -21.3927059945634 -0.786797700976768 0
-256.033755087541 38.3535726302944 10.748986216725 0
-168.728667503011 7.72397762339147 -20.9662691044763 0
-93.0692231116397 -4.74601037531781 -8.77533547622209 0
48.3744666569926 -0.828817500370743 22.0463882108415 1
27.972674713886 1.55961298698204 -0.148627484002226 0
-202.948771949155 8.11197477412144 -15.0105414887072 0
-220.296492317005 10.6421784978952 -12.7038262964015 0
-216.864267740924 -18.1059714327464 -26.2524582201265 0
-27.7885348981667 2.67716494918105 18.0952886966811 0
-218.591912130503 -19.9954957932917 -25.6270476249734 0
-172.759586521187 6.77294240689748 8.72177752072181 0
-179.475739278663 13.6665231841439 -6.74539389426147 0
-149.101941717115 -8.5638422341953 -15.0869654078288 0
-210.315150179484 12.6952150910833 -12.6262986235385 0
-122.557766750413 7.58562837095263 -2.19251705413428 0
-21.4998788964686 -12.7060333397032 21.3952532192244 0
-100.013027961661 -11.4013721681589 -10.3512229297047 0
-231.836157436019 6.79634449722424 8.96280553881326 0
-185.303496800446 13.9879074353527 5.43182610440437 0
-184.540006685823 -11.7468532314491 -22.349753304737 0
-218.057153998765 -10.2104789496891 16.4693882760713 0
-186.871802334704 -11.1393025066904 -23.2893079212506 0
-47.548422449253 -2.45114689606616 21.2868307287442 0
-228.985514097118 3.25182774894737 -2.28971774566403 0
-233.504765938466 17.5768731489665 -14.6193036714444 0
18.9496163299786 -4.85692479117978 22.8606720267091 0
-122.50830535396 2.3715982920339 11.0614890965121 0
-148.575427491426 -20.7311208002319 1.15405793819828 0
-138.427283214085 -17.8746978595847 -11.1750840946281 0
18.5223187290806 4.72773762396388 5.60753726616861 0
-104.016927013097 -4.72219306884229 -8.88991798746528 0
-187.959105016078 10.6560033754394 -23.2305503898284 0
-251.397314930508 33.6833992413759 -13.9643396752529 0
-193.842934786271 18.9268464963862 -5.62275333991577 0
-142.498055340847 -5.72464683157248 12.1174113888547 0
-238.27795652045 -15.8512017727196 -15.4074721513398 0
-226.364157915965 29.7417272216004 -17.708173801636 0
-209.592605211412 -3.29103953944151 14.2151227462829 0
-181.345533406932 12.6693305055141 6.53728214808516 0
-219.468078238474 33.6798894879365 -8.65123460141761 0
-45.5996639658488 -3.66923119092063 -7.94866014488206 0
-256.189269935608 29.193212197421 -8.1091957771137 0
-216.588433589028 39.9314523980401 10.4292421854621 0
43.376143060896 1.47838207872858 -0.966952229956175 0
-125.424430535117 -19.5943514478007 5.645111122599 0
-214.013870013815 -14.7683397596808 14.4594832265182 0
1.96836586689333 0.921715355644374 21.7093205745483 0
-211.69670410378 -1.72915446031786 14.0238994690356 0
-33.2227241018729 2.85523298766277 17.086149260628 0
-220.778114341054 -12.1718098487045 -18.3279617454461 0
27.1510131007634 -13.6522785226382 0.12243389874285 0
-101.018106419925 -20.5433813982979 7.40826314698676 0
-245.688591055059 14.6782304792922 15.4399617931382 0
-208.47889380254 17.4114977268898 -10.8880612138997 0
-13.6401952463718 -11.1155234782714 22.1139182591552 0
-87.7647254612517 -11.9710702533664 -8.46876327206626 0
-220.374095876886 -22.9909920057169 8.06649345233293 0
-31.0016526399083 -13.5321027952173 -1.28777908054689 0
-164.021673679936 8.54159138382403 -12.4419076241852 0
-190.628704073996 -23.6575021175721 4.99817661698885 0
-68.4418404024521 4.34924164706411 11.4815836784909 0
-205.421495197121 -5.35120902335306 13.6564820083719 0
-14.1611934574531 -21.0034738758427 13.0701249469659 0
-234.063298299433 -13.286795483377 -0.970924214231626 0
-255.851320215921 35.9938721002252 12.7050662966701 0
-91.573447467074 -0.965195100030926 -7.29931358482418 0
-228.09658262824 -6.6926085651998 4.42331253855596 0
-86.4198585434105 1.18886380616059 -4.41585225483248 0
18.5270738538058 -17.8351110054794 6.3461745731348 0
-78.7838328734493 -10.2715708077529 -8.25166037434922 0
-98.1588655450802 1.30526960089204 -5.45959050230536 0
-189.588947839403 -3.01748310933394 -24.4803150231201 0
-33.7215606927225 -15.003753478639 -0.315859715686115 0
-26.8642137780116 -12.8607300259737 -1.61760377387341 0
-251.601823926623 15.6988281437306 -3.44713985077098 0
-99.5690439398763 -4.71847136521926 -9.09791436280177 0
-197.475032505782 12.9873990896589 -13.5931657214722 0
23.3221165023404 -1.29170693994359 -5.88516654307398 0
-127.191197010379 8.22929755642884 3.54814047030153 0
-200.533740440202 -2.37883993076993 -22.3541493513594 0
-110.248062573505 -21.011284612842 -2.37864693377294 0
-208.661310970947 27.251738055002 3.36148991395276 0
-229.5073115878 27.223905117113 -18.8756325492842 0
-192.774640239159 -7.28259204905896 10.6364386389445 0
-198.877196814285 21.081464192735 1.50678583448087 0
-244.300907485128 51.2306061359021 -0.385417258712653 0
-215.125214217594 35.0027264453327 7.06781543806795 0
23.5705637713919 0.295962901371903 21.8490912787816 0
-16.9513420584082 -5.90833553480344 22.9751734586731 0
-123.256250336248 3.47332840119771 -7.06545664686502 0
-70.4250409372513 4.98673197021437 10.292404439969 0
-203.154057353885 -32.6574452915782 5.77758825517948 0
-9.41824483734869 -8.09506460646834 -5.14738575196855 0
-229.037286102263 15.593241598924 -13.4120008570749 0
-140.236199612846 -21.623678765978 -5.33792418121961 0
-46.1369754023275 -6.12539189400713 22.2361168367482 0
-191.57482535277 4.40725978692425 -22.9621220802696 0
-201.165225335618 -18.3211650541857 -25.8756088607607 0
-140.277498510207 7.86605659359672 6.1159799476792 0
-240.416592742598 17.6469378928792 -13.442029580113 0
-239.745960786088 31.4943611213067 25.1594157443854 0
26.1236473075007 5.29578813531461 6.15330134009571 0
-171.552693746172 14.3723825220598 -14.1105900857265 0
-255.161268398269 31.5464956264716 15.0483554457235 0
-222.686291775228 -29.9522219499747 -1.94277221937453 0
-187.780266150255 5.95993811957399 10.3598572684109 0
-249.837170998052 40.0006783901598 -13.0084662460265 0
-111.74893897568 -5.73176632180314 16.0125838552906 0
-240.499768843504 23.2685279031937 -17.6102926779993 0
-220.311884480163 6.38818904818389 13.2680842858177 0
-223.674319586357 25.485624195252 -14.3146386913555 0
-34.9985591839457 4.96346179874285 9.04493607280847 0
-202.368845635288 -24.3564678992178 8.01876279920408 0
-236.580174008491 -21.9159265827769 -4.54134979316322 0
-191.101503206975 7.14499685122204 -21.6850070870118 0
-1.65466588791245 -12.5325616381524 21.6078466433594 0
-168.085443034694 4.49345832803878 8.31998832471123 0
-172.711318731814 16.551706929922 -18.4641175927975 0
-135.422850326002 -4.80141595120919 -12.3816927473766 0
-221.160931733108 -1.3151798631667 -8.87808985287147 0
-190.085378038571 11.0902093181254 -18.6044795278962 0
-208.294565809432 4.49198064533649 12.029554936592 0
-184.930679384835 -26.1824053654935 -9.23146292071737 0
-5.0900049371494 1.90029663185379 20.7407121939677 0
42.4892036809663 8.18270889073212 11.1113881229528 0
29.2465314026357 -1.5237524498345 22.3824072490433 0
-218.625623512464 39.5989138823696 14.7844059811847 0
-216.145349172683 18.5419011066565 -11.9782257469073 0
-210.94692705914 1.0805731656492 -15.0460558952936 0
-233.019176944751 50.514291970463 14.6855326111126 0
-139.763619700496 3.75424074931488 8.99218346611085 0
-210.917192686874 23.2736697888134 -8.56420718307347 0
-200.93977199872 -35.0356912041422 -11.3136568063942 0
-176.921213566564 17.9114009175602 -20.7981025338947 0
13.6055713593835 6.39247660505025 10.0597071833112 0
-209.601615459983 12.1411996298506 12.2210965387738 0
-229.003026593741 -4.80630219105142 0.817455877008859 0
-195.72119580568 -0.0327799489053891 -23.0546739743554 0
-154.823993127971 -5.89567631459238 -15.3457884160076 0
-75.38480729735 -22.1176796686381 4.80961981710013 0
-141.921840173776 2.19967418934398 9.85925442312094 0
-231.527190644119 4.9367641578262 4.82047165885499 0
-26.9484496341217 -16.4421474056659 18.9243358307842 0
-88.0772311622979 -6.98259684774109 -9.27996967650483 0
-85.1125994586448 1.39582817982926 14.3454188435207 0
