-178.930428654876 22.9157084734599 -23.7995534926262 0
-126.149302183464 10.0209392641594 14.6661927499195 0
-202.812156186902 -2.82544737412164 -14.9655866296227 0
-226.380335559408 -39.5874239287039 -20.4616466339867 0
-164.799430965872 -8.2108587125017 6.7791322304685 0
-117.119358704663 1.64336304177477 -8.99901484056541 0
-147.0498103605 15.5014053243932 10.2838882412977 0
-238.977768575606 -41.1517662264621 23.8118638236793 0
-217.363705724468 15.7737019889917 10.2084952567149 0
-178.750646279477 -5.14934089844168 -22.8398655421246 0
-223.371372689373 -49.1030511244611 20.682095880439 0
-208.257627749406 16.16687166672 15.0597782033793 0
-221.402104239626 30.3321360635928 -25.8001896834661 0
-227.392081813414 -5.04073693225976 5.46852588698957 0
-66.1059832065211 -3.13825829558669 1.16446271943856 0
-154.939863983637 18.8852947896752 7.80481373397862 0
-147.770952375883 15.4170234401059 -18.8785993674297 0
-223.830602394601 24.7778317956617 -27.6993124882099 0
-50.4856830156003 10.55607414349 24.4395637740294 0
-236.259436337842 -39.646406481066 25.7206006153175 0
-70.7393325677785 2.73537703573596 22.7638665849891 0
-236.658747440207 -55.3912295361828 5.91226506738806 0
-229.466313870692 16.3495603776266 -16.7601579109404 0
-213.290190813944 16.7018579498636 12.3884975417807 0
-223.911249578183 -0.730034628191544 4.16268455973151 0
-142.848480844951 23.9585417528284 -10.128980016231 0
-239.659754017037 -25.7605406133058 25.4977638135916 0
-46.8512156679474 -0.058046250212878 -0.352661962084568 0
-71.9670298591855 21.7555256984262 7.16916192225728 0
-150.686956101323 23.8735681956433 3.1811085045091 0
-220.704607229726 -5.74551627715612 -11.3457139102867 0
-159.553349804626 27.6805192094649 -3.6661831560583 0
-178.554646897486 13.9694805859656 -25.3319143250293 0
-227.995512872339 16.6772896114587 -14.8599449616243 0
-81.1362969834704 18.5969127251307 17.0374050855438 0
-227.419671374948 29.4564102837094 2.22604118897486 0
-160.73644714205 -8.97862501088765 3.97028212805556 0
-196.207107126461 -20.9067762183588 -5.53553720191237 0
-231.100646862473 -13.3176048735841 21.8400594301937 0
-241.366700493774 -22.1671229398549 -16.6184562499526 0
35.6350015220947 14.8774568948504 7.88149861897717 0
-126.632983714566 4.12241666933571 14.2868163684685 0
-175.628141743415 -4.68986689921394 10.0324535655159 0
-225.258112923129 -5.30831560311205 -3.4461744293998 0
-116.090138683832 7.06300112186076 -10.4749439672012 0
-175.052511248965 -0.720590973609109 10.0536381937554 0
-239.081189320738 -48.0934231441188 -12.2675355118703 0
-89.4093988658927 22.267582629909 10.8362507741876 0
-213.524538530051 -2.84068047520832 -14.2334149372926 0
-9.2263191357768 19.9271480598585 14.7717678460804 0
-206.311881876421 10.4193712752302 -18.1394616317916 0
-221.664987356387 -21.788888032685 -18.4001159375136 0
-218.840848650511 -4.38683619376153 14.6663948432758 0
-154.941631950165 11.1180178746798 -19.7664783516015 0
-221.854879604116 1.62240307818725 -2.99209426189673 0
-218.366730286175 37.8172348232319 -13.7344191056186 0
-195.073093447455 -14.9773530298486 -10.9958868643364 0
-217.137443889404 19.3297627828889 -18.099287002807 0
41.2964344161632 0.406833547959793 -0.580118440623964 0
-226.673348929175 32.5713304482319 -15.4386491246412 0
25.2835595606735 0.492200617116719 26.5978558173565 0
21.5068960568726 -1.09054429335029 26.1994531048441 0
18.8263956936179 1.2566836909742 -0.745791980064567 0
-227.568748865416 -17.7118214723918 25.1694348268458 0
-174.165424985384 -5.73264480128682 9.77690789682437 0
-228.143764495765 15.2869452460958 -18.4239147926752 0
-209.658521592272 -31.8153227168049 -5.67584823135779 0
-206.694681712481 -39.8803839276367 6.20396745608587 0
-186.694087720131 36.605653442318 -4.2935617041737 0
-117.006681416819 23.384455128738 -2.27338077980555 0
-210.303877769888 34.3159639534591 -22.3887633676529 0
-157.954656856412 23.8240012761274 -16.363015536885 0
-188.937075608851 1.90298056909207 11.1757524410318 0
-52.4603254204932 4.5427075932358 24.8377284006092 0
-22.0682077956373 14.9702045434316 5.34969415860884 0
-106.470922786505 23.4498449867028 4.33235539733268 0
-106.461775806151 13.536942044006 16.9138929415841 0
-205.801107591683 -1.70098262504073 -14.7554903651569 0
-225.802561990433 -8.56066060277499 -9.55265129377722 0
-163.414369557363 -15.5004165792564 -21.0505031452152 0
-50.5605220223716 2.57505822241351 -3.00771923961306 0
-161.452067032517 -10.7443691920409 -14.6031057530911 0
-35.0756313551174 19.005700089907 8.49175778737545 0
-172.056405097101 -11.5170182914549 -1.62739186583664 0
-244.463461651969 -49.1347011109061 10.6531630760762 0
-196.52238820708 26.253282154471 7.48719021449955 0
-207.161614289455 -36.0199528706145 0.125107615337697 0
-41.1406371627028 -8.09308838020862 13.5773948896434 0
-79.7464979386877 12.1703690164422 -5.0549074501986 0
-232.645676414504 18.7391376710147 -15.7719159050912 0
-87.8017809990695 14.6721671172462 19.1658514199731 0
-181.758545897652 25.2169314919642 6.11213381010021 0
-212.515789670268 -44.0542900063778 -11.5197712571642 0
-55.8065795172325 18.9770291949194 18.9035917602765 0
-188.561556633939 37.6967224649546 -2.57543124870965 0
38.5097198380164 10.2457661450876 2.57271615558125 0
-226.826673416198 34.0314571056396 -10.9455595082761 0
-100.282458232966 -6.6462159215557 2.24771996350189 0
-50.0099860837873 19.0753550856757 6.2336559878871 0
-208.686295376386 15.8936319471295 -25.551205676563 0
-173.569555061837 0.894686589095591 9.44289922274131 0
-204.113263259655 10.9850546131302 -21.3040895948199 0
43.4492487725621 1.74891268162973 26.7283620350949 0
-202.779414777177 5.59242080819194 13.1014975849719 0
-51.2364853019176 13.3591597447275 23.3882305947853 0
-228.638676857121 -38.9709146076227 27.4084295338021 0
-108.002421621559 6.03815711722947 17.77856076452 0
-12.8081767663528 -8.11299264475541 18.4250550800506 0
-184.746805675519 -13.630151865497 -11.644108803294 0
-165.132114596301 28.5068033340836 -10.8073737841181 0
-236.362456715369 -10.4780455961291 1.12413552698716 0
-209.326531833429 -2.01139993105577 -14.7362504941694 0
-56.4943028437526 13.2463868330589 -0.373919886796622 0
-237.242128943401 -10.0467821877811 3.16112462211707 0
15.808794919902 7.22650396422409 27.0018783598981 0
-172.140608147054 30.5797976225458 -4.2555394772847 0
-196.433244499553 42.7512425160139 -8.92750447064284 0
-210.178663883499 -43.7564295151255 -8.30224543324815 0
-73.0090789259535 11.4480371234251 -4.45169188119205 0
-195.484090655821 -1.18130207646599 11.5176197104137 0
-80.9403437627896 0.601095866077701 -3.57359059894785 0
-203.793633257282 25.38769147601 8.69717288094821 0
-1.51177052027772 12.854333948897 25.4900069889522 0
-180.249167650556 8.7618691771613 -25.9218532551866 0
-4.1158503506839 6.38331266257569 26.8816736007873 0
-109.539382959798 -0.98358918362075 -6.3953625839009 0
-45.8896041607329 2.59092184819535 25.077878978893 0
-168.52382486484 9.20557791207116 -23.7068589187689 0
-237.797067365246 -22.8245878311573 25.5692866328855 0
-213.888995002069 -18.9077538250524 -14.4158658265276 0
-237.008728773832 -12.0966118072018 -4.90296712691062 0
-238.478668810456 -10.4404479577721 1.73640928684086 0
-97.4564013449428 -3.91842381980162 13.1327981601256 0
-34.980384177064 20.4002904912162 17.3842186518991 0
-204.160957604085 -7.21495127052087 -13.9567506581014 0
-222.58460032383 -55.4789502040382 8.20915718271845 0
-207.248769885394 -32.0911039486583 13.5918971648778 0
-208.817602847283 30.1550249850418 6.86733576226298 0
-207.433308630404 31.9287656646117 -24.2472969345071 0
-148.276204521357 -7.16321398104294 -6.55923572746288 0
-226.103726110365 -46.3167163591166 -16.954640137115 0
-215.684550216894 -19.7544388348135 21.8194898454418 0
-163.59810175543 -9.26599590728584 -6.62360351934522 0
-170.011619974302 29.4203673679799 -12.3393931732496 0
-232.015271804826 19.8034099571334 -22.2962294128824 0
-218.683937549402 36.1341953926893 -0.840726412222074 0
-174.725152089022 -13.2452059002344 -6.21918335594436 0
-69.3105186645114 7.36843038514117 23.2980567136668 0
-211.029214707574 -25.7893631345649 -11.1461015211178 0
-193.792274957651 -0.103459089649968 11.4463831159532 0
-148.99701396406 19.9995222168039 -17.1304470321137 0
-147.230807135404 -8.31027874412196 0.0969751754776126 0
-230.112215438097 24.7079648747074 0.699081587525659 0
-195.447352906568 -19.9313179280399 5.68284581907394 0
-214.534133081657 19.3786346106815 -19.6813565778364 0
-222.764868400265 -33.7513107423231 28.1496350688034 0
-113.385022466534 3.55036895053975 -9.12089990786343 0
-251.57783260669 -28.217742415512 13.5920424134662 0
-135.293557030419 -5.01830984990855 6.83490511117862 0
-166.905863826721 8.49054766051617 8.96200194099995 0
15.9033753203704 -4.34848624055228 4.69562650877588 0
-141.156332483704 24.9963337178868 0.459632927758658 0
-99.963401382134 -2.79961492775881 14.4327779959041 0
32.2376905282038 8.49869262837396 1.31214805555149 0
-130.426276449595 24.5255984148538 1.32607563217529 0
-4.91959867595636 14.0805045557159 24.7786958954205 0
-151.838568493192 26.4824829208292 -2.21034769180016 0
-228.219054928241 -53.0216377885753 14.7090607088072 0
-23.5590819580331 9.69273988679683 26.0265169974091 0
26.189739439838 8.83062969419632 1.43335625127958 0
-69.7061584394816 6.41882280417977 -4.91176445290588 0
-222.24361503875 -11.8245278989079 19.3485886085276 0
-186.883550774285 3.8960667780531 10.8683631462747 0
-162.085703441602 -9.06664755346988 -7.07789123860001 0
-241.519142733518 -30.4294007020189 -18.3126863059349 0
-166.617049461598 -7.35880678172417 7.8934647433876 0
-152.844619105876 10.0062720579535 -19.3508754096735 0
-83.2601703714339 14.0893644312621 -4.53298178705359 0
-55.6347098421848 14.3392542815896 22.499455556924 0
-244.817593226033 -13.2031428160381 12.536454038599 0
-122.168089173311 17.1775745183716 12.7568169616131 0
-229.618760182487 22.0030123249311 -3.30943987661573 0
-138.667273564655 19.5523790295318 8.49315411316756 0
-180.568752513099 32.0960488099738 1.11921269732611 0
11.7411485189294 -3.30819810971746 25.2827078543834 0
-225.153163396573 15.4581165115767 -16.709265380049 0
-240.315640329797 -21.9311368258035 24.1277542460426 0
-222.65665447415 -14.1690561757869 -14.8293739729672 0
-202.012315221271 10.7615585871717 12.721281448101 0
-217.641983195375 16.0334847818866 -9.7994303198169 0
-47.766160554855 1.6331529100963 -2.44098995140628 0
-233.565347788763 24.6649860121793 -14.8008720838985 0
-129.218799817031 -5.3357442799008 -5.05624926596577 0
-226.669541162758 24.059765591601 4.06436803438703 0
-211.390846479654 16.1246416133161 -11.7922134796781 0
-216.398860324443 -33.696568011374 -17.8695865771752 0
-216.072227902058 -45.8524919299472 -13.5108791235892 0
-48.0014136239368 14.2718759784429 23.066480344047 0
-81.6815216122979 22.6016094071444 8.98685470817125 0
-236.799990062888 -16.2676723061016 -10.3182680275976 0
-167.279294534161 0.960724255511568 -26.0369639901418 0
-192.099214258543 2.92894138171038 -19.5879814806542 0
-198.130614751961 20.2283906723879 8.92666265020546 0
-207.991309216552 40.834539794411 -13.4995946560996 0
-210.830523977211 29.0309857428211 7.44846518645392 0
-157.258646083957 20.2100525757145 -21.1618230190156 0
27.8363263970402 18.1393184379714 18.319076784415 0
-147.198547757152 -7.44146394389443 3.86434772184235 0
-121.346264731593 -2.7954115760409 -6.73841729748504 0
-168.401287167365 -7.59681478168842 -28.1774079605555 0
-170.309609703639 27.8104178254463 -16.3713839383727 0
-202.638628345493 -25.3712429780708 -4.43630768314098 0
-220.316878419997 -52.9746904476173 13.8851910594441 0
-135.837996811019 17.7860554537334 -14.2754806027473 0
-208.191649983214 14.6183752800049 -23.8112255248387 0
-145.965599959049 -6.23974051261347 5.74853565946144 0
-223.926399193765 -56.1270081230282 2.20147275063189 0
-168.324131488508 -10.8032729048406 -8.24016274264838 0
-180.28019800179 -0.796864751655468 -22.2839480388705 0
-211.265596436669 -49.1683220224085 -2.200344204428 0
-34.8078111135888 0.569525186413138 25.2330473677678 0
-206.188063759723 -35.637219464614 8.96039089110243 0
-249.703363033201 -37.0838348899538 -9.20376123938384 0
-213.660764706486 -46.5398605469238 17.3656980236647 0
-200.135997700877 -23.7471834900458 -4.4675456062563 0
-184.74903132826 23.8496512582184 6.71469635169608 0
-247.344990076055 -20.562619472401 17.1187461273636 0
-236.100979304703 -41.1820257099042 -18.4822139849966 0
-155.426953860124 -5.56202109891824 -24.220497501537 0
-223.044413792734 29.6694259277942 -24.4435844273482 0
-124.528026379913 -0.406853665920796 -9.04969869830137 0
-212.434581190124 -47.4662283667104 14.6882028298365 0
-18.5734301391882 19.8994883878592 17.9835189122578 0
-228.114591802752 -54.5025999686278 11.071615548271 0
-209.655964678827 29.5221027505556 -26.1642489708816 0
-8.82527492009931 13.382327974439 25.0579829291638 0
24.4230557083883 14.3318621671883 6.65830913022139 0
-199.72382992678 -16.4381015125452 10.5220430125685 0
-193.728261067057 26.6414634122061 7.22550525650311 0
-141.644748854295 14.245330950297 11.3898139500909 0
-229.64040975883 19.7283082959504 -8.07988077881028 0
-198.177001540605 11.0963978176974 -23.3295817930434 0
-162.303588392105 25.3360235978699 2.5965934812046 0
-209.957998842417 -27.5990533224478 18.4511855818912 0
-106.995717701252 -2.7280658663649 -3.76192947854221 0
-123.942181559477 24.3747482314669 -1.85909754827432 0
-143.604149823189 11.2825746757368 11.7747076332661 0
-92.0928738976285 13.3486604498549 -6.62366924189984 0
-115.661027555163 -6.60977935649952 6.292186223847 0
-163.162194736929 6.72152513542381 9.58347866238999 0
-1.41154125196565 10.9693658542352 26.2908272682285 0
-219.635549784659 8.44172278949672 6.68098771789954 0
-177.486872481922 -0.648151578643544 -23.8788248632343 0
3.89430623950317 8.31786456987075 -0.438496639980718 0
45.7166234377969 1.98416784076847 26.7476542691739 1
-146.422982177303 17.4251668873218 -17.7822604211208 0
-117.432283999193 22.408927811904 6.92040459313275 0
-217.37838322765 21.0143640018567 10.6799896473553 0
-228.283081650973 -5.98262434845148 3.44529977974825 0
-142.940707008467 16.7892078619973 10.1699971884823 0
-246.729565189797 -13.1626249572137 7.23516698246223 0
-94.4383792862207 10.389272734251 -9.44840906036119 0
-140.324150494771 -7.56400021405708 -0.55738477882353 0
2.78578074316354 -5.8549881142467 6.28224976831251 0
-107.564446544396 -6.18444356640884 0.610150429311064 0
-221.122733032071 6.0624926241665 -3.75108364789257 0
-237.737170285926 -16.5360903495848 -14.4571468138737 0
-193.524149668565 -20.1667649978643 -4.52929757592431 0
-208.016225585047 -32.2104378779949 -3.41498174152652 0
-250.107141123904 -19.6432060638819 -4.13514991542674 0
-198.286634012717 35.5245270337566 5.9998451628858 0
-6.10807665627277 11.630703601755 25.8916499532423 0
-221.161368670246 -55.2561345486256 -1.4235342938144 0
-221.79902554083 4.80891592326098 3.85022732515319 0
25.3814550454651 0.193677599713629 0.0319983074199246 0
0.856739648751593 12.5580304284228 3.68021599422695 0
-186.601543995225 6.90366581792308 -21.9929550956276 0
-149.653931573678 -7.89419906981788 -5.29358238468607 0
-224.086431373326 -55.1228152579466 -5.03066302165838 0
-207.376113029098 -12.657237015124 -13.7824120941702 0
-203.987972168114 7.32261535147829 13.3565820564693 0
-211.900333922971 39.6417017171091 -14.6950548379614 0
47.1492587201604 16.0313269200673 10.0193383017047 1
-251.953218576055 -25.9915211015728 11.8869837027935 0
-158.253305271218 -11.2588935500547 -24.9068856136564 0
-71.7573085596243 4.81623295924144 -4.76376549234039 0
-141.104367858239 1.51050379025232 -15.255716103558 0
-197.914076253174 1.25714615713925 -16.7279944197717 0
-206.160420049687 -29.7508932255921 -2.99942941440975 0
-185.164657804766 -14.0194009152167 4.68544475845125 0
-213.701960892178 37.7151172421152 -18.5827581466053 0
-222.022745113528 -2.45192753809151 -4.34426105845047 0
-170.002618972675 -11.0433523651367 1.51683650112918 0
-227.134653445967 -5.03122547796824 8.32045353402352 0
-47.2759945238007 -0.84798670076534 23.8428455434585 0
-224.03683936165 -5.61026100553438 13.6003237455053 0
-226.651620621657 -53.9468099052079 -2.92423130030332 0
-217.346566036591 18.2809292911678 -20.1853430618144 0
-31.8172772778384 -0.14560376990221 25.1621945223798 0
-175.652241374324 27.7024476003618 -19.8743597993618 0
-53.2603616730778 -1.23207065564224 23.1212485635305 0
-199.125208252008 -11.6579578721843 -12.7336811023848 0
-65.605902834329 10.0022793563078 23.3748655012964 0
-66.4021800363256 -8.18247387961824 8.74242159355681 0
-197.921811837035 -7.42720051945827 -13.9830491315961 0
-145.858647918516 11.078388249815 -17.8608940192064 0
-179.562995962352 25.1646090481567 -23.2761120045352 0
-149.833126815223 -8.16959268824048 -3.87297594992343 0
-196.340662507088 -12.6799371244578 -12.1479567377985 0
-209.897968340421 -34.7827629768863 18.745382305495 0
-157.797047674608 2.39786528316367 -22.190775534159 0
-235.459313380289 -38.4509972864124 -19.7028992123519 0
-215.135878780322 27.2225014305031 6.62738167848093 0
-234.281410121604 -8.45378570540482 6.70905575451899 0
-208.238828617638 35.5280668227592 -20.7973927617235 0
-187.313666249305 6.12947291757122 9.69954291522436 0
-151.850963043614 -8.35845512626522 -2.65968560385963 0
-223.388212373165 14.6366874528294 -1.81967379125378 0
-221.973815719922 17.1093346689826 -7.9402100565304 0
-14.0475160820784 6.96276865267694 -2.43762686348277 0
-38.3206501852733 9.67393194390882 -1.39202022886705 0
-5.40629107061446 8.80882932003633 26.6840165935306 0
-223.682827563858 -54.691860856151 11.0012911699981 0
-175.340897860918 -13.7789606979037 -19.7084770474781 0
-228.380642206844 17.2253898865808 -26.8616051134546 0
-207.677566026783 29.7259881141049 -25.8096728701601 0
-222.90232857518 18.5368025219165 -28.5434105848498 0
-53.0924181462464 20.1658995404847 17.3403106274059 0
-206.453723372519 -18.1389345531871 -12.0626591545585 0
35.1360463908285 17.2631182323375 20.1923776849886 0
-64.1000655839859 -1.52654861416547 -0.101274748029656 0
-116.183969746246 -5.17842676872055 -2.3704132392759 0
37.1898508088342 -4.7492532610792 3.74291968422199 0
-155.456335876533 16.8346210500275 8.71702530804146 0
-227.26998696791 32.142329417182 -7.01042381541377 0
47.1541450218687 10.7773694934351 25.5775839483621 1
-218.932227330385 37.8233856361548 -4.54387669562811 0
35.3128968115308 9.13807427370986 1.78971365645291 0
-216.467851460334 -52.8348473999065 9.93766817152237 0
-56.4654493014032 1.31429899215315 -2.40396155290604 0
-216.046848959901 -46.4781158039797 19.5917053119156 0
-212.597231286151 -39.674159313388 -10.6343516066553 0
-241.513809053338 -51.7032663960678 4.99739360241792 0
-217.528126424169 23.9534531392786 -28.9272583240957 0
17.9728506969534 3.52671268953748 27.012321182233 0
-156.374451753287 -6.09785311303863 6.59445467727734 0
-229.054581804899 -52.8936697803452 -10.0736845941948 0
-192.667305454253 -13.3135516632953 -11.7422828390452 0
-192.224561309004 27.1779233682779 -26.3075142788601 0
38.443246743062 -11.5299898649544 16.659226408098 0
-202.472685285118 31.3220450279944 -24.9392665293482 0
-97.9287983513139 18.9988257037979 14.7276669058458 0
-58.9290167552433 -5.20511496394468 3.81508295756904 0
-159.715218558423 -9.01445927417478 -3.80680424912672 0
-213.326161825958 -29.423017183418 -13.065535337744 0
-67.1480999534313 -6.0355682650226 4.17189636126638 0
-195.360214047188 15.0526179892823 10.8402757514446 0
-78.1576871575634 -7.86699316331204 8.71250622358499 0
-145.464850036847 25.9562025934849 -5.99929947591587 0
-205.438072808154 42.8990629661506 -3.3607979628426 0
-161.425728650047 -3.42513925283007 8.33518951734485 0
-172.589083669348 28.6908695147406 1.4561680690043 0
-62.2846588095571 11.2361065325522 -2.82797306801229 0
-241.196077347386 -17.436288253634 21.10566623909 0
-232.043684751733 21.604411314093 -20.8048947463523 0
-68.5097504794335 21.9697770228304 8.37624679720605 0
2.88979961461053 1.19180939620391 0.0428041005524635 0
-229.592282361525 22.8276157358612 -0.606657557901808 0
-108.567144627837 3.957104893697 -8.41022406905599 0
-121.80170283164 -6.54244342171627 5.43502063827463 0
-197.988706652405 -23.5254588226199 -2.68990241161613 0
-0.022116753582031 0.987833614339546 0.269436061973805 0
-245.356699738855 -20.4162611029336 19.4539800681327 0
4.92577346744959 5.83364252871109 27.050715701194 0
-186.607315364067 32.4037160217707 -22.1237713904988 0
-228.532400504765 29.6249868790077 -8.56763547153242 0
19.4096239631177 -4.72930497312781 4.86891422404208 0
-173.521213787861 17.6183106998551 7.50680154738004 0
-227.741039820367 -7.11097949866027 -0.853578124012804 0
-42.212139719133 -3.68453564859221 22.2100040019909 0
-69.023817094183 -4.5379655681402 2.36333162247936 0
-156.891996665819 -8.46727632716883 -14.2478162730883 0
-94.7673607783301 -2.99968285061544 15.3602782875905 0
5.17136992241161 -9.83255556259703 14.2431440976658 0
-217.534734056282 -26.8895873549253 -17.5999047929751 0
-39.142009356694 18.8830585679842 7.64967899405782 0
46.6749576951924 -2.65622931055446 25.6378213143268 1
-212.125755288734 -20.6629159073293 -13.6410566300291 0
-228.883860963679 28.5110050224984 -18.2665380250697 0
-213.136698213535 20.1656334779153 -17.1986251898664 0
-233.062984411943 -21.9543178541317 -20.071306271249 0
-8.13325505993611 18.0183698151746 10.4841550239156 0
-253.422488820423 -30.8232137601239 8.68914764004772 0
-222.448207091781 -18.7849260703559 -17.3397186631915 0
-167.397143214544 -10.3050180477539 -6.82378558038721 0
-226.606312675399 21.1709668258767 4.02385074338176 0
-251.562203963301 -23.8104433720249 -5.05980498178787 0
-229.881539997419 -7.72085415555725 5.418226041809 0
-154.450926282167 -8.14632393038096 -22.3863729172808 0
-229.893219396575 29.0545078335884 -15.8263029581647 0
-201.451529650945 16.9656945686407 12.0494318214194 0
-86.5577761698214 20.1754167779573 0.46776872819635 0
-12.2544554131252 5.01260298335671 -2.53932956806235 0
-206.23441983364 6.69691601263482 13.3367900150541 0
-199.18051311973 8.61721772170596 12.4755971947252 0
-87.9916835464983 18.6797811949068 -1.66737169247824 0
-180.260481003423 -8.89711294657147 8.35934894015398 0
-244.463501196621 -21.0449431953875 -13.7604028751639 0
-156.062775659167 13.0543843748773 -20.1797140650956 0
-115.871913021137 4.19821072948134 -9.68722607252326 0
-231.656421397538 -9.70734333108736 -2.66897326444001 0
-218.511072225631 -0.723089131491026 -10.4101176717575 0
-190.557923846047 -16.2420464291643 5.73272483592824 0
-158.150617669125 -8.50281337646014 -5.38074980148927 0
-214.825967426158 -24.6430821532561 -14.9654313421053 0
-100.312279436003 13.3016507322739 -8.24177604496146 0
-219.288881036365 3.7794005399596 -7.0922509461201 0
-244.263428831199 -50.3306403797554 7.00146548319051 0
-165.128989371089 0.888290433223526 -25.4537884173137 0
-221.064416151271 -15.3928489801712 -15.4099475495721 0
-235.228598123531 -55.1362545417873 7.77657981960986 0
-209.241072599501 -47.3085673320339 6.09597916291538 0
-80.4287921798839 6.38178909565099 -5.71649172377767 0
-158.783700193312 -13.2377112546771 -22.6840024796136 0
-110.287481296673 23.7211819248135 3.01159675661193 0
-228.655502488965 -8.2307066925239 -3.34351770872758 0
-113.334646480328 21.3558609259923 9.32905021149246 0
-97.5827808650754 1.12949184615524 -6.32741649793797 0
-192.591647937429 41.9425813532442 -6.89453937364275 0
-189.682674297901 35.0371558074076 5.73561678536394 0
-220.654642299937 -0.770213062617164 -4.13935879714298 0
-207.52689373911 10.6847691785198 -16.6787224874109 0
-183.13025469685 18.0794192972887 -26.1736312360907 0
-225.875295671705 -4.01537190513725 4.40640852720249 0
-222.322973993384 -10.8535246266214 -13.4008689608499 0
-168.956666025899 -7.22749594776273 8.27834999013731 0
37.970435480666 17.4783076395164 18.3848773995073 0
-213.403689184288 20.8780602581529 -28.2116285048957 0
-207.155998363879 23.6877078852266 10.2124521439405 0
-188.967793136862 11.923360944796 9.6312399793524 0
-114.143522325653 16.9659835930204 -9.09315852827508 0
-219.121745902848 5.38698641634187 8.21288773684167 0
-210.415261637299 16.2964095925174 -22.4759000199619 0
-154.004838689719 -1.1607447533327 -21.9743639733544 0
-44.2737438878459 15.5873556931743 22.4952896185569 0
-196.616739855609 20.4944393794795 -29.6709673431773 0
-0.647482186217945 15.2354693704941 24.0662684829367 0
-208.04056015488 -15.0835743609522 -13.4660352749441 0
-220.595564133704 -12.8411893650827 -14.6827897003917 0
-232.134659039969 -53.4702584423216 11.2497787077556 0
-61.3069329644113 -6.62826504233452 14.5629542247134 0
-181.061023092673 -2.53692838735416 10.5046254270672 0
-224.582411813861 -16.3592785254432 23.8873428143193 0
-91.6353103686957 -3.61869584693727 -0.780772960900362 0
-210.77703596945 11.1787560292058 -11.7416467513029 0
-220.752348359937 0.720545275899015 -6.11656469063435 0
-139.165210786284 13.6769995804632 11.8837264135872 0
-226.200053119584 -53.743184500858 -8.95506317129658 0
-249.506690155783 -22.0638702507218 14.6247500481559 0
-185.323764539213 30.2696042441471 5.57986821427669 0
11.7646766248562 18.2014859740959 20.4661256520947 0
-212.217054685253 7.19445407114971 -12.3785761776728 0
-132.097176607859 3.63095600890086 -13.0034259578239 0
-198.017959372072 1.35524787545989 12.0358179323315 0
-12.3545475639323 8.58228808711751 -1.30197446849406 0
-75.2742669052651 4.2479172723405 -5.04144485528736 0
-119.840762093105 10.0275633555666 -12.0583541822005 0
-168.136356946637 28.079593112515 -14.1826455538624 0
-199.537398901915 -0.728621898378605 -15.9969367273276 0
-174.599493696295 9.71759119764812 8.55941598475933 0
-83.1276384373606 1.14952718027383 -4.69195120692159 0
-84.51902907755 18.2480035921023 -1.34312765801065 0
-250.538799816981 -37.5921916285431 13.3726250765362 0
-81.7077966463698 16.187472956457 -2.78202022994678 0
-210.815619757695 -31.8590763721563 -8.25865430086005 0
-214.621379778883 38.0036216946344 0.456055525643822 0
-146.133874433518 -7.86865435782001 2.01590179425743 0
-0.778624709226738 3.35859269597829 -1.63699815921737 0
-213.418393302569 27.6824868587309 6.28613160738792 0
-2.90384874355268 -2.24436864648285 3.27735786827096 0
-197.900799520319 22.8460748921987 -29.2737228669538 0
-56.7968492007258 15.5915952512626 1.73158558567782 0
-48.9181971563576 -6.21367853530428 17.2553035833668 0
-195.783705515538 24.3681635512393 -28.3820962357369 0
-216.378179321951 0.513252566771945 -12.0233965618359 0
17.9186564714992 -10.4049713942404 16.1887808016868 0
-147.393642610115 -7.77753851022855 -4.97735877476118 0
-206.986064471013 -6.93505300312437 -14.2491965710875 0
-165.144558763231 -11.1388930181718 -12.5944972181504 0
-235.491347063214 -11.7953053285551 19.1085354307517 0
-13.4296034625601 -2.4366681670649 3.29574669480857 0
-212.040138121143 40.2713915526902 -8.96381221898819 0
-135.985934209929 -5.92747686552424 -6.05132404916964 0
-39.0292228179204 -7.32601720540844 16.5627777712438 0
-191.542956615449 17.7308064727244 -29.1221611598392 0
-77.1772665165779 -5.93876939336759 3.18055213634738 0
-77.5674179226926 22.0886936163139 12.1475318984886 0
-186.842240953544 5.43789983257677 -22.2982359585521 0
-187.531420535781 -10.4109659359266 -13.7192991586302 0
-25.4093596359334 1.69077260167479 25.9980609242693 0
-85.2404376761444 1.81260009669082 -5.29214972112335 0
-169.621659985947 -15.144290429527 -24.2010861505191 0
-184.529437416286 20.5283184742589 -26.0720554507507 0
-209.700910132422 37.0320341494812 -18.6462267408545 0
-170.865784535909 -10.9077390537247 -27.109513867013 0
-161.969507776835 12.5100982596986 9.09139786912586 0
-87.9363885187632 1.29476746653811 -5.38219436489639 0
-86.3682157964588 7.41294120470372 -6.81618650287644 0
-147.349845637056 9.15107602620376 -17.7242163639671 0
-213.003356138891 35.5706011357817 4.38592222096716 0
-161.865180451338 -14.3362772382861 -22.9496368635806 0
-201.391414130333 8.04881247740267 13.028654716104 0
-220.537695082421 35.5325864617235 -0.879038764473405 0
-240.054363536972 -15.4775528054136 -12.694659506428 0
-225.187710439817 -3.11905071632991 0.745038226050625 0
18.3963811284392 -6.57852801371366 23.4037571221359 0
19.6787231740247 7.97164710193313 26.9216236885135 0
-226.714137977717 -19.9347718854267 26.1868757910427 0
-83.3200709629011 11.8025016214736 -6.07172204005455 0
-51.5214869470906 -8.14700349509633 11.2104216342425 0
-230.496512142475 -53.7345729651698 9.64002707990119 0
-12.3352992762051 -0.541385867975999 25.8778274359857 0
-125.648221561544 -6.5254394133035 5.00697169991555 0
-217.874695647285 -44.6860557670329 -15.5237128440682 0
-226.824660890452 -50.3954511858984 -13.2011006785825 0
-26.8682195602411 6.77796257668268 -2.88107782252044 0
-207.469515507002 -1.8629241239447 12.8988990238072 0
-225.07937043098 -55.2819847782615 -3.31078195529591 0
-64.7711214301722 9.13410458149141 -5.16335672928577 0
-227.569275549639 -53.0765380030919 -0.591566656559188 0
-225.638608855601 -22.2283318253458 26.8513005914813 0
1.06270261861026 15.8929503961284 7.89553243980898 0
-166.266989037727 26.7223773265661 1.77994921911807 0
-19.7620677407109 -2.4932353843342 3.1173560778491 0
36.2254115850459 17.7067181557762 17.2597247335233 0
-139.409677074999 25.2805655790465 -5.55744240176042 0
-220.904766584433 36.2147258613447 -16.6247179948482 0
-207.55095965328 34.3929264115733 3.54373905788984 0
-58.9449249343202 6.80046417145587 24.3291877640658 0
-239.439877167425 -9.77610250000014 4.63839427216946 0
-151.772018395637 13.7701359744579 -19.8471436419867 0
-197.987660103179 22.9355213174123 8.05147260866146 0
-208.424435295984 -37.3249946419854 -2.63589506305186 0
-157.967684777648 12.4497313687124 9.57191916706263 0
-217.935309002985 19.0928006204596 -15.0888540704623 0
-156.093880989094 14.8247152403029 9.31528038543228 0
-225.407385494956 18.6805352342717 -9.39036924998941 0
-132.1285002177 25.0875756401312 -2.12016676204474 0
-55.6507403766213 6.22375549565835 24.6345568882716 0
-69.0044740939454 -8.19735058472025 8.93059455222818 0
-181.763229723842 27.2894964387338 5.52122862626401 0
-170.768914533608 -8.26635777307102 7.90040881412428 0
-74.7596433443947 -3.61806873159931 18.2450265105876 0
-14.2444733070737 -8.94460928771581 14.7909858421475 0
-154.952842414257 -2.9383067742748 -23.327267654995 0
31.739252284129 -0.155409783689457 0.347797197874292 0
-232.559779538619 -9.4175290561466 3.6956278919646 0
-235.206451898367 -26.2395616237257 -20.6628561329062 0
-178.977613363401 -1.94962075336487 -23.4389729302029 0
-196.455489160888 -22.2489260820483 3.73017004409378 0
24.6892761627574 18.3708337395504 16.2931002334003 0
-119.335448817701 18.5780748853351 -9.27982992042264 0
-183.805265656008 27.6516346553152 5.87064952368646 0
-110.747623423959 15.0473939133542 -9.3854764651919 0
25.952956850123 6.78840952618121 27.0154090888936 0
-229.125225716627 -6.40156683030011 5.3707900257046 0
-225.527360309435 -54.3186435332618 6.61023216203619 0
-227.463735419296 -6.33645537411624 13.5581641050923 0
-226.960746318438 -29.3449501909393 -21.9946075753605 0
-105.845993074511 16.8204007128468 15.3851282815929 0
-225.912509071084 -26.4575061599697 -21.6331685202136 0
-213.215687157726 -39.4764079812672 -13.9339403822479 0
-177.178754391095 -8.45089123877975 8.49939786965374 0
-213.626786936199 -38.828549910326 -11.4427715977537 0
-164.271616883019 10.4428188011491 -22.2080861369246 0
-103.838076333056 4.35510943262369 18.2249307936549 0
-59.694604777738 -2.20751992516513 21.6386442175741 0
-4.63315027991855 -7.63830623461825 20.3699114371478 0
-28.1138811620012 18.0159931044837 8.12406326961127 0
-215.74752191965 13.2458668361388 -9.8506312345128 0
-39.9792716360787 11.0826822482147 24.9473613870863 0
-209.194931291092 16.0928526662683 -12.0996186751368 0
-25.3147901660431 -0.941402879117325 1.73058823285952 0
-80.5054121507352 22.1641692930282 11.6448247806631 0
-63.6407137528532 1.10325332993167 -2.46725577222022 0
-218.029990298739 -11.7031723809725 17.8414130956572 0
-211.149260061278 -42.9976663885206 -10.2362591970929 0
-180.002064208735 10.5746273017886 8.72445333976759 0
-135.069509136852 -1.55550151019962 -10.2798202472816 0
-112.738670174389 1.45073119393167 -8.25215530851763 0
-111.455484607349 23.5875634559078 0.461339249783874 0
-234.636469859461 21.352386313224 -15.8782836304682 0
-221.950492162362 -9.92925308922083 17.1994338399748 0
-73.4117881705919 6.84469994531319 -5.32865847095386 0
-249.627852950762 -24.334687216943 15.7544941579064 0
-153.475405434152 13.8358608199205 9.90585169746588 0
-41.7150843430574 19.4711108597427 8.23325349399586 0
-34.7790841414487 0.248114864042519 0.213864851493483 0
-178.455012377795 32.7249176158236 -5.30875343645688 0
-250.973965519697 -36.6085410688253 -7.00114812878206 0
-203.655556975425 8.90600622167697 -18.1719315658879 0
-208.620947361219 14.2357621857588 -15.4267320037044 0
-224.182327914861 -19.376180823693 25.5531080936564 0
-185.976746299474 12.6125989809469 -27.2456588614347 0
-246.848619111878 -36.382144476588 19.5413833687524 0
32.3813712809066 6.46506055193688 27.014588289125 0
-21.5135887098489 20.3072177311834 14.0983978298334 0
-228.722984986853 -8.17410418017168 -1.20404407366174 0
-92.3625251758758 11.8426590560108 19.6137930092646 0
-212.778712138753 -29.7177752590289 22.6504745168476 0
-201.050212443705 34.6227692040336 -21.9043793749669 0
-103.504531824253 15.9005475733226 -7.4260265045545 0
-172.289999358532 8.64392530610847 -24.5363359949963 0
-210.226431348741 -41.9593558102696 -5.92525473029272 0
-205.910704041025 -32.0778538144056 0.327654427261896 0
-216.258430189441 -16.6561123488608 19.5939253967327 0
-5.54474404249328 -2.89769355915993 25.1003239119105 0
-175.801367105521 -9.6063944969391 7.65252113999624 0
-227.332555599535 -36.6388724195355 -21.3759510913473 0
-213.654229291091 -22.3013210012383 -14.19540186855 0
-100.673551281653 19.4894492523682 13.8148058682778 0
-233.364255882964 -52.6149980780292 1.23541504650233 0
-207.179402457248 31.0439763124205 6.21619279309247 0
-59.9469461363614 15.9378168828169 1.54197702067674 0
-233.826656641465 20.2697565066668 -19.4129012125122 0
2.31181806763956 8.17399883723975 26.8722205642823 0
-199.518391163189 39.7053680896277 -16.2043009082096 0
-189.809733964964 -18.762049322994 -0.942455053658694 0
-84.7105905877071 -6.68684351367252 11.0157925541809 0
-235.105357036461 -14.1448751317237 -9.08447568211272 0
-179.25572904774 2.43412606361926 9.83335130043448 0
-31.7560554051342 18.2098608357683 7.90217994554155 0
-211.483951149035 -20.094207097939 17.2158361934926 0
-77.5711814654842 7.98686619303242 -7.03502770358059 0
-55.2112804168257 21.6166710461825 13.9152364069991 0
14.8771850514411 17.6372139275822 21.2486640338983 0
-0.585617207652311 -5.08882609029315 5.52457291177767 0
45.5539633005376 9.49507394637426 2.12407950348615 1
-200.535924652489 6.10304064552616 12.8918881987978 0
-111.185119468711 -4.00049475352941 -3.10684187393092 0
-101.2295593368 17.1283009952665 -6.22394710605741 0
-244.411282557954 -42.3963383040171 -12.6878340473176 0
-211.744431452116 -33.3454628399799 -9.78780345448825 0
-141.851657769481 -0.409680053058948 9.9053870412367 0
-231.353620064258 -51.9105917664285 -3.88202019419079 0
-236.096231204434 -53.3711768637975 9.21447662129353 0
-187.073919793417 -0.445058538373896 -19.5513045626912 0
-174.55237656593 -5.25923211807639 -25.2790487071023 0
-229.043373485615 -52.5493022074682 5.92356907832364 0
29.6935904179987 3.91267212181722 27.0430434552734 0
-205.498064348754 1.93987524351154 -15.4012789044106 0
-155.50593757852 26.8927708472279 -2.45569023745933 0
-218.262697186361 -17.5713031942083 -15.7607722100217 0
-221.887347397827 -25.89617068841 27.353272086274 0
-89.1051642733045 -0.066809559242001 -3.95777703670237 0
-226.517360155617 -12.1205910638177 -12.6024981212116 0
41.5630411962077 17.2927928878781 13.7421143994375 0
-253.034725037526 -26.5294432582249 8.66732700641985 0
-217.641728786283 -51.6137461114102 14.2846440151381 0
-189.045421748665 14.6146587530787 9.41216361639565 0
-246.865173859386 -39.7269690763396 17.9528223283371 0
-226.830178354578 -8.55948988284975 -8.16876009432626 0
-205.547091485267 -33.765322929346 7.85160680842275 0
-89.8325181587558 21.0232534037315 13.2492477960565 0
-197.409755723032 -20.2838828313281 -7.48844312915136 0
-81.1349033938861 -7.79730609936415 7.25059432435034 0
-200.969292643672 43.4714946189664 -3.07548509258623 0
-193.914125251556 13.8111129840635 -28.3051683248738 0
-223.590521252508 -10.336627446842 18.2694056582293 0
-180.840359317752 -6.34025443734521 -19.2103928039494 0
-118.462055380178 3.87163298155822 15.5756786788084 0
-81.6313209209493 3.86159446857868 21.6474288340853 0
-116.740626547359 18.994536693568 11.7681116167168 0
-243.849848401399 -15.5228503120482 17.0986517834612 0
-22.5869161050695 -1.34750786026629 25.2096300082469 0
-200.038023514879 14.7853985181369 12.150241075131 0
-28.6949284986069 5.8359103379263 26.2300170109924 0
-222.531798634837 -56.1062570208304 1.17736059105718 0
-214.582155014053 19.1871710093235 11.0989064218346 0
-239.726383806153 -44.8213860281328 21.1675226560149 0
-45.3451161844846 18.5197914141409 20.0059811294485 0
-234.746084268589 -53.2846358516225 3.28445042389082 0
-145.370113343801 24.1206050787413 -10.8164793001607 0
-197.727761759226 7.18538051891939 12.1241263827419 0
-197.114483214248 -22.3104555185121 -4.05700218068199 0
-35.9641048368508 -7.56352846060728 16.4603484312772 0
-179.75629815497 17.5298718859063 7.77581717075813 0
-223.969742151195 -3.00323900359151 -3.18176192707595 0
-154.001552777211 -7.98913271528616 -5.6716312326576 0
-234.439672810249 -18.5760919745183 -17.1576246920239 0
-231.502684198979 -51.4253508178234 -2.00809608221063 0
28.9485133586062 12.899537327389 5.10397358898766 0
-127.676223451633 18.5792992190747 10.8551572770075 0
-61.5877542188607 19.9734122209548 5.5865599550841 0
-200.508633456056 34.9941243474272 5.42542083443325 0
-239.835930595483 -35.4317661246251 -18.7915912904709 0
-100.289081428079 2.77827604680128 -7.05438295605591 0
-217.851002206467 -22.6491281161378 -16.6172329577436 0
-38.4318214488891 -2.45914737182128 2.25088354543192 0
-218.849327870535 20.8819462358617 11.0133576362896 0
-77.9005059813425 22.5084460510915 9.51804316531954 0
-222.582466207493 36.7186593738375 -10.6191963879876 0
-231.19226888054 -12.0427794770141 -4.74116822213461 0
-148.486518068205 7.04257331258472 -17.8877277018355 0
-218.120983029499 36.4940999652479 -19.5377046399308 0
-144.24087763243 21.6784300492568 -13.4644737519594 0
-150.437823053287 9.04834819996982 10.9865873449104 0
-134.831054880692 9.71776503890756 13.2133974645173 0
-224.669522027269 -4.0209642816959 10.7630412403054 0
-160.32327720824 -14.4187383767074 -20.6020755720483 0
-66.9180617147787 -4.57029097519555 17.8574607942576 0
-166.475710953183 -10.5265414306937 -0.652041332732752 0
-70.2329662330432 -6.47459446425458 4.46631081221232 0
-181.193509164422 12.818712823146 -26.2026373662794 0
-191.344242598709 39.0306566057521 -16.3924753551558 0
-219.551759027844 19.1454159197535 10.0671199239649 0
5.47827571510056 17.9633315241114 11.6837615577221 0
-53.2908848538192 -7.5360852583676 13.4338851155371 0
-203.953051898492 35.7043761825331 3.96727051117366 0
-232.846922332743 -50.8804230460789 17.4430519988363 0
-199.338647692489 30.3335730200933 7.87515311944181 0
-159.491131371669 -9.50330280089454 -1.24515942021481 0
-244.309440851402 -36.6235847212304 22.0399834111187 0
-220.608590257587 23.8881163938125 -29.1943984858657 0
-237.781301487644 -10.7004808185246 -0.863973246798463 0
-219.314755147382 -21.1732372209269 -16.8868285083465 0
-216.759944875028 -48.1004293086476 -11.5582574705773 0
-157.592761924459 -0.120292022818622 -23.4367664199585 0
-64.92801786884 15.0179632311534 -0.29668439128343 0
-142.390534313791 9.66380097920364 12.1418940599286 0
-244.677888872619 -18.2463906614874 18.6266677152104 0
-191.456245600308 21.1759577768783 7.79711729396695 0
-65.2139357884121 17.2086519154225 1.93333704974815 0
-106.965011228917 2.2383631541385 -7.70647698908511 0
-176.668148587849 16.6071931933361 -24.2385566983385 0
-198.74088437296 3.29233552000921 -17.1525161281367 0
-132.53206243205 7.9799405393231 13.7105429340529 0
-221.430831748228 34.6021129750665 0.776212108614887 0
-23.1398065778272 -3.54871201465373 3.89932742629979 0
-3.99611943742381 8.25671816558169 -1.0919678886659 0
-151.598614690932 -5.93278698490113 -16.7050826744697 0
-24.8167202358646 16.7654667502687 6.99010037690314 0
-214.186689119449 3.1930030534584 -12.715830899355 0
43.2329958954288 6.33092319446667 26.9528990564819 0
-181.768066603262 -14.904701455786 -8.55021639546866 0
-195.977038765103 42.102119968742 -11.1607746279627 0
-8.19363415814846 5.39556436775454 26.8516617179935 0
19.4841458872148 17.1523887759429 21.6429311621876 0
-214.669186351106 -52.1046953836184 -1.51574586005735 0
-183.667228899673 34.7965627161313 -3.36212939418597 0
-211.749373100665 38.558693343902 -17.2296447188143 0
-21.1902710831131 7.13477387721979 26.4486282573692 0
23.9652315064023 8.85148081989041 26.7496637062479 0
-218.4745123728 22.9732113726735 10.0772080673351 0
-132.413823662247 14.4526237328815 -14.7145244875351 0
-152.628348758866 -7.47435023523704 4.46663119588374 0
-228.525681391788 -13.0784414091691 21.7443785472173 0
-135.518027388979 6.1006325127067 -14.4001590854824 0
-189.612475220169 0.0294412721681664 -18.9004516362307 0
-123.710899333801 -4.15791500966132 -5.57397826000009 0
-210.633003908723 9.30064198865899 -12.8987864521035 0
-26.8482549759027 -4.51066931271811 22.9074708563248 0
-220.362185540062 -40.8893358902978 -18.8403187490881 0
-228.748555193669 14.8698373841849 -26.1732229950551 0
28.1338314990733 -4.59774673260135 4.16200213575462 0
-200.590987651953 13.3330589570934 -25.7642283415899 0
-217.210786904901 6.0948058243785 -8.27540047020988 0
-171.557129725296 -12.0115035080443 -5.94206743208871 0
-231.931742278272 -44.6820502451152 24.4784878062535 0
-191.956774949433 39.8591353310665 -0.964608858065168 0
-141.789724608863 -5.56691271773112 -7.66214943820504 0
-206.805764228638 -35.3286467077126 11.4847382569413 0
-88.9358019253873 -2.99909626175208 -1.10176581896823 0
-212.138621417701 39.2553602326438 1.10324141123168 0
21.5497589362178 4.1547828444338 27.0847134627327 0
-187.622354346072 34.8939981622297 4.00518752814005 0
-224.906114690414 -7.15323914962154 15.1925339129563 0
-214.073247527159 -23.0170774053515 22.0678481554087 0
-76.5532418632998 -4.07662887753416 1.16803472496189 0
-72.9304173366748 -7.31629034932304 11.6994546310262 0
30.5821338448684 7.80110053626153 26.8745623540249 0
-212.762158504829 -50.9257486200381 -0.319969389818621 0
-158.915881549397 -7.0753665629298 -26.5885353676859 0
-196.532486340938 43.0821972528632 -1.85106778527856 0
-140.566995000047 -7.39751720238052 -2.87073963829102 0
-72.9615878115822 12.7120045563844 21.8066571871687 0
-213.462494199123 -39.6819157992332 21.927781454108 0
40.7320024722535 -2.53402428759707 25.7014001782965 0
-121.92902580828 16.1968110830746 -11.6277890931623 0
-14.2304245114857 17.0751200361814 22.5710400106256 0
-231.209576199039 18.9365836497645 -10.7179948170647 0
-211.678983541248 -12.0495025545955 15.4034224449039 0
-220.963331828866 -20.2665687302513 -17.6736854642532 0
-246.715291330233 -19.9870177345513 -10.5748184930052 0
-178.815968492822 -0.972459199040508 10.2952997273955 0
-212.227108460452 -25.4484466074632 20.3181246795011 0
-221.905212441245 23.0868337542747 8.18711915111648 0
-88.4917859793134 -6.90168779168967 3.8791029558802 0
-174.573032391607 -15.081737350481 -20.0551591947004 0
-219.553493681842 -51.9835564791336 -8.1137290476641 0
-70.0116083430615 4.21148555504866 -4.51584156223337 0
-248.563724451207 -21.6664948571818 -9.36244940756776 0
-233.107798967707 18.0125770044926 -20.3208841121119 0
-226.387547211912 -17.3043314310254 -16.9259538077189 0
-135.868341950286 0.719418451059529 -12.6392502893528 0
-151.118570702327 20.4736492577362 -17.5099767845155 0
-227.59336086622 18.3480642078684 -13.7342169519059 0
-170.899030037074 -9.8655060484615 6.67037051434573 0
-206.900776456695 -41.6354736237419 7.30370557356427 0
-34.3955595497042 -6.30086215481876 19.534855469334 0
-214.187445896803 17.3902863548839 -22.5112167083368 0
-38.1941333841035 20.2225321177932 10.2141392937459 0
-196.502836564425 -6.06909993234535 -14.4875672896837 0
-247.517614523933 -28.2578937228992 19.6785555828188 0
-237.70046690551 -38.9587405241714 -18.7980686567102 0
-238.08095136353 -34.1091672116508 -19.8317053303669 0
-155.130541876934 2.50666038906639 9.69868042519496 0
-205.996976232306 16.9068464787456 14.774034109035 0
-169.007579722084 -16.8358576733893 -19.4421644216352 0
-155.697606181249 20.6613987089492 -19.8011732785892 0
-207.8350770634 25.9807313166091 9.5250400348789 0
-222.007462184399 11.0261049909711 -4.42638886171278 0
-172.797301747565 -14.1710459091358 -15.4089033721787 0
-230.904945632358 20.6813376480264 -6.9004842532011 0
-90.5541237941163 20.3106474685797 -0.247171972190727 0
-220.866903488165 -2.48972778395581 -8.70851901373088 0
-102.338370881665 6.76552184176818 18.759775925392 0
-193.308098866502 9.06545494884031 11.2633375623806 0
-67.1549133400977 7.90672524882591 23.506847415052 0
-232.536525833044 -11.399297226365 -7.47891498245263 0
-28.4426109377556 13.8079997832444 3.30429927202931 0
-168.548832361914 -2.23824386969543 9.5589215237184 0
-227.828510699611 -21.6886910435195 -19.9571662772328 0
-109.65969145559 9.10978672416747 17.4210467644019 0
-97.153634604005 -5.88210661145592 1.17831529772908 0
-176.554960525816 -10.7074901442649 6.49378692840755 0
-201.673621114677 -0.0196203336364011 -15.91314857191 0
-220.570595022556 -14.7596768840917 21.2868666964411 0
-202.534332038085 -9.0577686971413 -13.6285164108097 0
-33.7122324499447 9.19672751145356 -1.50535062573393 0
-228.851252112918 -45.6334194002358 24.2622269194759 0
-148.222592292275 -8.00728055939763 -3.60662842784123 0
-163.280943825634 4.50983526135483 9.64514001877028 0
-158.337009459805 27.7680699673797 -6.86441480845168 0
-178.437717107492 -13.2766496323878 -14.0101355382968 0
-2.74086318264605 -7.21304655575729 7.96311607109874 0
-163.851181217043 -2.35393631923062 8.91167446570945 0
-170.166970462869 -11.2896847997495 -2.21069177943178 0
48.03958252364 3.13789379354005 -0.758000096361747 1
-235.179407794853 -35.8195557814113 -20.5516131749687 0
-214.240311612785 -6.47556730142713 15.107402777947 0
-57.5434822942177 -4.77885751798401 18.7165383422643 0
-109.022051702235 9.01392667217211 -10.1041443542984 0
-173.040445295023 27.0095107919925 3.57455807902018 0
-227.510638081394 31.7142677675798 -4.50953903326976 0
-204.75980989012 26.2501101715029 -27.5209694863135 0
-226.220111042929 -15.3029922477246 -15.6179110358707 0
-47.1207692226443 20.450048632892 16.9488048607017 0
-242.708279575429 -15.8714106322787 -11.8958196588901 0
-106.376025317027 7.66025822538979 -9.0666640576635 0
-219.92958032198 -49.0963530066744 -12.4379771566993 0
-125.75365608215 17.1585098064515 -11.9360241450057 0
-176.900427976441 31.982225853326 -11.4783882062766 0
-207.91977318576 15.427962502481 -17.2714321812666 0
-202.461034055396 -28.0612519295412 4.70415066985529 0
-233.546538633407 -48.8510079057209 -14.2370971742408 0
-181.754585641378 -7.83051655667965 9.30503221666428 0
-181.837156382225 -3.85720382316524 9.53220750522973 0
-87.0525832510788 -4.70700731030168 0.780040915479599 0
-226.481657240038 29.3650719688545 -20.5459625757462 0
10.1184862008507 -10.0553267100754 15.461847423582 0
34.4267621304182 9.40969717064419 26.4186299883007 0
-7.99844778153796 0.210481280955076 1.28606231873617 0
-177.4243680917 0.570816727031252 9.81027761866186 0
-176.879410223003 -12.7659158618252 -17.5194438745542 0
-212.986155093365 -30.6683549742117 -11.9217658180705 0
-99.3430842402476 -5.40095575971306 10.7558234003423 0
