-37.3592242751666 5.4398649075359 11.062694207644 0
-171.382227884504 9.20966687037204 3.82874594992927 0
-205.708683285556 -12.7269986319089 11.2314916358145 0
-41.7777221118744 4.40370649030103 14.839371006531 0
-175.62642989483 -26.6426778912772 -4.30156322118729 0
-141.902639451098 -2.02081633064168 -15.1866629934034 0
41.690006304571 -3.31788614465898 -8.11330908690065 0
-172.841258976806 9.42448904700354 -0.809039153944293 0
-198.18664063206 -6.07497011637728 11.4804269861089 0
-181.745634218688 20.8596101684606 -18.6135722120473 0
-176.849531574439 -21.5933810185433 5.77904905244388 0
-245.803292503407 45.3666907487349 18.0994903846843 0
-211.416741943146 -4.08136260096085 -24.1501651983812 0
-203.500506444071 8.27321239556727 13.8463465745251 0
-256.869072575094 35.4387120300624 9.59531013416875 0
-206.544273277534 22.8453963091317 1.44531651739446 0
-105.312590569678 -0.191161565380452 -7.04920484579592 0
-183.336253410408 20.7484676960803 -15.5345954368193 0
-166.117218389393 9.0256075455506 -5.25846729627801 0
-201.017060204119 -22.9406887299136 -24.2785919132268 0
-221.863132930109 -25.7025456325934 8.12646299837458 0
-71.0355144326034 -22.7089239006612 15.1448085688933 0
-220.756964450313 -14.5517248001514 -14.0508904246897 0
-222.663740850323 7.91271298990167 17.9363200445057 0
-249.505163176935 18.0728676280137 23.1749920425384 0
-224.230086662133 40.3477360476591 -8.3984048302485 0
-212.236848216124 -28.715387143538 -24.5852901963277 0
-37.2853382848719 -18.3061908648216 21.8806418177475 0
-134.950699922003 4.22593195257182 9.04509230541622 0
45.061285419338 9.46792271046852 11.660446807031 1
-145.887097160958 -24.7806666502428 -2.37693563493527 0
-81.5130275540042 -17.7350515842372 -7.39276598532969 0
-256.4351097109 33.6227198021669 1.04356972890395 0
-75.7997933327927 -21.9927791681104 -0.0149959725628319 0
-182.794988430105 -1.70749659856261 10.4134441150035 0
-132.734672579034 -2.71909810139076 13.4820215477985 0
-82.539888361132 -20.1848604939165 -4.88311458235645 0
25.8336500135385 7.75923906826865 14.6552887812408 0
-253.707586592688 18.2213613455384 18.1786163046951 0
-250.593343606322 42.8715030066398 15.7079482266589 0
-230.38395763188 28.9946591818949 29.9617939711201 0
-34.1900510448107 3.84729192038489 1.28822799730606 0
-236.472770786786 -9.66424000429536 2.18186522235125 0
-93.9557498104066 -23.3203975264339 -0.516171702808369 0
-171.21172316424 -19.0138501784157 7.71130102883683 0
-240.11505710721 29.5526162657423 29.9416726260654 0
-185.236580802793 11.3305146810381 -24.1069051920943 0
-227.994183933746 13.8053715826211 24.9977077646144 0
-217.660725214443 22.8445627713835 18.8765451665833 0
-45.6981161707134 -2.67736535975053 22.6012674247345 0
-157.870644697243 -23.6574642916762 3.45095857784205 0
-233.737519367912 -14.4212577226215 -29.7983880284519 0
-206.254118182489 -14.6119407071779 9.63246590360689 0
-9.32229152791247 4.19554098025613 18.408004479128 0
-59.4343729223915 4.91492774264626 4.41017790428323 0
-178.158326850083 -26.3995941057425 -12.6061825009419 0
-83.6438312433297 -16.2807607628016 -9.12114946234965 0
-21.66566571403 0.171992047799024 22.4208431707985 0
4.07002755451927 -20.0024315557538 4.59420317540685 0
-82.0259418972828 -14.409507050131 -10.0548251628285 0
-189.522057227067 -29.0169536111726 -12.982821623813 0
-252.777205503414 26.6238722011854 -7.57137202330076 0
-194.966649626088 -10.3263726375378 -26.2987216304126 0
-192.063969151286 -28.4596722768533 0.0272439740478767 0
-102.696362104411 -19.4477281758122 -9.95892315300274 0
-143.990598880907 -11.7955625016684 -18.5047874775033 0
-168.923483542746 -3.66378004970684 10.242782873766 0
-167.166080919264 13.9087845974661 -17.8715005491458 0
-5.80059894839099 5.88846649862973 6.68900190689747 0
-96.0641902711343 -7.64777021369978 20.050314872497 0
-203.344141810792 -0.453079014542618 13.3685737356678 0
-198.875001490506 12.0625889679886 12.459436862702 0
-238.761955826514 34.5668878562621 -13.9437280919405 0
-223.104647413858 13.0352737213187 20.7682459544298 0
-182.178026906762 7.43128013521357 -24.280677308867 0
-174.008277234946 0.117088608459662 -21.3630845633863 0
-156.827859168665 -11.3148717058801 11.5204220826576 0
-40.5372157210944 -20.0418542211393 2.27126967648945 0
-109.042213358701 -1.44182010449703 -9.94486174130243 0
-47.1690628860316 -23.2454648830067 9.5180046493355 0
-219.489295056796 -34.6369318975673 -15.4039988758635 0
-178.689868952652 7.67846775014743 -24.1583276270075 0
-65.764311648746 -10.7453808027726 23.3673968627596 0
-224.302947522272 5.34743388995347 -10.4048995692909 0
-198.907498200058 -10.9174026351237 -27.5210202746968 0
-205.848999692378 2.42087186876286 13.3676565826144 0
-103.27081710856 -24.4755580355036 2.52973108324494 0
-214.766062368926 1.76632516217262 13.6500163766063 0
-198.094776569709 -6.79039187745984 -27.2106369263546 0
-197.124405231992 18.1354114018261 0.267424674553453 0
-197.444604981389 1.54183540562985 -22.4331574892296 0
-229.07109813672 27.4495525307325 -14.0816878424437 0
-198.385481167283 14.2240981164604 9.65519328623924 0
-2.79841082158 -17.389026910126 22.1049072063427 0
-217.143439977936 40.0954144379218 6.40151798943103 0
24.7131022443857 -21.5630689626079 9.34659269867484 0
37.4336679520083 -2.9498674736032 -8.53881560281915 0
-224.486470263339 8.42532685666021 -10.4814086212554 0
-255.306096574708 16.848638404267 12.4382376800779 0
-214.869011650639 24.8345856177503 13.9195663158568 0
-208.651285173397 7.26685058683022 -13.8149102668143 0
-185.659124519022 20.5655074935087 -17.9259651306681 0
-66.347875066057 -23.7398324725294 10.2718456343467 0
6.65921046082166 2.89064164355185 -3.52944437916249 0
-19.2463986730612 -4.13561724055196 -9.06108167160449 0
-201.049570938472 -31.2711566798522 2.2886041463631 0
-79.8406527050248 -2.22152186822756 18.4017281545678 0
-219.146542689372 -1.62717694037476 -13.1179385270166 0
-12.8853954277908 -19.6599412781356 3.50269269821315 0
-187.343320077501 20.1206968402783 -14.2371944325268 0
-220.582232587857 8.97592425757383 17.3355452918188 0
-232.616178402265 -8.17290426665681 -28.8392605936544 0
-155.632674114647 8.49511888923531 -1.63940346773921 0
-139.693803367064 -7.20870027158684 -16.7539259117767 0
-217.428960374252 1.84152489248199 15.0680677954054 0
-40.9828631351395 -14.7830187746801 -3.43731364547683 0
-23.2615693227894 -4.21585022479788 -8.99630091130828 0
-46.824595410876 5.47495860734749 8.3715406969325 0
-217.868710698625 28.4946737741409 21.466915677935 0
-184.93868767303 -27.8325776855605 -12.495628828762 0
23.814851174389 3.36445762890104 -1.49882418006787 0
-172.04960613223 -1.79228771562427 -20.5748038698632 0
-252.839298850356 40.8707760444153 14.7866640563899 0
-185.95395937446 19.1247844026561 -11.677068502302 0
-215.224835690142 -23.8930801191906 7.50363688668827 0
-185.307398467243 -12.7651092512822 7.98988575369712 0
-216.137401578574 31.9204409692938 11.5793417392205 0
-4.44550747756134 5.50843361752144 16.371540524275 0
-219.331337756098 -15.0251785089627 14.8939860013717 0
-211.869700041313 -37.0620368059118 -1.42577788521363 0
-138.933230929314 -12.5234653122676 -17.9108901133775 0
-188.020642355796 -7.28651777076712 8.75239690527038 0
-221.460054161694 -15.1452219758865 -15.5662312891154 0
-195.374399365583 15.4157966334348 -12.5920807645175 0
-180.113184463637 -27.6533044280897 -9.21602430270309 0
-220.492599771301 -36.3410018055343 -13.1631044441985 0
40.041491204186 -20.1480547946005 16.8453155113125 0
-222.710621147974 45.9843504382432 11.8966040327611 0
-184.070670758525 7.46560636207929 12.6351335478344 0
-59.1859080355182 -3.01160729903074 -8.80837476755185 0
-228.768566256779 -18.5341334055054 -29.0613770288773 0
-128.193912642435 1.59926040442388 -9.68372154961663 0
-203.373699635666 -1.53000161459305 -23.3382794654512 0
-125.816226562481 -24.6834957505279 -2.14114374828 0
41.0857473122923 -2.92129105865003 24.2314865898954 0
-126.338833063679 -16.038720919196 -15.5346122211953 0
-172.512318648576 16.9464653955911 -21.0863884480428 0
-215.151773570225 19.7989258533479 15.6315408210786 0
-70.3973836747444 2.12103117737336 -2.30625295266092 0
19.423489575032 -21.3169717230403 15.5031591427187 0
-123.073573518516 -12.6171326192752 -16.9954217987899 0
-214.671725228561 14.0836964599897 -9.64231375126297 0
-255.178629432763 35.5394975499652 16.5129427568694 0
-143.149804668335 -22.566861636855 7.40574344947147 0
-240.819861088223 -22.6641117191653 -5.09141779115914 0
-178.487900831355 19.4203116765803 -13.4053740987264 0
-46.9986214471794 3.70979965721141 0.981689461787169 0
-134.846942089552 -0.53818945483067 12.6693672427858 0
-218.426720668818 -35.607013999344 -14.0527061741152 0
-226.116854431224 -24.102203231008 8.1349331854373 0
-227.820319639512 -12.852953065978 17.1436350993031 0
-87.3759873101271 -22.4732845002775 14.2460440535834 0
-148.130906389172 -5.98696429791636 -16.9422183179337 0
-188.596174973836 16.9647880700253 -20.0965457742131 0
-248.841743726636 38.1349219758723 -7.16673172466739 0
-46.9924508648844 -8.33952802526534 -8.72617165351636 0
-187.693072552656 -28.8477602753352 -11.7623485845934 0
-138.54296198213 6.08548554411112 1.82266638531108 0
-91.5889894634052 -14.7492341152747 20.4839558785374 0
14.2939439577007 -13.995319974301 23.5851151791196 0
-14.7836135325524 -21.6734146835543 7.21510369415939 0
-183.736113400936 -26.4982841777807 0.08788218658801 0
-252.563684162787 19.7224910520835 -5.65264211575159 0
22.2266849581819 -21.5627592324369 9.09856891028284 0
9.78203826936187 -9.22400004332973 24.6837837519855 0
-237.287093944239 4.91577360412641 2.53147171236164 0
-165.854736282063 -6.81844908218874 -19.8517898324724 0
-195.162678516025 -20.0230508098631 -23.768361922616 0
-75.1218946249898 -2.07488817405132 -8.25524547734279 0
-142.325951642998 -6.53382821291599 -16.5766143202167 0
-215.277992141539 -14.2488193205445 13.9850267533468 0
30.4906262908024 5.93971132620232 3.348713430983 0
20.4622818530154 5.45256098062751 3.35386304198759 0
-48.7460215367722 -20.2274017670002 20.0722729296329 0
7.6859594087763 -4.04731120084228 -8.6974068574688 0
-177.234489309319 10.7679017198205 -1.38616695049629 0
-225.050805225919 -33.5418857484543 -15.3456858772706 0
-83.7002181548454 -1.95510119278562 17.6909678190434 0
-128.578105540792 -5.05342332083598 14.7689286374129 0
-144.261453610383 6.17821795753081 5.69401720553825 0
34.8759859045203 -7.96471351437545 -5.0380933453765 0
-127.294772512371 -23.5695849259098 -7.15580745418512 0
-0.390263565636588 -18.4036713641317 2.18149144843058 0
-40.8733006552374 -3.1231348504429 -8.7077215726908 0
-177.026954508744 7.79810849727566 11.1357943931087 0
-62.0544777513745 -15.5338058691745 22.4992320551294 0
-239.602203834774 -16.3613754165914 -4.57904760392803 0
-126.456302048525 -0.331940751541642 -11.3716941223038 0
-218.069230335228 -20.4850907913304 9.00397490765508 0
-0.886217190944173 -4.55784163942948 24.8432727755169 0
-180.4726414604 20.1755902107706 -13.2417170034892 0
-57.1117764625622 5.30168046036785 7.52551389572311 0
-247.857161216849 23.1393931890785 26.3766301553993 0
15.466197195287 -21.2853221872464 7.48303056820846 0
-216.46582833821 17.1828961146737 16.8603233192927 0
-124.097488182289 -3.61906215861575 -13.3379285763385 0
9.44394714400944 -2.65161922231377 -9.05267673226232 0
-230.693880371558 -7.2401233743484 -27.3609246850345 0
-239.672501297331 18.7632457262127 -13.3502502280536 0
-240.824682601193 7.75944554488551 11.4482870395828 0
-216.02211956706 22.7293160800836 -5.63761584810347 0
-170.006429893248 8.89939610679715 6.02284765956953 0
-226.021454566313 35.9739772758064 26.5359525621509 0
-247.230660291988 13.4318296543757 1.95468352929271 0
-249.689019634063 14.6115249882338 -0.19201641811284 0
-45.3243125660337 -21.553819636186 4.59353069271428 0
-204.94640029586 20.6425615863566 6.83356353348706 0
-1.73195395139104 5.92074595505912 15.837372567683 0
-95.1178794103943 -0.529173998827541 -6.52869741085548 0
33.2490404805625 7.04109776337667 17.617759453964 0
-32.4937138436838 -0.360075450456477 -7.31474440841688 0
-239.161576105651 44.887982261207 -6.68525038401455 0
-199.861111830051 19.4398673067213 -2.81953858718953 0
-244.30993318969 19.9404239083393 27.4640056459285 0
-20.6246213674324 -2.2553167834321 23.9593403277373 0
-213.849731062293 3.30795244564557 -14.2856035939963 0
-235.043414644509 -3.82845103830867 -24.6291664163198 0
-237.352816001091 4.6534823743569 7.79803258365457 0
-66.8167023977291 -18.2386207469684 -3.82444591528226 0
-205.061413394999 21.5953326460237 4.34957086177487 0
-172.382702177751 -10.0669181924026 -21.1083375817301 0
-216.443415857687 36.5859028011208 16.8506954720431 0
-105.258058196627 -5.85570961835759 -12.2393078759948 0
-149.014775309434 -20.5677852808348 9.00338201222783 0
-182.271101588555 8.14213294904198 12.0883538257053 0
-251.669208779401 17.287220249718 -3.31257594067915 0
-11.265858327038 0.148239772194124 22.8398401432482 0
-242.862066385631 17.2117602057662 26.9586286164258 0
-32.5741190518861 0.72519411551478 -5.13163851876819 0
-79.904442516735 -12.4712828113252 22.2347173367982 0
-201.15615514208 -28.0763701419332 3.96373868401893 0
-202.880777098839 -36.1177959867739 -10.1900054658028 0
-202.63124366942 -8.08575969403577 12.9586867868698 0
-208.56851382867 -8.40344876927739 -30.2312574996798 0
-123.657651356509 -13.9993327927702 -16.029982474729 0
-247.428496547331 35.8665408515039 -9.83485267370913 0
-225.158282718111 -8.91447742292223 -27.4845687089549 0
-253.553676370747 15.3666763875486 15.0828329682108 0
-198.238426878017 8.18390895942459 -17.7581338512023 0
-169.20652694468 -20.7600607664602 6.73585651926366 0
-243.344065979042 12.9778687635559 2.91016657829137 0
37.7704936354508 -9.75729969972621 -4.3366750040582 0
-216.508928018532 -35.6944264474069 -14.2034384817864 0
-240.958975670625 45.366342844173 3.3788281353872 0
-171.969723635457 2.16359195002987 -21.1696963801709 0
-231.251150911745 -8.72321827725868 -28.3450567387146 0
30.7956905184107 -1.64494373799791 -8.92544280304668 0
-64.5397165061448 -19.2413893755906 20.1685212002057 0
-188.244614754725 -12.8026764685457 7.84166400453963 0
-190.691990730395 14.9754954844382 1.65954377233853 0
-201.370349479305 -35.4899263111364 -4.2208795667962 0
-207.10061191135 -36.2560582582282 -14.710139869424 0
-229.724196237581 48.9138107406729 14.2411271586743 0
-158.643520305098 -16.6333240883121 -19.1798963215341 0
-225.483167085034 -3.04710021898859 -8.41165376225518 0
-231.945166664864 47.4389805380617 -3.33903648796497 0
-224.468376442507 34.2553099251753 -10.9276465847729 0
-97.0857005514993 -23.8864538544521 1.06901088092846 0
-242.807217294481 11.8712818156208 -1.45416429033977 0
-221.207321665463 35.7145047873243 -5.5359328335695 0
-241.436316458964 33.726338324535 -13.5752992511239 0
-73.5921053458374 -23.2517347322142 4.37832876425728 0
-195.883531781541 -0.748409807130434 12.9982947689344 0
-235.086846451213 5.17493286143415 -0.437989336335239 0
-50.881140666281 1.26779052772168 18.5157737822791 0
-217.977019697597 40.9700010735064 14.4250806217407 0
-144.27806911022 -23.3356085808215 -11.6597125951913 0
-204.696504608559 -22.9182857667147 6.33012595354655 0
-212.857379012341 -17.2599308681066 -30.3875228082764 0
-239.24845940885 -13.1974266421418 -10.2026985698206 0
-209.382190466901 -25.0754893571365 -27.0738461787178 0
-32.3788791371195 -22.8820860168572 15.7734223369422 0
-81.3573810725893 -9.08966749590666 22.1772049371226 0
-220.098025364708 43.2034932886846 13.6284917038038 0
-223.641600561573 -18.6382093321085 -29.2946030428955 0
26.7420397637145 5.35127906999232 2.62680919551439 0
-15.7739239061534 -10.6847099750602 -4.48169554086789 0
11.8699896213735 -0.806597500976361 -8.9974083892958 0
-200.965064899698 18.6865394659455 5.13664109371753 0
-225.390166077989 -6.99928893440738 -26.1227913353924 0
-168.639943590188 -5.26653901777083 -20.245889346093 0
-255.30713319371 27.8584306752256 19.1236892709327 0
-185.360918184988 -26.8299095382742 -14.8748406522522 0
-229.365060933066 32.4622326480804 -14.2883975886692 0
-19.3249790714119 -21.9218885774577 7.52046634232329 0
-227.264506001903 44.1323236027424 -5.98358812285339 0
-220.720396164904 -21.1351945770954 9.51190668356172 0
-237.887145446789 7.69374021907848 1.12610213750439 0
-226.959656667718 34.1318682821194 27.7692345949602 0
-231.508780686427 -1.05893337723392 -3.99964876141717 0
-247.753317697336 44.9922601583004 4.1173577774875 0
-211.962163429347 4.02958293377042 14.1820368199636 0
-100.809757244934 -17.7824285035604 -11.1374732568234 0
-220.683876313948 6.62867836418212 16.4493315636398 0
-244.108828789624 46.9943313088068 9.5562743519907 0
-141.361721924702 -14.0804736092855 13.615053335121 0
-227.54586746072 -10.7558415031079 16.8265467519418 0
-246.774559863601 9.68401073423423 8.26881589792879 0
-113.132602886213 -16.3620519578148 -14.1040811727041 0
-222.094416113882 -12.0484698451711 -18.2115591621021 0
-84.8055125046462 -6.75386265307449 -12.0711313580893 0
-236.880475646816 46.2229403063967 -5.53887797620601 0
-229.482492365108 -10.6721463907765 13.7241635266275 0
-174.343343784219 -22.292426187858 5.17122495697387 0
-76.6464381939002 -22.512669333289 15.1462677391165 0
-222.62579840684 43.5907451774205 16.8229835562886 0
-230.134417087137 39.2138099470497 -11.5701979785409 0
-191.833647676339 -21.8983044473959 5.99394923576524 0
-175.995128446174 -11.75622506901 -21.3861167079694 0
-193.015087020202 8.94923370999889 -20.6797791107687 0
-223.942601050072 30.6959567413744 -7.36001699978004 0
-72.4252245909456 0.0196840204977745 17.2678017542814 0
-119.309150844273 -7.57345375367064 -14.6609268460171 0
-174.425654824601 18.2685441942081 -20.4705479750924 0
-187.462082717995 -16.4397084259422 -23.0756197185648 0
-238.659606099285 -14.5942070005013 -23.1524626860863 0
-36.6475834745242 -21.110939721679 19.381337027983 0
-234.621776445635 34.3739755807028 -14.3003476942073 0
-240.616986776079 47.9751799780481 -0.679869796759497 0
16.9374367130655 -16.2824220926874 22.4169005391376 0
-236.42292673429 -18.4632036330438 9.04855265590434 0
-235.907379947738 -11.3360127254487 -28.773491658697 0
42.4821960316222 3.39485894281307 -1.77191018176111 0
-92.3204273311007 -7.19920131048721 20.4107698928495 0
-174.022089339003 10.542372249458 -23.4588283239356 0
-232.316421355463 -17.7377451508607 -29.2427269329682 0
-173.610254224349 -6.30407649696884 9.69263531590955 0
-166.606989423076 -23.2921336640377 -14.6974735204107 0
-145.93197252437 -14.4909634802258 -18.1137285224701 0
-239.388170205408 6.08409044232936 17.2421353168439 0
-196.854203142323 11.7555389538925 11.9720127134456 0
-120.066889761855 1.02520130228061 -7.73780355411412 0
-233.132185796665 -8.47880370134478 8.61625161721456 0
-87.6018857966206 2.27277634269548 13.1470889535542 0
-71.0089538018739 -23.59703563716 11.8116524763826 0
-115.368283013943 5.15959358120475 2.30583312845399 0
-215.334186668072 -19.702370429639 -29.6788443264678 0
-81.3257815988155 0.366239278682627 15.8075798481581 0
-56.1978185239808 -7.77552165774809 -10.6001950906028 0
21.4815010242001 -12.3753961499888 -2.95774865003662 0
-98.2433893177629 -18.2628802943717 -10.2669984707303 0
-150.068924500427 -5.43407726803563 -17.09151406886 0
-159.416669934206 -9.46236510962291 11.2386178921729 0
20.1223086748624 6.4995319316606 6.28296994879607 0
-130.335055134098 3.80502572817866 -5.4181885859655 0
-216.031910498153 25.9645442891464 -2.57729745906828 0
-204.806335696742 -27.7479128304649 5.25396675747536 0
-190.24738454413 -27.6144673272795 -15.8215603489834 0
-212.48896120962 25.0167959939755 10.5242562890962 0
-223.052099824524 5.70587932707597 17.1606147715795 0
-236.894148931939 -16.313022740757 -24.3887106965341 0
-13.6299945530398 -6.35636208535508 24.9465822226567 0
-213.293779480351 -38.3756305519214 -8.29740257786157 0
-60.1166420410626 4.86015693698869 11.1404647433804 0
-195.259885505372 8.6396346905249 13.5108729026282 0
23.6472887563522 2.27067882530766 22.413346948181 0
-231.965603617289 26.0247701980032 -15.3219377004771 0
-243.892294935279 26.3739171630899 -13.7050394446111 0
-194.940825771152 -31.509012560638 -10.9869884072269 0
-239.777403492247 7.93283700484026 4.82341509906763 0
25.2358133307282 4.39649371206746 0.738417639437798 0
-224.665054398244 -5.59774098036079 -22.1994556365539 0
-197.699951421942 -17.2926489053562 -26.0118048950746 0
-220.249555532892 -10.282598010142 -14.6151302454147 0
-233.78535581976 8.33723134137069 21.6168835580084 0
-235.33496367989 21.4768565542149 -14.9632326864425 0
-226.136673948308 34.7849988917153 -12.7314507721783 0
-73.9806953097829 -11.8271378311206 -10.3719674088786 0
-220.979646542653 -29.4966402331565 4.07101896250268 0
44.0372196302227 6.9252055837321 3.49557965122601 1
-222.563385481929 -21.4748125992919 -28.4593415527222 0
-247.028276833318 11.4993653714982 7.01911077351367 0
-236.544767217793 26.9599073084157 -15.4903709844225 0
-250.568745090482 14.5790133255117 19.190598775791 0
-165.463287697674 12.017533855138 -16.7808773250897 0
-162.677833557681 -13.7300297125976 10.2449147174074 0
-253.996756058782 35.6578393601013 18.6196265976586 0
-202.163074278311 8.79398990392886 13.7640330367174 0
-190.18314653166 7.66340832624074 13.5160808742264 0
-216.955487173259 36.2292301686772 5.47275586288923 0
-97.3939379243461 -5.60587520218046 18.7176159112858 0
-123.392802981639 0.114289586280427 12.835077294043 0
-242.497467147903 29.9126975372362 29.253270571212 0
-168.226522864451 8.25425267623396 7.56190847250984 0
16.4356608409083 -19.441669584206 3.41691044177044 0
45.5348426438508 -3.91886464525115 24.3017473152444 1
-155.43426526657 7.99571173321793 -4.71767262076749 0
-183.402980175221 -18.1838496606195 -21.7516369947693 0
-189.651291774688 -12.8233711790524 -24.6817141398516 0
-153.098118821172 -24.9538627879504 -2.20357776088352 0
46.000220441933 1.58055615668891 -6.56423454651952 1
-218.710678624496 -7.56799821623638 17.3786086185089 0
-151.577230434127 -2.01182191326247 11.5549477685308 0
9.26087351400282 6.688422947184 15.0382600549174 0
20.3104696994408 1.5668581155726 22.8209566614976 0
23.9953098717601 -11.031298495361 -3.70951963252218 0
-239.543343876953 -12.6004477794401 -3.27463247364214 0
10.353782658523 -11.8568230118526 -3.1159757938586 0
-3.5795469323206 -16.2326483973527 -0.135073673074324 0
-77.8549638766242 -18.1886129433731 19.9368218470429 0
40.7153314102809 4.66652417013749 0.222885364122903 0
-193.583693194381 10.0802548422647 12.6502915636014 0
-203.686674064134 8.08719217272213 -14.942113189809 0
-179.152299977265 -5.20579962626365 -22.0749157643931 0
-208.919434160423 -10.7933573203933 14.2575360838434 0
-216.699754069844 24.4886595053866 17.2488770957624 0
-98.4043305691914 -8.82954675952419 -13.9305372157155 0
-238.841031692703 45.2158279815599 4.05535602195789 0
-101.276257118663 5.20517558388595 5.02673305740062 0
-234.365206285594 49.5126151901989 0.577210582736957 0
-240.172272359438 47.5513914310881 17.7872985368326 0
-121.748996811463 -3.25092620861841 14.6575542390234 0
-182.943590831528 8.88817445658447 -24.4575553420167 0
-201.928427015971 9.95354189097077 13.2272634771618 0
-178.895550728596 11.7131180283745 -2.86227411834378 0
-219.590796391582 -7.2170793542312 -15.0359897310529 0
-99.4190624240691 -24.3779343548397 8.0467476598226 0
-147.551738488156 -8.36397893474576 12.9396217693237 0
-235.054840938949 35.0816727969644 29.0416197672786 0
-178.175130344808 -1.15073711477524 10.438128719655 0
-27.3558377696921 0.49540825506883 -6.44394320651837 0
-44.1484659211419 -3.0491561027803 -8.71670870601366 0
13.7057873225065 -2.28331204565818 -9.38273898321277 0
-103.96860908408 -3.28687782978065 -10.8548168626803 0
-78.0990448803062 -23.7556919945068 5.20066639828723 0
-177.440067624037 -25.9461830117958 -0.704484810993995 0
-75.1825617160592 -3.96353964708073 -10.1620029140161 0
-237.532404292873 47.3111892064488 -3.34301512259629 0
19.5331641891107 -4.43209793787928 24.7901957984123 0
-217.827691647163 26.4972340908075 -3.27832546042475 0
-257.395101878514 26.8484713502053 0.407422022566889 0
-107.624525220233 -4.93349006223996 -12.0766913964649 0
-235.017791937478 3.59680842859752 12.5640000157917 0
-231.553356981196 42.1409784898347 24.5373824432851 0
-152.530775291857 7.90513816341005 -4.90441398765248 0
-149.658525454332 0.335625743605794 -15.2288053641837 0
-159.74411510731 -15.1637767686135 -19.6109799656128 0
-229.713738342661 22.9376953324302 29.4887666546426 0
-177.577699604114 11.1197462177284 -24.3039151395006 0
-228.249437545169 -16.0322224596069 -29.656143569617 0
22.3565268169643 -21.7059728068882 12.427650789115 0
-179.422575471222 16.3085521518179 -9.65146990319922 0
-229.285729176924 47.944563454029 -0.916615726369149 0
-21.7139938658451 5.47744202870271 13.1435559283643 0
-143.761889341939 2.06151764115316 11.5054067784544 0
32.0762066642738 -16.0603331654204 22.088445358654 0
-4.05483332514488 -18.5102474892998 2.27916262952034 0
-184.636845066346 -28.6501760554073 -8.95993498595732 0
-167.084804731317 12.5357186682544 -19.2246263277685 0
47.4770382027851 -3.93529746953783 -7.44940432341146 1
-229.090798976614 -8.77827245340483 13.1220043088889 0
-53.86159891924 -21.7370607598481 3.83494622096268 0
-220.686804716069 22.9404532000426 24.5321729803369 0
-255.066180696643 38.9177801222592 11.2966722096356 0
-98.9784109097703 -1.74697298022609 -8.41936977875607 0
-242.165586637186 39.990028577351 -10.2105508120323 0
-78.3991961144001 -18.7814127344871 -5.66982740230606 0
-200.627363757106 -32.7534765481414 -14.5931174999809 0
-15.1219193031737 4.69780282457411 2.54906532717648 0
-242.112739844937 41.6882578452472 -8.88470619697885 0
-240.358702718845 -18.019389878691 -15.3678239468866 0
-222.1164801812 -14.3347258654116 -16.8017845140217 0
-231.154244596826 4.41305974992912 17.453552432351 0
-64.5475856400908 -23.3968864329334 13.2419345027987 0
-178.799432130141 -4.99831542532585 9.62093837445908 0
-187.376880642288 -1.9315196543079 10.5544530870788 0
-184.584504097365 -10.0509375411223 8.33914452425183 0
-192.469863601331 -14.7609476501067 7.51175437550513 0
-234.155541632549 -5.9793830131795 6.78668429381128 0
7.42653980148932 3.54162123673034 20.7737832873872 0
-198.636401485344 4.21244486637873 -20.6434684726357 0
-235.103473588179 8.68135351819069 -3.67234070792523 0
-73.6676023931003 -21.6811568918829 16.7789157708253 0
-55.4397187658379 -10.1979348721759 -8.71657595296011 0
-220.66992337496 38.0851147252175 -4.18637345093062 0
-178.283783812639 2.49434900206905 -23.0284075931899 0
-151.295289282099 -5.14289302774451 12.003305216622 0
-240.521013947367 32.0038518201634 -14.2970618005332 0
-10.4182675832448 -2.39726933273141 24.2229773595271 0
-151.310350590875 -23.0205063963791 5.52817719753683 0
-240.376429787629 36.1310953486127 -12.9830110253604 0
-189.737118792185 -19.8426621759813 -22.3640059673354 0
-115.786188537007 -18.6190492030883 -13.440294505575 0
-36.8173615514994 5.45607049843839 7.94495381900444 0
-239.815675532025 46.5382785640514 -3.99609492845045 0
8.39218758371223 -16.7673801153846 0.459645972160467 0
-18.0829338124595 -5.93077164266821 -7.55431803680164 0
-192.150481742372 -17.3974631978297 -24.1341159870257 0
-254.844879658954 37.6119501503411 1.71403121057794 0
-214.011989823433 -24.2199770358828 -27.5724192050871 0
-211.315766314349 -16.3171821153489 9.69472382452091 0
-201.020141068393 19.2935922907222 -4.42243184741064 0
-217.720944205786 -15.2738931182499 13.4322898847977 0
-246.856628077326 8.43915726482196 14.6542075230198 0
-128.767559074719 -8.6561733116794 -15.9431568885618 0
3.07516839412674 -21.5059303289218 7.5307746473254 0
-137.065664026544 -5.70022714906199 -15.8350472677815 0
-247.359556418795 30.999839916464 26.749528347416 0
-225.302143161526 -32.1819395741197 -17.647274874112 0
-152.049677873011 -21.3520126918148 7.80111164173367 0
-239.100343330464 47.197848426861 10.7305490805544 0
-237.909191851288 -21.1236432291929 -19.173341060883 0
-10.5988385238946 6.02489110497771 8.0270459739461 0
-243.848418627828 49.5287882980775 12.4310464206707 0
-59.7699635185557 -23.4602344208717 8.5212016064006 0
-232.806085782089 30.759559975069 -15.1828328783857 0
-172.076298965305 -9.7704516098193 9.56126787222945 0
-187.960792200158 16.8681763434392 -8.44345139034657 0
-177.226613450391 -3.26801422294082 10.0496582262255 0
-222.431808106266 -10.5868468153755 -11.3531064542269 0
-257.444002560676 33.6442947212355 5.57392127234381 0
-58.0664820677867 -22.1153241761139 4.00115895285158 0
-133.239195209436 -23.2256369040229 7.71818924040931 0
33.0927149956878 -1.89477664492712 -8.85188636337522 0
-226.236410925725 -15.7037470876471 16.2171372640775 0
-216.795477781892 -25.6732381494928 7.66935534316092 0
-198.344777453887 -27.4638153866003 3.38973533176111 0
-231.77009267836 32.3819529927687 -14.7556752055141 0
-143.761538773681 -4.36630248530526 -16.2348721351147 0
-222.826006716348 40.4276722373468 20.9762390841761 0
-199.509621352414 -9.00403157933264 10.5601619539852 0
2.84869328334096 4.32450463455819 1.64080457332785 0
-249.871596383948 20.1158937129366 -8.49918649736469 0
-218.153029735049 -3.67143978080374 -17.0191605838665 0
-193.354039234166 -1.13346836755592 12.1873714523169 0
-222.108334427928 -3.70683033701018 16.4265269541684 0
-233.484514312032 -3.2609904363904 -2.09581775698117 0
-22.6713807601289 -15.3525948799026 23.4077252779777 0
-88.8304539406658 -0.0564610768394031 -5.53108860609054 0
-161.513048635771 8.58864095844215 -7.93210506772993 0
-231.523264732132 2.45690075101575 15.4890589769876 0
-96.635627033828 -20.5655634594196 16.065615124337 0
-219.271626026795 41.9055122704839 -0.871965346330294 0
-155.754104035643 -24.5116664826866 0.677469272924849 0
-178.073865031746 -6.59205840718599 -22.1454654015985 0
-183.841715697565 14.3327515875828 -5.09741957103479 0
-102.801052319433 4.96577119173423 2.86835977494303 0
-130.964719885194 0.282684969325469 12.4671173471128 0
-84.0012786153038 2.37762830003269 13.3961182911123 0
-79.5616560407403 -14.5866879634211 -9.46613209724976 0
-234.60152078028 -6.8872016608295 -2.01080239458434 0
-185.729762302212 7.83869948175847 -24.2513485402782 0
-233.587828999339 3.5459158330755 13.8613787582808 0
-203.111695270817 -15.8086932514532 -28.2088128070506 0
-12.1077053346053 -17.1992768786132 0.549951821443203 0
-183.163410981487 19.6061198769912 -11.0848033552334 0
-40.2819690396158 -18.4632336753689 0.0568822497010248 0
-67.3935869891347 -16.5914365818821 21.64388981168 0
-196.387711261196 5.59866735306309 13.7536382459129 0
-224.514137681734 -23.1124915003556 -27.4030649178155 0
-253.419121898872 38.6105141419231 16.9192175328569 0
-223.284646589595 36.5578189795466 -9.7894596552072 0
-97.7291519828787 -21.7172282972139 -5.67926735770877 0
43.509493870982 -19.4426976810353 17.9227911391814 1
-225.643589007917 28.102465743496 28.4766942345013 0
-174.282969898221 11.7562728798426 -6.97705559736045 0
19.9696720829841 -21.6193327229123 9.35964450397714 0
-192.413223531871 13.0492514928064 -18.289456859628 0
-209.508124084783 16.9949907988162 -7.96920732419628 0
-109.92367305964 2.90256088735666 -2.79908076383532 0
-198.659249329688 -0.603044018559233 -22.2174700132316 0
-230.81358996088 11.2404765370134 -8.93762596921151 0
-182.753267617648 20.2085412901044 -20.7310087794743 0
33.1548331581768 -8.88240811598661 24.5359476355792 0
30.4990825832727 -3.36255377894381 24.5063867829652 0
-184.472817216154 20.2263616436233 -11.7470653932632 0
-173.448687835018 15.7996600679468 -11.5684648778331 0
-149.863418276748 -24.5866238048243 -8.96250961088238 0
-200.654556780719 -5.77504157030211 12.9678518562417 0
-237.796580263044 14.4925895587468 -8.83123879504046 0
-46.9758275399347 -13.6108231149283 -4.99083411740186 0
-47.5114552487952 -22.25067912907 5.95379561986947 0
-117.250429898399 -4.55857559733543 15.7369346693183 0
-233.361491049333 4.23068876778221 16.1302175364482 0
-206.500542702832 22.277319213875 5.62599107681508 0
-92.3355473526702 -20.0648101752831 16.9387094118557 0
-185.380481421579 15.3382033560194 -6.49028716765007 0
-222.886516419817 -27.3677057595445 6.96265552984371 0
-52.3739517377497 -15.6839154965199 22.8363801872774 0
-229.509968771483 -30.6755174280486 1.3102266452631 0
30.8618179302488 -21.4058058350277 8.5765514824545 0
-242.362221264743 15.3469265677837 -6.18076057315561 0
-152.258709560528 -22.7003325071204 -13.652623084255 0
-171.5304226504 -11.9986024863221 -20.6562028467263 0
-96.6424196168405 -3.01546173217641 17.0327658498968 0
-124.563376462771 -23.9432513377376 -5.12732527416126 0
-17.389137162891 1.32919879462849 -5.78620704362542 0
-220.222570609166 44.2864136257297 4.6720196867956 0
-119.461352901317 -6.69906468363103 16.4359753631488 0
-66.4122541971511 -4.03165527954517 21.5869238401386 0
-197.61380430956 -3.78761397838616 11.8800169219104 0
10.452754467008 -20.2418228551737 18.6183619467634 0
-170.364693231067 16.2826211241536 -14.0074456828041 0
-196.00562653542 -26.6395083530355 -19.6656137279316 0
38.9818805725533 -16.48725680138 21.5582886277364 0
-227.329003817632 45.5163099095341 -4.17018136291294 0
-67.3495195645996 -3.83558086113389 -9.61967500407595 0
17.5005327570108 -11.8709746350628 24.3067242484666 0
-248.015911596922 15.2426262560782 -2.77764014263387 0
-232.024583068509 40.0758427538251 -11.2888963808638 0
-235.919772973936 -26.0156050873202 1.19076953032345 0
12.6718048244313 7.10151953016182 13.0247470495105 0
15.0094619986123 6.74427934036503 8.17444348576657 0
-52.7656077930093 3.16466448954441 15.8476508581218 0
-209.533128311812 -28.343972243109 -24.2533818189885 0
-50.2616499769802 -23.416934724816 13.5929501344738 0
-122.175467859362 -20.9912427462904 12.9728033696787 0
28.2719563233146 7.27133373767183 16.5824526181108 0
-222.85129734034 -31.2707039075188 1.10252058398668 0
-237.906086322527 44.061614319415 23.0927932461077 0
-167.007709548003 -16.1449323988806 9.15633328223555 0
-89.3660929734537 -24.1926921554554 5.08870186377251 0
-238.987828143151 -20.864647172545 2.06367259214665 0
-170.423869552949 10.6297199690634 -7.33797392670072 0
-2.19229043651297 -11.7154048647869 -3.3744961865657 0
-224.207629270895 20.4500639747402 -10.1343946662844 0
-117.558379410679 2.678639253461 -4.41350284692827 0
-254.979725039289 18.4036642191549 -1.07432917496014 0
-202.761328949037 -4.85636853619159 13.6163908715393 0
-25.6461844325681 4.26849358474176 1.99947789848295 0
24.1875909897285 6.35705693394873 18.0442569002419 0
-187.123998181506 7.4038892904779 13.1129065424511 0
-201.996518352018 6.70602852729701 -16.9347213973837 0
-227.832762093498 -27.6987229048725 5.30946651187939 0
-236.370220450965 14.2535087475887 26.8298952230158 0
-171.600344482168 12.0307357998056 -22.6506794694569 0
-129.833962953759 -10.0106141995048 -16.4720660433108 0
34.8386286630713 6.72770295827447 4.29560953335843 0
9.07097523809723 -20.8362107009068 6.19190195124648 0
-251.796737062069 21.6423936970862 -7.57331608437436 0
-213.420309990729 26.5569310035862 0.321167678316992 0
-212.072843568699 -21.5491094265198 -29.0211505655742 0
-224.019420756831 28.3563069759863 -7.80461120654045 0
-242.903067046307 47.2651482704981 17.1517253190202 0
-211.501619103252 5.09254997140393 -14.1214891770784 0
-229.364607454354 -13.5933707747657 -29.7265790537315 0
-242.224432695435 21.8906825960551 28.8517649599228 0
30.8828039347795 -21.2708536502889 14.4855614575306 0
20.0486755840933 -6.48206711869062 -6.24234286565784 0
-219.099941358657 -30.3600054660705 3.21511157095085 0
-227.738655930239 9.9709620141313 -9.74857538992667 0
-224.939558565062 36.3273606215918 -11.4480051002431 0
-229.997377924912 -8.95086902855254 -7.64096086416906 0
-180.577751049372 4.0888998508069 -23.1823321026914 0
0.663069518862785 3.56068574638655 20.2272034900318 0
-201.791514791512 19.9889965078754 2.43856548496914 0
-208.519163322684 -37.7195638735198 -1.05459885916942 0
-113.743914398346 -0.540953747045191 -9.34442664006066 0
-32.6622195917065 -9.93861452712815 24.5870039945691 0
-198.251515876771 11.3207564171395 -15.0110751019864 0
21.9921912004267 7.06454871781321 16.4580031590126 0
1.81717155339644 -9.82510338783123 -4.53101110930064 0
-201.016188709647 14.7497326447219 10.4110546447128 0
-222.88360255989 -5.28375613187181 -22.6445139818691 0
-25.8381492123637 -9.63279598287518 24.6498708995241 0
-42.6903519310875 -0.637382717105612 21.2806485348134 0
-227.752338592723 -33.2258134811577 -10.0621908099657 0
-20.2802634771572 5.90841183063036 9.37000380520345 0
-208.740331483606 -13.4872595119913 11.8719918201158 0
-27.5355333779669 -3.98242591416919 -8.95435812840425 0
-204.426681929082 0.900717994863177 -20.0398011477077 0
-226.917594628259 -21.1432660160612 -28.0022647180487 0
-35.9497104143335 2.84975628919394 -0.868138823783664 0
-237.690240563036 8.59705752924682 21.363260686754 0
-190.14391968389 14.1839117595682 -19.5350932927893 0
-186.934687096891 -17.5961454483644 7.18793447158724 0
-180.465671309781 4.0688282695402 12.2384485249367 0
-193.656590047978 5.89120025379136 13.9689721886708 0
7.02286019287636 -22.1049609283285 13.8546510964687 0
-222.444684823483 -7.19712131347314 -10.2048173620232 0
-165.368027386285 -21.2349473999287 6.55247685034417 0
-241.257283345067 12.1824200058308 -3.82018175509188 0
-171.63740216841 -16.4694492279331 8.56830670842942 0
-149.979618329537 -20.486015039213 -15.803725200192 0
-171.450661002472 14.7187245728853 -11.47465955569 0
-101.704959891166 -22.6773614212369 13.1996157103044 0
-34.4991180786663 -21.7399189909366 18.4748647219792 0
-134.563994984441 -24.1132083046607 5.15709317175198 0
-184.127081612643 -22.195003288328 -19.6781582603281 0
-237.707973449626 -10.8261543925306 -13.5291876064194 0
-221.826116227201 41.2857610820122 -5.67630547222404 0
-98.6570637919605 -15.2154035657655 19.5555942382026 0
-145.795365630945 -15.9220064059856 12.334109578707 0
-162.394887212589 3.97769436145153 10.5262757401127 0
-65.2793972254898 1.01099407108111 -4.05233227735985 0
-108.487346171596 1.90108136142303 -4.29967228034631 0
-239.923200278464 -13.6252594908388 -5.42873835289452 0
-42.376419053566 -12.1258628919048 24.036584281041 0
-140.190049847873 5.18617521273791 -6.46440620283986 0
-206.968702349962 14.3489887736493 -9.83232718460983 0
-220.229485923739 20.0390994286676 -8.71593488413928 0
-238.517456649122 48.4705027505104 -1.44034194621654 0
-221.503608186698 12.3403536434681 -10.662328443588 0
-237.372758735808 -12.9041471465794 -26.0042113751814 0
24.7988421538639 7.1258795278375 7.46786004724661 0
34.0942813596773 3.2874713708534 -1.53473785663239 0
6.08929421396145 -19.0253262330984 3.03440635194249 0
-210.981006741149 11.792168149971 14.7114516359147 0
-176.159946844041 1.64239510458403 -22.2713055409821 0
-112.514314487086 4.99162608750594 1.84419759390281 0
-13.0146420018077 -10.3347198574426 -4.52044008434144 0
-23.4748639196172 -17.1828782299659 22.5672368001203 0
-67.2662110306145 2.33283484046256 -1.90533694343616 0
-69.4315422123064 -20.5746159751134 -1.28871655184773 0
-29.9598736495265 0.39639891999351 -6.04046887975492 0
-84.8274806358084 2.88993092124388 -1.27101171850091 0
-191.868673562826 -7.30136007268419 -25.3244446456768 0
-186.278889355281 13.8214452993129 -1.12478375591627 0
25.2686967868832 -4.60258490415093 24.7291958276163 0
35.9246569457728 7.89904040274422 6.93037334034575 0
-14.6017222110277 -5.68020281385279 -7.67836669764865 0
-193.650869770371 13.8360083877715 -16.2642228688924 0
-202.075892810078 20.2616787984119 -2.35672222024033 0
-219.100823450783 -25.9268709250992 -26.073035115133 0
-238.749320295363 18.1683083212965 28.5878135558837 0
-141.967935750166 6.30271616069538 3.39558136085415 0
-233.458016664436 -29.408839719742 -9.525556802919 0
4.94077865715201 -3.288597492848 -8.65857443510309 0
33.4212017540783 8.17827142270666 8.79157431075114 0
-221.651471556313 13.0456631322062 19.5420831998179 0
-136.937049594943 -12.5063905166296 -17.6391295824162 0
-72.7242852118586 -7.94271003869402 22.737872789077 0
-234.780901984879 29.6085754071174 -15.3998140494293 0
-172.242998689213 -25.9435505577067 -10.937452347482 0
-2.42950449733675 -3.74020378266165 -8.69063933474236 0
-139.929672913106 -24.3261357260944 -7.09457825569662 0
-169.384081009542 2.97033897437179 -20.4566943681926 0
-198.966590361722 -2.28991039541033 -25.6766203710575 0
-219.98589839132 39.6408816939798 -4.60728343697684 0
-232.648791797844 37.2526658495241 27.9239031899173 0
23.2450213176697 1.86944992552255 -5.88926429543654 0
17.0121196006998 7.07513542920576 9.37757440356455 0
-97.2430531304279 3.99086468497346 0.392977554859607 0
43.6661410235415 -7.9748888857315 24.4404831188237 1
-155.710799711459 -13.1831273648916 -19.9268899365374 0
-52.449474547625 -19.7986875811987 0.597784993134366 0
-235.762256717136 -20.4934738023103 7.17448357823604 0
-231.882057602938 8.53171427529517 -6.8054866897887 0
-172.660177821883 -20.1565139020952 6.92754816348163 0
-211.052937378273 -26.0136469095986 6.72528664472159 0
-181.503982965977 -19.4544782500018 6.94890338268779 0
-136.677360313256 -1.1958330841351 -13.3971830048647 0
-139.97022661847 -11.6697726129339 14.1408273689491 0
-197.110008663425 -1.79110000951818 -25.235988933985 0
-240.811708556912 5.9031611740459 14.6715315138446 0
-66.8762052380285 -5.72428965576699 -11.1057794615776 0
-202.739351696631 16.2208028852036 10.0722418907691 0
-223.272022363445 23.234438552008 -9.06340248972779 0
-224.517215951201 18.5914556133269 -10.3621630157557 0
-179.906380451143 11.1400816377228 3.90918378315557 0
-49.5919152833868 -12.3675841663595 23.9044366913769 0
-233.550028971889 -10.8377683450977 8.51390118771406 0
-233.224271556094 -21.8404446361052 8.3392932771057 0
-209.182143207419 -6.44683889815205 15.3187143821365 0
46.7747320509257 -10.5278292350896 -4.23697671999943 1
4.13614427777705 -20.6349486047472 18.3552615214419 0
-198.819568764755 -22.5605673482854 6.02230152332053 0
-182.027001685712 -28.0245305513562 -6.57071517987027 0
-47.2807354681226 -18.9675696888094 0.0558863642070528 0
24.6140414684205 -21.6250218362763 12.7482672003722 0
-27.9677403932592 -22.4363857385236 8.15060105192544 0
-6.76799367341228 -6.29412844262624 25.0216655105304 0
-201.30674975475 -35.0814505226971 -8.63080859958274 0
-248.071690793819 44.4520380081892 16.9440410111429 0
32.1705658985274 1.92319810410624 22.7585849916841 0
-231.400810276287 -9.48512024404297 -7.1101048785932 0
30.7990690445595 -18.6062920050388 1.70033752640058 0
25.2627454616909 1.90517303206357 -5.62529094113472 0
-115.28338047631 -1.5299712159667 14.2991432757836 0
-200.280358685776 -0.183969944510558 -22.8892648609805 0
-210.126152713751 -29.5784211906205 6.35797155398712 0
-106.001937812752 4.03020367161882 -0.233087218055562 0
-78.2114780290081 -6.71592728118261 -11.7114997968176 0
-195.734408598538 15.9385472304211 4.48984486606307 0
-204.687823853484 4.30185185962621 -17.2531428863269 0
-234.7503916761 -4.5327443700193 -0.723144622032737 0
-92.1276002206603 3.10406491447486 -1.02668044770319 0
-239.676085113635 8.70947456498023 2.1783600734924 0
-50.2717765229714 -21.0170089222997 2.91662112972364 0
-211.647842517271 -30.4653893394999 -22.4228657633952 0
-98.719627301098 4.99433692900502 3.26404402026613 0
-228.634366935436 10.713865216265 23.0963165055518 0
-223.619802786868 -8.69458694797918 17.5035833301289 0
-234.599105291898 46.2824365576812 20.3577667922096 0
-214.61282635107 16.0513843301203 15.8702774610064 0
-167.239249125179 -0.803439481497575 10.4614628065412 0
-108.01003868186 3.42660215840469 10.1871348635053 0
-56.1506457524839 -5.27766448055458 -10.0163744110747 0
-207.340122902192 0.56358467063683 13.007690819754 0
-222.60853871977 -21.6645254126107 9.96069737929001 0
-211.320098285173 -5.98963830496966 -28.5720848710145 0
-239.773302054089 -24.3652157667928 -2.61850493631832 0
-211.491560566468 -2.62195202070714 -21.4277637242081 0
-159.455764938102 0.35138388950544 -18.1049547316347 0
-122.052051590129 -4.91608484999412 -13.6346942647166 0
12.7148150579134 -9.43735568810399 -4.67431922439445 0
-81.6981197965766 3.91491590105073 0.752884820207031 0
-235.764602684786 47.7454843023296 18.2729154214591 0
-150.733004621331 -7.65264012936787 12.4063346156865 0
-216.285648132144 -31.83652181118 -18.9907718986935 0
-146.637736835065 -0.176213494265498 11.8090795589129 0
-64.1516693292194 -6.66721540019868 -11.3989328534786 0
-82.6625925268044 -14.2630882607106 21.5352470618155 0
40.9681620088794 -10.6910477770809 24.1604689600976 0
-29.9949970324473 -21.6187262740623 6.190203281822 0
-181.134759328269 -10.3111390340639 -22.7300762520909 0
-143.046050317217 -24.7277751351523 -1.21216575777731 0
-149.380179051973 7.23168686274984 -1.51323425745994 0
-139.220521303739 -2.24952786751734 -14.731883344181 0
-215.080716888421 -36.6165728915684 -12.5691074047857 0
-228.283201188414 22.6297088869264 -12.2968182026298 0
-149.683051355985 2.64367536298764 -13.8870704089062 0
33.8279106890097 -19.239005552202 18.9496790764414 0
-194.706881777222 17.1895308619785 -0.875919310442457 0
-214.81579158943 26.2901575579991 -1.19983410440899 0
-173.463570060168 10.369116568905 -4.76330577370566 0
-137.050462471261 -24.0309985265754 4.84771142870195 0
-167.870517613698 4.87852374209278 10.559204270462 0
-233.473777502431 -25.9603381691657 4.29163786430914 0
-233.027059414357 41.9126605899342 -10.1054858082169 0
-3.69955294359458 -22.0772674379192 8.98356747579962 0
4.55274154778441 -22.1360303164128 9.84225004886597 0
-103.651814250624 -20.8306459569756 15.1690981559661 0
-193.267085541038 17.2040323285847 -2.90090600613995 0
-132.183579510681 -24.3907686670047 -4.6536754119785 0
37.6823118922728 3.36887356649254 -1.50794412470787 0
-221.836280041705 15.3247968926384 -10.2987186468526 0
-32.2546096002254 4.99294582586808 14.1578249846537 0
-238.000483883196 36.7429864146148 -13.2219031377246 0
-187.594059138797 -27.7209890622126 -14.3833215124073 0
-185.873440979632 14.595633686382 -23.3684238147223 0
4.05213102756255 5.91243494237274 5.99553755532547 0
-229.040157180046 -9.56631892944567 -28.2636752656376 0
-27.8757821448558 1.56027274011166 -3.77437715530314 0
-216.464947831949 7.03795892593858 -11.67107900152 0
-173.957648364581 -14.0610911878995 -20.9026263759031 0
-182.748799852801 13.5934018104187 -3.12629755038025 0
-196.66600700687 -9.48647959668545 -26.8963766797455 0
-145.835545977553 -1.88120478204855 -15.6803489149383 0
-119.690386851542 2.7486729564153 10.8185467713153 0
2.30315632893945 -12.5391124295925 24.1056378031873 0
-159.11015225715 -2.74655286940772 -18.037577397327 0
-228.337268340989 9.20673697489995 21.7204281639762 0
-116.061604325503 -0.67837596162994 -10.2927079326166 0
11.7702139511331 1.85390524890704 -6.25794483054165 0
-232.877221339054 -23.518888772427 -24.9260046584458 0
-209.318119232979 -19.8348923326349 7.49380330156156 0
-231.326788885531 28.3527303889501 -15.1827749594284 0
-246.842563812858 46.5242425959789 15.1300858838721 0
-159.735136869616 8.80097510256739 -0.91694982656998 0
-20.735403261535 -5.43234040173754 24.8497776611665 0
-162.817399785761 -3.79829571247045 10.7072303090198 0
-16.8399710273672 -6.1409819010874 24.937058907221 0
-239.25525539666 6.65636203953729 7.0756189167766 0
-226.417106011891 18.8604489260495 -11.0254968134199 0
13.5292107362757 -19.5365367155539 3.60315087772589 0
-157.922907330501 -21.7656993848803 6.73818793587758 0
-212.677315492212 -0.0505372636094858 14.3997608215856 0
-1.15086687404278 -8.7712065107646 -5.27540872649704 0
-220.799648447816 39.4505246258184 -6.31900662462942 0
-187.18975723558 -4.46504869333033 -23.8937151604941 0
3.79321673677802 -16.003963719839 22.8103550763466 0
-56.3788771822861 -3.03069476386299 -8.90683878619112 0
-111.691599737327 -1.64814819021889 -10.997556144022 0
-105.213669114608 4.83069439328449 1.9856296071608 0
-161.124265192898 -25.4098745262084 -7.80770406579582 0
-237.834934480962 33.83830560045 29.3679178221067 0
-154.296763484421 -8.42015916331087 11.936586695083 0
