170.016941439902 -14.5871564684843 -15.9598014251862 0
57.8522694419448 2.757849693274 6.19142736129232 0
212.423223218879 16.9235889079633 7.34058780301833 0
-10.7097736845658 -17.4740574382559 19.8717846575022 0
-32.7105651311033 -17.9033246113225 18.7344541028894 0
166.309378036787 2.75575635331215 -8.05683675347981 0
205.084414399415 11.1662467877063 -10.1959832299155 0
195.826492142173 -24.8252545127881 -24.7025317224755 0
198.266863992 4.18016756020811 -9.67034012689423 0
159.894987068938 14.6614732882402 15.2596317290979 0
87.8854750868546 4.59669095261206 21.0331110536366 0
150.099741506832 13.8071614262919 2.97031693811746 0
179.728548536703 38.74899085511 -4.4402244567798 0
182.36224246606 6.51809035034877 -14.8894688511866 0
207.838516741409 -5.92069370280475 -15.4451636606328 0
180.831047674657 -16.3367325205962 -30.0419687552625 0
204.611391481494 25.1928649801676 -27.6233366865438 0
-61.3658767794495 -13.0681149049873 18.8728841455946 0
36.5036010171931 -5.38739178070824 23.3544815128526 0
182.987947504151 8.43284588282192 -14.8482036752236 0
-76.5005892531455 -15.0772486895688 -7.24098623659 0
147.054806888197 -5.08801993846875 19.2008970318936 0
70.4698928845666 4.42861934192394 8.58602728614663 0
211.528639651852 37.4989250395521 -12.1721764997559 0
202.637272891546 28.4276783805965 9.62814637584151 0
166.652133068289 14.8412816891109 14.7945449734707 0
170.053894601217 -17.2210931045372 12.5993560134822 0
179.031954275498 13.7927765091478 -10.2075480784387 0
101.80640381501 -16.2083853603345 4.86858649288934 0
109.469282485637 -16.7298914766497 10.0503386420721 0
54.837706602421 -15.465758877053 18.6489936205699 0
188.608330881654 28.4349444533105 -29.3270158637036 0
161.352061181559 8.0738885661722 -5.03628536530769 0
-38.9594631172958 -16.6774716029631 19.1625605118794 0
107.86455605616 -5.04197978193887 -6.16472490758471 0
160.009659050475 -14.2861496474649 -10.0848705110129 0
166.445513777768 -12.1757204875262 16.0014407625755 0
188.54137841082 -24.7842325653851 -25.1071465447931 0
184.493130621158 2.85817714479292 16.9090563550047 0
183.338929646745 -28.9397304927608 -17.5140888223335 0
205.152371594222 -26.5700251148988 -5.68000457878305 0
-38.0563745916057 -7.63675422959094 -7.61045429185039 0
176.468369989267 -1.71374579157014 -13.7851074163254 0
162.871235431847 17.8967588038498 -0.344507374452178 0
39.0110052086365 -8.03642480396426 23.1154839335159 0
137.735400944743 2.48856268533754 -4.53776004625514 0
83.5853022126739 -4.35541791127833 -5.14823731299664 0
214.598413069077 23.9763583413541 -7.4178290646927 0
44.8649524850214 -8.89232780555554 -2.15372870003344 0
173.737203446629 27.7984328487682 -0.165981731769405 0
203.610411277766 40.4684640425255 -16.2649038442823 0
172.373988554607 -20.2478855250673 -11.3122556808382 0
181.389504471596 -28.0776282344711 -17.536293918504 0
180.148404451277 -4.39591259206339 -20.5651703985884 0
126.935646937877 -16.9453146146092 7.92611015227979 0
192.466820106253 5.72479753343452 -15.3436055411775 0
-76.1563433131148 -9.52953611955576 17.6260871501006 0
159.179991892937 -7.65504748015696 -11.0809789253544 0
167.264163212585 -13.9271013910292 -14.426456398962 0
203.987525087907 17.8818137971619 -21.3847092089475 0
-40.9481266048164 -17.3650170511667 18.5018296260038 0
14.5092653589001 -1.07093835468797 21.7464582612461 0
178.332606463632 11.6073687741082 -10.175336715531 0
94.7451519365347 3.94802730688786 -0.439511329640692 0
132.489344710554 -2.37188762285737 20.7408754552235 0
197.510958663123 21.4198045028872 15.9522929986272 0
156.018605355132 -13.363437970097 -9.2965364529225 0
23.1000175914743 2.57643109688978 10.2513443879066 0
112.039273962992 -12.3922987758392 -2.66396021938691 0
133.361580835655 5.00974564744718 -2.67112743718437 0
-3.06228787049175 -13.4584154558023 22.033609067075 0
187.504347787782 -11.4368882361434 -33.8459672026647 0
195.8081013932 -9.96639813960628 -33.8160381431466 0
181.719903536875 15.2286577236077 -11.7941408115824 0
108.011127958254 2.60649174527692 21.924167196835 0
169.475396397821 -19.8952536009537 5.88316374784747 0
-23.0290370827157 -12.8510215824042 21.7959095234233 0
13.0049456264957 -8.14852398220283 23.1592920847827 0
-37.0899411642556 -12.1417266138895 21.2179269122644 0
207.694905416987 15.3159646802379 -12.1887785541287 0
165.332565769057 -4.06147578635521 -11.0453438527018 0
130.23475095505 -7.65777432570185 19.6521072548435 0
66.9610354188054 -16.3664659380109 5.41801167944964 0
-49.400532550249 -2.26644476163927 -4.92871173357413 0
154.203049042199 10.1582550866255 -2.09991223864997 0
28.3353618903417 -19.6351528877524 10.8268802211576 0
-60.4473741943586 -6.91423210266978 19.3013857876452 0
49.7972094880432 1.37399221825693 2.89523217143335 0
194.546002121066 -19.1089373034018 18.6333893420287 0
160.455353312434 18.8650975484345 4.70523139958313 0
-60.3654782874877 -5.01843287612247 18.5946284170612 0
178.993837122733 31.3607125899588 3.15881630379005 0
105.656793402161 -11.6587652145792 18.4659126653173 0
203.512540875102 -24.49800210923 -28.7489046059226 0
-34.8432769337803 -14.9681785615446 20.407579457435 0
5.65762893266618 -3.59899419153324 -4.87349795953095 0
131.141736176965 -3.71403102653308 -6.81211016958526 0
144.256999067336 6.26462659035617 19.3713968644935 0
209.942901677292 -22.2739870037575 -15.6580962749272 0
-24.8228452372839 -11.1564226222543 -3.40404491964569 0
170.424048500034 -20.4832143985163 2.82407864913616 0
4.6534283951145 -9.15403875195975 22.9266652314709 0
-28.3382247504111 -13.6822911039644 21.2946303113531 0
201.791604246936 -9.45897675914704 13.8903836954857 0
-54.2457984374901 -11.2394221888838 -6.42440162259202 0
6.18724392773211 -0.727949993673476 21.1764024363772 0
179.12192549865 -12.9002809656025 -27.3399217317491 0
68.79845722931 1.97110713114311 1.30825577989512 0
186.773593835908 -2.71404272139048 -27.9964569320093 0
200.589085438213 -3.44045085347753 -24.567753953939 0
130.511731658104 12.8575106545912 9.87987901222222 0
198.945537546877 40.1844091000786 -27.1734117735623 0
185.455090311182 -24.7219353551346 9.43049476175857 0
-23.1024070319223 2.11469297433348 12.948869069799 0
136.559479450485 9.42194480259699 18.8910240444902 0
183.213852645208 -26.4590147205455 -19.948777611788 0
105.131073786722 -16.2648892767258 4.81954336062928 0
161.962690048461 -18.5798010784738 6.03650642259682 0
183.182297524098 40.8582704853802 -4.82396305267725 0
190.868822034796 38.6576066675286 -28.2157649032605 0
200.860468450585 11.3920865109276 18.5207881475447 0
209.901876767674 8.33742669351956 2.35774694551566 0
-8.40216411469527 -17.2880136582424 20.0586297983855 0
123.638847444727 9.11655233913535 5.34291274000856 0
-80.0535828228667 -12.3546380388861 -9.36612026752053 0
55.4423795664241 0.307369697014742 -1.44356193430375 0
109.960962350886 0.390133203699985 21.9923157335213 0
183.114147453545 -11.7604030934111 -31.3364731897433 0
74.3520891787979 4.40991943095293 7.26531072366062 0
45.3094318094505 -17.6896459692605 6.99980892043358 0
55.4211029377198 -5.89644295584626 23.1054804387505 0
203.114560558204 -12.9841270715088 -30.1079391223419 0
-80.3575211839227 -20.8187117540093 8.09357055479855 0
140.295605907556 -14.5670208989849 -2.94427788151044 0
34.4284188792811 -0.919498636951219 -1.07101412673819 0
169.571695906365 12.555657991332 16.2042017476407 0
115.296565666629 4.4383851339168 -1.36349490356168 0
-69.5848734059354 -17.2565273922363 -4.46939571713563 0
194.570228231167 30.2698761814419 9.5352008906761 0
101.785433176889 -3.60402822136188 21.9632895541995 0
170.143503884253 3.61105337430307 17.2515665335097 0
184.255395070262 -3.17994463048079 -27.2758977983851 0
185.546641868609 18.4633418410491 16.6267851456685 0
3.06846750182941 2.65311465085808 13.5186114595546 0
41.8392585464799 -15.4316201810913 19.6707786828286 0
205.251125476075 -26.4023457402569 -1.56912134279546 0
126.607856452198 -4.50862780795908 -6.82490770922635 0
209.229474580635 7.90757540849272 6.40538595491926 0
117.690748357265 7.98343823915824 19.7247872767521 0
62.7330821489252 1.81047340352711 21.9561559269229 0
-58.7215780811184 -1.00800283128663 15.3498860906627 0
143.853217356548 9.21931189300012 -0.214167325184162 0
-74.0366158412597 -12.2944177275677 -8.36215154931533 0
194.374965468903 19.7155487413977 -28.2777768677181 0
197.726288339107 18.898044255411 -27.1545596757445 0
193.72711882152 23.8947165286105 14.0437275081342 0
-30.9821459638063 -18.8430556292762 17.915120344737 0
143.493164481421 11.679219129631 17.5562211097495 0
190.27574982448 -29.7007887277891 -18.8956629993967 0
208.571232788032 -24.5238278651146 -17.8389956494828 0
117.218240448734 -14.7577109872954 14.9755288141731 0
180.672756667446 -20.8542341740334 -27.2088245602895 0
178.641768146463 -15.2384369530096 -26.8260610454662 0
44.7171720014198 -16.8074638923499 5.38243866921423 0
92.6153615364972 -14.1424905625986 1.15911588841828 0
53.7181009574211 4.50362712742867 17.4516106474288 0
140.012133000476 -17.1630633479961 8.21205772909896 0
179.070972665514 20.624361653866 -9.87351276854083 0
-10.6730373326717 -0.61543820147468 20.054005918324 0
-82.5504750599373 -21.5928427132918 3.09419900052189 1
207.680441155408 8.72160139691381 11.4474792833776 0
44.1434859439646 2.70646448229657 8.2396788046715 0
-3.40354306406133 -10.1803064152081 -2.88739620018052 0
211.246449538312 33.0103376171574 1.72756211112834 0
195.837905855503 18.3106905925723 -25.3988751538461 0
191.24654746264 41.691471132112 -8.17490964958287 0
195.493038198586 -27.6094939569165 -3.8616518592134 0
-7.90838711235691 -0.908547327141273 20.4720071456112 0
-31.0534911847762 -2.11053969854501 -2.25143001675881 0
213.565731850059 21.095856357836 5.3986803349273 0
137.552798030123 3.11690241365719 20.3086005359988 0
72.2833608538375 -3.46943138645056 22.9275092332921 0
206.298000337235 -17.9631280408066 -27.2682238071261 0
-55.162375836188 -21.3284103473379 6.31966487985783 0
153.827748110206 6.69790336635324 -4.3309911081452 0
190.827271413065 26.4762757118248 12.0407932577734 0
-31.2919153303972 -19.9270928964217 16.391528458941 0
184.454402361465 29.777256127382 8.0702800223528 0
175.86207958523 -21.7609241024483 -18.0133522043147 0
88.7734605222669 -0.985996544398647 22.7055819150449 0
54.112330382269 -14.8096392711479 3.02366931792018 0
-67.2028719577791 -18.7333321951929 14.354038652068 0
22.3636212337366 -15.2679214140551 3.02053880705122 0
98.4880440689536 8.94124047473155 13.2596237325278 0
-18.776527871513 -3.99421532151785 21.7189195246854 0
184.251623836801 -28.9796350429606 -16.0079468629538 0
-83.6651143011655 -8.95646052591787 16.3604471274899 1
9.72855370878426 2.06275246957531 18.0834682959392 0
210.349364655236 17.593210028063 12.1784556100067 0
150.586853042676 2.65495099782853 -5.81879137539609 0
164.952338334297 -12.5949343360649 -13.70374017754 0
196.555784259346 -1.11590295788378 -18.9672801587068 0
87.2337162041695 7.57116969067868 14.9380246969713 0
150.713147521752 -16.3376538174265 -1.16315820798027 0
95.2919590848773 -13.0304921920065 18.0833578372504 0
197.43415808897 14.7712178932169 19.2788651667929 0
198.575929286428 -0.85000605133786 -17.5999272151879 0
158.832611370195 -12.5428737190829 15.8025449357678 0
174.669541295332 11.9274590146371 16.6422723485372 0
178.783567183767 -6.60637815254094 -20.3179036060328 0
135.415006205382 -15.9822704418487 1.00335958527093 0
204.604670953807 38.1226460023124 -4.82817866800925 0
162.257622890213 17.232773536274 12.5846410337199 0
188.90856243446 40.7451503878542 -19.6010706303453 0
184.480975582889 -25.609007598534 2.73402686933847 0
-29.2571200097859 -20.4192519135733 15.4942217880945 0
-60.4426403120721 -21.1588392730414 9.87164676918335 0
203.980679028131 -27.4141368468533 -22.7751287049984 0
107.793150771178 -12.4650764260477 -2.21883502498335 0
205.418772727733 -11.7588214136408 -26.7448836419736 0
205.300589589776 11.5417077908991 16.199865551793 0
14.2598732105912 -18.7334769297887 18.0393688960203 0
196.231730020632 4.2562047274295 16.6552893271503 0
39.2437604336452 0.0352961489705382 22.0948356750499 0
103.367411719925 3.49740296211865 -1.3897857619661 0
203.331473857372 -26.347222550556 2.05002180362649 0
147.344139965841 7.36097003150831 -2.6976301362733 0
191.431268283076 31.1171282437136 8.82868137715852 0
-81.3381603528622 -10.3427322117091 16.7799516496635 1
86.3909767813485 -1.09595190869146 -4.14248131302474 0
206.048046315414 -26.3147341992857 -22.2000502777801 0
-62.9436612732431 2.0700860787357 9.28123247278358 0
203.957244481183 -4.36797620259599 9.59047740907019 0
37.027617425183 -6.45360340355078 -4.4992373007629 0
97.7844991717762 -13.7364023346819 0.190520415462486 0
58.4512253877549 -17.7781192373114 15.1217579043767 0
51.1371846934871 -13.5460499262246 1.84348627628528 0
196.750123846703 -25.9181822158926 -28.0203915092134 0
210.018212544313 35.4316033704889 -1.57779235253188 0
-63.3604375400553 -8.2702240063045 19.1709408737996 0
198.815745785964 41.3293397903318 -20.7262994993363 0
145.281126565548 6.25924001238733 -3.20014922477538 0
198.698234400574 30.9147793829212 8.21516272007106 0
34.7993907045682 -1.31559086262874 -2.75560299001941 0
131.01953705495 -15.6805471521093 13.0063674520683 0
150.491153609544 5.83802676825895 -4.32767829262759 0
35.7292163549772 1.93123494461819 20.3071110528455 0
68.0871337934721 -8.68609087580119 -2.26514580920496 0
210.926840528163 -14.2156495592866 -12.619902647381 0
-83.2246323097449 -17.3010104269533 13.5150055050296 1
111.008118742127 -7.0021534638697 -6.3171784315846 0
-65.782275158567 -5.43035931106574 -8.19228810457904 0
-70.9540967195363 -19.8234021878806 11.8663349808865 0
192.985719669546 -29.195278285755 -9.38681134039751 0
84.7500918474981 -9.43815844491615 20.9526718317473 0
132.937040990175 -16.0127285733549 1.43026691141572 0
9.28903199788501 -6.98928888506504 23.1232846998048 0
166.308758441975 -11.1483482409651 -14.2658399845637 0
199.146787226101 -24.0725174023886 15.0185141390506 0
-56.4564006287684 -10.4904038971282 -7.23342356254278 0
-44.8719459643668 -0.643938934761476 16.5271283234305 0
15.6066430438724 -12.0502844293594 22.4443471956719 0
81.7990538250783 -17.0013714794826 13.228659947454 0
-73.2979969200358 -21.1437946505596 7.748871811766 0
162.638798951028 -17.1339257076413 -5.66104509638934 0
208.523949408176 -14.1030300115819 7.05260508276842 0
181.041916008924 -11.4877329569827 -29.3931631932283 0
160.161446805663 18.8452162902646 8.5342753612592 0
120.307598486976 -14.6792760126084 -0.176194644407594 0
139.727591175614 7.75498455661435 -1.03039902040752 0
180.179091309725 -25.9851244889676 -19.1476046329249 0
192.27620089496 41.3272865311422 -7.09634832459506 0
210.100664427257 -9.8134945909194 -6.13607760239556 0
-36.7986526209543 -15.3700905485948 20.0644915211642 0
-59.036475550143 -11.0831115461168 19.5561076125017 0
79.0947250399798 -1.6840782752168 -4.27404979121309 0
74.9836542575249 -12.7979624867615 19.4479356978203 0
201.357983895994 -27.3679637485958 -6.57383042701977 0
159.420380251964 -18.1626493904894 7.3320533013625 0
197.503872224692 -23.0487041015849 17.0857297247488 0
151.751979747108 13.863974190301 2.03529383838895 0
-78.0673477790415 1.09901872451679 10.7082592473643 0
208.91088345054 31.5225696119824 -23.5706110022634 0
200.015261317755 23.1371147453469 14.5036704501529 0
194.617813952995 -27.0450252749181 -1.62762966548405 0
38.4774411913624 2.05369618465988 20.3475379909904 0
162.505606824134 -17.2543039888626 11.0149704841968 0
62.0996464517797 -14.3183111139683 2.5048434548631 0
187.450164407326 42.3003223806659 -5.49311883021157 0
135.484650162599 -16.3213230856516 11.6481752145185 0
193.183438217507 17.8004758844546 18.1768752355148 0
207.412790916347 39.9242189434412 -13.8529046429523 0
187.663906815575 38.0111017861878 -26.5643359063844 0
187.93081558027 -30.2091523246621 -18.1602445976689 0
101.216172391976 -14.2342738676823 16.5102271253193 0
196.316130246102 14.1415617806528 -14.2844658776541 0
130.634967168828 -6.98973651425479 -7.70277878395037 0
85.6103522536882 2.44323996725574 -1.32090786040535 0
148.666193296169 3.58212210542006 19.3728327061022 0
128.145210526318 -13.4072475100903 16.0981511478737 0
126.568621157915 -16.0052608883405 12.411485671558 0
189.12414352735 31.1375660941715 8.62664350060012 0
95.1751118291354 -9.35902120697579 20.3959037934866 0
-40.395703116386 -19.6943397256886 3.61522505915698 0
158.781701972219 -15.7547800809418 -6.13566681526232 0
177.417712172276 22.2488254911994 -8.58261221713047 0
-69.8740774172207 -5.40643855604686 -8.75482799640078 0
115.727569728282 6.66168783971111 20.459509481751 0
-45.2200467162165 2.00642318258055 10.6065549414246 0
172.985764017025 13.3455416553697 16.0235787221645 0
-52.1229266025472 -0.90957772279831 -2.63976532417274 0
163.14779341852 -1.25643164218857 17.6614938927972 0
178.737872746752 -17.8803072984276 16.3301083045807 0
-16.7951928551207 -7.9045530846376 -5.77841250522397 0
203.612701345233 -7.07945515790665 -26.1485742273361 0
183.276585329554 0.400882787603628 16.5678765422479 0
135.686294590449 4.71717474222996 20.2494475583699 0
111.039920271504 3.22453705743105 -2.24310055503044 0
197.248233627214 5.84107356821906 17.035081350941 0
100.349629098061 9.00631136824671 15.8783093998707 0
73.8847387384875 -5.35475831489355 -4.95019183217697 0
-16.9043913867906 -14.6684353676509 21.3169211986977 0
80.7639639773177 6.11271334923864 10.5623450107608 0
65.9231677271729 -9.61978887228809 -1.64183314850089 0
61.5435668078822 -4.97707356779694 23.0652701478294 0
109.382486804331 -16.0418642336081 3.77972495407397 0
194.282454838025 -25.1033318594604 -28.3468030634549 0
-75.5555099816483 -21.3582308275164 1.68124485537661 0
180.053321494035 27.6613125684374 7.33495197290749 0
180.335076750956 -19.686176410634 15.7169800502524 0
187.824446038256 -21.6687631463591 -31.8872264108713 0
196.778291568141 0.313556970604635 -16.7003060243331 0
-64.7555892025593 0.726093106528448 -1.95334435414505 0
64.9021117028446 -18.1874699522188 11.4517065464569 0
197.302122984679 33.4452212307508 6.8437758691581 0
213.692001775993 19.498814966458 3.17434409018332 0
203.651287565432 33.7523055780848 4.37890763049022 0
54.1721025719364 -18.6750841936829 12.4709409090703 0
134.012726178205 -12.0925480727271 -6.07256905448173 0
167.523607529779 -15.920578555852 13.6843075514333 0
-57.4469508748201 -15.2700332597286 -4.28097116399457 0
87.958416840451 -16.4849059212902 13.7787504765025 0
174.957962911672 -22.4081728874354 -6.18538356363251 0
-19.8274400341701 -18.4269718574153 4.34200129514922 0
-49.341793804492 -11.003322389046 20.4975201293865 0
33.2501509972592 2.66501260545802 18.9274572281844 0
187.199613406542 39.4104760473968 -24.847532669692 0
201.954344116599 -0.967886824832998 11.0261179154241 0
192.144558946584 -25.973633101289 7.50488317999387 0
175.08019512659 26.3774898122261 -3.18956412826148 0
214.285221991641 34.0262157382238 -6.07044911387619 0
197.375396719567 -9.0164327417 -32.870438439113 0
172.109034838637 -19.7958784313758 9.08540158188697 0
210.585309262568 -20.9681651399421 -13.6254115286894 0
88.4265258933664 7.34052415761868 17.2778908097196 0
200.312666204488 -4.49385506581927 -26.796656807388 0
201.201944961218 -18.3401625763396 -32.4987248387677 0
28.639693796981 -18.9378897280099 8.54798349549921 0
163.354649741534 -7.51533498429977 -11.8257263959871 0
177.112006289606 32.2722245390169 -2.90384688454328 0
56.5759674198527 -18.517648727516 12.894930621519 0
24.4569126550376 -1.71837988018989 22.5241748539092 0
181.154904813464 -21.8279690705935 13.6364856842335 0
202.987985149613 38.2285398475691 -1.71186285567633 0
43.3241713483345 -10.7506694067359 -0.422985666789342 0
121.984187480066 -10.5083210182509 -5.75824129871085 0
170.660737218847 20.4057260018061 10.2767369805694 0
133.0867176736 -15.1389959931815 13.9515466823953 0
182.814325702849 -25.1137518734437 2.93994750010229 0
188.52275166367 36.5307448673305 6.12790809841068 0
15.5272896330359 -3.35774261029873 -4.70229065588456 0
174.726256725368 17.4194330292997 -8.16535210350801 0
158.167473567508 17.491407034146 3.51607509918239 0
200.796913224568 -26.7396184315756 -26.5903902666052 0
203.10992041833 9.77233544769143 -10.3097230500146 0
58.3084478021045 -16.7371838123813 5.69665402188013 0
-71.4890862443853 -13.2749927215224 -7.51938227359449 0
102.55570238241 -14.4146435910292 0.726200297528861 0
183.126442210899 26.5325906960827 -23.6407484328901 0
105.86494754441 -5.66110368600172 -5.9843929702179 0
194.981002344278 4.78268512322474 -12.7593014864134 0
187.314563513885 16.6165789901171 18.0554086689234 0
184.273877414114 -16.2326295687404 18.5379634083513 0
-44.8996261856746 -8.77234719710868 20.9887996551524 0
-42.5622533256858 -7.91058028462102 -7.94596537312537 0
165.173682767273 10.5343468132461 -4.64786345101134 0
41.8672539660968 -12.5809247758177 21.3664255305105 0
41.7653118062591 -4.72126866254492 23.3651885284713 0
155.308410307674 16.2516598956003 13.1208611847014 0
-63.9525513096968 -2.19825425630348 16.05343880064 0
-80.5072627005054 -5.41089894842135 15.9432545658461 0
200.405197707129 -25.8526733306366 8.21839294440824 0
188.386164538822 7.94199219110146 -16.1724806073422 0
24.3611451599747 -12.7180261729814 21.9816580331896 0
-28.6383230290274 -1.85219971251582 -1.49229942380283 0
198.246383001814 -2.52231026708948 -21.3692314442784 0
210.175563472049 10.7288569160507 -4.02105135547354 0
207.820419859507 -2.71535968565392 1.24175691894805 0
77.1103804284299 1.9464317086177 -0.961535412419054 0
93.1914716741074 6.20300248110535 6.68931901023731 0
-17.2532582242485 -4.91292375289388 21.98030375359 0
179.679665531029 4.55348215925819 -13.1051061782151 0
176.027758703463 -12.0357359236254 17.1362723815023 0
37.7877514697461 -3.95104023056538 -4.34157037229154 0
119.53244644941 2.24993125713649 -3.56602706663529 0
128.743401375785 9.14777067457639 4.00707358844645 0
120.54873460037 9.84154296845846 18.1654418541139 0
193.746904960704 6.38338030486239 -13.8045606652595 0
-4.88307140870496 -1.96160575704584 21.3742367183188 0
3.26177796748644 -20.5740414593478 11.4208155984755 0
51.3157623378183 -15.37867882283 3.66618386979208 0
199.636568012995 3.76188513753265 -9.69584940536873 0
52.8933449773885 -16.5026088772098 5.1349539064479 0
167.13547773123 8.0269738206116 -6.17200101775977 0
185.707287637261 0.639271621275725 16.8723768832221 0
200.508904786583 40.5538437960578 -6.97324988690031 0
199.152338584818 -8.67426472593412 15.3094862803771 0
70.4546370415349 -12.5501438382074 0.451151952242015 0
193.320625151692 40.1151519064408 -24.2923241460523 0
-53.4843521616702 -20.8433601010403 4.24577544881009 0
165.638404290825 -19.3185765517659 0.43624526801337 0
-58.139698830318 0.956002020960265 12.3415572311276 0
186.571673627838 -24.0415130697336 -25.5558505642089 0
189.334949649863 -25.7979783878485 7.50429789363953 0
179.428638700771 26.4680455049383 -10.567347290919 0
199.965612234002 24.8334486380502 -30.2708236296009 0
174.079341014429 -21.1500276197052 -14.5500327165437 0
-75.6765015629361 -21.2410355677144 7.04198817782489 0
22.0988696721714 -19.8739250076013 10.6168787284278 0
203.24566234272 17.6745498983324 -16.7463680425298 0
166.819583105377 -9.65829931091107 16.6649510510088 0
173.328560802957 8.65299816784791 -8.50345343006162 0
67.4530546142585 -15.469087192415 17.6690228449012 0
144.333745079711 15.0226679255264 13.1830280510524 0
179.493017940838 -16.2759054838564 -28.559961315264 0
180.772113488593 35.5047386714097 0.0962750911943929 0
137.814694920009 0.269008285875983 20.5134250361133 0
-0.890013057732799 2.04721933003204 9.49125520041369 0
190.722553035918 20.029743858888 17.0308380762102 0
-26.9600291415994 -6.25953545303568 -6.90954532416983 0
6.22340115695888 2.35011804934624 10.5421084113053 0
117.315995510796 -4.16649260297796 -6.36865317532554 0
115.366283777143 -4.44722620750905 -6.33162528388671 0
-61.3232004292365 -3.60591911224352 -6.95409080072879 0
180.603186353392 34.3427519126047 -10.5106788580899 0
178.700161671864 -7.5865280970086 -21.6925767188218 0
-45.539104688495 -15.8214032975573 -2.09823936067877 0
204.296732156915 -28.2440229595025 -16.1614737438286 0
202.289999794295 -22.1644880811999 -31.0290845355313 0
36.4668347759265 -8.0818755653786 23.1353503222471 0
167.052418908243 12.9000821295441 16.135865713106 0
86.7693526363235 3.56976260103056 1.16862606236815 0
61.0390451897745 4.88187284337618 17.9625064318351 0
55.732605390792 3.93428513864549 11.1479379938274 0
-55.8135640507697 -20.5642948436311 12.3808582736349 0
49.5652402163121 -17.7428145760862 7.3261634006131 0
165.067308613562 5.29158495276926 17.7126554554454 0
-5.8159783767503 -11.1000567923669 -2.10357992296934 0
-70.0452246193118 2.30420509398237 0.739044657461005 0
182.623930670761 33.3657543350429 4.78510496378976 0
202.628936976698 21.3772683509224 -27.3720230931024 0
166.663284571066 -19.3922130211507 4.81652628521892 0
22.9247040938314 -8.42879810847871 -3.32564485082873 0
165.640549792366 -2.00503046703552 17.247672231345 0
157.783162998661 15.6989820389198 14.1715579743917 0
9.78480389227614 -16.6256175462338 4.12109391948806 0
95.7307478438972 6.08184839543957 5.44444638599597 0
145.142102451974 3.81736649265298 -4.61409520618201 0
185.481130790187 42.0967139857318 -7.6554185536406 0
-4.57398877001301 -1.88773288125542 -0.457251547922414 0
-20.1933625428861 -17.9908512398557 19.2832930213005 0
178.07164069864 -22.5468824492713 6.15002715542652 0
172.817661483764 11.1797030648996 -7.09024751895329 0
160.963068043667 1.97130258846812 -7.56609414831509 0
131.146399081501 -0.263254613614309 -5.43505757098064 0
25.1733626217897 -14.6289887383248 2.46829687120876 0
181.235211312849 26.2085307075394 -14.4879746627905 0
178.785007293395 10.1193326978409 17.0718427432455 0
2.03292996440022 -2.80564226164518 -3.24595219921142 0
157.993409742668 -18.1758495178337 6.0611674471494 0
106.338634396197 9.69437102844765 15.3091812956051 0
185.680075833261 -9.90265369832259 -32.5456490284877 0
186.773829253534 26.4010136663251 11.1050081806446 0
141.488695294696 -16.3859793595202 1.22731296275268 0
201.325918324556 -5.1920673253758 12.4868729452758 0
172.149673386114 -3.61595899742997 16.519267434236 0
187.799813750073 -26.8224697093586 0.592537447045105 0
197.618818512538 40.9087634623814 -4.10003781720203 0
169.202380509559 -8.84553993766677 16.694750208953 0
143.701354913662 -8.70884296529664 -8.78543146972822 0
-21.5052612890552 -4.07738153752744 -5.44806702993165 0
92.0645284625175 -0.638298388931112 -4.02504180445302 0
205.477448518669 -2.1835283582764 -15.2886118166507 0
170.545574426592 -6.67147900340794 16.5515184712014 0
41.9103754148627 0.380519513552996 22.0203977500318 0
-60.3859752384583 -17.997867113044 15.9856388356027 0
177.386619760828 -24.1996499187841 -11.8499034376109 0
122.413242406284 -2.39370197883562 -5.93090072148963 0
153.766720680307 -7.34834134380474 -10.0388641127589 0
142.269125632522 -16.6049602309315 11.1565784456937 0
173.554983241538 -11.6122032966611 -17.1271092200636 0
189.625111349566 41.2378002046793 -1.1570116992858 0
200.339297464932 41.0554431776785 -22.3969050838741 0
128.15302576145 2.31936333391559 -4.05452072197745 0
-8.46187042833011 -4.15583321492151 -5.14418216018737 0
-24.2719742603411 0.627591288665341 3.5339267000862 0
54.8973654456081 -17.2629210862472 6.5662304659777 0
175.655574194611 -17.5075939492077 14.7705366352571 0
188.410873005199 -28.1408800148849 -4.45239758030711 0
189.378912667542 -14.2551314392619 -34.8844137229577 0
151.259685174288 -12.4203962171189 16.1512538458951 0
101.854125369495 8.22075358728329 18.2267974922808 0
175.650839244002 -19.6814640491947 -18.8675760795087 0
207.376418211759 -21.7583596291023 8.3299152761548 0
214.779050361517 22.4263719908455 -3.10351140825645 0
-64.5494660599026 -8.95795311552539 -9.55803979924744 0
18.8953561281723 -9.50065625626756 23.0046852685032 0
-4.53123744682094 -4.30512951171996 22.3027083465557 0
154.577274343632 2.72582612725371 18.9177040986019 0
103.939271882594 1.5739345417729 -3.03902338400554 0
73.7662659363518 5.5359947058209 11.0642917330728 0
173.581764821301 -15.9325461356205 -17.9931826989722 0
200.680116141786 34.3137257837562 5.18957148904374 0
105.327534148199 -2.76772279002099 -5.52683945787189 0
-41.9301721903188 -20.7007344764737 5.91122334602785 0
22.0445857159404 -6.37326319012349 -5.00211648689662 0
-26.880843018307 -6.70822922276314 22.0156378851462 0
144.822447525971 15.1062148209884 8.47311030899102 0
66.4919214219077 -14.4442555001412 2.57011415036024 0
118.53368329058 -8.51976866418633 19.7930823690457 0
-26.6804685366426 -17.8305916772242 19.186611329345 0
206.842580316217 31.6902123074889 4.99576269979184 0
-67.5838784106646 -11.8833999390553 -7.81183045879239 0
141.011696366257 13.7716921215731 7.38127000238824 0
26.637551263461 -6.73874727239472 -4.74137111431713 0
151.347009609485 -17.6019098652974 3.77384203844523 0
-16.7912562634143 -12.4713156617833 22.0316649009185 0
183.884135552278 -18.6567570417613 -32.3444007158684 0
179.578211461543 1.09373544126796 16.5280639567192 0
189.283711222755 -23.1568470942195 16.6248521053316 0
90.1253177132114 -17.0566242602151 10.4431519558686 0
145.072366155596 -13.65207702092 15.4102057737597 0
14.6650096531478 -8.23149251377312 23.1634132210309 0
182.693017985232 -0.10267496074671 -18.9475436405332 0
139.975821812013 3.60504905093376 -4.16374804045322 0
133.34224257888 -0.250617340967874 -5.50164485728579 0
175.245436962678 9.71276319343781 17.0337786536766 0
-51.4089344986009 -8.27771782046861 -8.52739859384844 0
-79.0893164178632 -2.06420374426118 14.0312597721204 0
159.685399092753 3.653763197185 -6.55805938202838 0
182.250512211158 39.0685460912542 -1.04984745543704 0
57.4774613738331 -9.34914125114704 22.1323875909863 0
19.105736299224 -3.70619398459171 -4.7484166482167 0
190.960754353021 36.3454913910988 -29.2072945862923 0
-1.30357127674192 2.48274792337353 12.189694922406 0
143.687583885365 -8.35680430937304 18.5998226471521 0
197.957109797568 -2.22384019817088 -19.6193596985263 0
21.8676805028551 -17.7596702689219 18.8329132035355 0
193.509567684456 -25.0042401661068 10.7978807342787 0
188.361003993639 4.25681811257674 -17.9668628145095 0
82.196585359732 6.95898101584815 13.5624836225173 0
193.379972929951 39.7265661616024 -26.2933662287554 0
79.0528989097273 6.74257778897219 15.1665483858433 0
32.5955111495666 -1.29584506459693 -1.99336449993187 0
-15.2799409596055 1.36628820055445 16.9613413272749 0
-67.8316577639475 -21.0323820998724 1.81958637961415 0
37.9299385607906 -18.8943681933851 9.17646685794172 0
209.725174916198 -7.84506712281783 -4.44408012589266 0
188.449775354006 34.9927762523624 6.96745439279133 0
-75.7278689509484 2.75880937160497 0.829702292812813 0
-2.41430231858282 0.243583254341286 19.8068156603775 0
207.550397041193 -3.32450284902706 -10.9288421409813 0
176.496701287586 -9.20913441927513 -18.4841837848216 0
67.5983242489182 4.48227446569523 19.8509558559533 0
96.4063384437988 7.64544584230549 18.3560976113696 0
179.084878797015 -13.5855085454225 17.7357249119159 0
171.933404261349 -5.82278169577842 -13.647712379745 0
121.175118432458 -6.92120702489619 -7.19557203926501 0
129.348277349528 8.03497309435951 1.62765643695193 0
4.35103607748163 -2.03196483696756 21.855621833873 0
196.459852095527 29.6168159394838 9.98116615909741 0
-54.3463585742909 -5.02588837166477 19.3290982216118 0
27.0277227118888 -0.592136741074081 0.469830944634152 0
209.727808223939 -15.0744405776785 4.71549147613788 0
-22.630063217158 -9.14755626468537 -5.08055952636276 0
31.5962095897533 -13.6954109984064 1.82072966549789 0
-73.5511416592812 -5.15206680006488 -9.04700990133091 0
125.345156710447 10.6456113599208 17.6113059089845 0
165.889051861961 4.46759120128522 -7.33997856985598 0
197.520948383538 18.2082806014608 -25.3595040104775 0
209.545468323812 -7.93247777142065 -8.23255254203727 0
189.078154636852 37.0811083182072 -28.0117177174981 0
51.7804473630073 -18.8245418475654 11.739414350883 0
149.522290092898 13.5759315906666 16.1736347875497 0
-13.5508371442138 -12.9664371038386 -0.967051738044709 0
35.8161092573374 2.71044284321465 9.39434138262703 0
205.955043830771 31.1882132129107 6.12656647274896 0
179.148582762517 -3.13129257937861 -16.9495308935584 0
66.6669932536769 2.79969288702462 21.4805287821298 0
159.232546685176 7.61719231832937 -4.7551627960239 0
-22.5312211727751 -4.50288870241637 21.6937930543731 0
-34.0196272537112 -8.59750331154233 21.7463676827865 0
-63.9628162812449 -6.14355834835359 -8.48288691464643 0
92.0352053903727 -12.9403796778819 18.3339712953225 0
172.763242049509 23.9694980199609 -3.01361302667732 0
196.029093635742 40.6301566740906 -6.61217354303474 0
88.1993516415257 2.20159845653318 -1.77874977517874 0
74.2395591312953 -4.96936851734841 22.745544501613 0
207.733605345333 3.00539394208392 -3.47011753256484 0
-30.1976337208841 -16.7114827226508 0.745514940882335 0
167.427489202624 21.0688113840152 -0.49332275442353 0
203.260328177595 -18.1145376203385 -30.864394369903 0
71.8706264529987 -17.7652419336498 11.5341217055331 0
214.91819175789 31.197037831348 -6.07356728672185 0
33.13434196328 3.03848405434863 11.120205089466 0
194.98334636304 -26.7083991750992 2.3199623069219 0
201.588458279692 -25.9626857281804 6.1344907099839 0
151.887276782438 -17.4250552761808 8.99809062033197 0
179.530152616383 26.280639681999 8.16325516193833 0
-59.8853301077385 0.137797986958425 13.6693158035523 0
180.571605111939 -3.1318147865984 -19.6376650254709 0
112.641514507211 -11.218728738743 18.5179897981641 0
-33.4768386374221 -20.0289446209023 16.1162609524667 0
173.528656841011 26.212962402304 3.16698529930859 0
153.072178832824 16.2778738103903 5.37521127233279 0
195.281876147292 34.9313907209503 6.79033620985537 0
87.7533354486446 -15.4041442553449 3.57619185724421 0
161.978484742415 18.7175624305571 10.2467269939748 0
134.355352817659 -6.47152985192979 -7.7589219087015 0
162.542713016489 11.9217771610499 -3.63727580365316 0
-78.3161340504998 -18.4519290656873 12.9072622027611 0
190.810633999028 41.1850269521929 -18.1467887291443 0
179.243721759561 29.234007431258 5.67674812842186 0
-77.3464083754905 -4.99249734856264 16.3214106779199 0
-38.0383493517909 1.08826970193855 14.4565841588631 0
165.186004363341 -17.6775333824393 10.686381692442 0
205.680909452913 -25.8440606742125 3.57872474270745 0
177.996049703699 32.5253016552003 -0.877001180943333 0
197.840277912568 -27.5903130411662 -6.60576335950125 0
142.046800540862 -14.3452694628683 -3.60409295668284 0
212.296466471387 28.1282478202341 5.6449577017655 0
209.745663391083 -20.4301027767813 4.03183205781352 0
194.543846513139 -28.2045901874138 -6.37015312645604 0
181.753262256078 -2.14007221174092 -22.0729657390417 0
183.791801040949 40.7183604438265 -11.6302103694084 0
171.184576944633 22.8127816962703 -2.51789880347664 0
196.02495994773 17.4259161191814 -18.6929572174731 0
75.6385408861196 5.94827912028906 11.7252369106554 0
86.0982232597304 -15.8765481540446 15.2741898838714 0
152.1020947461 10.5860298910165 -1.04199305165774 0
-54.5696819807664 0.809282311820301 0.101096494195959 0
-66.5847765738588 -10.8538166095468 -8.73837302239435 0
209.372222814498 -11.5267491680763 3.66553566013412 0
189.4462005766 -22.6180690275791 -31.0392642250514 0
175.627403061914 -14.6836272940331 -19.6669948575996 0
207.505333285263 30.1453707481833 6.65921368564764 0
184.34450024712 12.0076860377237 17.7663501897379 0
213.336337950639 23.4268685364236 6.08255825372754 0
210.623129155447 -14.4912489892014 -15.4027877107743 0
197.880532978316 0.737518450328878 -15.2369670322256 0
64.6346863499038 -13.0200661582543 19.9037155368642 0
-20.9460532039032 -9.10999943564513 22.3815121406493 0
74.0033218855803 -3.15122397709638 -4.6746616504277 0
136.081448889039 1.73083685545739 20.6191885264702 0
-78.5573909070559 -16.9004432485679 14.5899420156633 0
-84.065772830317 -3.30305199819193 14.2666402773223 1
181.565268197073 -2.38327870840623 -20.594735465488 0
152.966360379809 -15.2413555648986 13.5274124036974 0
-65.6975647426602 -19.923489191056 -0.524349682755764 0
153.975698178903 10.7320322174724 17.6589835733612 0
147.796112402717 13.3638015297349 3.59076748974254 0
-21.0999465650112 -1.21556380105317 19.9998486070189 0
-27.3564038673619 -9.44961613433952 22.0593026881424 0
48.4432685993476 0.63148745470398 0.226649550525315 0
-40.8579652755786 -13.6687523240431 20.5479384240687 0
185.866748513365 -20.8756930291285 17.8733938366388 0
202.693232093063 23.442135070523 13.8235550872097 0
112.486280486243 -3.94738366115385 21.5284993352826 0
151.11978606694 -9.14148119024467 -9.80401810641611 0
206.743977872656 -19.9294035352293 10.2048616484034 0
208.437382644787 36.1099628741454 -3.0006090257421 0
-27.0475254679252 -21.112913792316 11.6423002001711 0
201.727387556239 -27.3568247716328 -9.12797242425998 0
47.4895455572162 -1.92046844089228 -3.6009734494887 0
0.276468402555735 -20.2100626347101 16.0982446493536 0
79.0517512876359 -14.0512214022411 18.159212432692 0
210.159948287346 35.037543725299 -21.126866718713 0
17.3585358358879 -18.0547561428877 18.7276327872827 0
167.853622718436 15.8601665761242 -4.36863382900701 0
170.739536536411 3.38373748387562 -9.33333279884683 0
208.296536080044 -2.95562094610659 -2.05609172038831 0
41.378220711721 -2.25398289534604 -3.81805166266738 0
210.033527895076 31.1898431539326 -21.986111135115 0
135.385673938568 13.1669091060334 8.58138269252255 0
-67.1879481442246 -15.2292480578739 17.3606890263756 0
199.167371012614 40.6353107249429 -23.1169733171773 0
-74.6074873933531 -8.09572082425744 17.7398857247449 0
-51.3318958772051 2.22347442836255 6.24087313839212 0
94.9768777764122 -12.9827495730265 -0.501230776124483 0
46.0235632923467 3.23082179944891 19.3183872291276 0
214.915120313877 25.3883719348847 -0.0161606827453219 0
-57.3540634829443 -9.41648636891779 -8.6426556192729 0
159.530658153347 -17.3290074585828 -2.61573663161235 0
135.476293676759 -1.8776406579113 -6.33575870766863 0
211.619727791295 34.2855808178578 -0.48990172368715 0
119.210468676191 4.4106758404812 -1.92891963149588 0
-39.7410777081061 -11.7009821170779 21.132252845352 0
176.712712913322 30.1247037209601 -3.553595224093 0
33.9495304776988 -2.47189590462549 -3.95407995634326 0
203.149423181345 -11.154693269215 13.4193617181411 0
199.810064730509 40.2006201922878 -1.97073581598835 0
194.369780727459 41.7723405474252 -10.9497061983182 0
201.905656791373 6.55008130933838 -9.26463479899117 0
111.715368521995 -12.8400861597524 17.3495525997434 0
193.724712294588 4.4287913008104 -14.4880256064037 0
174.549002067626 3.72083148767743 -10.596835936259 0
205.181061186175 -19.8330580686296 12.2830187686404 0
204.932695868312 -26.2013168736103 1.28701603241934 0
9.7245751687832 -9.04208992158134 23.0157972548762 0
210.957806457899 -14.6136361767887 -2.57176871981504 0
141.287771430548 -7.89417552640053 18.9414713459042 0
176.211342895369 -8.12597469124606 16.8242182304143 0
173.421808460348 -20.4891339721729 7.65277789289533 0
174.394970125283 22.5141145205283 -5.95439590600547 0
119.70385039299 7.37336623136864 3.0260491249053 0
-80.2715463736951 -21.4609997316097 5.08004378249044 0
13.7401225663147 -20.2012511262375 10.8761450681958 0
180.361978129054 21.7971815834578 -11.4513854196317 0
-27.8191954977667 1.74778943763816 14.0397802250645 0
123.604786508016 -13.9515293036245 -1.80535470750132 0
212.530919042059 14.5889963788732 0.934834985805485 0
122.600282456481 -3.94996966885142 21.0805857112325 0
20.3980851756726 -0.827284839870412 0.402443195191937 0
196.545710600194 -11.9847068309014 17.2153022583746 0
-76.2017325960528 -0.708461851976466 -6.96672977310761 0
6.75012493588056 -14.1363170630503 1.29426714534063 0
87.2007231882771 6.44837216607586 9.4139159695422 0
195.95300890594 39.47176668759 0.818688584254024 0
-53.7286923031823 -9.90425688831523 20.2274192012691 0
-0.688314933410051 1.29336549334245 6.77607794948172 0
-9.23247956157893 -20.7651636956952 14.7424968261291 0
144.117783368403 -11.8503568010506 -9.03217135659899 0
165.190116975353 13.8748484068726 15.6709398276216 0
146.486384227812 -15.4359918147502 13.3456719220097 0
41.0591325099005 -18.4485973540559 8.36623145679043 0
-83.4614366638105 -5.87003989311779 15.6971322835989 1
181.240847627766 28.3665733050249 -13.6638718383373 0
196.004430605298 10.6516390332295 20.0067243901377 0
187.933719998692 -30.2809449620686 -16.0085073701803 0
190.867668624575 15.7443092342572 -16.9711097838036 0
-66.4836437091633 -0.342251881387101 13.6906125743467 0
201.226207089294 15.6902288367195 18.7239435780926 0
76.8509890738146 6.41017201400322 13.5230985203151 0
178.318759248002 -24.5334868247777 -6.89988488470969 0
134.303049316538 -8.79702514467106 -8.19007207465224 0
114.065857542776 -13.0579631988877 17.0330115362379 0
147.620291218485 5.11457982423704 -4.26054214654328 0
150.861804237533 -5.69190306712435 -9.13366262901957 0
118.663470497142 -16.5804824519654 10.8135697973012 0
171.67468188329 12.6547978427871 -6.84879268820292 0
16.7219058125796 -20.0628652310533 10.7048200468478 0
0.279530466491828 -18.9334431692049 6.78669333801872 0
141.078673152865 6.97840709891843 19.4660252955561 0
207.565038753434 29.5813852650319 -25.1919528693071 0
204.432369061935 -15.7103068985042 13.3071655441783 0
10.201092623485 -2.01805806628846 -1.80226928424695 0
-36.7363649081601 1.97666082960602 7.15443060850587 0
140.406367023685 -10.0493109001919 18.1074001416995 0
-17.6636126831031 -9.35793622183242 22.4884800147886 0
188.44820278481 21.2162799563675 15.5637921727767 0
39.965547661343 3.75827652771673 13.8711111361113 0
196.083017228953 41.926773727534 -16.6018489100152 0
195.455079917448 42.0327567938857 -12.647889358171 0
-68.2341182976161 -15.4060942984852 -5.82110725194978 0
195.016552297297 -29.5695994770436 -12.6656182188054 0
197.828579464251 36.7282339657008 4.04388517288684 0
0.377333677873499 0.277321979029308 19.9303166082463 0
192.996244141059 16.2035301623611 -16.7012025423771 0
184.593879437638 41.2853327977473 -13.9687084106729 0
98.5218094891391 5.96855696355367 4.07737065516833 0
169.162182356566 4.50112362930227 -8.34218850195369 0
185.750503016523 -26.656933142618 -0.485770792215191 0
176.165024296857 21.0191173068305 -7.95013716521862 0
195.424274694518 7.97534069316081 -11.447553177839 0
143.697049809478 -15.1715344616167 -2.26968769873853 0
162.000283279484 19.3783809902943 3.29606593797918 0
189.666760734925 16.7687387284226 18.4751945302528 0
84.5664998435216 4.71232511538991 4.9919331443085 0
144.077664922364 -16.8538595743928 2.44695950667686 0
122.206210568216 10.2894503847468 7.65757964525974 0
148.429018019251 15.8570305692199 11.7901400717682 0
-83.8306854685602 2.11877823642951 8.72076329247786 1
211.44062851676 37.751697147405 -8.62951228735903 0
54.934524734976 -9.90515249790952 21.9882030714309 0
198.149624507106 26.3124805047777 -30.9414419983821 0
-57.6264778303447 -19.4873196518118 0.193277651383485 0
197.515009781918 40.3317401474302 -23.3584613180553 0
40.2128766562527 -6.14049768386456 23.3326108213111 0
213.960515070633 24.6339165087327 4.3636206169292 0
-80.539552419078 3.29069089168677 4.0389949437913 0
184.54937155124 -13.3140894727514 18.9145355852932 0
173.441993218886 12.7376392867458 -7.64691586011842 0
184.672785377736 11.7983273950776 -15.4030288554495 0
211.789595623126 35.6899706112097 -17.7700404007553 0
175.46725481299 15.9139809201411 14.7968631864523 0
29.7738459431752 -0.0602696349930246 1.30398315686095 0
194.87509643913 14.0963220093476 18.8920871242415 0
-81.081759521846 2.46172361509077 7.8131551463897 1
100.148386552621 -8.60394831202714 20.5578184663204 0
60.0656290020784 2.63698007050765 5.17405197505771 0
169.658301244447 -0.452888467855818 -10.5783238177507 0
127.426814672361 -16.7116199287698 10.1591271109857 0
114.877689980707 -6.39966459124372 -6.75683463988597 0
7.80860487699942 2.49774334339375 16.7093088760941 0
59.1362808681677 -12.8272436591868 20.346894730236 0
-53.9461699728901 1.31257555213377 12.002368061202 0
208.894218633424 23.6695530277415 12.0718723146549 0
-32.9743384339646 -11.6575589928476 -3.64681200935967 0
147.734359149019 -9.74909575309578 -9.39141405797264 0
175.638672442847 -22.4702138561804 -7.67130559938339 0
-26.5530870399278 -12.7747248849806 -2.32300874934046 0
-9.82665299584854 -19.1080835003508 6.38653535406253 0
200.902519715021 -22.4421024001797 15.1548947864018 0
134.936778970927 -14.4616204027118 14.8337195980846 0
145.015951524069 -11.1428862840073 17.2675186481869 0
-47.0403207240744 1.03753654849512 1.7977342160017 0
187.49972408705 3.1161557701202 -19.2019752875487 0
130.35976166098 -14.5135930826625 14.7749083079291 0
191.279583695149 -25.7447246232046 -23.6344514670021 0
-82.0035466252839 1.80967040154256 -3.41132586846586 1
195.584209706447 33.3403764907163 7.50909343072889 0
188.066778483519 18.349250606482 -24.1150268291581 0
-49.1456945680592 -4.56593811121483 -6.47609055074325 0
68.0141573193023 -6.90020644135158 -4.04968799408543 0
65.6063054269225 5.0835796600957 18.4561997069555 0
208.58022674216 -6.66778651164568 -13.3600111918099 0
160.569104380029 -17.9779249070353 8.58888312376567 0
164.247088890426 -6.72667689602164 17.1542102996783 0
-23.8163087407448 -0.435440465047869 1.2831363979082 0
2.0301362763031 2.47233714465497 15.5624248562757 0
180.309995814637 -1.55116932495317 16.1800732334599 0
196.479005869302 -23.2680487552127 -33.56024263447 0
208.864275060152 -24.8597545503279 -5.17780481195709 0
201.485433673747 -1.81044382146901 -20.6441077036003 0
80.0172105659785 -17.0711851661636 7.94701463842134 0
163.335344144097 -14.1331726849754 -12.3083576234979 0
-85.0502665921577 -10.862396634047 -11.0622376579447 1
144.382464906852 -16.2589393182248 11.9765522904262 0
-18.3842680870163 -20.5520996237759 8.86731114963665 0
155.501086140799 14.5738789262347 15.3545251396269 0
104.435369372508 -15.8310758701095 13.6411569100368 0
32.0070388281423 -3.31842577135495 23.1763820004198 0
184.494996736553 36.982524698578 -20.4681260380348 0
48.5345601659746 -4.6185092872606 -4.46741389249774 0
37.8105275890072 -9.29005266084432 -1.71304181530055 0
68.856130202827 3.85447247520558 7.06314242867169 0
172.564821698995 -21.1230788886736 2.62784189676807 0
-55.5626930326389 -8.92730762633208 20.1230477340641 0
131.957522971373 10.0910703988155 18.5387539204067 0
181.888855073232 25.7527013831964 -20.7977528777621 0
215.033778138654 29.5492088096992 -3.41823979210654 0
95.7554951852453 -6.65887507220576 21.4921819693508 0
193.034355939025 41.2607822264637 -0.80897310970842 0
122.255804512342 7.15195457317147 1.89884893421977 0
192.246795654045 4.22961955939905 -16.2660217918543 0
197.551872742776 2.6457452223438 -10.8443545050271 0
-71.6245495182443 -0.526481097013948 -5.71222344179709 0
177.038435145764 -18.68155049778 14.409881626631 0
80.9342827591137 -14.9218688263552 17.0903325845108 0
196.799876908105 -26.4147358926809 4.38902850349082 0
181.00637006925 -3.27594508756103 -21.634704341379 0
174.206464024129 24.8286135365496 6.53292692286873 0
-51.7809411508006 -20.9572983897795 11.6205405554949 0
203.2894105617 39.5759341947628 -6.61560919434246 0
67.021348353099 -17.3533864687711 7.5002026659062 0
120.255076855469 -16.0056127856898 2.83091416220456 0
209.700756963781 -23.9431239992064 -9.83538591914012 0
91.4041823868972 -6.86919369953683 21.6599992169184 0
197.434849730008 41.6392209645242 -21.1115611417767 0
-37.161218121761 -10.4218069623248 -5.19236535343433 0
105.783216081422 -8.44879867245755 -4.97904896379793 0
199.56628895728 14.4729486292097 19.5831331849146 0
119.098632345965 9.67991700638355 7.47032179224171 0
202.341040647844 40.2139007152701 -8.7022100819284 0
142.061717341489 -17.0879830381536 4.23786503253136 0
198.925769994925 38.5845505465918 -28.6466308964812 0
181.486123742799 -7.24028651855397 17.1344756802618 0
179.523739278887 -10.6628160473869 -26.9321030838198 0
-70.9919472627352 -11.809153815738 18.0821301876853 0
