-74.9693079681876 7.41578956612892 19.7341823651544 0
179.238003553615 -23.8521768515095 18.662837229214 0
145.05996778785 21.2041448740526 5.99211946067375 0
202.57634995483 11.5858642530254 -23.6856545773591 0
173.311217809421 21.8418405844119 24.1830411997191 0
181.458568463653 17.2348175956416 30.3283605408742 0
-19.300445070615 17.9251688646971 15.6135719372749 0
161.029966280388 -26.7649816944411 -1.95677144784831 0
213.785409400849 -19.4445435524867 -15.0147297664772 0
185.221054327325 1.78414003825541 22.8319955873278 0
-59.8127091956506 11.6978446853806 -10.629870124672 0
-79.739462361385 14.0515422692515 17.5424519918234 0
-23.2428329487368 14.7799354390153 19.520572881209 0
164.54442076579 12.6514826235029 25.7085672299823 0
52.9087289286665 0.194090729475744 23.4380008459249 0
207.741368858563 -4.92808454433954 1.13394064590847 0
151.11408951953 -1.24516234758127 22.1567362592251 0
185.81266278782 -10.0991021034412 -17.8110270742549 0
43.6458960677766 16.8135570293359 6.63943351367302 0
159.349011959033 -13.1822726227532 18.9512111762662 0
78.53644009178 -12.3744746233829 13.4239036094956 0
209.755772500047 -36.2181851582553 -14.2385017686847 0
212.987505185641 -34.4320784423954 -8.43471886917344 0
174.801353656633 13.1966821745388 27.3918046406579 0
208.276008888701 11.925293643366 -2.69925046363002 0
134.801329909791 17.3474287332616 16.9893069923994 0
150.430141044397 -19.042755336473 -4.72230325995534 0
190.411274366607 -20.5093855104889 -36.5572691573364 0
101.916260054827 18.284241817291 8.23035754097224 0
-17.2348649001778 6.64237271487383 22.9731900051311 0
211.232270150784 -14.3815551547418 -15.7097944868193 0
24.5872506512466 -4.84280200120721 0.0893672448730782 0
207.485971423589 -36.8376149230834 -12.9436174406983 0
163.140741858086 12.9413891365372 -12.8330245339825 0
172.604802494558 9.35470034308879 -15.5304613508365 0
-27.1431324470966 12.0628707899756 21.2183174869221 0
176.942909196679 -32.4104883372245 -18.4755148095424 0
67.2586420358985 0.673573199169896 -4.97928837349224 0
197.916665000207 29.4203394518412 11.1412038916239 0
80.9481975085672 -10.011525214115 18.5903911569874 0
-7.68720521693467 2.51581643095187 -6.91005214253249 0
152.473891585606 14.3004546792677 22.694695002712 0
-1.3679607409755 -4.46469212745615 0.155427287739706 0
155.741648438406 25.1143642071273 -5.19622903129168 0
205.858647703614 -9.94947509983999 -9.04808741596077 0
205.44949866117 -15.1076970426757 -28.7603545219579 0
204.181912933695 -37.1154997607353 -18.5167452110718 0
130.959314899586 -0.487971487565429 23.2543721167263 0
64.2239544917197 2.24147111033119 -5.53297909230894 0
-83.8666976079354 -4.02795987431845 -0.373680643594066 0
-27.9290755154641 1.14516211526944 21.8317259105152 0
51.5792446872714 -1.3247464917852 23.0008911354905 0
89.442442612671 -0.641510146531352 -4.66737341358799 0
31.7597427414471 -10.1152178179492 13.4228460928376 0
162.823147004867 -14.3327108917369 -9.8281281623215 0
160.92458738449 -6.39509237577862 -8.81923034392903 0
196.365657153592 0.038866319388038 15.5864509701475 0
200.364185702459 -7.03293413211573 -7.89661440170509 0
9.24309471232635 -7.43709708747304 16.7027200753913 0
175.178582978722 -17.1809525581236 21.0728843644943 0
96.2545762479663 -13.7570555088876 12.4935510560192 0
175.680912217972 20.7127723857218 26.5138468457125 0
180.917317726639 1.695430077101 23.8900659024522 0
206.516904634316 31.210805139578 -24.0507049993862 0
137.486216866821 0.899940228666457 -6.97608711422052 0
-33.6256116786553 -6.27454894191489 14.7219010836013 0
67.7696640565843 15.9474464391149 2.62522338248222 0
170.342029417573 4.86617489987088 -12.5722883678338 0
200.292569679082 24.3475583470534 -31.2747403996619 0
183.018508799945 -34.8841393658143 -30.2693121516907 0
171.294519406935 28.7603360690597 -16.2220275911441 0
-36.4668322705726 -6.96999456256717 12.6478736498264 0
21.207325553631 -7.28855783677353 3.16390988056005 0
184.808246848399 -34.3128283888616 -32.2581683749518 0
-44.7187571036263 -6.70184232928941 11.9318504819546 0
205.739366778138 -36.2954219793936 -3.57729847462618 0
-70.2105498554051 -1.98435566021771 16.5316077391848 0
15.3884470881898 4.09533185144437 23.233132658032 0
213.32729871235 -20.201983048632 -17.9519996507011 0
139.637001565602 -3.9049443050382 21.9622296337295 0
22.016600844188 16.1596321723247 17.5873852956759 0
-71.1332615077134 18.4207260453776 -5.14730800694029 0
190.347949111943 -36.2637065113772 -27.7377813595059 0
209.739195693194 -36.1935489951906 -9.41977295937831 0
216.069490600638 -25.0513840742404 -1.06600216733053 0
0.231726379891922 -4.91904156962527 18.9425802473745 0
99.4370734287833 -8.30471147378404 -0.319980347375838 0
57.1381974200352 -10.5823082369817 7.97458037891543 0
124.93746389129 5.02331816065807 -7.01032226366465 0
-10.700541108003 6.53807112889474 -7.52405731181187 0
53.9961868780144 -8.88378878802542 4.34479061858388 0
109.265186409211 -10.8560508084881 1.34489279778956 0
154.256805818509 23.3125839713559 1.96441812941157 0
170.124668442183 25.4921815831974 14.6788435142343 0
202.720149534227 -38.5657232608559 -15.1824826745818 0
204.215130440315 -37.912219406902 -16.1920056588745 0
194.851183516564 -41.1161280328673 -2.97072877068101 0
181.589410473089 28.76878818706 14.6831510121204 0
189.245500484382 -10.3451994260489 -28.4450312709744 0
176.955458140743 -37.8085589837789 -15.7737832382563 0
122.914595010396 9.03839502662052 -7.21206700057766 0
156.587247324897 22.8410602141662 7.77974059572075 0
112.137750548149 -10.0544087605473 19.8771278819699 0
101.299587394305 18.0061057707748 11.5846772853009 0
-85.7645246767221 12.0566880060552 -12.1721174589796 0
17.3445757522789 -8.84469819723682 6.51894349811942 0
150.50013040973 7.42613631092807 -8.81302145964643 0
192.13954534387 -1.24130124731049 18.5513458947661 0
-76.5871221181602 20.8196380676156 2.68852311491912 0
151.063590622631 12.6248300915613 23.3021677951127 0
202.533014693418 -37.8134157283664 -2.97619619794761 0
162.971252306626 25.4554994336484 5.5096086653385 0
205.304001455491 34.4711864714721 -23.3065145640481 0
-72.3307050020137 16.7321825592487 15.8126422601763 0
105.751228937262 -0.66138449481803 23.8083041595646 0
67.4808665496922 3.63257714427141 -5.86859257206964 0
44.7495657072773 3.42652749996016 -6.32356829059733 0
204.716755557635 6.2280226292433 -12.9493917822822 0
5.72080974682977 3.3562533566279 23.1108761485408 0
129.994603772277 -16.3361420108254 2.90500623073542 0
211.012391094455 -16.607571126985 12.6166089315896 0
-11.67768200341 -0.616806939387914 21.6150891203826 0
64.2744391687383 -4.48276395897455 -1.18561120496062 0
-73.0699715179119 15.7546223273809 -9.87132541039901 0
175.110962441041 36.3284609363627 -12.2873472113406 0
-67.6592833115079 -6.45083190452026 7.08619492113028 0
182.723541096869 -42.0834633315836 -6.04903074870663 0
172.16943292313 -8.07025355583161 21.195251224878 0
-38.799095483034 5.56311766090992 -8.5020749251812 0
-55.4397475221402 15.4378965648367 -5.51952182836229 0
139.043215264333 -17.5666403912654 12.0906654764098 0
174.759531591845 -23.9842538834486 15.5444985034402 0
8.61203875873113 15.9664405625827 18.3964393571727 0
190.137264331885 -35.4504788879403 -29.9103190894408 0
142.523554703465 10.8503397585978 23.3093143741866 0
180.37355986929 23.3894294605106 -32.1817487848741 0
203.122221236282 -22.1697501277049 -34.3389167740823 0
130.213108479826 -15.1038970942284 0.734175013956133 0
157.994978704459 -14.7430137624714 -8.00157574300236 0
170.601646919522 -19.7790709817027 -14.7134365246921 0
138.861954803615 7.11827648852172 -7.92034673319881 0
192.554673938187 -17.1238390096721 -35.9918273304783 0
119.682207273261 -1.19635808192541 23.4264867325919 0
193.432944908978 -36.7296117317835 3.30799081270962 0
169.479673537068 26.719273876889 -15.5167205081871 0
112.676506150732 -8.99611084122724 -1.47475522890365 0
-47.7607385619445 -3.73213169611721 -0.528343515361066 0
194.244879025376 -9.48011436956219 -25.8307071299773 0
137.908463865622 9.67122503224851 -8.11829944917601 0
200.605359716119 -37.2853208619752 -24.8117778189073 0
183.648233105034 39.0815421036617 -10.2233245997902 0
-61.9071593401793 4.69626261372616 20.7640396815587 0
207.854888830953 34.2794899513316 -16.7736961170901 0
59.4759007768042 16.5581952130759 4.72163358320743 0
195.424411511746 -35.7796016994086 -28.0580312122364 0
131.108201656995 16.6974211264098 -5.71387732209439 0
207.353730500084 -8.93714494212422 -9.24181326354421 0
160.93534460991 -2.83397626509948 -8.40945092211034 0
-12.3775001827014 -7.27405523165362 14.9503138225906 0
162.293649899262 12.8769334893178 25.1531756199263 0
162.120064858124 8.4452357089614 24.6215759271182 0
199.829750151571 16.7198138423183 22.3666868991002 0
174.555276663889 31.1790948980051 -19.4711929792014 0
-8.23662451513504 18.2498644092846 9.24660758274811 0
204.492031017881 -36.3436862907625 -24.4135879706658 0
215.36200984665 -30.5753359370903 -13.2769784159841 0
166.119727310553 0.815563757159516 21.3792277854842 0
153.671138426049 -16.2320715422837 -6.57335939782886 0
195.484976926751 -36.174774696266 4.00032518190806 0
207.533340158032 9.68239972397509 -2.09449246001432 0
-87.1839948198644 -3.59397531624372 -1.17845942907766 0
213.295278427913 -34.1870627330498 -7.21412385766235 0
-31.8076791818749 4.92892153522134 -8.29519974388324 0
98.3262168579607 10.7936753227236 -5.98805469671468 0
108.092792019962 -13.3827437256406 5.61252938519629 0
195.512508285896 -33.9865233805932 -34.3675586184652 0
144.436820443946 10.9550651241295 23.3458677643465 0
-0.960833033724663 -2.76204440884827 -1.82393045146238 0
202.336819574368 34.0284685870087 -10.6863339722748 0
195.709709578342 -13.595164259962 -18.3311488057379 0
191.75286460008 1.1033567359567 18.1610334385245 0
185.262150947237 -11.6269982250368 -24.1488392029105 0
133.06108228066 14.9321126102937 20.1235026782894 0
145.003913595188 -17.1509278993525 -2.9837231649765 0
199.615945229012 6.59294346496767 -22.5018194627654 0
-61.9573439687252 -1.94969291878466 -2.71068303787322 0
213.786729102458 -15.0393734467245 -3.75798308866965 0
130.787728089993 13.8958200488926 -7.28122464275121 0
14.0066161640652 -1.79190099379478 21.7722610859428 0
208.076351220353 -24.8840247356228 -30.2464651607179 0
210.485174879309 -25.8518068925307 10.9483484090901 0
47.0377976647658 -7.5834359535027 19.0860532292707 0
172.937004072105 -16.7738793560914 20.4071753855327 0
204.573973108374 0.0357103536796915 7.6338498930119 0
187.297400926216 -24.2640553699954 18.7086092294545 0
204.522871250067 -7.65502869080329 -6.52141829795521 0
125.216221121313 -10.2447070916337 -2.17338789917715 0
67.3686140845258 12.7659486271617 -1.49541150646341 0
197.250719895781 17.9177339978588 -31.2296391947917 0
176.978874330317 22.7097011665801 24.862919200938 0
-77.5007833217143 9.69398683522107 19.1708118183172 0
200.668153922421 -27.2275076390885 13.6027805534291 0
-15.193535238317 16.9199321003109 4.33736944567773 0
169.73416806012 -0.91690524162967 21.0532716452318 0
54.2362208101794 -10.3493736135824 7.42473706647151 0
139.203077837714 -16.1188554352505 14.7759699621025 0
176.089829538163 -24.1744313401124 -22.6069935714422 0
192.9899561728 -33.4376615119055 -35.6724085871253 0
55.5508620370353 -1.14411406674733 23.2888553384881 0
209.145436854894 21.0952163145778 -16.8525964380718 0
159.926143110756 -16.4304469143073 -8.98620463490008 0
193.740068650596 -39.704456911627 -11.5174522900504 0
-80.1794970182306 2.86318484638808 -8.2703387296718 0
136.223921806396 -16.6770436184921 -0.341558279563992 0
120.053538503546 -11.2439804752497 19.1934946315077 0
160.160201713575 21.9233883297789 14.3048027556259 0
167.411917599814 27.5218162622902 -12.4138078673146 0
195.550108190774 0.746370324286678 -7.59888611271476 0
192.854108128919 -28.1947552968018 13.6435743733054 0
158.700065254644 -6.3861430041553 21.2026620689781 0
-17.7735576347718 -8.24194890536203 7.95124795786445 0
208.766544858561 16.3171141992604 -11.9246649954631 0
116.665361557126 16.0036616175183 17.7645714921271 0
167.568873845519 -9.69009999574502 -11.470617550271 0
208.042585351395 33.0540410927078 -19.3021902144308 0
208.24392001813 24.6300269459893 3.42357713036296 0
206.647733857067 -33.5289561221215 2.23252414670168 0
72.6795683645124 17.6563934362085 11.0558971413566 0
158.694015262192 16.8302640590824 -12.3954426183199 0
26.4295564727682 17.7443041175329 10.9676644635109 0
172.74485393946 -35.6369819430779 -13.0710293008095 0
162.101882800098 6.22522565080472 23.915401462969 0
-55.0563545560101 19.2194963229368 2.14989873575132 0
157.413962014108 15.0140886419891 23.2134565998595 0
85.2200776200599 17.8243862380769 7.84842717392436 0
203.072570111622 -35.9152024338275 -27.7568340604772 0
179.636535333795 33.626941616534 0.847365201407951 0
97.1232717829271 0.659247815718619 24.1017814742368 0
125.54201257742 10.4558401866797 -7.38218239104292 0
31.6923436345964 -7.93832563996369 3.86141106908336 0
122.481524980211 4.52484779713097 -6.83733893572034 0
190.258512920322 38.1012622477273 -5.6024718387034 0
-40.3398806981487 -1.48807988660548 -3.62143103839461 0
-13.8547085202072 -6.04590178621167 16.8953437978024 0
179.977517619042 29.9872534351491 11.0760760883683 0
180.798461105873 23.1260622076715 24.4414456258011 0
185.656387375195 -6.66214013959536 -15.5015689397897 0
29.4280793613573 -6.89211388351777 2.27590276376858 0
61.1168895798367 -0.48248337746664 23.536304367033 0
187.625769821097 0.84824624554617 -15.9027123263364 0
205.104960331767 -13.622765133785 -26.908176368528 0
176.827340928057 -30.7692226138444 8.87655165419216 0
188.342576386331 9.33633959187668 -24.1834120070578 0
163.651227479837 -10.6688383455195 20.4429630466699 0
46.4986535744515 10.8278970637187 -2.08221934258279 0
184.1728960121 26.608864621715 20.562055176995 0
54.7919833527247 1.22149670836002 23.58436548412 0
-23.4322668992877 -5.1484475923338 17.5775763801659 0
-31.4368305989503 -6.44774563015886 3.63976207165708 0
150.587477029724 -22.5967290953206 -1.65241114896747 0
214.80377227529 -19.0385269209709 2.51936457792466 0
-39.1557858795113 7.4018954380851 -9.03042483739052 0
-57.7496490005208 -3.00836518661005 -1.40535567306725 0
163.259381498132 -23.1613734799395 -11.1946373112844 0
-85.4204474652649 20.5422040926266 7.76637670122731 0
203.124811365713 24.6915748540363 18.2054816357373 0
172.858979097463 32.3477286167823 -14.836099176224 0
140.668312072657 0.649389021189052 23.0722062802967 0
207.837920174764 33.1050896763516 -9.31468435375905 0
196.244614462342 21.3313190777734 -32.9494332289323 0
-60.8130591209592 2.99566852162553 -7.82667132289475 0
199.916464033353 -10.9828841877459 -10.7394533264648 0
48.2536451562145 14.3409946440648 19.1280628264307 0
209.169860320485 -7.09317349574015 2.75467816372516 0
207.250521709667 26.7637646560776 -23.6822832452432 0
171.074483840359 30.2284241989365 -1.22498306861449 0
142.527631768128 16.8789676072463 -7.59675978554949 0
155.878265480827 -16.0688800120171 16.1158629766768 0
-61.3554567755496 -6.33760673933927 10.0499773773574 0
-45.4559539451483 -0.85952756407054 -4.23613013742151 0
146.239357588151 -19.0924424723413 10.6471301879302 0
216.318903850441 -26.2169997468804 -6.19124582111693 0
-47.2253677163572 4.00721888584584 21.7233395933056 0
106.721984721048 18.1291598340175 4.19193893643053 0
202.116872453692 0.94861973465995 -5.61114638185282 0
163.298723822633 20.9545800596759 18.4676361321836 0
56.4452048858068 15.3845752871575 2.61645493241657 0
143.088264351439 -20.3762644723233 4.44805982560423 0
209.107234411422 25.8531266574013 -19.5318595035551 0
123.378074419084 -11.427587236456 -1.22676500006192 0
94.826496749167 12.7308149589924 20.8485389597418 0
60.6635223350085 10.9495315406023 21.5235992271403 0
-1.57850586956943 10.9692626784777 -2.63383387962025 0
141.130324720798 9.06681294162032 23.6440320158386 0
203.955002372254 -32.0885621019423 -33.5741764191389 0
164.594453007807 -4.8066395932309 -9.52165814831627 0
-38.677546793477 -7.1347640923944 6.17112338719009 0
1.68148400616019 -1.64105145173742 -3.19936912795525 0
173.216859115788 5.36283295381843 -13.4767225975555 0
164.476670536224 27.178474977734 -1.72927367245258 0
194.704800369034 24.5503192770972 26.1426039134701 0
210.616567646013 -35.3341822286099 -7.92593416927725 0
158.728364553352 13.1593812814088 -11.6776349055465 0
199.386738147732 -34.658560656663 -32.8201918677028 0
160.679711069917 -26.9103990677772 -7.89125430832437 0
-55.8446047094882 5.44290164287118 21.2531842046483 0
-18.4954877910368 2.07114739903856 -6.89681942277105 0
206.551221822037 -37.3355959282134 -17.3983349640211 0
52.0320918049133 -7.57208058909371 2.55031355818685 0
104.21852199449 18.2790377582905 6.20331731750869 0
55.5997393539786 17.6780995862165 9.47263769902691 0
176.07816338515 30.2796318907177 7.36825837672889 0
181.738344152545 34.7355210920707 0.222950812146583 0
212.543283567025 -20.0943258844299 -21.0957986150669 0
208.423910645461 -36.5604927729948 -16.4975429963931 0
113.785266068454 17.4014557042487 -0.0477366691793067 0
184.240810796865 38.3012093637841 -5.86705274150113 0
187.571999271164 -30.0172084258429 13.5458025885363 0
-43.7440107832522 9.57847031296583 21.60556960697 0
38.5751083862025 15.038440277465 2.92685622136103 0
207.45463687206 28.4636658066781 2.08063165419864 0
135.306739348577 19.6930712817853 10.4719698489634 0
113.56645905512 -11.8526230501264 18.5058641745812 0
-49.8719521962004 0.844023023222126 20.6530447740354 0
143.967307811106 21.7136376066223 -4.71411965905994 0
3.47964812399978 17.7485030520079 8.52981901808342 0
49.709351791886 -3.24686159933773 -2.30532519771069 0
-44.9149795421798 19.0179766365759 12.2204964648368 0
204.274244502531 -13.3075821003832 -11.0968223538759 0
190.734015263707 29.2304626938646 -34.1091901863935 0
169.457115219617 -5.51584762331342 20.5733492160184 0
174.018024555063 -2.8856187372712 20.1580267552547 0
192.74981628097 -9.44213537216299 21.6981199986075 0
5.14523247442581 5.48217200719699 -7.14574767385829 0
181.493833675053 -9.91153514528185 23.0968691205422 0
174.678157138633 -37.5377048369276 -4.65914104107071 0
177.134389098928 -29.8514384967248 10.4074577133509 0
198.624275596759 29.9013810022078 7.37756750115704 0
-7.67529838838914 5.26908952653538 23.1064804473355 0
169.688579406244 -34.9013205646285 -8.9250396929843 0
201.484655935414 -5.9889932061751 14.8617978246 0
91.9419338976205 11.8691088997284 21.4491560145785 0
-58.6087532962923 -4.43870988974724 0.58242011493753 0
41.8762604106091 -0.840712463338856 22.9574826132168 0
-3.64414512589317 -2.9292545399554 20.4858279108592 0
102.789317879344 -5.46643756943166 22.4147291485434 0
204.396808024784 31.1648101726988 0.561036580313719 0
192.372852942603 -38.9039740660409 -21.3469089295138 0
-41.4804218292051 16.5684875681182 -0.499077291663799 0
-84.8354881991504 6.43415806520517 18.7346508109805 0
183.681818326187 -7.45239799791061 23.0889492376308 0
133.487025102521 -17.7387578681322 3.88452564271403 0
82.3147516300699 -3.46258152890498 -3.2021820222092 0
174.362034893465 34.8723930508397 -7.34827153506529 0
31.4615183860056 11.7939442620025 -0.987327624358531 0
173.00686843601 -3.65477036211926 -12.2580758387981 0
86.8266620835268 -13.0685480768583 11.2104835317321 0
114.357352056288 -5.38613290831956 22.3124729403401 0
190.627233223524 25.1825804491653 26.0025221366465 0
152.480455265611 -11.8180719840523 19.1255550846935 0
-80.9054343259669 5.98011673972176 -10.0833154331864 0
95.7454057070551 -9.57301528976223 2.03402935848755 0
214.443527768801 -33.6867875938099 -12.8038557412204 0
196.599933013019 30.5538338512127 -12.1282606528248 0
179.184777687233 24.413333275577 23.3049771086167 0
155.790214882568 -22.1556745295932 7.72931483177118 0
194.763315490156 36.2873876962882 -4.46138360306809 0
159.763692681711 18.4312982834037 20.5541722617968 0
152.766278961775 -7.62604325881214 20.8095679527398 0
154.117848642507 -14.8668666417755 17.0356365695351 0
-59.6973621749899 -0.571973162485382 -4.21407096349355 0
-29.1608845227126 18.2261617117912 6.11177758271098 0
7.86180729910137 -4.66596642130573 0.0842102769723743 0
68.4106060885581 14.6816366418689 0.454826225818779 0
173.672414582487 31.627016514659 -0.934010606442622 0
166.213806377899 -27.4263827250913 4.10670118580398 0
153.602513219446 12.3998842720127 23.667339498043 0
-57.6610095255959 7.44223943875893 21.1276440017179 0
177.275596453779 30.1090026356342 9.05658688071756 0
-33.8621107261733 -6.83434901348551 4.61981171704493 0
201.868077963013 5.10889123082109 13.5738147445579 0
119.681649094198 13.3469896668593 -6.6803769799459 0
64.0512141277309 11.7581552847829 -2.10753598358742 0
185.459935464562 -12.9079058380639 24.5990979418171 0
209.147000762096 -36.4254438879392 -12.5272008200033 0
-11.0782228810482 -7.98097774163755 6.24534449683808 0
21.8835075834365 -3.49464633911799 -1.22247845683226 0
51.1710297824879 -2.17135377987825 -3.59441434920528 0
195.859823488267 8.22236704975976 -25.5772677341908 0
111.251476893 -14.608440064467 13.5054529961743 0
90.5037580291639 -13.3747387837507 11.1599014596936 0
26.7134635346513 6.439771781697 -6.67724096792696 0
-15.2254704201728 -4.04665691712591 0.0139139325334901 0
199.27332253246 -9.78822170966085 -10.2067248344535 0
184.964450337348 -5.64010650979057 22.4104842683121 0
53.1638196720378 1.24084488023504 -5.45881662835367 0
17.2706621504972 -1.17971024421261 22.1346412260145 0
202.219473571752 -13.1838729782841 -19.0541369257091 0
129.04063233876 -13.6632215068394 -0.703826150007366 0
161.147312981417 20.8401508384872 -12.3712929885456 0
208.692689762928 21.2936209994712 7.34486455557352 0
37.8220020175415 -3.70334893810327 21.5564189503789 0
101.716579436826 -7.75902804923339 21.32603375617 0
195.800834261378 -37.1978658909434 2.48624786719022 0
82.7064348391781 11.2926580002227 -3.991585576031 0
159.368595037973 3.93577237936258 -9.24018665040495 0
-26.3799638286077 17.3952985660735 16.6600401348643 0
44.885981426164 12.1127688742861 21.0428111260385 0
24.8085555282273 -7.66833322473715 17.6698102357035 0
183.239037533965 29.4727910187612 12.9944438540886 0
125.933410202377 6.72245227836424 23.9853469174773 0
124.700301567938 19.2738728646939 8.50886411261931 0
197.92977082723 -11.4757494904245 -30.144623479665 0
-12.6913209322777 -3.50788064856504 19.709133793011 0
156.981082448073 18.4455636994787 -11.3820759730239 0
192.826231230642 27.6145461098606 20.5681247652231 0
176.332117382565 -16.1075125071239 -23.1904776841097 0
141.988250922489 21.1169414137077 0.289251315257006 0
183.040451146835 20.345954140235 29.0431411653329 0
41.7366637117146 3.54997718231752 23.5041710349659 0
3.10287416644909 11.3712213324692 -1.97530007729645 0
-39.2933060814661 -7.33003750818046 9.77859247725111 0
87.5114329256623 -7.27097960726863 0.0311393711073536 0
47.8327166347537 14.2964945288329 1.58128037727386 0
135.405601115333 19.1025952263494 12.8446311475643 0
-56.557630905336 7.71172631671059 -9.27732125263636 0
208.486578734028 -15.0767036784185 -23.8071536618961 0
152.617212189819 11.2125377808033 -9.92574467910986 0
1.44133512011797 -2.83045018041807 20.7401037109529 0
-52.735326769602 -5.00377950040096 14.7871339949957 0
205.313550983135 -33.0007499462604 -31.8105972190204 0
181.856757665192 19.5125561280372 -32.1493436701446 0
144.352105801728 17.7605859215302 -7.41805144476776 0
158.445255586663 -25.9341357208047 -5.34879716408223 0
164.112603965092 8.61275336709976 -11.1795908776014 0
198.255521291814 -30.0677462358802 10.4050319463905 0
172.76708492612 34.6878259919563 -12.1263890687561 0
-13.103726547374 1.22451141053677 -6.28235755847641 0
196.734928968489 -29.2579264734629 12.3382914375465 0
198.913890230501 -37.2608530035889 -25.9636083374532 0
172.115189424534 -28.2576569962294 8.67515158049306 0
-49.6846782908215 7.65842862779878 -9.28826378511046 0
190.009919839753 16.9872039472376 -32.6717281336046 0
139.719791599573 -4.22763465895999 -5.97368500934497 0
103.017461304065 3.28829518306685 24.3876121916068 0
-86.7800952378719 18.3578298230394 12.8937379847819 0
185.222643462165 36.3774436736758 -1.46745479677013 0
147.158386828918 0.890373573164565 22.7473053327057 0
-43.4265736168054 2.95720709334764 -7.9184576639982 0
160.042271301988 23.1540495743298 -10.2395932338767 0
172.176772650135 18.148935913458 -22.8694867573119 0
202.685073731954 -13.8491104973444 -12.6291197522603 0
202.573065345908 -0.922300064559192 10.9439713496206 0
201.170799481309 -13.7697315031882 -31.3262308956713 0
203.976791504087 33.7853045475229 -6.29568042756942 0
96.6063212234719 0.744352657165085 -5.2039710238255 0
173.692856312548 -15.1407344421948 -16.1516379083533 0
71.2097590767744 -10.8913179108628 7.16141703487447 0
124.102920335211 -3.89258153889813 -4.90514615732841 0
156.892695424945 -5.54356202293473 -7.80394188621714 0
179.763500053484 -1.68501896032085 -15.8056032968224 0
209.847991451444 -32.9627641344711 -26.9713496228358 0
149.134304435449 18.1190721488659 17.6748304637737 0
135.147947925886 13.1450870258778 21.7565762360202 0
-86.463926057989 -5.29888680727642 9.2915671777028 0
190.310394771917 -7.18888798605715 -14.3658479909073 0
29.6732176875836 8.70048559040098 -3.70379626904436 0
160.822747381202 4.40919528338563 -9.54973204275851 0
205.670771965964 -6.46859148008911 11.271341410653 0
192.627012886385 -11.2528963313653 -30.41733546842 0
173.15418205046 -33.4561061234662 1.42649791015686 0
54.7020622422746 -11.1082305799657 10.858718175603 0
36.6251657534366 4.28930920900329 23.402092862566 0
-23.1465689436088 4.95890661958126 22.8046121177222 0
162.469042904242 -25.139153116088 -9.88977360203396 0
168.158419246156 -3.85625250352055 20.9202102502612 0
183.211678431874 31.2613695507762 8.12923736279074 0
89.1274256730937 -13.1129295095017 13.6260638609523 0
2.89774296194769 -8.02701533040074 15.162309119809 0
60.9682764117736 7.00478249300834 23.0919569305455 0
211.940757803646 -34.7369114581746 -7.66630486029033 0
175.412155674695 29.4267785867525 -25.6998397073162 0
165.254237322784 9.07050168374925 -11.5919442057815 0
164.606009477004 -24.923753658162 -11.1037137478106 0
179.741140767732 20.8904884820537 27.4282102354952 0
-11.7341565499911 12.5828711651156 -1.62333432342761 0
-72.2189459003512 14.7507766101681 17.6474431080809 0
198.857435206168 -28.4160705566943 12.7158950690424 0
41.0821634574117 15.3992816813557 3.46028953178889 0
129.368811357003 19.2531372195931 10.7783044952801 0
-0.775833802745339 -6.43489044260754 2.71023091785478 0
152.599296503868 1.23929371996057 -8.19122980598549 0
16.1833050871443 15.804152444118 4.23577806352511 0
23.1721899939822 -3.3943435768902 21.1367268103776 0
-13.2161869761716 15.5936135394607 1.99535849918553 0
182.396186616033 32.1735183860624 4.87139348882935 0
-63.3852247099935 0.965565821251468 19.4625653216736 0
19.4352273022644 -7.10995396733842 17.9928742973119 0
198.576479187843 31.395714874334 -11.9059248569213 0
155.970217556755 19.5052648725929 17.0868290706769 0
-92.6642947592471 9.88633111469914 -11.9783811696887 1
129.189974614747 19.502754151887 1.56178984153454 0
207.466515061458 19.8623070862242 11.7655449652945 0
208.439188568391 23.4327698748015 5.45351046865105 0
207.840600087283 14.132720412336 7.98776775803703 0
188.106759173339 -27.0168252473708 16.1912785790853 0
207.080988445289 -22.1743742980537 17.1611977698336 0
167.90287660825 -5.20355615256121 -10.9907963351424 0
40.5350677259761 -7.90535156209438 3.36934664027499 0
12.5049676599409 2.96078294938033 -6.94245218787653 0
87.6277441798337 9.67916985848337 -6.14660669243066 0
177.544481387762 -4.97928688411937 21.0640954611193 0
-47.5818708542191 8.81810284872796 -9.7069209135036 0
53.8603844843997 -5.61133415086013 0.438761738496959 0
174.882646046399 -9.77268731619605 -14.7273216328423 0
189.083663556307 25.2710962239474 25.1089379011586 0
45.2689848299329 9.38639711494551 22.4189444811637 0
82.8683109427888 10.924245045231 21.8990847144045 0
96.6441139988246 18.1276492555772 8.30415973861662 0
129.652246183167 15.0535530279434 -6.67978067035134 0
48.9000202911114 -9.85605377393603 6.35088095743986 0
196.671509214331 31.9071254680355 -14.979491064071 0
169.129080447258 -32.2163263405845 -4.72016507639063 0
-69.4614930229399 19.9265926306783 0.000755536855183931 0
-90.6790310278431 13.42282910403 16.8012241536489 1
151.982112078303 0.965190065325645 22.4780913129538 0
197.583522448841 -35.4186999840808 -29.9290921034541 0
117.827532652199 1.61406188565955 -6.18368788083595 0
137.649766995515 -12.5564331289726 -2.82301090592336 0
15.9810726927475 -3.82510036750254 20.584491520862 0
191.877334244414 30.6333072148313 10.049771798297 0
6.92248621017501 5.69479864741391 -6.96668381763864 0
-66.8373064317793 18.1308830420212 -4.1910094291811 0
173.721462388632 15.2532588331258 -26.4144001334241 0
206.498768960529 8.29734705234484 -8.56005317740423 0
-21.3484588206728 18.2554011860017 7.47378566372251 0
-33.88896082692 -7.43328482100121 10.9063611864675 0
173.331340877728 -4.88735784432428 20.951421346822 0
199.72194915214 31.2719723376916 0.452835571067033 0
166.237109867477 -4.53778293592278 -9.78755550438608 0
212.572712462467 -31.9318185456783 2.64954809256059 0
171.822557740856 2.33367171738189 22.4357417664308 0
47.9254070115463 -5.46168879627561 20.8932321697875 0
178.438948940256 -27.7401432444608 13.5476435473672 0
175.710794523109 16.3778437676323 -28.287493618578 0
149.45229623911 20.4480970979158 12.2085775474794 0
18.6583604273975 -4.57579296695095 20.1226534506558 0
196.037297301606 -37.9545475234657 -20.3416560001378 0
197.465833880504 34.0036203930524 -8.41174103685719 0
204.442419654532 -1.70043766071761 -4.64222738684602 0
156.925597585223 18.2992402196589 19.6653604895682 0
76.7816629426148 15.5878022168358 1.21771548529433 0
174.469129839283 20.8874270761396 -28.4294882808345 0
31.9647250780485 -3.32591211012632 21.5582264679296 0
215.336305492832 -23.5854803601308 3.98454623605564 0
121.290112681372 18.877206849738 2.95530884081786 0
110.247319765439 -2.58266820029924 -4.6093537213629 0
184.02255315032 -22.0400264374465 -33.6327957045271 0
27.2920320569337 17.4906834859715 14.0492236373695 0
-44.7097854812666 19.2755351614208 7.8869564586526 0
206.955140530168 13.371267673678 -15.1438817918685 0
-35.5687046745811 -3.72298129779415 -0.510761545275382 0
56.9577413862457 6.88743972179269 -5.64701260412415 0
174.781888373233 -16.516239972993 -17.5176364656325 0
202.912686966837 -10.2438324876681 -22.4026645288443 0
93.6465648652011 18.0174987734938 9.76232140045357 0
183.299817820967 -12.2037164620548 -20.7913509018369 0
204.668815395261 14.4023396039849 15.7807320745733 0
-24.9598989041872 11.8142601817561 -3.58734460302863 0
97.4546674158218 -1.34074554643579 -4.55962833221346 0
176.435129574395 -2.82070324564413 -13.9715212797274 0
195.007672855959 16.8291560467238 25.9540283039213 0
206.366243651418 19.7946091103068 14.4825400491078 0
-27.6347551752587 -7.74173322078255 6.85543999980558 0
-81.5012349941867 9.15249642283191 18.8891263859918 0
27.9154892190334 7.55317826885812 22.9572702120641 0
-38.4185836133075 16.9610529074048 0.80580068897022 0
194.675031262196 31.2443871078097 6.45230215399108 0
189.385007863524 -28.5949302803738 14.7890974731047 0
-33.9381519142638 3.22495395515633 -7.67887013751147 0
80.2949365837081 -10.8783179013095 6.09506703745398 0
194.808657182377 37.6662452455968 -7.86262560464728 0
160.231977124777 10.1420830405678 -11.0476683820304 0
197.988530439061 29.1178971313006 15.1267306898804 0
144.42881939712 15.1046766044044 20.9670343857885 0
4.31811450626327 17.4952899332162 15.9870304960655 0
189.115498866557 12.6850882934704 -30.3381936176253 0
195.044937814697 1.9145531339498 -10.6932530115111 0
-15.861991877616 12.1909417511907 -2.25595976620856 0
173.73751583624 -26.4992757661416 12.3149088202146 0
66.6942314897332 -3.69951490285222 22.6649175221561 0
184.426140215553 30.6585607206908 10.6147879000568 0
205.996296365903 11.9643954057175 -16.6796766526771 0
187.771938385126 -12.2949295396545 -22.0773674308065 0
202.756952575441 -37.7921702585868 -17.7379994345599 0
194.630945055908 35.495113221158 -9.10810716291061 0
193.533782303022 29.2428530586019 13.8619107490533 0
114.94585297906 18.774252271011 6.67399795479602 0
172.868257389984 -19.2664244931401 -16.336829170741 0
51.7015358400906 -10.7002391612175 8.90819809112915 0
181.391824753307 -12.5847945750604 23.1854128258402 0
70.9426787692444 10.1329301326497 22.1171424159406 0
179.409924313553 -8.21327081418748 -16.7899306763226 0
186.787027658552 -5.38896529648178 -15.2202551374612 0
75.6545146737691 4.44311441836608 -6.04077103222494 0
153.923259757646 8.63944741482838 24.01353945708 0
207.294877666065 15.3096188805793 -16.9838550356324 0
-56.7422143928186 -0.853660181959628 -3.98552031959192 0
183.448661949037 -38.2553841399974 3.16133881639066 0
214.764100122688 -25.5560194939479 6.14683689903698 0
141.658201849333 21.1495054745676 -3.82334440400932 0
160.192383922006 -14.6921314956656 -8.45457853309327 0
130.570561134194 -17.5320363857302 8.57944008075626 0
181.992380180362 -11.167817382387 -24.4036725760199 0
-91.217588577859 7.78382693132832 -11.2996497561721 1
192.353655955185 38.1190210669342 -7.42103697871718 0
177.53918435854 -1.66401684192738 -15.0218551613006 0
54.0497346693081 5.62301954419774 23.3427351111032 0
200.127347234221 -9.28451105257716 18.4747063917158 0
-60.2816607863189 18.8940633284478 12.6765847467147 0
127.994380061185 17.9634566781476 14.856947914245 0
191.195792213237 -10.797308548011 22.9057431635069 0
124.722543394629 -14.3315656476629 1.98872391951673 0
0.907823723095755 11.0447510711377 22.1030569098891 0
178.741818467407 13.7061635581883 -28.6303453153364 0
115.616153754579 18.0630445965864 1.34445692085722 0
101.217776435633 2.31166313109271 -5.80085175261397 0
-20.088421988272 3.56373549434391 -7.51561006654571 0
213.660065246804 -33.7495553768356 -9.99327602549092 0
201.127240425607 5.48268188348598 -13.9920996947769 0
146.997428577614 20.0454776656513 12.5174781529499 0
205.80104312666 -34.3635144957458 -26.9000911742895 0
-6.78295086321638 15.2985772611868 19.3511093629361 0
198.740627964584 0.731428462232675 14.505535558441 0
161.972788681364 -15.8099657581225 -9.83287582320127 0
208.619491735832 -34.3968952693675 0.0206625877422678 0
202.397033449852 29.0231776779784 10.6754313798887 0
-10.9724067665256 17.7987803382282 15.6774836629137 0
133.034934884675 8.89985635909437 23.5520866923617 0
167.216409885558 -31.5537751949347 -9.21377113209955 0
-76.9672107686364 7.93601022608977 19.4505263069848 0
-41.8323510266072 15.0876521783886 -2.84495619577133 0
-50.4871667531484 10.4845020115115 21.0017146538046 0
146.763860339801 -20.6752448801393 -1.79947646560869 0
97.8141087839835 -6.71487598524417 -2.34634752507922 0
23.9214641014036 13.3084953341297 0.733407866511395 0
175.514944985242 -15.2330148540501 21.3936836499798 0
163.764741817199 -22.7982684446875 10.6251641225035 0
164.918580373954 26.4532562827954 4.4314852987388 0
183.226365459143 -11.6890379822155 -23.7194742671985 0
198.581865359833 31.5887717865569 1.57455938731708 0
187.428845219124 9.56250468474112 26.4677903409395 0
207.245699123449 12.2837080748153 -10.1659245363149 0
202.010778889458 7.20920616063411 -22.091568257582 0
192.251802190096 -12.161605827897 -23.5324293265847 0
189.590222421526 -8.29737017128362 22.3211161756969 0
152.039107196193 -8.9856638472068 -6.51484399994664 0
187.841832384732 29.755058649718 13.5141953942923 0
213.97543667366 -32.4958749435357 -1.5311820302337 0
202.278731169487 -31.0518254672311 7.99133347913133 0
-81.2626892285748 4.32904796761605 -9.43077532350881 0
192.206375732332 -23.3540904997151 19.2833745350907 0
190.244653174192 -10.3840164346524 -15.4978835446371 0
191.925635507395 17.9174140616503 -32.8710648694952 0
0.939756402677232 17.5054754325009 16.0766975682804 0
135.516054218092 16.2926144167583 18.7230302869165 0
178.80629105583 34.8968993583758 -14.6982805490128 0
-21.5976405186946 -1.86112683628457 20.6095148304854 0
183.023927763068 -35.3960167932292 -26.0950384921921 0
24.535747660574 -9.92054848199111 9.76629628845893 0
140.151389431277 -18.4317435211328 10.2976204536626 0
157.405088128138 -9.06452610706432 -7.93992007693285 0
-81.9495463486984 -5.85924250000517 7.87268166502583 0
159.47122692958 22.6340162925505 11.7350034223162 0
183.156885238732 7.71250739254628 -19.3492841583915 0
-89.4774676193831 19.1162472139492 -9.69455663197486 1
66.5812241684307 -3.61809700894869 -2.37448514716976 0
-91.1916817605161 18.4693239792001 12.4621924226213 1
171.479302338196 -18.5965339250104 -15.3059786060263 0
215.953294901289 -23.3730697026493 -8.81039779978741 0
179.622619403615 -33.6010153729086 7.50218202910039 0
-73.0322954200749 9.4702753241807 19.6572292496722 0
137.156221925991 -16.2609585085877 14.3235254361617 0
207.775882568694 -9.91471072240722 -11.084360612882 0
125.652436284005 -14.1584876911378 16.5332826355615 0
195.055229954838 -11.7126921352385 -24.2604629881089 0
206.931345311827 -4.81460276010093 -5.64966013051336 0
179.030821841988 -0.571383805900166 22.8821994161039 0
172.937740296432 15.3846101327132 -23.7750642622708 0
138.510988872886 18.1414041540608 -6.04290929450124 0
-54.7820660344621 18.7598120057868 12.9815397311855 0
-60.3950664080955 5.52964424963344 -8.84134516750144 0
143.029916065622 4.48502492656459 23.5353584781295 0
147.422007037247 22.4449810341393 -5.58457093571168 0
100.043081734058 9.83942807112435 -6.48986606401606 0
161.006739415702 18.0360498939957 -13.3552359494564 0
211.65150369694 -33.5407505858824 1.08279561091763 0
13.7641970186838 7.52596634100495 -5.24158064881439 0
49.2630187748868 16.2340360637902 16.6669696141146 0
176.258282918851 13.3201827991345 -27.4189603056898 0
188.134746740611 9.93214229258552 -28.6613873614334 0
-63.2127707214591 6.25038049038909 -9.25059251688544 0
-68.1784442541281 16.3955574326948 16.4407244915032 0
179.33425126774 -32.768648108829 -21.1609137983616 0
167.027251157071 -29.182092487605 0.34350315952508 0
135.995599180358 -10.5313943613928 -3.38081827098679 0
46.6777033027073 -2.11346588326156 22.6121965607617 0
170.333094226914 -27.347020229558 8.61828592948278 0
198.675405527103 35.814321606108 -28.8493425551127 0
153.079848066541 22.1883851355947 7.48012750688783 0
125.390131233894 -11.2583645143809 19.226521699764 0
184.93538428999 24.5795759446242 24.1675772522537 0
180.986745684543 -31.1004063558757 10.9467888080198 0
176.45632727484 32.7663831560935 -20.792049257889 0
190.223611896599 -20.973413600904 21.0230176506499 0
187.193256434917 -7.16131886965208 -15.179162725354 0
83.7107355675781 -6.056647929185 21.9557785825353 0
114.851493937691 8.7988795385769 23.4940462413174 0
170.715694030425 32.4538628135087 -10.9078180013846 0
67.2856428444091 5.02291023236992 23.5935637087413 0
215.579778776259 -32.4299425120792 -9.45624089989742 0
199.057214372824 -36.6646776610676 1.75660974034282 0
201.601812313143 -36.7142423854733 -26.1029817841723 0
200.033024411501 -35.4206501361921 3.32010896748008 0
117.167524412839 -10.6693075568281 19.5709565664193 0
155.220338069024 -7.02388903366748 -7.42181185805195 0
143.828873624789 10.4640715658386 -8.65985739043352 0
-33.546290765096 18.5568945814782 6.53697714349028 0
212.267095557406 -22.7258487936214 11.4375391002162 0
206.576567384278 -2.94325374286652 4.44736918922621 0
47.6525083213651 16.7045143875249 6.13253079184062 0
-0.197874451865753 -8.84286019764771 8.15876546468179 0
168.087633766045 29.2635327995107 -3.84238143267211 0
184.710101100851 38.1018624965762 -12.2141504149156 0
-76.7531843422265 13.81017827764 -11.9748956794608 0
172.221450204618 26.4837909280178 -20.6496341834707 0
161.505516030647 -17.896153911679 15.5946571571525 0
208.948561440434 16.066640667816 -6.04108378191006 0
196.110285308353 -38.0278075208743 -25.634774245696 0
187.362328311328 36.4511708254967 -1.60677521160136 0
-74.8884412385834 3.69364719186761 -8.769614556834 0
180.487004575065 27.1137654877767 18.717298269208 0
195.082571788298 -36.2546842590076 -26.9654419812165 0
-74.305652196234 6.18192887377316 -9.69701782477789 0
3.64453636827897 3.1251602472112 23.0859414326413 0
-32.0005329699312 1.67785074077049 21.8782875199348 0
197.800067922621 -37.9112418224896 -25.0405365577433 0
76.9014643233677 -11.0664263272236 16.7369587407595 0
132.707997025733 -1.71979651207654 -6.07180807149757 0
39.3192183574835 12.4807147841799 -0.457957031461252 0
133.527495636104 19.9200965224769 0.587751616344955 0
193.097899866769 -29.678393002933 12.5777186909479 0
154.479889630332 2.17732602721949 -8.40653825332371 0
149.771201124343 8.7108776659755 23.843476378001 0
208.289173891829 -35.1914430598846 -24.5974463680547 0
154.809042034624 -3.55150015230355 21.4782552429996 0
4.80197341352719 -7.30589470762188 3.88940214956046 0
154.446354938988 19.7305370626473 -9.83971299996903 0
208.86239495241 -30.334242504823 -29.5784645144162 0
178.177408005538 2.12987856365324 -15.6899154001328 0
133.479653005351 -7.14965067388388 -4.36384473833224 0
153.617876025151 -20.1457925223663 10.6206094950085 0
117.453035661029 17.826908103809 -0.0482265502331478 0
148.822126813865 19.6372295735686 14.2774895288526 0
65.6400368307678 -9.70349303464821 5.25088745770236 0
-60.2489293628256 18.4689593484733 -1.54009606519965 0
165.613061408874 -19.3108934214279 15.6941955020314 0
-88.1221374337793 12.5742132378194 -12.5504211363937 1
-53.8171914672721 10.4108951878451 -10.0107636585476 0
-44.6245590313848 8.79482543524206 -9.61629599205104 0
186.732884007372 37.3408424780636 -3.17547434138017 0
202.769034171912 34.3457499595003 -12.4360028987738 0
204.332395349402 -22.7068906701174 18.6158270903589 0
192.000381714552 -37.2557924905452 3.13881886594936 0
182.316923579205 30.9768286136278 -31.3612792680654 0
118.197822503306 -13.8080854505047 3.45567377391537 0
144.036634534355 20.5851178356316 9.37380062787783 0
14.0097000822779 11.873044191278 21.5066608290915 0
-81.9849669284714 20.5579902340104 7.71972184696053 0
-83.2096583340808 4.82059228975687 -9.85708916785595 0
-45.6772708690232 17.358172062856 0.0405695858881117 0
142.308298884246 6.92326071577116 23.7300633904038 0
137.365238363819 -4.18879884962037 -5.76889820369296 0
54.7032433602626 3.07426522527588 -5.96439727001546 0
115.516954057366 8.43323424310797 -6.83676656323921 0
108.276023730167 18.4879422947938 7.04955268870402 0
49.1973702541956 -6.72547842922901 19.9559938140894 0
208.947456782041 19.7278628525388 1.85028421890597 0
196.172025323393 -12.8635664794299 -32.3762467500784 0
87.7824518460417 1.79949678082426 24.1429301757326 0
-3.69082219664304 -8.85483996532615 8.75222456251901 0
183.471286104645 -13.0137449246655 23.996387185439 0
147.03451109186 17.6651394636142 18.0533699529969 0
210.311431289516 26.1211103559557 -15.0322815152279 0
-57.7442474980707 18.8349721165158 0.26039638119529 0
55.6451476298468 4.20512910125045 23.5695932989387 0
-30.2592761450706 18.8486415737988 8.54231216250395 0
-53.9979953608261 16.4250685777502 17.0059812240068 0
181.818860331587 -23.9831559994215 19.2102847494462 0
202.682676201824 20.4072480266962 -28.1743988546524 0
-68.3793092463888 7.38261908591187 20.3559627532812 0
79.4767305051037 -8.94867504356084 2.97354439597899 0
-75.3463492674643 11.8529115004157 -11.9080181191313 0
130.516933100927 19.4395936613912 -2.69633630257667 0
-47.7018924769867 15.3695129257948 -3.71008685218797 0
201.368329733507 35.7353045406829 -26.8477066556213 0
127.366598710442 -14.0884062248525 0.513523176247864 0
155.359258661517 6.16204792074101 23.6462787322249 0
194.289903611209 -20.929829635475 23.4529888850278 0
-16.9770941621564 9.50515698847039 22.4689282878578 0
198.75100742719 -35.373996229037 -30.964763358507 0
-73.1044777406264 19.4989174498471 10.8836139530314 0
79.7796344674751 13.0541331453944 20.2214107668682 0
9.21249484267823 11.0910520900152 -1.89889589024105 0
78.1614961324159 6.33223167747519 23.5522991504472 0
115.147916435055 -14.837159926262 6.50262956773452 0
190.610554288147 24.0836096904984 27.7569094271288 0
176.679903734889 -25.4146620407168 15.3427968044892 0
194.568961919455 37.0335867947755 -24.5958169736301 0
214.463761293568 -16.7306765292005 -1.80393399012139 0
205.952928151864 -0.212991127898142 0.84480131114463 0
172.621706691412 -10.443778113609 -13.9336593766549 0
165.958872607222 25.6743015090991 9.50540850797916 0
-10.1155227639112 3.30516681490029 22.856438243204 0
-73.2377985955269 3.76875771250359 19.5522894358235 0
-16.7709264048056 15.7716501252258 1.86588672516229 0
-30.6039753096448 11.1792772292455 21.4907807797861 0
-49.0732140369652 -6.86436065045735 10.470946480631 0
199.489512765351 -35.4064406537275 -29.6893008058464 0
177.31949027693 25.3116675588502 20.9818228432878 0
-50.4904376486078 -5.65769663378195 13.920221281919 0
149.953569124001 22.3601574539297 1.55011989862412 0
128.700346211078 16.5962549303241 -5.3996350896805 0
-27.7579401884942 -6.01859926878106 2.85377842828883 0
177.879968391536 -32.3840408613098 7.64991970678713 0
204.763930883669 9.61767914353247 -17.7901799632016 0
142.742414099245 21.2332087476469 -2.3129396121742 0
-53.9392236155934 16.5950357097267 -3.5302269496965 0
-39.3040365971655 16.891633248613 16.9539321690558 0
194.715791749741 27.3432660733082 21.9794643648052 0
214.418064718629 -19.7055547641777 -12.5100679996026 0
-81.898910938837 20.9803410392437 4.6184418273018 0
-7.16146173948257 -4.3609825614294 0.173357522317282 0
46.5905188323134 15.6637158744334 3.82514751482913 0
66.0928969515957 2.04132527819762 23.8132765589894 0
210.773607368521 -8.90725614918266 3.76822924818391 0
-18.9885262078498 18.766453810772 12.8433265343952 0
183.902579225495 36.4242644173178 -14.3223881396928 0
142.576290681334 1.64722202596651 -7.54687458386172 0
-71.8809368684315 19.5556511902965 -2.2050007599649 0
-48.8698387498832 19.3566261104746 6.24277190870086 0
154.637775642931 23.4273980758743 -6.86561780875425 0
-87.0721434694482 19.6102720126854 -8.33577788992766 0
207.316308857211 9.4991052711241 0.663209610913848 0
116.287500647806 5.42619925286908 24.1977452460083 0
179.450813429938 4.4470845281963 25.0778094249935 0
119.464477433193 15.1865283391258 19.060200119455 0
174.300494341372 29.3836726183539 -21.0752420687588 0
178.885271167442 27.0553722626706 -31.4802532041789 0
-29.4232028956989 -7.29247867294891 12.6523121982677 0
177.485292855088 24.6105213101792 22.5410403916761 0
187.810503500927 -17.4715551036514 -34.7595872136713 0
149.727671711041 22.1642620419189 -6.64429392270888 0
168.473134537453 -17.0857669976987 -13.3700015693041 0
207.138920716732 17.015693170037 12.0128575065621 0
151.928090751866 -16.9993822027779 14.6773730722521 0
-83.6584044233988 21.1968828908149 1.82005165745042 0
56.1960525871851 4.95695006436127 -6.18951742862943 0
148.185310881262 22.2516667854804 -1.8445264911677 0
209.649422374078 -8.04387348947463 -3.46251805121326 0
175.636411911354 -16.5737870355131 -20.8266305953278 0
79.9177898143781 10.5561202421276 22.0588682798168 0
168.453540027003 24.286005373273 -16.3613327671438 0
-65.7854234645579 19.0200497542916 -1.90700450272048 0
85.704567496031 5.37464242565379 23.8517648300272 0
205.996403843937 -36.9598732064746 -6.05512889775614 0
141.480109729614 16.2366065285299 19.3700243237111 0
210.598017574124 25.8604453908096 -12.3986038424163 0
213.872520993033 -33.8379266497006 -7.58618236365156 0
102.38561373601 13.9952103468594 -3.584791899944 0
211.259159032732 -22.3397190841687 -25.3512811358412 0
170.739636738625 18.0835065940093 -20.0346057064112 0
146.325599207765 -20.3423453479272 7.63390687225366 0
-91.4666570387797 17.2047488162288 -11.6322260776299 1
205.716048480092 8.38944192279541 -12.3633192682415 0
64.8259073618485 9.52340265094256 -3.84660207712186 0
168.702885297903 25.2986838585508 13.8706106580031 0
26.410013345078 -4.05513458632123 20.8932644608439 0
50.3808244310497 0.121634036574864 -5.10043684189962 0
204.824915815334 -16.2672802122438 -30.8042488905298 0
