36.1832543664956 -10.9674258536176 10.2926705327289 0
155.181271851555 -23.4796345772371 -0.0551767550299335 0
-12.0385690520791 -2.61906413656091 22.6585963569014 0
168.299795069577 -34.1101251789812 -10.6689858371307 0
141.991612913074 15.9824639892086 12.5098018682669 0
-13.6297371183993 -10.3444973055391 19.0731909899157 0
160.50683040794 -11.4484963216896 -12.9184878220038 0
89.9564760467716 1.08668413705687 -0.550336400229808 0
183.068141948988 19.7654038327407 15.785519936726 0
118.247792573892 13.7098095644822 0.365525631210214 0
68.9951074678071 3.42451136178914 0.423598224681453 0
-2.69368438209506 8.98695507706259 19.0249155561778 0
158.899982864797 -6.06966382190705 -10.9914098654561 0
79.2487162202148 -11.2827745162662 17.0238144555779 0
177.590107055019 34.9545171956954 -5.92494386302566 0
168.480471240005 23.0617290600347 13.3606029013966 0
182.109850849052 -23.5203778776125 -28.9290739269472 0
167.234905029818 11.9907566156588 -24.0660464441703 0
169.249114062944 34.8655512507369 -20.5937211346298 0
-16.9661722797538 6.19252912552056 5.04577009079215 0
0.446948471077413 -0.801839076770315 23.0507773358877 0
152.261142734838 -1.28381746100939 -7.94532436691529 0
177.297090645488 -3.83128340807418 23.7492538656256 0
160.720264376711 -18.8286738893145 20.8301855420902 0
5.39284888412446 2.38116899418612 22.921812890231 0
175.625943575102 9.6041738020371 -30.3813571218596 0
187.597897494454 -32.5437971524887 -24.6200866164 0
71.5276148777214 7.16895942896445 1.87328883889616 0
113.593882132627 15.7970751776413 11.5280617957929 0
165.550356774598 -18.5574415353302 24.0071199395549 0
167.091521585063 35.4677075348626 -12.9946335495382 0
162.438272850275 6.26753379552061 -12.9622222115969 0
183.91120608439 -32.5125270014348 -3.32759475475048 0
182.091081930213 -10.6673985400944 -17.0699643167079 0
182.085463084473 -12.655328149071 -22.8119212928197 0
117.840541879803 -15.2140664370824 -0.0237594537293061 0
195.453894751749 -15.3850249902482 6.64025330096181 0
156.57056532667 -12.3916076332434 -10.5613071474263 0
-40.2043040450583 -10.7857918740789 18.6830382223125 1
178.936825640433 23.5058742672534 12.7751265272098 0
166.545436616792 22.507688828815 13.1781361942793 0
169.375678728857 3.22259895995522 -15.4983156035575 0
168.226740634022 15.2799310040698 -28.6786029972326 0
119.307106141806 11.5199592859362 16.3040631487209 0
163.543169861718 9.45649779054491 17.9948225887606 0
72.4635031536517 -11.9911013413192 14.3816632299512 0
12.8170085108421 -9.14094626163781 19.9484950491098 0
110.303074711576 -6.57131750908921 22.341027865132 0
167.131987121954 21.0142735189682 14.8223442482674 0
197.776975995133 22.5020412832293 2.51521071907248 0
166.921737472028 20.9873715482879 -28.5859470296039 0
190.880947522475 -32.3952796119345 -10.0557647940595 0
73.8563528915027 3.62208771341174 0.42102903544377 0
152.679008158987 -17.4497639770458 16.7957975506213 0
186.669845314574 7.17548763160441 15.0488093087449 0
154.554111427681 -0.716508331319045 20.7907182839496 0
-5.5430833811165 -11.6800233732781 16.5662915731198 0
-12.521721846391 9.63916361396416 14.4365910452203 0
179.474733058794 9.36188835858354 -30.0363167425033 0
186.070823653248 -34.7155142960187 -23.3534444394374 0
194.233547900948 -25.1149425950488 -18.3692072008587 0
182.655984829309 10.5902263445262 18.9712123518579 0
193.416879665757 29.0681192831944 -26.2541812432885 0
175.132720754407 9.08097812619455 19.914833755604 0
-19.2230128191821 -1.127816545035 22.4027250025549 0
32.4678172062747 -9.09618569231529 19.3881354924608 0
155.959180519403 11.4198776344023 17.1125108079852 0
68.1992562013207 -5.83210893926687 -0.607657621145455 0
190.217275245988 -29.7087366861156 -2.20628371613894 0
70.587033733255 -5.27505818788698 23.1600387469476 0
156.250656426543 -5.36759260285134 22.169035852259 0
185.124452550187 29.2135627601166 -31.3246547090821 0
103.687394231808 6.84793512673977 -0.622248808989782 0
23.4478365066945 -11.2179223814961 14.0185161094045 0
-32.4756416153043 -13.7877334125013 13.6411360217518 0
138.049631707425 9.4919326594715 -5.41056487434026 0
37.2470389295131 -7.22029525592989 21.5793289631446 0
115.014314546519 3.5057808918912 21.801226803234 0
171.545752387131 34.214712349469 -3.25718317520836 0
27.100232089748 2.25805715512237 -0.315068471138104 0
56.1487429663447 3.54619832721078 0.717593498731477 0
162.515625510416 -29.4361557777962 -11.8996952548976 0
37.8127591419864 -8.55167523875387 20.1526954900947 0
189.020277879338 19.1401140399863 -35.2948904264663 0
32.5508873333269 2.27647317613498 23.6417303718126 0
91.3595294642716 -6.59246594518911 -2.09065058476919 0
191.44212544238 -32.0197124273475 -8.91092030339977 0
63.918555859654 -11.4620208001144 7.27720648837865 0
-28.9678460828637 -13.5045740424059 14.6328814459027 0
-8.56423770457107 8.1093109182769 8.24872805460357 0
134.266772849336 4.33471149406519 -4.02540230695653 0
177.142573827419 -15.3434750682416 -26.7452623388914 0
-21.6526403969651 -1.05250511947797 -1.90570949547941 0
172.051273685016 -13.41548053225 28.7259135608515 0
192.038899162182 -17.1280138012977 -18.4897090248554 0
192.130315400439 -21.6662080956265 14.293215480144 0
164.734993201052 -30.1308989750746 -13.7174609654861 0
190.322892606872 10.2498587024136 -29.9697087768109 0
161.755975633597 -25.0499839929229 7.83435328810592 0
98.5944240037863 -9.33735764185957 20.3640205121631 0
169.27255317026 -29.7506874914306 4.30072245762138 0
162.966032052823 32.5132265373432 -12.7510499619234 0
140.670664733083 -17.6238013736374 -2.48497392400602 0
124.096870421918 6.26816513354199 -2.75485873164255 0
161.842505276354 30.4834695951899 -5.57449557187875 0
101.719247455474 -11.9125209417404 -0.374108028091122 0
-37.7492507512972 -9.92224627971741 4.52417703795356 0
-39.2520280340689 8.52948796852999 14.0334044486693 1
41.1158830743551 -2.78154906263575 23.8748116664672 0
129.074498852251 -17.1335763287351 1.80240585694155 0
177.676558086114 -12.1438679860416 -20.179157990382 0
-20.6300389671898 -9.27450461921202 19.952874137455 0
159.689485873515 -22.4170605668133 -13.2150334551775 0
-8.41912765068673 1.24760855590673 -1.43933221172201 0
120.085365258076 -16.0479172630802 1.87196264120817 0
150.825286170114 20.0715134215943 -7.19417539292547 0
45.7001209305643 -2.16763209867762 24.0525494575582 0
180.440932017262 2.52159647925974 18.3650310170993 0
-11.5458834168178 5.61915560317321 3.86513317583014 0
192.836018680398 30.7775681962765 -23.4905197741471 0
191.875336580178 -24.8403278220816 5.06185469613325 0
194.042664061587 -14.5875830472638 11.6884794349043 0
180.46728497825 -27.1116059954654 9.40748753402928 0
184.254440042065 31.9206342557278 -2.67101814699351 0
-27.947866714961 4.27076074196648 2.8998447582295 0
182.810696189346 9.0350556631009 -29.2684862868707 0
88.968170246749 -7.49736418719212 -2.02577145565712 0
175.55875019055 -12.8313146283073 -22.9606640166291 0
184.776057988948 1.65160867052309 -8.80335097795708 0
183.769979295834 -3.42047791556711 18.9832764441439 0
191.324084499324 -31.6851634306324 -22.0966203953265 0
194.712392653831 -22.0253485714807 5.31751693390503 0
137.826201790126 6.6731920667452 -4.97359636873683 0
175.308868158995 9.77339592222195 -28.2777128623799 0
148.087886284004 -13.3883283030045 20.3782078144908 0
196.617195984306 27.8153723517109 -25.9536396810689 0
139.607046084557 -16.7140017719368 10.7663989443842 0
7.71832745444311 10.1774221682628 17.7855235245677 0
-14.6479459072137 9.58381700554003 15.8172418697906 0
192.931508396959 -8.27319305971482 0.979989623880768 0
195.726190205355 10.5154579313528 4.65463653229932 0
190.825302557575 -9.5850837837966 -11.6558623949116 0
160.973553442623 -27.7561710666388 -11.1785501027489 0
60.2886540402279 -8.98379252581078 20.0826653724122 0
124.104968573551 11.3044501814959 -2.21368785221181 0
1.59454813989218 3.07250543745865 22.6974116356414 0
175.308516307667 6.88454758252005 20.0003850389233 0
190.187838563278 -16.0548001811192 -20.966564260382 0
181.590176675281 10.9809695329108 -33.6926864714171 0
192.055754959489 1.43773419278016 0.257745542083663 0
85.2913981179727 13.3392724427849 15.3157699603639 0
194.285850192478 30.2099872624538 -22.6561507878405 0
47.6967386989738 -3.39779101741077 23.8373237238628 0
188.686993249987 -19.7523439641071 -24.6593121610745 0
117.466735383019 -15.0331783883464 7.51052491809007 0
111.568019705354 -14.4851717634058 2.96654158618368 0
189.774923172919 -22.7185302132348 -24.5269303155053 0
30.2702183505249 -10.0185267891038 17.8757760951313 0
-1.36135577429067 6.67691252015765 5.15663675142703 0
147.242434157483 -16.2568869573539 15.8522765705342 0
189.366312616281 -8.24307547496388 -10.0315846494839 0
17.1303862398763 6.91814124403285 4.92886835243289 0
187.058264187942 -5.89436759477924 17.8275336440489 0
105.096958644018 -10.0729261948805 19.7531944674042 0
180.830064398695 33.3878440128025 -23.2097987697075 0
55.4200442720691 -1.21790172678943 -0.249007760192561 0
175.931092473727 30.2037601604221 -31.1550231707644 0
-27.4784452902971 1.42158663019244 -1.25369314125159 0
87.1280450061167 -0.555934700669225 23.8069859640239 0
69.2821362485804 -0.823096103359937 -0.295190493462332 0
148.94900371315 -9.49702703811367 22.6741004524237 0
110.006171803918 -12.1962259496621 -1.95693918100179 0
126.026197466818 5.15104847723406 -2.95449630298481 0
165.605904087865 -16.2945605239735 26.0318633788084 0
178.937830356941 14.0276557621909 -35.1994043039287 0
144.245707085323 -6.79561205456403 -6.31210444874794 0
116.253740492013 3.58799814046934 -1.90642625135415 0
135.083315421138 13.0123154027219 -4.14169488715004 0
91.2151819938233 -8.75849480708436 -1.67945992591569 0
192.676418079867 -20.3655068369424 -19.3818983658072 0
-6.44511803387997 6.99629734229678 5.7673384645561 0
25.5923572162966 1.40471497733173 -0.891552390651132 0
161.412304056799 -16.1737039360041 24.4233295808672 0
154.3460301088 -9.55794779815853 23.1681252070716 0
-24.7507547274679 3.9136016564093 2.27288929331225 0
189.318949389095 31.2549606537093 -6.32633120416935 0
197.752763722646 9.31869641560656 -15.635644867366 0
162.936223703696 -26.7432908742938 -17.2301245991023 0
192.407971504857 20.7202309604559 -33.512680629907 0
179.947367254702 22.6099583257263 -36.9640514980206 0
191.765869478264 -31.9718431490406 -11.3998943994134 0
177.984617922316 16.2380799296916 18.8030434176779 0
1.40804409697106 -9.24280046913395 20.0572517992047 0
-12.0740726005355 0.888290162525153 -1.58233278396312 0
188.730202643517 -34.2906553029426 -16.7403762663629 0
100.530765344741 -11.9768837780521 16.7114094336521 0
191.210057343021 27.1568543077846 -32.7956860011615 0
173.850175321655 -26.8116801304223 9.18492660973881 0
167.381997442301 28.8448313330236 5.0478325539645 0
94.6616773688987 0.661911989738996 -0.80286615810049 0
195.824470187564 24.2638562341671 -30.3729719335679 0
116.145395248362 -3.81344494924352 23.1050429435151 0
140.216843427578 -15.0397744507537 15.6847689655404 0
56.1383223775398 -11.474046678942 9.07034341186655 0
165.653587447235 21.9586466798093 -25.6847960487022 0
8.53437889976082 -5.26846602225898 2.41982666257285 0
-8.8259659287579 6.94092397829078 20.6486519732201 0
138.168569422256 -14.8955700694722 -4.39862825576257 0
167.043682146995 7.28754136765749 18.6151287848599 0
155.586057515302 18.1466304935774 13.0744277099854 0
4.08087736134231 -10.8435551116679 17.8782759424784 0
25.9879727490458 -1.61560455824625 -1.03318989831058 0
38.4379913844971 4.41048463838882 23.1257865822507 0
180.310462061646 30.2743752974127 3.79532935481452 0
35.2326457901145 -0.878991292745 -0.907235033910264 0
180.011357288299 -34.4835603498655 -8.39255483917755 0
155.963924031596 -4.21740444392696 -9.69320083014104 0
167.481577895633 -14.2050534313357 27.6055867086393 0
86.7095316109002 11.813909098853 17.1692136860977 0
114.725776492712 -12.1312593023384 -2.53646246683769 0
199.792684390546 27.7303660236982 -17.718776908153 0
197.267917924919 28.3757561338572 -9.42439794994034 0
199.085584815468 27.7509473541824 -10.5420328602741 0
150.867387599082 -13.6604487587617 21.1382238569742 0
85.3505835818407 -11.7708346687744 16.2080856801467 0
184.011684460361 24.3872817022234 10.4856712742579 0
199.266323261002 26.8984600345801 -5.82552615700439 0
-17.830865759118 1.62466818715065 22.2324071906331 0
-33.026527167128 1.43451263507792 21.759015242367 0
191.472446600746 25.2303963811692 6.59323456865155 0
16.6984218787183 -11.2925377777265 15.9614202638799 0
2.87776345197911 10.1834909781607 13.6352781363084 0
187.303161256961 -31.1923425229291 -4.14908185504711 0
17.357720996039 -2.17860359895255 23.5243434611089 0
43.822538031526 7.27337828306206 4.13220026453248 0
161.626405493974 -22.7617966242528 14.0827462071088 0
92.0043101387542 -12.9755481472908 4.77151646814577 0
188.706797264305 -19.5769452219623 20.5278271370202 0
191.485896887464 31.0457430327858 -25.1833031231913 0
191.859202658335 -31.6414629434003 -7.70742051416019 0
-41.0757893064361 1.68686921327271 21.330497559262 1
23.5757592643668 -10.3679406988038 8.5993158282482 0
177.690774579357 31.1247443822031 -29.8210667552579 0
130.614506273262 16.3864947538575 -0.380458728433686 0
91.0324005503629 6.90469821201627 0.551394035477521 0
106.027621866027 16.110297430827 10.2558222021308 0
190.475373336055 -28.2492266156799 -0.254607266396664 0
152.492742602702 10.0155193578456 -11.1293803287615 0
175.791533782521 31.038638599737 -29.9086236862825 0
190.824358604663 10.381252547026 13.7793364733802 0
31.2255574806282 -3.06770415098906 23.6988416379712 0
188.633761023111 9.65951807575686 -30.404338489624 0
52.1968712745663 0.396655926478017 -0.102976987476266 0
3.96168898784258 -9.43205897506661 19.8649540480381 0
105.846874152034 12.5861960853812 15.7526763833207 0
178.020016172556 -6.0793116798356 25.0859566415145 0
195.131218902212 -20.3745355314459 -13.8321112036204 0
64.2138161279679 11.3103578422911 6.21766160661721 0
155.59676529064 8.92875679695823 17.812596472523 0
44.1224783597489 8.72313246380675 5.5784331622546 0
193.643848163351 11.4543331332823 -28.3051200957196 0
-35.7704325643373 8.53669811729856 13.1353367055105 0
170.64239365371 36.5532028859853 -17.4563927302899 0
195.309850045337 -15.2582324200057 -2.08243445285043 0
80.639306412043 2.13662799292167 -0.0572359511202162 0
102.716377451351 -12.8416092422069 14.7099942378219 0
39.9990547729056 3.15424559162266 23.5146089938745 0
157.495684676917 -6.0429395802723 22.4755471797617 0
37.3468713084071 11.4755919744399 17.4717455389164 0
77.426534436686 14.420538114542 9.3505862492561 0
-24.9168611464687 8.9379816623092 16.5808597468774 0
0.602749257487913 -2.53440611222009 23.0360691732499 0
184.560754130687 34.3239567999112 -11.0826613290039 0
152.978530191073 -15.2011983997187 20.5270639061932 0
175.511367994824 -1.31754322383375 -12.5739588893798 0
-30.777836132225 1.62172976795122 21.8416886232023 0
26.2040178055256 -5.55589649949252 22.6203817027981 0
94.1983177814012 -2.34485247009749 23.598811302235 0
163.918756018076 31.6593256420771 -3.86961137082699 0
88.6558725121262 -9.46882808757988 -0.582505248387054 0
187.463369963108 30.0375293845698 -0.262971968518593 0
167.249279154557 4.5010607397118 19.3349823463878 0
161.038657731488 -26.3361552025183 3.61251141183932 0
144.340771963315 -1.47388487308408 -5.84407456553173 0
133.786033919058 3.61821261157241 20.4881632966743 0
-25.2541526153888 -2.54198302235972 22.3093925475233 0
3.92971962898755 3.17712954987759 1.00734378595298 0
-29.5430001488197 -5.68682868311984 21.6685299109798 0
103.197899883016 -13.6291983961728 3.09458110528613 0
163.970307037988 -6.09374890221581 -14.6200144893416 0
118.205233303011 -12.4361693506774 17.26539490575 0
148.549185061754 -15.8030704100551 17.4060522022091 0
20.6197110451537 6.02130670000265 22.0952056441274 0
183.970965263833 30.6900572536857 -30.4312457438256 0
-14.796067596788 0.714049055955311 22.5296311694545 0
173.087388118444 -24.3625849079025 15.7021491812158 0
176.949169393584 33.1930393829217 -0.944258447655396 0
-30.2816364561991 -11.9030002280849 17.7201708069368 0
174.207224404301 34.0161154888141 -2.18970341341635 0
179.549544596793 10.0417345788176 -32.6338901315964 0
84.579290259987 -2.20532415477033 23.795215091856 0
178.743068772705 -21.3760173316084 20.9338654227843 0
171.530576543197 -30.0821734461741 -25.5713224724399 0
193.19680812641 29.6692821788445 -9.86534023509956 0
-38.7435936195993 2.36480202222554 21.2751895676187 0
132.267890645416 9.7572126432967 17.2890273063399 0
158.712015530583 -8.35248685210232 23.396925054946 0
185.269033999356 -0.0868501165335308 14.6749561452471 0
-22.6916192516497 4.78151879615118 21.2424805659225 0
40.3621739172559 -2.23818268194908 -0.706754113415449 0
51.8718168847328 -1.6706789276781 24.1968616139878 0
90.0141747366025 -11.2420217420421 1.03963934905833 0
169.907693040262 -35.3449783517318 -11.7605371427511 0
163.601586778389 -27.9166119811171 3.84294723302361 0
176.042588314935 -27.1868342947255 -28.5805310945781 0
178.751208412214 -20.4488622814929 22.7934421334547 0
-26.3194552018359 -9.51535484350168 19.8054408665812 0
176.715208802595 16.3920973697894 -35.2922993096708 0
161.149363820655 -1.26135763616186 21.3074333542977 0
192.417477770979 8.12648092276664 -21.2582716675906 0
133.201063818946 16.4645128301622 -1.25092378938139 0
172.928326403674 -27.5031998379852 8.97321469740175 0
156.046451267906 -22.0999890840213 8.03046448359538 0
-12.5556798983232 -12.7445936983807 13.3296747073533 0
78.6008889543136 10.7570553645086 18.5085288908531 0
-16.612694770575 8.77650405854832 11.3183549543696 0
135.071908457073 -3.32823507741083 22.5087237808843 0
153.517161158596 10.9514503857342 17.02903918506 0
94.765607727075 15.4700949865122 7.27192470378921 0
200.629129866842 20.2796327758151 -22.3871511085766 0
86.8625930594025 7.88882789538806 1.22317346583499 0
188.206329968467 32.1618255624656 -12.6133760059651 0
1.68135705547717 9.38202673802013 10.6208956651889 0
194.815584827325 -28.0336246190433 -2.97706292229044 0
191.595333292859 -29.3456255978047 -2.41449949158435 0
168.063198464199 -29.6966305882228 -22.9901338431492 0
172.74664961745 35.0247361483698 -5.66443065374777 0
177.67095398898 18.1729678325605 -35.9459437056507 0
78.2902009399766 -11.9410329992969 5.16938322175568 0
43.4690101951492 -5.82700578426854 22.6907064020121 0
171.165445161064 9.72465832125794 -25.7865952656457 0
64.8656909939321 -5.36381235275877 23.1511848091196 0
57.3111329023122 -2.08547225421061 24.1983225770732 0
163.780995722412 16.0787933898574 16.7347904734327 0
174.638672089513 32.9743573299151 -25.7595701474322 0
-6.16448777473971 -1.8692009225882 -1.3360144998769 0
94.0805089351154 -8.3647025569408 -2.19469037147166 0
59.6523776853252 13.5042918715551 12.7193451977057 0
142.242885922174 8.28789564011204 -6.20577234453226 0
-10.2577292089524 1.16836368089957 -1.40456827261772 0
168.209261802844 35.3630929985393 -10.4636590813023 0
187.839247227127 -12.0707567644162 -17.570792224331 0
170.157629578326 28.6161293312246 -29.9187493668098 0
172.252464119529 -36.0570387623307 -5.93885144383802 0
125.071793551211 2.3702995011855 -2.76300645898351 0
6.92946244804019 -11.3297304371287 11.1044120271824 0
151.994014836357 22.8507786925396 -4.46391397057674 0
189.919410944966 27.2639485405489 -33.2956363592791 0
187.819373222584 -29.4561548629179 -1.30300142350708 0
199.311675836191 28.086890916771 -11.8446359780794 0
95.9767295563292 11.8519159899431 1.92958753527772 0
190.211221973345 27.8557038878018 -31.8452964854023 0
200.36253790676 12.2572063936668 -16.5339075788142 0
179.511885331329 -1.56106249780593 20.7588854198337 0
143.687879039583 -10.3063053890141 -6.76963315753565 0
180.7068211431 29.7842147367468 -31.5699851838113 0
86.6490605228769 3.11405227281268 23.1931220361957 0
12.3518815604294 1.50651126262714 -1.36546928866908 0
190.779997478896 4.35436505336776 -12.3821902956754 0
-5.87450295709094 8.12062923116539 7.99016643264109 0
189.87375107092 17.9469665844295 15.2760827045576 0
166.932133539963 12.5441806780197 -25.4845759410363 0
-4.31794350344576 5.92977420185521 4.09026704031258 0
169.99524681068 16.3593450031879 -31.1043033566702 0
143.697678969521 -4.13709175309341 22.2694943841523 0
170.808732829302 -14.6097464093195 -25.472483356599 0
50.8577238239218 8.26630555279431 4.60683092319271 0
174.484535780542 31.3447514306541 2.98520090879214 0
17.9259538389136 -6.47431421341311 21.9659209621386 0
58.5897364856407 8.73687693333645 20.6932032961635 0
139.902019756024 19.9256758116773 2.27217079757052 0
189.251037887944 -28.3185144251816 -25.6523063721566 0
193.412662789913 -25.1990017285455 -20.0735290628414 0
157.296278186092 18.0589200127101 -13.5489593941083 0
165.130205090034 3.36047548326166 -15.3351223417611 0
58.1805524611095 13.0956113794716 10.4822479114124 0
183.688580731298 -32.9893378979845 -14.8584181748513 0
189.140579512662 10.0378437580755 15.0092488395959 0
115.105803630576 11.3778813609252 -0.671297500222008 0
167.844171214408 -10.0923332158943 -20.7451616982007 0
46.82217677751 -4.17543593268245 -0.0891513194135065 0
141.093662191257 9.74143988330184 17.273197925537 0
4.60114211602424 -8.51626459114703 5.59943947458612 0
192.361721956206 -9.09877043694519 -2.86467144725696 0
-43.20704518366 4.19174735390501 3.29884462795462 1
172.378812576432 31.4974939975698 2.63829573820985 0
199.962696819804 13.8030124604441 -1.02198226589108 0
0.854473454074784 -10.6331635757806 18.3898453195321 0
6.14536761645493 -0.375303134982084 23.2141599054077 0
169.426079133536 -34.3719595832688 -13.6957180262776 0
-17.7825076380952 -12.4303938757051 16.3401410179245 0
169.264410762866 -8.6838260766977 26.6025105082022 0
176.715511203347 33.3317065625388 -25.2178573202354 0
-15.7819920536759 4.95163609259429 3.16066063388903 0
191.694625128698 -32.5722690258439 -14.3383915520502 0
37.3817906674788 2.02720600553798 -0.1460591548747 0
40.1721197325388 -11.1212348316386 10.7687317419074 0
146.67321491967 -6.71156668200533 -6.82399641408125 0
51.0828977926766 -3.57700015701528 -0.431074330155313 0
53.3564593913459 -1.10938945743164 -0.233340098589515 0
55.2469859958107 7.47624681119916 21.6561492788747 0
151.151975702445 18.4946652059456 11.3264722885232 0
160.148703494065 28.5333068869535 -8.71591728017474 0
98.4668693615667 -9.81221632068493 -1.951190620942 0
193.109469227951 30.5254934375843 -13.4548457630079 0
-7.40956880658316 -8.40449901388823 20.7063142707801 0
57.1125312429103 -0.0721752165055685 24.2557391752713 0
190.490771634952 -7.72066611127134 13.600932071969 0
101.255848445748 4.1692565000068 -0.802561572409078 0
125.843394483673 -8.43864979763379 21.5833586508532 0
175.721635324586 10.8841852458806 -32.4408914252993 0
180.83306555714 23.1713586370886 12.7392282293573 0
195.686496743754 -20.7277523969566 -11.7288922951091 0
183.886009094081 2.37301794437215 15.9113918138022 0
154.548111995802 -22.072763747541 -7.20067561237762 0
151.023296777196 -4.98993399643807 22.0733929310672 0
84.4061615059369 7.40316526109906 1.19898427638052 0
173.416938248242 9.80131820616935 18.8885202394144 0
191.613568841341 -23.9704992755475 9.1213470749205 0
179.594646824398 29.1348723679991 -32.6109497047223 0
191.633577357438 1.321630115397 3.36646703331004 0
32.2577152040905 11.6483626627683 16.342436690172 0
24.1032151702681 0.256373247341473 -1.3107671136924 0
173.80152096116 -35.1384910803317 -3.35066552044394 0
159.977212976574 -14.6010188736356 24.6939893429887 0
22.2743823325554 8.29172491491029 20.6839335799944 0
42.7620892638315 9.91145899231154 19.8099554308427 0
187.494747337471 28.5871230533489 -32.0471306561417 0
106.594463402084 -3.80339723377657 -1.93479988682779 0
191.037595181486 31.6776999078869 -15.1936725643797 0
180.564250694552 19.7309904471406 16.1768713371797 0
177.027122120576 21.9600563935864 -36.3723388979847 0
44.7435848885627 1.22213806494499 23.9823797657667 0
54.9336026329738 -8.84909856949272 20.1061616038116 0
-23.9407175944663 -5.22431839238536 21.9651473948224 0
166.54464519683 19.2251962113101 15.991482758795 0
175.474611932623 -28.2390392973845 -27.9611826589258 0
162.522861578365 24.4425514609125 -17.9362634630335 0
158.099459802094 16.4435334298177 -14.0882851768186 0
156.100775350953 -14.9206197287826 22.3336417928712 0
159.271647882752 -1.15037051421497 21.0465148923195 0
87.0956031337955 13.457961065738 4.90702657586975 0
181.891260610114 27.6702853496209 -34.9934424037182 0
196.327946447426 8.04708668468277 1.48557943492274 0
152.153005158125 -12.5916675209606 22.3605457779886 0
31.107771396083 2.31916408263522 -0.188927956583372 0
181.242918346193 14.6332585423011 19.5827420183233 0
198.023765397338 28.1932493960504 -11.0897861941795 0
161.03766195099 -24.7401954873985 -15.2383044363381 0
169.10994415959 -31.0940617823993 2.31465780980456 0
-39.3258589596565 7.06184711325483 8.93518785369401 1
41.502424436734 6.76269038478847 22.0778708507248 0
6.2056641983171 -2.4870148289804 23.1878928479986 0
171.57662535166 17.4184277530272 -32.6651044771491 0
25.3248487496236 11.2751849863153 12.5833309634215 0
190.500436545375 -8.58394644790836 -8.26564783842494 0
62.9458346981296 11.5338593169031 17.9910441555743 0
189.952797679793 -31.1469430873718 -24.5647082585502 0
185.387635751806 12.321458947259 -34.0834797354636 0
74.5940858446673 5.66317720898858 22.6177550821644 0
164.218736960848 17.8711002975422 -20.8098471613452 0
-43.260546917007 1.69750278992622 -0.249123590458001 1
137.809599443974 18.1139541887731 8.91743362405322 0
198.74791298296 23.9767608408454 -0.656419089513768 0
192.66968457836 1.93984540833819 -3.159687156793 0
110.614365078924 13.4142249875775 14.7855782894511 0
145.061157931371 4.48184253901885 19.5186005898061 0
189.840723869474 31.5045805267284 -12.4035325287183 0
128.445558613657 -15.3130587296383 11.2264352743108 0
194.172519419488 28.8954617450569 -2.78512850526043 0
188.115427107836 7.83600860874535 -16.4107806464909 0
170.107905663697 29.1243765117133 -26.9123208031801 0
165.696187984782 12.9778188984636 17.8985105906668 0
202.38786446912 20.1100219238899 -14.7662778902223 0
153.06612144089 23.4742347519227 4.59139081762846 0
192.735646150056 18.0942908467382 13.4929113117317 0
141.329119279944 -10.6841815996926 -6.28471663466997 0
109.490194116469 0.716099590512807 -1.56766044989136 0
47.1382663953274 -1.64184266013438 -0.469615117854644 0
22.2681316758377 5.97943163712905 3.74285814817422 0
137.362052406529 -12.5306240201132 -5.26504549360102 0
179.840097798262 35.6159197953706 -9.33859490998839 0
170.239067199143 -7.60503529639752 -18.5341118084863 0
123.024941023479 15.6870686611087 11.9938841458052 0
99.7155779505434 10.5573492028736 17.7180901379208 0
183.245847905749 -20.6101568033484 22.576898524066 0
28.6852299711338 -5.20886813617468 22.8481247151297 0
154.476106682617 16.730520461771 14.0311246424126 0
120.216586666123 -3.98820682036107 22.998822539763 0
196.275379807834 17.2798444154074 5.33777795089357 0
174.623138997913 -13.8260425185401 28.6815037918273 0
111.19738417493 10.1848422089153 17.6011041481717 0
3.23897030271254 -5.10364834686703 2.22311472716723 0
169.987626576502 10.2229514334293 -24.8427884843547 0
133.173613740505 9.21438921703894 -4.27064134618367 0
-20.8934752561525 -7.05369912418764 21.362309064318 0
186.367203735388 -11.8419982976822 -18.3082932059043 0
202.382055029167 22.4559558857572 -16.1163227323057 0
74.4037057029621 11.5562767301754 17.8525213823479 0
110.779472082062 8.76098550846466 -1.06159531356861 0
153.455233817299 0.0804885265451896 -8.36547524911326 0
-30.5351220802573 7.95881394164418 10.5028338081712 0
24.0580002495925 -6.47278385327491 3.24680642739156 0
187.777208588532 -32.968214982577 -11.2555366978106 0
200.139117281665 15.8666401439358 -21.5076020909706 0
45.7405962039684 11.0931838460383 8.51778706676749 0
139.984176022372 19.1681390092841 -0.870140143429217 0
190.473585246303 -24.6888649387019 6.21832647240305 0
190.26377703131 -13.467508009695 -18.7210054751772 0
135.67565534491 19.0793103737408 4.32413338441146 0
175.462818005586 33.9375553947088 -24.1299561260721 0
192.15501971882 29.3345168250256 -2.80817363362813 0
184.355682622938 -6.09760186754772 -8.53689800751464 0
172.686050329003 -13.888017603174 -25.3411668913018 0
-17.29967036234 -6.72109660695059 21.6512260492437 0
198.399462033547 9.48039269550232 -1.18009066356277 0
194.669623907301 29.7551077163554 -8.36235755024419 0
157.380648107317 -15.9660881834067 21.9404429381376 0
192.665901727655 23.1746153785605 8.79262265086527 0
189.011814382839 -28.7520135574616 -0.539423768178172 0
103.638588941909 13.3651703733979 2.21744275425724 0
145.347982708721 14.1504603733425 14.5513137870421 0
91.3192639319787 2.61912165892894 -0.426734422769928 0
12.7521539099215 3.46919665732086 0.951384595509782 0
190.170289579338 -22.163362360489 15.3925805190387 0
137.421716665164 -3.40280557038215 22.4037889667449 0
166.007332880335 14.1869575218773 -23.6477713672162 0
137.657258299088 2.22557291475437 -4.44780271739559 0
186.613628501948 8.97159091353976 16.1319552469534 0
173.107115025981 36.4492842738762 -16.5081673001004 0
182.129989555343 30.8549560904744 1.64803268226743 0
80.3492916850027 -10.6408987549551 2.10382800716369 0
68.3727658742591 -4.63738084898652 23.4750382647858 0
155.40736626963 -7.03104285757854 22.6980488329011 0
24.0451033193609 11.0719329811342 16.9500432714782 0
101.695973890292 9.84376615089187 0.375836950721419 0
142.559368892378 3.41440877563816 20.1076309945476 0
181.244698679405 -2.93341273344209 20.8685631922673 0
66.5168092801853 3.39072119315402 0.443948326808702 0
134.668327328591 16.1402025221902 -2.13757176868427 0
164.704764143675 -19.8217846815355 22.2943983373565 0
94.1630068619111 -13.3626830146384 6.46733326445924 0
144.665895700077 21.0505699887659 0.0863982450518442 0
54.9836854107094 7.50702684517995 3.62413918145825 0
157.693149792608 10.4855679966072 17.5476261388219 0
183.942439134606 -22.6284734605184 17.3588232813883 0
46.605375661552 0.212850049277851 -0.307338955884618 0
84.9791865863002 5.29303471462089 22.372404875126 0
178.795471266625 21.3490946866251 -36.703669415502 0
131.537805257631 8.90974293966948 -3.94622170759218 0
176.279776529472 31.5021523665041 2.76660750131699 0
92.9800512724866 -10.4776412343965 -0.365689753122194 0
167.043256177489 2.54252856736315 -15.5124469444207 0
176.941837897854 19.9523303805587 -36.022199514901 0
41.8278343555472 8.28337452370511 21.127285819713 0
73.8381571832031 -10.236580023954 18.7797497260852 0
66.7943582048365 11.3373111191103 18.1959505253314 0
176.535925750829 9.61804006800997 20.1124868450377 0
168.759809946136 -23.785695381759 -26.9578062995157 0
113.919831147523 9.15886339638584 18.3409180980679 0
185.307587090866 -25.0788228861681 10.6005578839301 0
37.8319077226038 10.7270861075055 8.99260923295606 0
24.578987014704 -11.0728558959144 11.5090973476274 0
191.254393965317 12.6273456299962 -31.5959715364718 0
46.4709652414157 -11.1573180826953 9.51052339027276 0
192.941015871563 5.71675631089419 -14.7758335979697 0
189.673972104848 -33.6807746652975 -15.2783445801261 0
162.435510710774 -9.48296773153932 -13.817370072378 0
191.433793081395 -13.8431104902894 -17.341160031519 0
81.5547286225408 5.069250830395 22.6758633330686 0
168.566019800605 -0.0199701217850008 -15.241997208027 0
176.238954558659 -32.6747571595066 -24.7725861393606 0
168.830389761645 33.4227939067256 -21.3606939735114 0
170.913172697955 31.8021762922596 1.73427532885311 0
72.2509098869339 -3.23240583403132 -0.924132611840691 0
37.4383156891501 2.29401401011494 23.6646857255734 0
-14.2890013974121 -11.3075508435992 8.70437917840758 0
-41.4206949641864 -0.580729236511564 -2.35895507288335 1
30.4856909580221 11.4326851428025 11.8754119891455 0
182.841029974168 31.0842143229632 -29.8509635108954 0
154.900160028794 -18.5460150307212 16.2523587197665 0
154.176883436811 24.1502178774479 -4.96301124320428 0
146.101398286719 -3.4567180264374 21.9912008106855 0
194.649243398555 -29.0099503152687 -17.205144673226 0
-10.5373338665534 -6.45821141638174 21.8809389306645 0
54.3409666113684 1.60107348909152 0.11412386963109 0
198.962031283226 27.48129003331 -6.92190338580907 0
27.6022860986361 10.3345192648446 18.8124834705967 0
172.516172093317 -5.51951407449723 -16.105337312518 0
185.147509971637 -31.0253418968056 -1.45844081079409 0
170.086241242958 28.9681341807348 5.83174722167261 0
173.009722089442 19.2251818699835 16.847076421984 0
192.430948439081 -31.9683703275825 -17.010677943657 0
191.48494705923 29.4710394565209 -27.9924072637749 0
182.682095843305 -4.55889419436134 21.0883654805996 0
129.281600702015 2.40647813361434 21.3245311326122 0
173.073159434102 17.3720800236277 17.5345747157089 0
36.6804346144107 5.79112361653682 22.5786229071196 0
172.992185589424 -12.8205708606653 -24.3089949485442 0
185.93911366546 -35.5185283694578 -20.1702954271722 0
180.118065223244 10.9250480247293 19.7123160383318 0
167.617347519316 -13.7882107605043 -24.0860468510146 0
37.1420090923372 -5.70808039755754 22.7077209929615 0
144.568185526829 -13.1847782749549 -7.08917317876843 0
130.72247026165 17.7399955039571 1.51828329342378 0
52.6656260863079 -9.52839005072459 19.1270825539205 0
162.828166892412 17.213691873804 -17.7007440921957 0
178.437507322261 18.0058597192486 17.57248973095 0
160.765347977933 -22.5850863931373 -15.6030574290291 0
185.165776036917 33.5114408750226 -17.5426735718625 0
177.674591104088 -14.3612838172292 -25.5395594692752 0
175.843793022034 10.1595255604911 -26.1907467582537 0
191.565426558806 -17.3022821580209 17.9231708757664 0
182.421776609867 30.2400364836378 -30.4287301811488 0
180.513620324657 34.4990901015649 -18.6603136748927 0
150.903791457906 23.3727122689691 1.62078390139738 0
184.570829333204 -35.32381204699 -23.9323773048561 0
44.3429642308805 -8.41322766333954 4.1585804279707 0
-13.8579643066215 3.64760778376147 21.9354654649451 0
80.8517626353593 4.9207355862101 0.578352540588481 0
162.981059565269 26.1301938396235 6.85735685588558 0
184.667277509208 31.7694790960746 -28.2118370616738 0
196.144013526766 5.90090129625078 -4.22634123499968 0
183.79055557789 -33.4002578867835 -26.2590561932791 0
200.459258245626 25.7561140718337 -6.1659051567929 0
65.7626780638591 5.05105792131055 0.991478541617689 0
128.148082776476 17.4712309495603 8.70985808427184 0
137.865785346748 -5.71504325597766 22.5362689809614 0
181.799978660332 -34.0070828279009 -4.30036756411508 0
190.019816227286 -6.00117908845333 -3.03261802959703 0
191.996633684547 10.3173539684672 12.3229747106859 0
162.432371874837 30.2742208812436 -15.2676212299046 0
-9.23904054883794 2.83464352097919 0.199508387070724 0
8.8416309106216 -0.701820328017201 -1.58266244943975 0
190.82134590472 26.5203598244204 4.74306113162437 0
23.8177806745394 -4.70683292250696 23.0117662946037 0
145.006895314865 1.86500966655092 20.5324955354926 0
180.64222243156 27.4682296874971 -35.1490493465241 0
194.262773529856 4.84063896378274 -10.2716520142708 0
47.7253231389736 -7.36828888482544 2.63090378592097 0
4.14219597246565 -3.29876473827415 23.0146917447315 0
154.690501898988 25.1568649813842 1.33726459484848 0
147.799570071259 0.219122594714378 20.7560765487424 0
166.541580943127 -4.41488210062706 -16.2731565226199 0
191.836360845769 8.61253776818043 -25.6047130552269 0
76.3945561252015 3.13347769720985 0.269643643577678 0
177.084532248226 0.740269352905501 20.7483534378513 0
191.17919243831 -9.04638516594797 -6.36829103402404 0
-21.3041312719296 -4.88873151317314 22.1149734564669 0
21.2163038120855 11.2769703299854 14.8230902010991 0
160.413446786454 -20.1116678118792 -15.1656929983512 0
147.987536721611 -16.1535540625407 -7.60715727429774 0
128.575093907818 10.028131845291 -3.32121234128614 0
183.971404807033 -32.2790683489401 -11.0023791534824 0
-13.0832297943372 2.38875334416388 -0.294282630587659 0
165.819886410727 33.6971637596024 -8.83927458907035 0
172.116009205909 -35.7014855615371 -4.10960196709058 0
194.349117304066 24.5811138993447 6.34525862361756 0
183.474029734817 0.424329351709399 16.4646468243944 0
-8.89851701460121 -11.7611369703255 10.4226739776945 0
37.9634598034461 -11.1924428504521 12.5570649981272 0
6.73815634459702 -3.91435119470508 0.974789012939957 0
7.06668394073912 -10.8135475848456 17.9609053364044 0
167.480491943366 25.8053117175757 -25.8536965073552 0
173.91504119673 -27.0189156426135 -28.1494193921298 0
16.3978189697148 9.54719684422176 19.1408362603593 0
194.687503868373 30.6552133420039 -21.0226088258175 0
196.737245219641 24.1062666262133 2.0811505898955 0
177.808044444161 9.97613199749974 -21.7826436327941 0
201.058370201572 11.9004755897368 -12.0011956390795 0
67.823501288879 0.0749056987180868 24.1972077254791 0
162.145770492627 31.2065964273519 -11.6731244069995 0
172.279210422431 33.2884489784288 -1.10847235565292 0
186.32681455943 -14.3300091820273 23.88690477154 0
199.816484153323 23.5216628700865 -2.45148752747583 0
-7.01322321965577 -12.192782712508 11.856544361412 0
170.610796771773 36.0081882392319 -10.4255015444068 0
153.96269130575 -16.8839374097778 18.6880622269882 0
160.78763800372 -28.6317807065798 -3.26291606558193 0
158.222196593528 8.52056228758709 -11.7501759013847 0
29.4546646713141 -0.930633372844466 -1.06399801836882 0
172.01601485373 9.72481164639238 -23.9629790533896 0
168.320132315934 2.6594167324588 19.9623806807402 0
93.4056307449713 3.11238932343782 -0.469156620634741 0
40.7884478065096 9.82522637548873 7.21532137371223 0
111.166005210768 16.8100207682233 6.89206048400992 0
182.686611033595 -25.2479949184144 11.6780462793133 0
180.329587580496 -1.85598709171755 -7.5541986945676 0
-41.3289934825978 7.61237227064595 17.5693018936359 1
193.16309687166 -14.3813299875797 -13.2215985887056 0
176.312866850993 15.114696798468 18.760376013541 0
2.18922243888965 -11.8578475591784 13.2072257487413 0
184.068954719543 -7.62105210819741 -11.5566271671742 0
143.735128502761 -16.2258259235209 14.3723654175607 0
132.274816104293 -14.6909156274066 14.4962128676722 0
187.507895127488 14.4434664403312 18.448370750462 0
15.5199422872096 -10.4611549868028 18.1105380221435 0
173.320082714517 35.4346359510514 -10.4934879616055 0
185.152571982517 -10.0933466457196 -14.9680062072677 0
37.8750858561098 -10.981675359396 15.1086265403937 0
189.776692876755 -6.49560907706761 -4.83546804867428 0
189.160914018559 -15.4279717884727 21.049317999301 0
193.192459360954 -14.9451071437189 14.2165919478221 0
169.382519774567 -27.2551632626779 8.4605492142241 0
149.600836541002 11.4401375493314 -9.82625487091296 0
128.674407029742 12.2921129679906 15.528741070981 0
135.156946869301 -5.89648840115399 22.524665932643 0
172.632623522311 -26.2469527563953 12.1177011591203 0
192.223047849215 27.4513383297728 -31.4096174403213 0
148.70406527714 17.4225469480191 -8.33437868819801 0
87.7304215994544 5.64232535991218 22.0369980690955 0
192.084302800913 -12.9819119652618 -14.3520006638304 0
4.79704500789564 -7.83472737262021 21.1453359176608 0
60.7996336884793 4.42114432157531 23.2712393708975 0
41.5808515376581 -5.1842943549057 23.053828701506 0
105.303832489426 14.9944389342927 3.63038996295245 0
-0.260164815520502 2.64473064646017 22.7187774882809 0
-35.1264788973903 -11.3226594704681 18.3555259803379 0
194.492969253488 -30.4623608713335 -11.3638213631131 0
150.024288464631 -17.4404769087998 14.868363208355 0
-18.5883016886106 5.70962875121733 20.9868921060064 0
143.239919230003 -13.0447332545705 19.4890789648008 0
166.493976978286 -25.6165736260757 11.5637979183099 0
75.9657094576182 6.28552883604518 1.21316785512016 0
195.048700168985 -22.5848287327908 -15.1271658315488 0
152.00573280059 13.2970236765219 15.7388719891528 0
184.666506221569 6.32502541888081 -13.6243056853788 0
173.62182101283 -21.8542657193073 -28.589845603042 0
182.749506085128 -1.27389258593658 18.0741832970581 0
66.9430325038494 -3.19225953652209 23.9281896010731 0
180.179603010729 34.8738000041187 -7.36124064612145 0
49.2105481653641 -9.80164319422308 5.59871292176228 0
128.16403587383 5.07379812301907 -3.21036919969436 0
17.0908508189615 -0.789458811998244 -1.41472328815845 0
-41.1275599819843 -7.34582962318868 2.08178044648729 1
111.737258094748 2.50061074494437 22.3702942236875 0
106.566740459463 7.61915617790121 19.8840283942297 0
186.273741847012 24.3154796535405 9.80272923663693 0
163.952847034459 -23.7965081691097 14.0868956536948 0
-34.8801732394113 -2.32036555573474 -1.95014315102984 0
-7.75855802682808 5.7334495472258 3.85081775826467 0
-11.4070972235169 -10.4659025620414 18.8745602949773 0
154.312633522654 1.99055332571541 -8.82776462371431 0
172.046771441872 28.5888702833305 6.8637155627482 0
68.3183182908591 1.05621016265205 -0.00995193119005107 0
179.366851739983 21.7552801500458 14.5458656213149 0
185.666800407136 -19.2711939562703 23.1359465649187 0
179.508570418677 -6.10652526565853 -12.4448577788793 0
123.3190914875 -8.05384304833937 -3.71520399129848 0
130.555865358728 -3.71648257503915 -3.75133358287315 0
160.888217959012 24.8855134664137 -14.40396976882 0
141.855590457991 14.3457403870996 -6.25723332699133 0
188.988969531343 8.16025570181123 -18.2008286122239 0
157.453247373624 3.55524813347407 19.2842967705307 0
167.125475991376 5.89862783190462 18.4509051326346 0
178.809983192843 -17.0231699018627 -27.9016067605537 0
139.528102577317 -3.99528667046189 22.406557900912 0
127.517638011034 -10.9395686257011 19.887415868788 0
57.3779182554876 12.3235708808833 16.7988634558738 0
191.029071105389 -30.1961302573934 -3.52947621021413 0
164.73668916755 7.07533964203368 -15.3293564043003 0
189.289918865913 29.4355889535155 -1.04554518000921 0
163.434316745062 -21.363851742856 18.5983821233653 0
171.157524267673 9.2317193538377 18.7094474599291 0
135.594432744155 1.73087957354357 -4.11876304899334 0
147.799364873261 10.850963552617 -8.96667468949216 0
122.867621854211 17.584153467338 5.83083822407723 0
83.695143667672 -9.69684135276654 0.431743727522876 0
178.781512449292 0.0774307421829279 -9.75060949140277 0
20.9718822928501 -0.520848828054825 -1.42010349041487 0
46.1537605623566 7.88295742493757 21.4522856372967 0
111.701064417159 6.12384987323698 -1.43684543921386 0
12.2806945187733 9.18123659186135 8.8304333905713 0
67.0784878550084 -11.2900512412025 6.00883421863018 0
162.302798894416 -28.6902705166915 0.0149011210336978 0
-32.3717223034577 -0.0350255925636393 21.9518174220716 0
193.904895325171 19.7176606777814 11.4156835909798 0
151.576603781704 7.13909289975315 -8.83122450875415 0
170.789404076257 -22.4382529182037 -27.8426449239957 0
-22.8689434086691 2.70205581568878 0.339738821388897 0
195.710447132789 28.7954851637262 -24.2240723423359 0
-14.9224623041069 -5.6017121863003 2.42122937989722 0
189.077820957638 6.52621647320088 -14.6273307609722 0
175.720346097947 -35.4314147115369 -12.7233318719665 0
173.278364109046 -14.5433353330597 28.2339502633204 0
23.1649428654646 -4.86834432351924 1.80197619858634 0
170.542803361549 33.9563272595898 -23.7305224066285 0
8.20217162561832 6.62124945435522 21.3301663781674 0
97.7047917200513 5.05362630127796 21.9729376332989 0
194.544650027797 -30.5408164372541 -12.8747593169312 0
160.374662162883 13.8468242717775 -14.4162452898849 0
166.574822698487 34.0865887232804 -17.812666937541 0
179.391931348807 31.3010593286772 -29.5978029607485 0
185.147398716657 -10.8656289971188 -15.8036342515415 0
20.923098615569 10.9109059364396 12.1472799363116 0
187.38580358945 -30.3605395744059 -2.74089387108251 0
-18.0136440750153 1.50624643009944 -1.28793144253546 0
183.372292341842 -6.45423021908445 -9.95087829679911 0
183.299455895567 17.8330451088655 -36.4497173085574 0
179.618829032546 9.98704095614475 -20.8835222382832 0
184.697384434668 33.983268253364 -13.191243631881 0
130.534805422499 -16.9052647521314 -0.0688486586362844 0
169.922019651065 28.4486612002061 -28.6953096416791 0
99.3507204000451 2.31973521636878 23.0063945174232 0
171.465612815928 -11.9369584163038 -23.2357491967268 0
50.4105054874367 10.0141095092163 6.47686407172651 0
55.950663851456 5.61156438542243 2.06148241486224 0
1.89644140698606 -11.4714502448906 16.3133506428403 0
187.426661067428 -21.2022824675491 -26.1178008178814 0
46.7269003884544 12.2872657154151 16.3275725018134 0
-38.6438887041742 3.89224133339689 2.74523739207917 0
191.217246457178 6.74236171693955 -16.5754578680937 0
-16.7328392416841 -7.85000583168063 4.15775346305157 0
176.406093422204 -29.455057360123 -28.1673102094265 0
74.7009898779739 9.99390934589404 3.40117035854349 0
195.246854211666 6.72917152383641 1.75090694082833 0
192.84300506678 2.78086723674679 0.79199069172417 0
155.170980441579 5.83008961391439 -9.9284606873465 0
157.237982876461 26.9488935077192 -3.10667233087862 0
164.317140384361 29.2399497341292 2.68026817675204 0
-14.3443103108575 -0.958532490848833 22.5853171684932 0
187.811813967978 -33.5021359982181 -23.7114575253505 0
186.222030680965 -23.2430160501461 15.3040461013226 0
176.212431296639 35.6332305185668 -8.3995202314328 0
159.114982891629 6.50831583084198 -11.5051033733593 0
160.691709049152 -28.6986317134509 -10.2382868749835 0
194.902832426041 -17.6341893327337 -11.861777854618 0
198.334229723502 26.1087357584885 -2.92192844994244 0
141.818636078434 14.3100270147911 14.1248081591601 0
154.285687645148 -10.0791372711994 -9.81799797691508 0
180.588720187322 -33.3774467614809 -10.0868280664229 0
175.91925075231 9.15262342189211 -19.6315045168461 0
146.346334636649 -17.0910856327212 -6.20848710780996 0
190.1804766469 -1.68989966892837 5.99912165519897 0
182.579060571903 -21.3430541551408 20.7453761616886 0
182.302831784399 10.3744624661028 -22.4062056568415 0
61.7124084458126 6.41439463400902 22.2612375102078 0
161.505024578826 23.3916890202471 -15.9869974045017 0
178.373188599143 -8.58223149331648 -16.0277976938178 0
155.869298005035 -13.0598819395521 23.4057308700479 0
194.126155343342 18.2596844754458 -31.790181766819 0
162.739389793505 -12.3868785475639 -15.58792991492 0
159.040314382 -5.87957660601441 22.4922760059485 0
19.4374890405145 -4.5224788589219 23.0071147555303 0
32.5888489199159 10.3007973587567 19.1592144078623 0
136.393943023361 7.27959690847172 18.6780056683479 0
165.552150173377 8.76302427266622 -16.3953067603149 0
161.476946182105 28.8736802972253 0.630341295771891 0
176.27012486465 10.3341879348452 -24.4106548490096 0
191.89484944922 7.31655652111348 -18.5517340034401 0
175.826550205869 -13.9271337002887 -25.179371085581 0
159.881762039118 16.5425893916898 -15.1068535027691 0
182.289715969564 -23.5344667140005 16.1428800248459 0
-32.8428381626757 -2.85043154819633 -1.44439182348231 0
-32.1599544525333 4.98840768752441 4.12619806466465 0
50.5884883483174 5.94537718040509 22.6236482490438 0
100.786195088308 0.0366611557838566 -1.15515147303012 0
19.8766263729171 -1.96523332677984 23.6203653326383 0
125.434149189696 17.718365371314 4.22331357549193 0
136.80410084784 18.6932125369883 0.227459595238901 0
187.508709107775 -15.7940242651784 -23.9721549437428 0
177.513571935728 0.496369328936386 -10.9546110452889 0
-11.5171354450288 1.06942654148116 22.6138903375165 0
189.135291931109 8.82658129569493 -28.5015360264107 0
161.521285601091 27.1996509814526 -15.0926775131358 0
180.46060114342 18.2000147472161 -36.4770139543783 0
122.661919909941 -14.8811702771973 -1.88644637344998 0
-28.2000908997274 -12.1628512536337 17.3857754201857 0
120.980223962085 5.91384841144178 -2.36320536578632 0
196.040996003283 -20.8108104249473 -9.30226315171499 0
173.557589782527 36.3951545072359 -18.3648861702268 0
154.604330912297 -2.42990143742058 -8.99820890724387 0
170.029459979771 22.1916549245219 -32.4534709606265 0
192.854361972233 24.0368626598425 7.70008456178123 0
193.566268480466 27.602485861125 -30.3253145876615 0
158.676812581958 15.0687838878445 16.0386757657969 0
122.39545271603 -15.5573496975911 6.99571562427063 0
109.944933811264 -14.5846729048736 5.54930918731287 0
184.092283946237 -32.644846749088 -8.10209113797647 0
179.118721963053 2.23198083491337 -10.6398067831759 0
168.680215673527 19.6537194641978 16.3735750301423 0
