206.045610357197 -35.0142960911698 23.4694073667082 0
174.696746743468 24.3078333721427 -14.1462427323455 0
40.9060268376936 12.5885792804435 -19.3737191334939 0
222.297513504205 29.1316288302557 22.8145277846089 0
143.662309171296 19.7311065407251 1.64644549265129 0
213.000776243631 -11.1876841745507 -23.3538599523264 0
164.149643992622 -24.0485952722063 -4.18377642369084 0
56.3772842253312 -10.7061880548406 -6.57207413105519 0
134.189842837032 -15.6341069981591 -5.99622529525552 0
201.282940412299 0.565162942983276 11.5882304720382 0
38.7871560246739 -12.6435296547614 -15.8729359125023 0
193.982274873388 -37.9630200854782 -6.05401138830582 0
224.488961365458 27.8368945046394 21.2638221100579 0
211.354994950594 20.1852653280701 -16.9528883732465 0
173.132561058069 12.9745946144609 -20.9090286213555 0
191.922979092492 7.64835183951072 24.1514503097697 0
181.679843417612 -31.8909099064771 18.9200546885096 0
223.911629364019 20.7016208730126 6.16941270015557 0
213.732495685088 7.93802004752835 26.04838154374 0
191.0524715255 -30.7611604720874 25.2890004510344 0
30.4385951408967 5.59500706589314 -1.4426592378693 0
24.2072390670307 12.7084644787278 -9.85997429533176 0
0.398922067415644 -4.41718333459575 6.18450060541894 1
216.444560945518 -22.7618308428646 11.7504637985777 0
207.173535987476 -37.1909873099695 4.33381890882333 0
167.358470260165 -13.4278776209199 -23.4733545566454 0
122.897087286335 -9.07075734857803 -22.5299649901769 0
76.9181584794102 17.8094092742899 -11.6231324279365 0
184.962009125217 26.3663812993483 -15.1454462787478 0
29.5545566087474 12.0259674871054 -7.19486110518371 0
93.7400339488871 -4.42807008240906 2.08443907446589 0
186.544216898952 6.69056723244786 18.6544815257956 0
203.27380165087 -35.5752013799852 24.255177272977 0
186.170390786449 0.136822463381888 16.1218117274312 0
191.175160855887 7.55584064545952 26.1844858694459 0
197.218312596569 -21.0455998948568 25.4911137033133 0
145.822669836036 16.481628177239 4.23128661109017 0
207.621165771794 1.69848542546665 8.77975259679183 0
165.456384852665 20.5724706552044 -16.0896913119829 0
186.141462339334 -1.91287815594123 15.5460480525914 0
191.890120536376 -39.0821737596033 1.06290941641273 0
84.6383347175749 16.3167466993138 -18.6599717396524 0
192.912904935886 6.8874637391039 22.2640896539483 0
208.270267425488 -24.8869963447915 -14.6819482097251 0
142.705753087121 -6.94349718596363 -25.6212112504528 0
175.889709825331 -16.0599714248627 9.26537283727525 0
177.31271615193 32.9659699338226 21.9458689204027 0
193.109409259848 -39.8424706882838 18.9071716374059 0
66.5169076924915 -12.1925169787676 -14.758105522457 0
87.2137997137599 -12.2773660652203 -9.44267229869477 0
200.509584936015 32.4530793147076 -3.27144107979625 0
193.90034500265 38.4397895701023 7.32129258140417 0
144.82765831073 -13.630753948439 -17.5683719663573 0
146.631105674476 -2.28984016733047 -27.7145169703634 0
216.158190375007 -8.8215932818835 -13.9676167200903 0
194.534302381846 25.4725783006146 -16.6625338717163 0
33.2127996524782 -0.675698108212626 4.5560474578922 0
157.727719051215 -16.9653482978387 -15.8029570198229 0
164.333126459283 -10.868804527979 -25.2072394478754 0
190.105575579815 11.3152015960708 -22.5475585808904 0
205.259943844881 33.7179285074347 2.18995720999207 0
98.942239048934 -9.31281458304205 0.823449200946198 0
185.48720549275 -10.9825515592304 13.0237617422689 0
186.098961003871 -30.6612292726398 -12.155259628052 0
147.127805757204 21.7405998096182 -12.9204721563219 0
213.99438067457 -11.8431508661563 9.99709185101222 0
201.291702130925 26.1779440556238 44.7358363336837 0
171.625755607368 28.5582404452781 -7.38869924255844 0
199.820709355489 20.8599666527557 -20.6825429694184 0
30.3576191370997 -6.59903189221974 -23.8541307221159 0
71.4966713448994 13.9877620159528 -20.3908058919946 0
216.620773776444 -25.306984988504 -9.84375769486759 0
214.135358335772 -20.0212238602193 -18.6673769354972 0
69.3281206062715 17.0090351662857 -10.8085055430516 0
167.692202901051 24.0100876913559 12.893057097583 0
144.740766896448 18.8191135201296 -17.0042610265199 0
65.8979677053019 15.5610207347541 -18.0269288987452 0
58.4882177217928 14.5308085806083 -18.5507618984143 0
98.703779223724 3.83643373498544 1.47896771733874 0
144.53191043122 -12.0134965503024 2.28937207503617 0
124.678714415499 -13.271864164213 -0.13339843357102 0
186.411104295091 9.84203317968245 30.0515571947303 0
96.9037164243868 -1.77290518464076 1.98965212408352 0
193.088015254739 -13.7157881099317 -31.1012665046971 0
53.5050659438707 -7.36620010356962 -23.5964577261252 0
180.523649987027 19.4963882505412 -18.5438484398432 0
112.953674827028 19.247414351231 -15.8278580679019 0
193.832529981824 27.1526422229608 -15.3913815347443 0
199.466071438165 2.40200894206636 14.7375730396492 0
23.0021848826916 11.2437515443808 -6.94454725725378 0
209.554993144971 -6.05652950263069 9.28241089371062 0
223.222622251586 13.2863458502541 15.5011972860202 0
60.4063484652383 1.65506567178499 -26.0194009149916 0
40.381049175435 -2.23861793157515 4.53892895651345 0
190.482138080301 -35.8461136487137 23.4064120915037 0
217.517931047228 8.56772859885267 20.4353555887913 0
204.190771664519 -36.153852135285 -4.58759384196171 0
131.148479611894 0.114397441935323 -27.4126512643597 0
156.526328978412 17.7575865286721 7.01387701020588 0
210.629928058392 -33.4767791231518 -3.57350490372008 0
139.280282548985 22.1839047384647 -3.47631672782606 0
171.614626166591 4.58982702935926 -24.5580906570147 0
214.698812365365 28.6113944796989 -3.82721599966375 0
185.09518787311 31.5033696609163 30.045384400749 0
209.925451070258 18.297891716058 -17.5825751948623 0
68.5504197891129 -10.5012144112496 -5.84659344223194 0
217.134268639677 -36.5054059786468 10.3317331195281 0
206.739944475761 30.2529719960626 36.4374601033436 0
69.6831852003704 5.32181581102414 -0.629623762414485 0
85.036996501822 18.1696666343486 -9.75273661518693 0
143.267648273977 18.4359093876273 -17.2748694222352 0
151.059591736497 12.6823732371226 -21.9185403605355 0
203.533858410896 10.2719887039231 42.8200224667663 0
210.832892881833 1.01540696143722 -16.1406599133509 0
215.312043817885 -33.2726217821348 -2.82572098529144 0
160.2297294937 26.0838890706079 -5.79408373700271 0
25.3400603327042 -3.49089719611538 5.35599071310707 0
187.969409821326 -38.0420928353805 18.0385748012734 0
128.606616951693 20.3640262792254 -4.12431011955727 0
92.4648940712157 -11.5177865188558 -5.82373185631401 0
7.03910580599064 0.239967156754821 4.33229057706212 0
153.406302854246 -1.97694545500348 4.53860030711321 0
52.1611119059797 -7.36876342828822 0.449210776288435 0
141.475132208417 1.44211704283372 -27.5969061142844 0
216.737592867391 -9.38961527061781 -11.8281003645799 0
186.290901109686 -33.654764028913 22.2950893234882 0
182.628311265282 7.07809084760018 -21.9870461947601 0
218.448255799808 14.9960997573419 -7.38931080196578 0
142.336288297333 22.5560530554035 -10.1866165665153 0
215.332419767007 -16.145517661986 -19.7867448646506 0
209.770839335884 -42.5118325563653 12.7415775792018 0
149.240457597234 23.9438918388822 -7.2441639259424 0
23.5190921183765 -3.20592836942367 -24.6139622636349 0
213.940501701584 32.8919238788888 10.7129348066439 0
206.741101328213 23.1473149809223 45.8452712065194 0
166.637588954387 0.451812976006752 6.49939783408263 0
218.030511712419 29.5951400464675 30.2135126324973 0
40.3604267449557 -10.4341117001381 -5.30561765619382 0
171.612835457275 24.427835076654 -12.9729802458988 0
43.9031967433153 -4.22730673690653 4.23856678976083 0
178.883652719871 -12.7039766642193 -29.0424605109487 0
142.212969702066 -14.2786888590289 -15.645516614289 0
198.870038666616 5.00056704355991 36.725926895171 0
215.135961027711 -3.82170681228993 -7.70142200342888 0
11.9080355210763 11.840646077956 -9.25309239760583 0
197.901268302993 -1.91639400724999 14.02280269163 0
157.886414344035 -5.18360238587569 -27.8631742617843 0
152.945743907859 2.7965597134696 -27.1688777792689 0
145.292383621205 -5.9309165964366 -26.4227763910631 0
180.823769655164 -33.4840667043965 14.6511207243525 0
12.9928301117984 11.5836661332778 -16.4847199236151 0
214.99546069579 33.0592249102067 19.684280770032 0
29.5919301518221 -4.50581617464551 4.87147564005598 0
208.83267176626 -28.8492590937893 -10.2892642701444 0
65.2406715168562 3.23385817861588 0.331734975799773 0
211.679367354631 -9.60632608222627 -24.5857615173392 0
187.366472263343 -16.0018219347494 -28.9095050522204 0
152.949053526534 -5.82705014131052 4.10410500626369 0
184.236452505393 -14.3089164794074 15.1313450950166 0
199.662398247517 -38.1885688558264 23.9512103280446 0
74.2813548984007 -8.1492293391323 -0.471026372561598 0
168.308925453346 18.4016888760903 -18.295396370218 0
215.475525878018 19.2282735720538 40.81526489266 0
182.469780581001 11.2743106952165 17.3419775172289 0
186.908842191945 -38.1122546683984 8.39978054639223 0
183.005097755671 -5.15980837471305 12.6870677324723 0
188.128967797704 -27.2307893518021 -16.2028814891033 0
199.024519810352 -8.4532136144761 14.1214240526482 0
63.0036010643261 -12.1121329159694 -15.5368336649729 0
111.522209700426 5.92704548338114 1.69063762522394 0
174.349807524898 9.5280739876517 -22.0681994682826 0
169.598605120138 24.9922273109181 -11.3291014834211 0
196.281764264644 18.6889441451542 44.5010677826956 0
165.876023528039 -15.2592064569714 5.34722556319408 0
129.448421060383 21.5221094255112 -10.4812552157038 0
210.255401168533 7.37288814904411 28.581484701294 0
82.281841044369 17.6681704751251 -8.93719613952701 0
223.823081580707 17.4676380931604 6.10716391370869 0
136.163767655241 17.8070968826148 -18.1960130839119 0
203.552621870397 -2.45405719873478 10.2245259825822 0
183.083878671731 3.59776687084182 -25.5140944652292 0
185.917691497351 29.7816028888904 30.939723398422 0
180.338895097666 -31.0314820107055 15.8307604273141 0
197.344976069517 37.0157751375372 27.7985202836196 0
195.697257009839 -1.57208546236612 15.5608335268088 0
108.878840441122 19.9564565606986 -9.48368654495084 0
198.792950313759 35.1327298585238 0.357217793822935 0
149.152925311429 24.0980052964733 -4.79939773109386 0
30.7374657725633 13.1755422232599 -9.59111666985773 0
218.275067076792 -14.9290744017794 -11.4922479515197 0
86.4215256800856 -4.3508229082682 2.05982611523756 0
195.536792125521 -17.1989920975754 20.5188352373328 0
212.259848696121 -36.00120211275 2.44438694457969 0
40.5112087706726 -6.48105646116544 -24.0580934345837 0
21.471250328966 12.7746503011272 -15.0848048644141 0
32.8294986198217 -3.32441231220089 4.84630046466703 0
71.3457121422496 -11.9183108123806 -16.2043205436109 0
165.304703240897 28.2564968541481 0.0134581050113863 0
127.411223511475 -14.4513263384115 -9.76149837496681 0
169.99710942781 26.361796160434 14.214755100467 0
22.4669907398648 -12.2785197935676 -19.354813680816 0
107.52053619693 14.6317481113612 -21.0157844249187 0
134.826158216347 16.3369066990506 1.04391158645897 0
52.8305206939731 -9.92997546733445 -21.0785025242276 0
197.754572881838 36.5790699225867 3.48647145052349 0
204.807743963762 -18.5156978003985 22.4198278755676 0
79.0411938376049 2.06236833038495 -26.6404798814963 0
185.414971273146 -8.41849512377039 -33.0878564373464 0
149.902303716571 -17.2455691870048 -11.2183613331703 0
209.516616401614 -34.413552080834 -2.18739172262631 0
10.0052104222421 -7.13252112525371 2.72164834066165 0
190.848763367911 33.5718356337476 -4.6143881587639 0
141.365719545264 -17.338898080904 -3.53048564284448 0
200.081685763794 1.64359868694896 -26.4893035175244 0
187.912014065922 8.85630271252572 22.5137142571612 0
31.3268276696979 2.82567634172072 0.559556347595285 0
118.826470647075 7.55360293690153 -25.791836048997 0
213.297599641693 4.30376569271841 10.2659803511313 0
203.27672827869 4.41691361282978 -21.681618880838 0
218.030866368118 -16.9030826997682 -13.3730935307988 0
123.039364296864 14.9736976829433 -20.8680063822919 0
144.313296793021 21.636663617056 -0.0116440417932275 0
218.673952223159 -14.7005266842597 -3.8651454059373 0
115.834450716774 -5.22819983528406 -25.5161130547207 0
162.458185550314 3.35076486462912 6.09031621505013 0
187.555296974119 -23.5128992482807 23.7903809014818 0
188.172579811685 -22.1392040946709 -22.0653384518855 0
210.178815027213 -3.82941684307342 7.47003254938964 0
202.527899817493 38.2801980245349 12.9077103021304 0
150.603817478681 -18.8884006855043 -6.22125570508253 0
190.415819754928 0.0926482517857511 -29.8886244498885 0
141.096993221885 21.8115953685847 -12.020926172038 0
207.086606021479 -5.34506964374269 9.34002789553301 0
171.978546408533 -22.0517565481732 7.34618193071905 0
202.916928485731 -37.3376141233286 3.45344035908497 0
152.753263276963 -5.8321791911436 -27.0341332435354 0
209.708135769357 26.0818609407394 43.403816105438 0
173.39800565134 30.0883665009062 -5.44147146257216 0
174.980102177655 -21.3507527537294 9.22194873103885 0
144.221141015486 7.88965863331801 -25.146440065267 0
22.5279263198582 9.33615382950709 -4.54826071109424 0
181.294009478271 -28.6347362174507 -12.1020412741135 0
215.368100830282 -37.1214947915576 3.03944196260541 0
114.349497254249 0.733056218083325 -27.1519247176359 0
184.552091232495 -9.47033216700031 13.8190828264801 0
214.980397881299 7.01957672038531 -7.77737969063145 0
213.632905927357 34.033179704992 16.0825985258475 0
193.261132716614 -7.34424229144013 -34.7401283133303 0
180.382626376048 -31.9351437245028 -6.6883362707611 0
198.954768124914 26.609049999789 44.0759486212864 0
109.577161113478 20.0112015278684 -12.6369037161962 0
185.152334587653 -36.5849801062846 -4.35419730126509 0
188.274803585315 -16.5519152138439 19.6873220126088 0
185.023379094397 -35.1011217994508 -6.15424742938671 0
189.983581774461 -22.817633885437 -21.1892287617796 0
180.735669052819 31.1576338627112 26.092415795583 0
169.546307712521 -21.6000975761622 -14.0859821381692 0
167.773934344713 20.7685350835611 13.1636220371492 0
217.249709438455 -36.2839475113699 2.95128872654536 0
201.778513559298 38.8033227378319 22.8797114520008 0
209.79974496138 -40.8437347977834 8.34813777610756 0
132.006043636285 18.7495217907034 -1.18707833612767 0
210.85560476075 7.79040492387568 14.2573240398855 0
200.639527395458 4.02968307841163 34.5636735161148 0
94.437055407647 17.5451804563835 -6.41730881690258 0
19.7791133836345 -13.0696699472276 -9.9053820423226 0
217.88226005985 -23.5632545316402 -9.54167161654611 0
191.568931292602 37.0907189913999 3.43472177595632 0
138.948947104435 -15.1006318103938 -12.3636181070059 0
184.131270800613 32.3331677066499 -5.8236776651461 0
184.937278546221 -36.162980411102 1.69657097963979 0
205.286796835111 11.2706789943556 -18.5654907763202 0
125.6216309854 -12.5074079145444 -16.7859210246268 0
179.364996395381 34.0554581154695 1.88940342853126 0
182.827775717827 -24.5444225104199 21.3411086142727 0
203.287217208171 -19.1103569144372 -24.9952575850193 0
116.655543244213 -10.178214921092 -21.0699708569335 0
76.2028397719696 -6.27169485498995 2.03739462861472 0
28.0564909585161 12.8455935343189 -9.23280518592808 0
155.836070044165 -11.994707684791 -21.9058103691863 0
205.736445237993 -36.9846260418797 3.14601811516846 0
70.5826777039598 -10.7574368402785 -19.463254874103 0
128.734481415403 20.5794621915691 -13.8353039817346 0
202.048474308753 -38.2709195449372 23.6079512485078 0
150.868604901299 -16.4006861023104 0.995767014636075 0
189.107847605311 -18.8614280933092 22.8535091174649 0
81.7683185592304 0.345127762590707 -26.7402276250335 0
216.807219568689 -8.59090922027725 -9.27709943525424 0
198.354525462117 -38.594403017366 5.34466707202931 0
153.539831751652 -17.2714512033027 0.998417882641792 0
206.298320844068 -19.8313858469158 -23.2330464276554 0
205.02262229419 -22.2545427163051 -20.2013682417231 0
203.979926242634 -10.6360563316333 13.4818112935522 0
209.564249627627 7.98425921489004 -15.3986980488801 0
162.25713335215 22.0125204060577 8.73316280963773 0
215.661695878446 -6.94937830888746 -12.8567455847238 0
215.514609838171 -39.2888207922371 9.99565736941582 0
206.822276404447 -11.5712134551711 14.3814213769542 0
85.4562852290365 -12.4489742855884 -12.5502358880009 0
178.470528893796 -27.1601127762003 -12.1095437283273 0
13.5066122928057 11.42257264606 -8.09294998707943 0
133.424856404535 8.16622246710349 3.22680350234812 0
200.688609325435 -37.6520638722528 4.96772016632213 0
35.6798084377194 9.16748139159833 -21.6105330362852 0
177.93857064875 27.2281863768546 20.8435984098503 0
199.149018232373 23.8670083880019 -18.4840449351291 0
224.690823822206 28.0460486470604 15.9349264777037 0
195.258335963741 5.9387691786927 20.5244306218656 0
197.672462890306 4.36183416191655 34.371055673487 0
188.774843251999 -38.3338352635879 -2.45847949742199 0
50.8471111336102 -8.68385557088208 -2.53277014767989 0
210.050183703115 0.453549865311366 -18.1270856945589 0
206.293665409907 -31.6648997632673 -8.47814035716941 0
177.075289617667 23.627974990144 -15.6930577617423 0
47.1726343093406 -12.5273851033787 -13.7758824014856 0
195.916373151217 -29.594160132237 26.5350689957189 0
213.1213350816 -13.426049684823 -23.4447853121191 0
14.5328940373056 -10.6964430403584 -3.92769449979738 0
211.846646496805 16.5948795027451 -16.0861252876407 0
187.425594210005 -7.65189709481584 -33.3917402277695 0
123.470263677262 -13.3652482965117 -13.8499282419297 0
217.292072324642 25.8687558021161 38.0382510358571 0
204.087259065177 7.92788829765393 27.8426105692983 0
178.971264529975 0.259151432513777 10.6981484295336 0
202.448260738008 -20.4512045054889 -23.3589470238122 0
210.94459739243 27.0562527202149 -10.6610730184565 0
161.960486694816 14.5959402668629 -20.6328916480825 0
189.821950635553 -4.138225786169 -32.4794804068596 0
67.4836362027662 1.02053526192181 -26.4476708457834 0
217.52929157849 -36.6178285060748 8.77877949537317 0
100.235894993605 -5.10207122100709 2.190565570222 0
203.862167983493 2.28643279981708 -23.4854964041268 0
214.148178853488 30.0354543109787 31.7616288854792 0
108.768831683519 18.1752524074358 -17.5047945063883 0
219.034291975778 -27.1610907214782 0.620723225774324 0
171.454991162061 28.0136311308737 13.5157223311098 0
131.399902485562 -9.19151278725924 -22.7101538073171 0
193.113406292227 40.846080120139 19.8894557215174 0
90.1642882733698 -7.31246683642195 2.0364374410596 0
183.951218656169 3.33342724458696 15.4421678242411 0
73.6940154394661 -5.06786485028783 2.44814767641866 0
95.1382523788418 19.1765022934199 -11.2428424717361 0
81.6357496304162 13.1200620026191 -4.00411793189495 0
100.024672855951 -11.1907051435492 -3.65145135690539 0
61.4549024913189 16.6278678995891 -11.962796314673 0
194.480938405757 21.4496985779633 44.0575907352561 0
145.423228136386 10.434455812622 4.45858857766744 0
7.14342884119562 -14.2422923141394 -15.4203529932746 0
200.013874904899 30.3388886507515 -8.77456975437841 0
210.268725792235 -0.95966103907552 -19.4957718883926 0
206.858337288786 -40.7539686403903 9.35026355556767 0
75.5573486812781 -2.84903050554284 2.37306988915307 0
147.342175146559 7.94749769839667 4.6490311473476 0
185.020115118271 -15.258887718173 16.5383251013981 0
214.384144323908 8.47430512579078 16.2300293223814 0
144.04379865869 0.461268353038919 -27.6889276530412 0
125.738760995207 19.1356976177288 -16.5073933233115 0
215.129537358166 -35.2314866343093 15.5518378658101 0
12.5208287312043 9.94212245754704 -5.66544089413406 0
221.532347200415 13.9624670160645 28.0597692866924 0
147.711017410358 -10.2259655785835 -23.0077964895587 0
208.650341587651 13.3963300466714 -16.9799617491538 0
174.148274794288 23.8513377697486 16.4224941639307 0
172.512429828436 14.6081737424419 -20.6507056246292 0
217.943743023571 -18.5859319231851 2.42739130447225 0
141.771848143566 -11.8875357663633 2.06803572870338 0
196.788619341442 30.5938061669858 -9.25760349029173 0
207.08967033093 -1.32892901732443 -23.8535077998929 0
183.732915524015 -6.46716684362053 -32.4796443983899 0
189.346931251621 -15.2731529049453 -29.6836098831114 0
213.751851568524 -36.8113161138678 16.8317917267196 0
196.809138108979 -39.0022347595028 11.4973112010316 0
84.5381876294482 -11.4685552506727 -17.8749967315603 0
203.438831118249 1.54394091373521 9.94208247204171 0
172.488507995008 27.4294871118801 -9.23252262911654 0
22.8084773396804 6.86742233350364 -2.16648504873361 0
218.99337256828 -21.9609106643772 -0.416000293537141 0
207.001321215299 34.3074917635041 30.1331516182998 0
204.797710452914 34.9608859598717 5.16734889863515 0
124.468692920565 -5.59080911404694 -25.5029063286823 0
172.091065289198 30.9248962970703 3.02088477646317 0
25.2576137721575 -5.55891503143402 4.81256693599944 0
195.119035925326 38.0485947267642 26.9962397689469 0
36.7395147897803 4.0278618831078 -0.529608631824385 0
148.261428214734 12.3616862800074 -22.0951638309512 0
55.5133429712094 -8.84396116292606 -2.9341992263656 0
179.957704637175 25.9095450110409 23.1127025256452 0
180.710485101984 17.4112785488184 19.780172472869 0
215.279601788224 -25.8414922918184 15.9290535159571 0
123.602450931037 -14.0670398489124 -10.4542408097746 0
172.767768244741 -17.5879949779152 7.87832446458647 0
145.801941927719 14.5630341309706 -20.7666789436702 0
187.192201615767 -6.90618277810512 15.3137524997439 0
199.004240977138 -5.96106268638165 -32.9070637869765 0
103.264589936897 13.7900472866924 -21.7014641112453 0
186.582263232173 -14.1295365790768 16.8007935578875 0
184.592037036968 15.2519726082767 -20.4814812415825 0
204.635353037152 -12.7940137346645 -31.2959127163148 0
160.64890117471 19.6531430687374 8.30390079480779 0
222.344369552383 18.9860358525002 30.9451518974191 0
196.117697720805 -39.3203064446828 3.82270859663965 0
214.083621097451 7.60199637648641 14.451151314818 0
198.927066619958 29.5311682183868 -10.5307096362542 0
170.683803983197 -9.06259120246901 -28.6606936131931 0
216.736113337673 17.4727098362344 39.039476859835 0
189.943665020445 -38.2055719511786 0.744279499565335 0
163.800507383055 11.2309993911496 -22.4086366814514 0
134.480392639432 -14.0192606912391 -14.2873097101436 0
84.3072986033181 6.83120327672754 -0.150412140296389 0
55.6652486610271 14.5060113430452 -7.96220383191953 0
213.977664085096 8.32844068256488 -10.520197045161 0
165.972361456413 27.2503847417609 6.38725180114373 0
212.597201623038 34.7285949527859 22.0133280717805 0
177.297524134597 32.8765794650956 19.9081767066981 0
206.658817604339 -17.4322848391132 22.0802923150963 0
101.760482781706 15.8363401732302 -19.767679873734 0
165.952475374173 7.19517347565923 7.27406781298955 0
192.749492213327 -4.46373663931091 15.7096225669082 0
177.078914804452 10.8072966521224 -21.7589645687166 0
217.672646528697 29.149356372814 31.7354765058237 0
191.780176822618 16.2837279647259 -19.6073207345548 0
214.574919232393 -3.65781288199544 -11.372748936851 0
160.290653762573 -0.587829157995489 -28.1623705106015 0
184.983726410851 -16.9549985611144 -27.417825440363 0
146.485993590472 21.2355530414638 1.34966448208235 0
211.239822688888 -32.264264690034 20.517081758315 0
209.216138829514 -5.44772467152096 -25.2147598692952 0
80.0721040547001 0.14437036467382 2.38131161822004 0
154.261697167039 18.0126176998637 6.55512001420174 0
105.302858641711 4.71631708064467 -26.7696611873788 0
164.657613269565 8.1163731707385 6.904081752251 0
214.161286595796 -38.8596849207221 5.36313509473559 0
194.685520831473 31.549386517226 35.6628812664642 0
225.507190636484 24.5782277157734 15.3281357250538 0
212.96114561792 0.801686471906506 -11.7306315785469 0
197.139947982635 33.8414586785009 33.0517867975753 0
155.846228978157 22.6806715654109 4.28168038564458 0
123.265762293838 -6.75779092859514 2.48327154820692 0
221.256609011717 10.5582476438018 11.3402324222154 0
222.887323473832 17.64717786907 28.4333585120829 0
215.356136608369 -11.5575652314816 7.13145167616304 0
215.898361396002 30.6028928009811 28.952474131212 0
176.025696254484 -5.34277494649534 -30.1758487354404 0
172.926538222857 4.62905564121412 9.27026341934001 0
80.8014002178185 2.86580420887029 1.73264503317947 0
198.352188746187 29.529111050111 37.6481734320484 0
105.450298478788 -12.9019012520934 -7.3218918027028 0
41.0377516440031 4.98613708678544 -1.15920670514615 0
204.059240154723 -32.7402919134261 -8.95403816716898 0
185.333144670543 21.43901623747 -18.4157772368326 0
200.388091479919 32.3103317051091 34.0074526073555 0
195.200390174109 38.4634098742254 8.25117971622744 0
177.273313454489 32.7285721650218 -0.472239242522688 0
217.71188006984 -34.8546264707693 9.04864342920052 0
177.154006050822 -0.878144120607098 -27.9474956982274 0
101.993661240041 17.8904061781089 -17.3774732385551 0
173.697537374922 17.9486013685537 16.2778006653257 0
167.778538613922 26.3398485557044 -9.17422387139241 0
186.752587006264 -36.1115664809716 2.34623225913379 0
98.9441204786634 19.1782566881735 -13.8784772923277 0
171.595248853737 -24.5686336699249 -10.4485786461694 0
184.138404097775 -37.4537312383302 13.7300089885428 0
182.195695532286 -34.946299723152 16.2951232170126 0
213.621208069076 -36.7598025168532 2.44245998573272 0
222.586628422483 29.33828474942 17.6246688444249 0
129.816600688135 -14.0432842243764 0.3743439719559 0
212.134368874569 -2.61099741260131 5.690506393008 0
192.37955621188 -9.17860717250655 15.6843853401235 0
218.910708890861 -27.0027836314915 -1.41894289546957 0
196.323083916222 23.493135689889 -18.3004940766567 0
187.043364370243 11.0086924472269 32.5214392603267 0
169.431363335373 -26.2572800849999 -6.13889493009028 0
182.241726175286 31.9382602494314 -6.22663001950137 0
218.312590388289 11.2111118780231 32.4256205971192 0
215.637543230201 -33.0690313026436 15.2975095422786 0
209.34005310375 21.1650527476608 -18.0886887243556 0
114.43621349887 -13.3080538480833 -12.2349311314014 0
6.50848511522448 -6.45883896795765 4.85904502743223 0
196.151041917504 -13.1301823671528 18.2478332873379 0
205.458831995847 7.85614932715527 -18.4987072744542 0
63.9620010194023 -5.40638926814516 3.11700064539057 0
88.9673175756327 -4.46466365132592 2.05462383666307 0
111.768861957742 -13.3363123641525 -11.2638132271233 0
158.67590655279 10.3690270584256 -23.2806642686716 0
218.014843105689 -36.4660248883133 5.17776095361115 0
87.5750942579689 -10.1455610045574 -3.25906724300413 0
217.895751661689 12.6633364139958 -6.87192268635491 0
194.195921868318 5.00008677267906 -25.7883546778205 0
217.389965689816 -10.5512842261897 -9.75689831235548 0
190.456501796845 5.75281887918027 30.6562406633778 0
216.658334924199 -35.6787750446199 12.1790079223371 0
110.450746456427 16.8617653017477 -19.0434190981739 0
214.276841209193 -32.7536346166933 17.2261238353202 0
209.133262460816 8.80054750790543 24.456563611855 0
178.158751637766 19.195531586881 -18.6250377815106 0
188.182572573576 -5.02622607130058 15.5382556700862 0
188.56834950775 24.7840564733482 -17.1784598121131 0
36.2491164165802 0.394054673355558 3.15436202489345 0
185.268853877551 -16.3743107086433 18.7411244441154 0
52.6185596899544 -2.50879850484805 3.81146164260677 0
209.014959588026 31.157234604373 -0.836127731409823 0
149.100052059286 -2.49790035599176 -27.769104879434 0
190.464839301238 -26.3812313529032 -17.3409369183683 0
156.9063470578 -10.0691287792761 -24.4139705225264 0
185.115266639561 -6.1559501615364 14.3151989428326 0
197.833039401064 11.0877104477936 -21.5958119226909 0
214.536138702731 30.6655876098117 29.9322690559552 0
175.838953533305 22.8283844571296 -16.0208590346506 0
197.658021094162 -4.84043523440635 14.1141479315264 0
192.351352534016 -36.6578269802462 -7.21255683260977 0
212.47922229416 29.9127488359274 -2.49253042371416 0
205.725595841444 34.2729647195003 3.69887925640801 0
191.392116813053 17.1286254436719 40.4722189638497 0
162.829835469068 -11.4976742613572 4.70328916993271 0
44.7389052139666 8.79629288969419 -22.3929248107508 0
173.733172504437 -19.631074405424 -19.0290644019604 0
125.93206178305 -13.2235083362965 -14.7770690256427 0
182.575264166687 13.276732872794 -21.0274810214997 0
128.730647799399 2.59747524355681 -27.1816676369275 0
110.717745313519 -12.6459931539745 -4.5120065337509 0
208.153665657765 -34.7212551622219 -3.24718897212189 0
206.213222426596 36.75346169214 10.5508833364209 0
203.74464232875 -5.20273821824669 -29.894396395672 0
200.757695215377 37.8056438502857 7.96168393572194 0
216.066862822332 -13.3119207277025 5.81556375600505 0
104.395740561443 -7.60117507478551 2.16416279894402 0
14.7541600500698 4.18633667716013 0.0839692403972187 0
184.392128870283 12.6729056426132 25.7207266819173 0
176.97417383907 26.1647602756909 -12.4124029011052 0
207.350615850271 34.7207784086658 5.89712550136835 0
204.357348285495 6.80673873456747 15.4231746976415 0
176.866619766116 1.61447747690761 10.1282155274401 0
202.5696646446 8.17099475037482 23.9049582045197 0
183.327569482836 -8.80769542466835 12.6031357859659 0
214.03858879572 -35.6713145537132 1.23218437150823 0
215.960135634134 30.7920437516729 3.84938527869115 0
77.5279893770542 15.3115445876669 -6.38972992219104 0
167.288347115702 24.5948655627758 -11.3765260542512 0
87.4989349744691 18.1789892682748 -9.21647523885663 0
215.354946439002 -18.434520371816 11.1549846024697 0
15.1925882815248 -5.86052236710512 -23.8183818691621 0
198.116068612645 -0.384541515496427 13.1113978631718 0
187.426779438944 8.70063836100163 24.4684014213968 0
185.447600079431 -32.3694902643596 -9.9878283851142 0
175.994491096773 4.11234242562397 -24.3384236930059 0
150.319422421952 -7.87189523675939 -25.5396994152607 0
197.266785890832 -19.1308166029464 23.641403977124 0
146.272081710878 10.5249609552724 -23.5014578214094 0
92.2280996095541 18.5725516925104 -14.7264753926571 0
143.485872906054 -15.2297236323789 -13.6942490280064 0
143.497591512176 21.9374574379002 -12.0444703609087 0
195.398208704166 30.3951942009519 36.5335956868262 0
221.961828694833 28.3271029729063 3.90371970310463 0
113.145553890384 10.3824498607812 -24.3854930369096 0
199.180750404052 -16.5036542681121 20.1145184503539 0
204.365082407095 -42.3974090103627 19.5190639756761 0
153.437952326046 -8.78823532910052 -25.1577135677098 0
212.896102494966 -34.3415399405623 -1.34466745554394 0
194.90996635026 11.0440728055106 -22.2475610754331 0
163.466202008789 -20.6261627474361 -11.6257501949823 0
123.915958725062 -1.30913738366292 2.97773438153463 0
180.402734925176 35.2408166845716 14.8163950308849 0
212.990521570392 15.6825794457726 41.6029895920633 0
192.404680799684 17.1135125563897 -19.8209772050361 0
152.525864628697 3.73250959394367 4.87233488102047 0
209.723154915265 -34.184003527237 21.345096524491 0
175.232778166501 16.4647497021078 -19.7421561884989 0
126.253632506902 4.6537601541101 -26.7739025348431 0
56.9554036957437 11.6294527570438 -21.1729115619618 0
212.641499108354 9.32177517946518 17.4892703691999 0
206.263085652589 -38.5354048984011 7.42998113716619 0
200.886421752768 -0.546685484184913 11.6460983677767 0
117.694362593481 7.90515402914411 1.68380229146516 0
219.558580491342 17.3815795613327 -6.50403702875036 0
206.298736993228 24.3418935257219 -18.6319703081996 0
177.605180498137 -10.6972495578237 -30.1308116044385 0
208.690060645507 -42.1633423042606 18.0045345442546 0
87.801633492328 -11.9545100337285 -16.3905518317798 0
218.169613110279 -34.4230008392616 7.51894331300877 0
199.319151953968 -5.94583486868752 13.2890157637698 0
187.863303492296 -14.3373988042411 -30.366312771819 0
141.353829194045 -2.85373128489431 3.69539656655865 0
70.9178024093923 -9.9504760182141 -4.45624640527788 0
209.05274316741 -34.8523452295895 -0.763729351117057 0
210.081007041592 24.588225758398 -15.6036708104552 0
186.346423263238 -36.9892560145397 5.47356184785394 0
175.3896532356 32.4185176984105 1.50824044794789 0
176.6831687423 -19.7158930735703 -20.723656440389 0
82.091615111916 -10.5894945088606 -19.8252649866292 0
82.9177358069093 18.300139317866 -11.1337563414503 0
90.4490332747796 -10.6918616599263 -4.09759849604607 0
98.401022153338 -3.86768787722342 2.12063865763439 0
79.9121268745476 16.8359462337742 -17.5520646687628 0
171.147341908042 29.3071627669907 -5.67418036239114 0
207.516352598537 7.02724819138819 39.3756780030901 0
36.6750754222126 -2.59283659009849 -25.2339966970568 0
143.652305258299 15.8087205396095 3.90057372795893 0
166.200348300235 9.56891639567443 -23.2420128353036 0
187.586781243939 34.8322762408656 31.223808307446 0
124.245391098988 21.0819448632159 -7.95500114353006 0
186.494680319055 8.71843902857453 -22.296979834745 0
135.84403099916 4.45719790354881 -26.7654564069008 0
184.663352710807 8.15192300470836 -21.7512187186644 0
54.7617252611287 -3.97557266154972 3.60935133548511 0
19.7498123288779 -12.8994600556826 -17.9594223810512 0
208.92082649263 -23.9305659597927 -15.7759810272278 0
182.260749688695 32.5931841862312 26.6302402941951 0
81.2155888751033 12.5491887636205 -22.1680705055018 0
211.688288838553 2.20964754754793 8.53405358551231 0
150.908392483295 -14.1267819492699 -18.1495312708995 0
186.495716703413 12.0301902244245 -21.33235289832 0
88.3377657990491 -12.4657838872294 -13.1277555824358 0
75.8397164564721 15.2150762938876 -19.5143120687524 0
97.0227101101501 -8.5228003605994 1.78555936435254 0
53.2589592996225 -12.1174661138955 -10.5804733524093 0
217.362824753398 -11.3704388257127 -11.7236009140965 0
222.934554898337 22.3523860246259 30.5809184534617 0
161.892128176412 -9.7884109811464 -25.5971894083435 0
202.263176218615 -1.78599445044624 9.29564451830963 0
158.091857123465 -7.27469897980101 -26.8786361744766 0
125.063074848503 12.4627983876474 0.641751342572518 0
163.866783270659 -17.0422971016935 -17.7724302504834 0
214.654246345317 -14.5498098400587 -21.1030976777703 0
177.915466233243 -33.7930543678934 2.38074224164703 0
206.877506429286 -33.1235781230682 -6.83121539674385 0
216.714736277205 32.0971897401586 19.2659421300671 0
209.907758687704 31.8646910133845 31.2373872421591 0
174.699625221537 19.3099990046758 17.2399353900424 0
13.2285334086384 -13.4376744425227 -10.0624221128932 0
177.106910589156 0.2774168107509 9.92908738221679 0
49.605798685371 0.273927291727245 -25.7447801465397 0
10.0241227347357 -4.4592021706652 -23.9960018748573 0
177.116087160544 27.4704386048508 -10.9189920651685 0
138.497270899729 -16.1172875953581 -8.18031503586192 0
212.430495186618 25.853770144644 -11.6440878751841 0
205.61570703955 37.8369562911828 21.5372825502236 0
169.545313607452 -11.7820778985899 -26.1094520853446 0
115.174489266691 -6.38214366848371 2.31479641229648 0
8.3525930792134 10.5373333097188 -17.6049441552311 0
151.02886789984 17.8612436961807 -18.1150494755525 0
197.87714342579 -41.1091841949253 15.4951883136082 0
168.032054420868 22.0002351304138 -15.0388556126366 0
64.3549569083345 13.3033260106276 -5.7365052516413 0
109.111350188145 18.9143724180603 -6.45843258994494 0
211.674997176797 2.25663920440607 -13.8443812973894 0
175.750954479813 16.2418588523844 17.2597114670036 0
174.786975144176 4.3433945151032 10.0337794683957 0
209.922046245026 -36.4001749134496 20.6210968498088 0
88.5021051425445 15.8276270944041 -19.4671802803764 0
185.511965680874 3.94239017751894 -25.9035787689173 0
157.75716378369 22.6749263094224 -12.3890698440582 0
73.719879108703 -7.21970007524496 1.27313940546424 0
132.357240859593 21.3771847738106 -11.9105055592355 0
185.080821782484 38.4098216923357 23.8514394949708 0
217.904159181072 -16.5449429317121 0.78711822772372 0
194.084285221338 34.9068810782928 -1.57309599618613 0
192.337692355311 -35.1280777332521 -9.1058942048305 0
123.179552414235 -11.0878421265586 1.55839369964242 0
188.431148747837 -9.24684822567347 -33.5617098043698 0
164.74484274913 -24.0965192173279 -2.14624067239466 0
176.897187313649 -11.6277717560286 9.23096149281456 0
168.660990519132 28.3522147368755 -6.02248253068201 0
221.644903949942 16.9090305246284 -0.148785705911121 0
39.7264182094299 -11.6614055714575 -18.8256620238647 0
63.6238402153501 0.914503243766833 -26.2217277633679 0
175.442665758663 1.53710382384716 -26.3515869387735 0
27.6886397617432 -7.1943735450299 1.473413910371 0
166.359824351433 15.8690671990341 11.608458230074 0
16.5805399771002 8.87939827977046 -20.5139566384193 0
217.874890884946 -28.7624408153755 9.67917299487346 0
191.66676421579 34.2760624570026 33.2944019097295 0
174.702139779293 13.3214705350301 -20.5835202375785 0
208.600052396615 -31.5499290088442 -7.28185548353316 0
214.84131777528 15.4524908427158 -13.2343918364274 0
177.156164338531 24.9981254987479 19.2955937655987 0
214.416315570236 -6.46341527218041 4.47743298712911 0
94.9892477677458 10.912090263287 -1.67524815709892 0
119.717166962254 14.9759620647709 -20.8555491111257 0
51.56629717041 2.1066228455516 0.844581276495233 0
10.808643749875 -10.2413988545719 -21.6275358639633 0
160.359686558182 8.02952532478132 -24.4448680557088 0
211.545779627672 -26.0097439804769 20.695937976114 0
101.284778717713 5.33280694982392 -26.5696148473519 0
214.046761000216 -34.6911790628785 17.0960803566119 0
210.924396831716 -14.4550038131364 17.808249434235 0
42.8509241392041 -12.5637738789113 -10.9340051018354 0
205.666141238642 -32.7688297024895 24.3233166665167 0
195.427312663887 27.7660626640702 40.7723759978409 0
74.2680458559108 -12.2224958608222 -11.0674157295402 0
224.479566492062 25.1508748133566 26.7554093371827 0
210.873679615851 5.68684265688146 33.4068106511528 0
54.4261742556003 -11.3059118262386 -7.97296058720618 0
214.45908864051 20.1101197454252 -14.6087913801259 0
197.954173095734 -29.0678003441553 26.7246235477427 0
195.211657780594 -36.4587195517865 24.4689292229887 0
95.4656350534659 4.65476259933039 1.1386067857743 0
186.634297459466 9.92622170637373 22.0752029588553 0
71.8305393208819 4.92758648914018 -0.267558681283478 0
197.584042164882 28.7031234306728 -12.6892327569723 0
206.779987064319 28.7997801799741 40.0068578912268 0
128.33898584714 -1.42947413595043 -27.1519702395158 0
186.571628086006 -35.7770416321027 -6.31998291207245 0
136.063191144649 14.4648109169279 2.39363779707755 0
177.53923134595 -13.6680026545459 9.58288954028819 0
190.763508604131 40.3080833115449 13.8227154500792 0
82.0994601467655 7.81685702331148 -0.863063151639094 0
78.4504132958393 -2.41245634712489 -26.2337358088786 0
20.5127465969512 12.7755421505268 -11.0542835167813 0
110.811782934566 14.7082682413338 -21.0150032305994 0
76.2912288146747 -11.2385860415066 -6.89624125575618 0
185.843693024346 36.1553526964539 2.38708286638065 0
1.56053565640292 -14.344957142405 -10.1307685068494 1
206.443926571094 7.5663454630302 28.470378443775 0
111.012531721597 -4.8790042249667 2.34193694937978 0
19.3596268052672 11.3926682236091 -7.62956916652827 0
215.539782261985 -9.45990763004927 5.75429262825571 0
116.15135522024 -13.5049442427549 -6.46626544047587 0
209.661469800705 23.8036535014725 -17.3680697730848 0
183.865555870526 -31.0259841331444 -10.675782812125 0
202.985484374924 -28.5217258346893 26.1488277300043 0
139.032703845121 -11.3125412798891 -20.5037099294248 0
42.501412418836 10.5424046368613 -21.158448862303 0
89.7661901027935 -12.4949217452337 -10.3798011166193 0
12.444741311653 4.16372109255367 0.118632504555785 0
184.506301360248 28.2430633308254 28.686417278446 0
183.107138939309 -34.7056686370775 -5.13273219128306 0
42.6788535190679 2.53681452795096 -25.0294187972049 0
188.627804251892 -18.3286011011058 -26.6160052313616 0
187.881240369197 39.5868010724474 14.4920052697653 0
176.559701520632 -1.27508615593261 9.20588970753383 0
201.253302600095 2.60273784552031 13.5159543728436 0
203.867598354307 -16.2737382087186 18.1709933957329 0
192.706907581474 39.3989187703231 24.3651765224102 0
200.988396019198 39.1282370500119 13.5380635688193 0
32.7922162942839 -12.9388971881611 -16.1190064541863 0
200.32011702371 -38.1662935813325 7.63781139327657 0
195.496718912974 -16.2970256299954 19.0960022599113 0
65.7191931164421 -6.97995266064586 2.65738164732105 0
213.246521112338 33.9330915016288 23.6021483494269 0
179.589338017238 -24.8471665669801 14.7449616315556 0
179.109867776845 -22.6060420690406 13.4099283606004 0
131.465347799296 18.0776932586679 -17.8955726356883 0
185.948007423907 -37.387589375903 7.08004604334053 0
190.540427468891 -16.8875180690983 20.9361923499495 0
215.061035155904 -1.87127545410069 -3.89977954474091 0
129.368745972415 -7.6228137552531 -24.1936606144582 0
216.261164242271 31.1159781026641 26.7393630980805 0
214.750559602049 32.7821647787249 18.4015970985173 0
195.363776577066 40.7078135631685 14.1617473387244 0
99.3797734947423 10.9115613826305 -1.22049743873424 0
221.600067816797 11.549874756579 19.8397013433044 0
51.5276641417325 -0.290132900351901 3.10145326483601 0
23.3840497518901 -10.599504097496 -21.1879940353724 0
201.820048827862 35.1505582508874 6.2612325560635 0
76.3616023930467 -12.1294110137919 -15.0674845976577 0
185.193144254172 -37.8900989694612 11.9788275541199 0
186.431960893157 0.916166795172716 -28.6415130183213 0
128.377337743189 3.14579644311112 3.07365589622382 0
65.2971925691422 -7.6269653535352 0.205960912412944 0
13.4812257011978 2.35747812055303 1.98197839498783 0
195.694242889062 5.10123222129083 32.0801244937489 0
203.332785821879 -37.5231528719356 0.288309856440279 0
204.170064935841 31.2057452139625 -4.48461863110374 0
34.8416939219195 8.35708945525781 -3.35826320502755 0
193.350557066428 33.1021060438951 -5.15168310971761 0
211.043191124495 5.99955500650046 29.6832000129442 0
188.41701788227 -36.4049731272373 -6.38121726975974 0
205.905080751073 -40.3136819341342 21.4342491972007 0
200.296431026847 23.130496249148 -20.2588379689003 0
79.1586674018618 -9.96844701289109 -20.8428502872942 0
167.539260623667 -21.0620329981691 5.00750024002293 0
190.86617147013 -39.186958782446 12.5897051233202 0
14.4415522803881 12.410307173227 -13.7225246532383 0
7.00203761383975 11.3867816588274 -9.07122119611288 0
176.005125725906 -32.4462862913732 1.34664886073175 0
204.123544861132 -0.356150703049577 10.091363768572 0
214.627286481001 27.8193218978768 -6.30449779233609 0
218.606147119535 -34.39692258942 5.66961859618188 0
221.249413060251 14.1390802244223 0.104144884235022 0
143.059462723792 -17.1800457185839 -7.19228256318567 0
155.524281224646 -0.979613440913168 4.80971337106988 0
106.181899091897 -6.14783245867636 2.24439758820095 0
197.119842969028 7.71666886277456 25.274989228902 0
208.084264310989 16.3134643868152 44.4075992824336 0
158.101302882201 12.3923268952807 6.92739027782137 0
202.922656467065 34.6730699125098 1.94408494173488 0
103.501854672841 7.40720274254122 -25.8943714949012 0
188.048079586662 2.29695895598335 17.6095950229782 0
189.146406442358 7.38980239898101 21.5142580120277 0
89.871198895426 0.641895345300412 1.96911041570603 0
158.420186818246 3.45856701905468 5.53792877300884 0
157.106634158067 25.6688348506406 -1.60962200928819 0
159.339743478228 -21.6345005421956 -1.99995903462136 0
131.537121968812 13.1794129206949 1.80884805561494 0
122.958920427895 12.199374140195 -22.9973019823243 0
157.318229710506 -13.8980437680906 -19.9875455411964 0
180.462172722211 -32.9612986854617 12.2189024752767 0
193.753314657223 13.3150136072832 -21.6707157116263 0
28.3547143731412 3.3722557899031 0.214620645678636 0
219.019812082954 14.0171696022256 34.3745387079523 0
196.67053902565 -15.9259518822672 19.5361921570685 0
22.4361251010635 -1.1652742480494 5.41479656450256 0
225.584822665619 25.7912038269362 19.2035707382019 0
182.125483180309 -7.23569599934773 12.1631777954106 0
205.454484074038 4.80079605952462 12.1076470703695 0
200.904554272537 6.66885920466864 18.6155234060377 0
49.2359348531521 15.3264774663581 -15.4787037816026 0
12.7202765502015 -6.46354109491443 4.66083368515423 0
204.82872016289 -2.22529968355052 9.31191241532972 0
194.997810128133 7.74727452786608 25.5331179714289 0
16.7921446297447 9.60903768193359 -5.14806001365028 0
173.231912645075 -29.5005001257665 -3.64643976820863 0
0.239704156320179 8.9556618236007 -18.7625557052127 1
113.003232774033 -12.4073147010299 -3.01710174146866 0
207.757899632932 -9.75175633312212 -29.1480148388209 0
218.337417227804 24.0582721288921 -8.72458010477963 0
189.767001876768 12.8913938578154 -21.3438020632172 0
121.468264290135 6.78292829511236 2.54726386274945 0
218.573760609427 -20.4727487402129 1.04525001349694 0
172.520431102159 -25.994652910294 -8.94518455188869 0
178.608447913616 -28.8049086593327 11.0673921221478 0
8.19454327305264 4.19575915517273 0.206413799704292 0
108.377772498638 -3.65323761950935 2.29189778376113 0
162.557477401736 16.9602958111308 -19.0162970261116 0
192.015923312437 -39.2425148513569 4.75679381135332 0
182.407998349073 -29.9766774183832 -11.2142563520963 0
181.499170271589 -16.1164362314913 13.8147264607895 0
180.876845242801 35.9422989027171 8.82636985501507 0
85.8589250075415 -2.19471453672281 2.13592274979251 0
197.55086338527 39.3210316144233 22.9251356161182 0
172.739185697958 -7.76314979575764 -30.094415912773 0
203.522807979155 4.46831603595322 13.5288528178312 0
200.600154333372 4.38195336030214 -23.5574562053386 0
82.5928285450235 18.2766431483835 -13.3786260566316 0
165.023905460707 -6.83898205460853 -28.2980800452616 0
147.038431106792 -18.4909098111122 -5.46329168001169 0
178.232610858527 -22.0315426902716 -18.7090045490931 0
136.966698371289 21.8801652655211 -3.87142460771912 0
180.512128289389 -34.6065191492408 6.76115656654806 0
46.6958590435068 -11.741497932007 -17.9075770819214 0
201.162713131946 7.06594423247415 29.6917241922673 0
171.061633357768 19.9250999526537 15.0933654572641 0
53.6398705832724 0.6868215995883 2.17878197300085 0
207.46205817678 21.4961911904839 45.8118643353292 0
200.637274614786 7.33291557944939 20.5101421750859 0
218.466465054139 25.4305318864063 -7.07865981834517 0
213.650638695546 -2.25963746032384 -12.9930587928448 0
165.126667208114 -20.4844551705119 3.86273637086719 0
133.420121272796 14.8847274908274 1.44209728432935 0
183.694959872584 30.8880094261416 -8.55709502139471 0
130.808621817771 -14.5016320273075 -11.3648139043982 0
217.899375825259 -21.046591160095 -11.3980191844094 0
139.902617896553 10.2749002149679 -23.9178211632277 0
209.212061258823 36.419153443919 21.0667899161797 0
87.4482900007836 1.02489023394637 1.98424464338688 0
215.328421853442 -5.23904006039815 -10.4303027944364 0
13.8308828531315 -3.43332261492591 -24.2093016271839 0
199.317058554513 -33.5810403304025 -9.74775611102894 0
163.07878486419 19.5841544646517 -16.8752649318821 0
41.6392020759667 12.3397495109659 -6.35760947836758 0
195.081787299459 4.25877512305278 19.0206769379394 0
187.951673854341 13.3819252284652 -20.8222067518454 0
209.615572641572 13.2773809012169 42.5905987371532 0
6.08145047430134 -11.6306553826924 -20.1976964768189 0
189.887334329299 -32.2073533503774 -11.2904813934195 0
205.917533064389 -24.4845298171416 -16.9703307546444 0
207.22345160442 36.3483347124966 25.1998933151607 0
24.470677534816 11.8471394522706 -18.3430714572223 0
8.53485101727117 -6.75309008278999 4.35904212008116 0
136.395265978909 -14.5591077418128 -13.2749817823334 0
164.865073028747 -13.4606182141167 5.14332945155085 0
209.5276040676 -32.2740350634516 -5.58239201002498 0
216.058673205874 31.260258172957 6.12315641863223 0
208.03800050756 -38.7697830118288 21.2707236641452 0
139.975694540034 4.77139264321949 3.82753730947983 0
25.544397852775 -7.0957276747416 1.7766246766496 0
208.60473476997 2.05729858063006 -18.557983888107 0
164.747466797065 -15.6784205993705 -19.8850677325959 0
89.4112516200733 17.7671684933257 -16.4688045503862 0
176.185002905889 -32.3861763706618 -1.30478837774077 0
202.563179615595 -37.9310564871045 -4.01875732211989 0
204.285908904667 26.6779231840545 -13.344940199842 0
174.042545974813 -25.8257701964885 6.58040333167613 0
224.541096312167 16.2254243497181 12.5446935963686 0
141.335464893807 -0.306019439763285 3.86594756743996 0
165.47394929271 27.6966067610192 -4.83976129660895 0
146.620475321704 23.4706327372486 -8.13480576833358 0
54.9577496327699 -6.64881167056109 2.62489135557337 0
46.1951701410007 -7.5860499602055 -0.0326199536658613 0
121.157618652422 -13.6554423388943 -4.51724961218382 0
143.948847856377 23.3778891507552 -6.2161913159483 0
73.0894975836669 2.3505507578953 1.18976260158024 0
183.765828569521 -10.0830415373436 12.9258250917676 0
