199.099624084052 30.3422568414811 -0.130864906634036 0
120.048250247223 -13.3279507671747 -9.72117486941121 0
223.585840873285 -33.1835344687905 9.52538760564962 0
-17.1715962561835 14.3824093718581 -16.8747058774558 0
206.552597847464 32.5926962849267 34.5254372403333 0
185.875343392125 -24.5464857810824 16.0244932364747 0
148.477172246565 -16.2893670881444 -9.6107508551474 0
135.91462794042 7.78357423584752 -23.8083306368559 0
207.960391362738 -37.6942738595195 1.00226054762912 0
103.643229215791 -10.8650268240579 -17.4127434626192 0
196.933565051564 -21.6664877282435 -16.5172237509513 0
-37.6955554947623 -6.1814533073838 -17.1077933806915 0
184.980210259736 29.3388193539969 17.2730905555166 0
187.513281678154 -27.5190048425217 -7.51223493503311 0
-7.69266812939132 -3.6542487966645 -2.53532573190815 0
213.063298007095 -2.24878322243122 -12.6850054419878 0
224.803659402577 -22.1290627784324 -6.22660163308456 0
146.444216694087 -8.34648302568754 2.00982941630834 0
221.322219650168 24.9224513598974 20.2435729306239 0
220.876854781272 12.4695601510171 -1.19426350919058 0
195.940940720653 18.351953754686 36.4399216320505 0
190.625013233 -2.40315018159967 16.8148626915233 0
169.512801869265 6.39518343682436 8.93645001575999 0
142.380262684128 -10.3157621089144 -19.3537364303168 0
106.148311564221 6.30929575239486 -24.739967420514 0
219.387049819014 10.2885059490319 -4.79607867150439 0
-20.1144316658376 14.2834492526516 -17.119709358882 0
220.896632308326 -6.82268431388861 5.64929774766536 0
186.913730574698 -24.3386759871273 19.8977406751796 0
200.970136634614 -11.9779341720122 28.6879066894401 0
41.2043522249189 12.0140468950532 -1.923711048264 0
204.543021670353 12.6730128743892 34.494658577134 0
108.940216988743 -10.7728930732318 -5.71545980925737 0
191.546787024935 1.32812288164327 18.0357731601086 0
207.047238157181 1.55017326904674 -17.323587640692 0
137.630222827931 13.1501860588984 5.1419026992515 0
208.046685812034 29.8224038226414 0.803794398343096 0
167.363084672663 -19.7324003438539 -7.89912060481287 0
150.56513696636 11.7590404587744 6.43357360429073 0
-25.480494139054 -4.55140332025295 -20.6089396922042 0
194.103358755772 -6.72277187656231 17.1891090801979 0
59.3334583215892 -2.71138378577695 -0.847969690085086 0
226.718554275761 -22.6354062402882 18.4112122379591 0
216.291210729736 24.2876062689141 -12.4862359741693 0
40.0513146701996 -0.902554107283216 1.03906026487114 0
80.1893044520063 -10.6612023697934 -15.3671194761704 0
60.1038802216045 -9.85699489268212 -15.198240053599 0
187.564645238615 32.0069280914893 13.0835849722233 0
131.216486483534 -12.7052411507439 -16.091663619761 0
222.268767413483 21.4261571062128 -1.91374615682394 0
179.500953836041 11.6231727908019 -23.4810820298085 0
53.6297350806765 -6.24895409692997 -4.96833615013038 0
167.382186345907 -0.534739963855534 -22.2222128944493 0
132.046762864428 1.57294232293406 -24.866392364141 0
187.343090019179 29.9611949356446 18.9233539187691 0
-21.9375481391068 -0.792419312886961 -23.5671508231067 0
220.0318270918 -14.3533071325009 23.5819197060319 0
-38.6390281725807 4.76665088449321 4.87546062752294 0
189.525598842795 -13.7866798308304 18.5735730326179 0
177.565631800406 -20.4451326725513 -10.6853690411271 0
183.155678516954 -9.21827593102558 10.692259557539 0
215.588994592518 14.5997626402106 26.4931258900686 0
183.144233334156 10.0798075756748 17.064138658717 0
214.520074404101 -12.3338765067505 19.0761969407389 0
101.844073632474 -6.73379140556027 -1.71247077106861 0
160.891054917733 -12.3271640734167 3.89586848056183 0
179.415416290316 21.8329801130325 16.80119179162 0
39.2278701789922 15.1825961285629 -12.1267645116761 0
12.3090801744858 -6.59251599640155 -8.3079449384762 0
172.498969899052 18.5963595025479 12.2135918634933 0
214.764879190448 -38.246124686521 6.39818207162539 0
-47.5288410257287 14.3959376707259 -16.0005243445435 1
-34.2743333531959 13.3017848895023 -18.5692531571471 0
184.488789017449 25.6308603353018 24.7815825960313 0
183.895580293407 28.625158805991 14.189105447345 0
223.500738869507 -26.3751179111572 26.6424767227659 0
209.673518332834 -41.4129666091814 7.01592444464027 0
153.486106803617 -13.0648933705326 -16.9922766921712 0
203.495976342179 -7.31078977851456 -21.1596643086729 0
226.850367544619 -31.7203914077049 12.2461276899079 0
112.170595853444 15.7860252792531 -3.19588773533798 0
-41.3707335028829 14.8018321752599 -7.35000156564324 0
116.152340981341 -3.04538247327222 1.38115070897058 0
209.42421218965 -26.7244437361333 38.5157549583943 0
183.972199862791 -19.0037159159699 12.6787113925441 0
117.599660122558 4.12514328919365 -25.1762183605069 0
98.5621850302701 7.64830548969559 -24.2595295964788 0
-29.1273700201884 2.6662891638418 -24.1761514643349 0
46.9070376345018 15.1857470045288 -12.3092161489455 0
216.482645342463 11.8600710879953 21.9946136138134 0
219.208446889098 28.5842369598204 8.26296632330321 0
212.609320432158 33.948227784798 29.1127808392308 0
220.391713871168 31.1027705064609 21.3588346588502 0
202.872102489099 13.9116132653357 -24.7410768074672 0
-1.49045013812036 11.5242030148585 -2.47367997579359 0
199.533738251505 -41.7849560690933 21.1380622465371 0
185.392994133648 -14.2449519531482 -18.7805595502344 0
186.642293048858 -22.5818890327702 22.1982916912897 0
69.9283904662908 10.7896413231907 0.264061065225127 0
-38.8628013546064 1.73506813273148 5.02278492193075 0
-18.7208131473959 -0.726110789650637 2.9870562146734 0
181.611804266037 15.7499769046082 19.8687919880475 0
83.9960717926148 14.2959426027107 -15.411476709795 0
196.251617037173 31.0747119922851 2.71339021992823 0
210.628231686746 30.7270070874341 4.51763897430193 0
9.72372037398248 13.2024645003359 -19.3265333955625 0
163.307808985196 -7.39041517941441 4.91727313170588 0
90.8021175653011 5.60607272239342 -25.1205190854807 0
181.546270998724 17.6545120532266 20.9858684354069 0
170.347245914869 -3.05716897879025 6.74493600365462 0
207.461150941292 33.7502409059426 27.2071333770824 0
207.238134294117 -42.0148940385619 9.71438541877263 0
211.695696948275 -32.5121724659252 -3.33369171366399 0
11.5883371866772 15.0652149700326 -12.6571474872078 0
70.8806627176171 14.0989260285441 -3.02649759729071 0
106.896749787163 -7.64311996325178 -2.14522836593841 0
198.056798590003 27.0035723367907 -10.014441623946 0
70.5174273095897 4.93869728318851 -25.235042967823 0
183.714435070224 -30.9528702762504 13.128895066677 0
200.02452081025 -42.4704751068327 10.6282526205234 0
55.3368230357397 -5.25812224921527 -3.66024919180846 0
216.705423551415 1.7597000120756 9.03862208200538 0
178.721290049199 -9.97070626300677 -19.4901072399726 0
200.861777719149 -32.912606848429 37.5902403322483 0
154.541860292651 14.5635728461875 -17.106515021941 0
39.4634521845032 2.16027757216878 -25.0836059203888 0
194.791751323253 1.56714388472681 17.4236357914996 0
185.413546759078 4.1814573923606 -21.476934753512 0
207.008546666786 3.24240276282204 17.8381193997624 0
-5.10235203998162 7.17564018575613 -24.1351706345881 0
145.471587941929 16.4215760584277 2.6216660374742 0
178.824850879709 21.820126419167 -2.0793666656907 0
200.526044466689 -16.3768292396188 -20.8298649570721 0
-17.1567301186553 -7.29259451685722 -14.8112839937691 0
-34.7633101939177 14.5699748288606 -15.9539864912503 0
78.0261894309375 13.3760350799616 -17.6692085841281 0
-5.16271630944732 2.58406052644691 4.45302069083714 0
207.856172213025 -42.3006481946658 7.61657093434518 0
210.010466418144 -34.36294299166 -2.17401898810844 0
220.532163152113 22.0720355644377 -7.3548962213564 0
-36.5746100035177 -2.32549147284259 1.61249572394646 0
78.5445915593203 -9.35784685868973 -18.3583342120964 0
185.828456559277 -38.240883742912 13.1917998025192 0
171.735114048069 -8.98987072142169 7.06018917834901 0
219.725875413999 -35.0831241299705 13.9876992403402 0
192.07142061934 26.9967755882457 -4.35526870553585 0
7.0919812023129 9.10209832685671 0.00330634414811578 0
228.068962738117 -30.0108550850746 13.5396764118447 0
220.5621755146 17.8609496268931 18.4866692140419 0
200.198069013948 -5.07806215787777 16.0288023544253 0
96.9671925356366 3.05302594531169 -25.3951385549077 0
-44.0393365748262 -6.04976038423212 -8.70659909771673 1
221.515121682852 -32.9110615609435 5.59667232017146 0
115.985473913506 0.909753980679942 2.73467486382072 0
78.2292895717523 -9.35476899855779 -7.64501219401259 0
-41.4788056272815 -1.15269109671891 3.60541542451505 0
176.322676720913 -18.8373808146624 -12.2410536382061 0
195.981095342954 -5.96295663716722 16.8097935799029 0
216.956618754035 0.603394425864637 7.56841097679755 0
200.452911840541 34.7881725083996 17.3447700220116 0
179.358334590103 -1.27789581853248 -20.9505495393148 0
205.365268329859 -21.8556980156359 -16.1029504235185 0
47.1241468801097 -4.10231160341904 -2.92077143901355 0
223.811059934064 -11.5137142323321 10.3109714540691 0
100.356472705445 14.4953380491213 -15.1391099272666 0
225.70118116706 -33.2617405613708 17.2885411828481 0
184.826109616496 12.9382896329585 28.348256161742 0
193.224134499631 -33.7443659624615 -3.97739392306006 0
157.721286987212 -1.37038274471977 5.06543528470114 0
175.622302222127 14.9750887626198 -20.3776389525505 0
204.6144191392 -17.7073976354425 -19.8823116431998 0
211.063993149471 26.9428186903601 -8.51873422811259 0
107.583803548322 12.536271551181 1.37887512500988 0
85.4311144034047 -10.6798693682027 -9.8960500197581 0
194.782670315153 24.3917741201024 -15.8604668167144 0
208.471962916416 2.56782772780452 14.8173205073032 0
123.130940828515 -7.06053353079519 -21.4476938025611 0
147.269867501545 -14.0430448910472 -2.26174847501223 0
201.858793875163 -20.2156833200594 38.6207819225132 0
54.98244460046 -2.49808982054716 -0.947817652944004 0
199.842727656227 31.7680476525957 3.1713696434709 0
92.3258761278342 8.10718353846338 -24.0793426254235 0
122.567540237166 -8.87185130875658 -20.2393333964061 0
1.0017814161962 14.3055756438626 -7.66322568231636 0
215.197968715531 25.0660193964322 31.8648165427442 0
0.794681188465128 10.0208988907648 -22.812188071694 0
43.5263448034255 15.2148438886672 -12.0805737464051 0
205.986710576326 4.15496600977569 19.4706161748997 0
114.358163251423 12.3063347901329 -19.509016298645 0
198.240551108638 -42.9223448163259 17.9019589737055 0
78.1540470222639 -5.56448665131942 -22.3775372469807 0
197.986961204111 35.1360136440106 11.5036087651446 0
111.592668044809 6.96837456964893 -24.4066079505904 0
198.036805866595 26.1010090072976 -13.5315576084829 0
191.701667046016 -21.6533085174592 32.1970549985042 0
204.344515864475 -38.2661785659815 32.5370644931607 0
206.737000309005 -19.7733467722336 38.664075109527 0
36.6490201198244 15.002207284838 -8.0150811736794 0
159.259409813243 6.87823053686034 -23.866393746368 0
-13.4327375324438 6.34287281527658 -24.2997709886062 0
-39.4627312396759 9.00207129446264 1.19253280460892 0
-6.73221024783737 -1.39562041939845 -23.5001077016747 0
216.657081171848 -0.0426524687973313 -6.16699053608241 0
181.550755366999 -27.5093616721687 -2.59422611526807 0
121.344114755328 13.6605779246074 1.90807341771457 0
114.686981762 -10.7247829427726 -18.2219475204286 0
213.006917063433 -37.7256978697318 24.2943521452627 0
-35.2016328397224 -6.22842978326336 -9.265101337115 0
187.698565631677 -19.7846810638332 -15.5757820123763 0
-34.1071806989197 5.58132643780213 -23.8792253976603 0
136.321657555739 -10.7228151213027 -18.8883249761675 0
182.705295865987 -18.5332776014588 11.8617061710847 0
122.437651353513 6.91606900839866 3.99709490115512 0
202.36157970245 28.2122042245317 -6.90437652867688 0
221.878638858899 16.904706538833 -1.63220870321544 0
180.12893313228 -15.3890625335885 10.9496687493778 0
19.3441028024664 13.9498360998557 -6.10098720649998 0
146.146348877034 11.0453584841879 5.95412133276033 0
224.531485868272 -25.7387669791113 -3.56100320308016 0
173.794796187342 -3.73829747883021 7.62161447506495 0
50.3903411849417 -8.12508431510293 -18.7085192632262 0
210.084479652349 -39.930644563986 18.3435778169056 0
127.94249268089 16.1764986580105 -2.70869016827133 0
17.4360709439008 3.85287425565804 -24.9770229963397 0
182.012067213283 4.21313247892695 13.1416117671457 0
76.4824036023449 -8.70633443096484 -6.66581776108061 0
126.38119267495 -7.61006083277694 -0.432908788801747 0
167.97460991318 19.5943041321097 0.848664177872141 0
145.605849730684 16.6580458042734 0.530319853897089 0
210.725607110252 34.2679982871518 26.7189770888269 0
214.346697052013 -39.1566049134447 15.074193978289 0
215.815962103293 -3.39965214672193 -9.84400314049331 0
176.096194344061 -21.4482619911926 -8.56596690284468 0
217.291467463007 -30.6686297432244 34.626469396921 0
204.273271459866 -11.5260131043397 16.7775374332683 0
169.691656960074 20.1968777721158 8.78711500625464 0
220.858079914323 -12.7312129221736 17.6261165859782 0
206.847120646916 5.85432666638342 28.6095590008363 0
187.201620786869 31.0341309854116 10.0831211010604 0
183.306863514301 -1.27154648845419 -20.4853197960285 0
143.173459011419 8.56381680333589 5.37771294554243 0
169.258917940619 4.10312234037417 8.12316383652986 0
-31.8393362396792 14.3848109261183 -16.4624838307857 0
188.081488290745 21.0285448004146 -18.2844415275997 0
136.169693495992 13.1023261228844 -18.5030246463477 0
220.773704357721 28.8478124672673 21.0314621714728 0
198.617040731069 -12.3790595298455 27.6484144438585 0
178.786570795953 -19.7423732590288 9.57340743113724 0
209.257819803229 -19.8483757518775 -17.4886964666229 0
-47.721616749769 15.3427692530183 -13.0379491168632 1
165.752006203596 -18.6933023671352 -9.70604657514515 0
158.21402129847 -11.9146923369112 -18.0969214506556 0
199.517662838584 -11.7444963954645 -21.6261868981532 0
158.460636623751 13.8544801763931 7.5738219614611 0
135.234542169889 -13.2648781365678 -4.50099159929501 0
225.932026873949 -28.41644886825 1.72348577709218 0
125.349803114395 -5.2544856615658 0.90263342715889 0
-39.338093682186 -5.22153129516449 -5.96085999559749 0
198.88097133704 -42.8655809578425 15.4602510547627 0
190.210420752637 -41.4981127225118 16.5961022510248 0
198.471236721245 22.5699000486234 -21.8898865794175 0
222.329028284449 16.6129804725796 9.15374604511642 0
222.791425919538 19.2604652206515 9.93461678449978 0
191.871827909815 -16.8924185595553 31.0405184938289 0
200.867361677442 20.4551981417604 -25.8033320184657 0
217.230434467977 20.2124639334859 27.9897167243191 0
-3.18927400194458 8.92653056933171 -23.4531438267832 0
200.455441414192 -37.8571443599867 31.976383387991 0
194.62209951058 -38.0482140409078 27.2239159656224 0
199.538172159261 -22.3623197052098 38.3485079354031 0
77.9581041794364 13.2263916922547 -1.49371404362312 0
15.5262263022725 -4.25956777015029 -4.08097723617252 0
216.1626900605 -38.082995992948 11.0426322031239 0
118.488544774757 -1.11548139781239 -24.4030622572447 0
216.252435145259 -16.671652617481 32.2880360131931 0
170.662464358909 18.6366509049123 -8.021644611713 0
208.157877651507 4.15763186685788 20.2283523442598 0
-40.2020017921944 -4.31352974547335 -3.44437949395787 0
209.590974572872 16.4948576036663 34.4092208534041 0
213.550210346784 -2.11497265991266 10.7024088094722 0
136.498372292174 -3.87947155421655 -22.9717177312473 0
158.94361863452 17.25659736428 -7.97764061694523 0
-12.3871788325378 -7.30287545761009 -15.6816439895621 0
194.617192199003 -15.4459395896438 -20.6890448663178 0
-22.7887295505922 -6.7684820513298 -10.7656091363518 0
183.09912523454 -10.1094435079075 -19.802413201588 0
-19.6305298582111 -6.99101188252152 -16.4204992958139 0
215.406018074106 -31.923461607836 -1.23266624970358 0
129.317424115111 -1.97343441456844 2.69531873204511 0
61.2438496532774 8.37212820123722 -24.1064054263171 0
218.960406081364 8.24263924638102 12.1328347788682 0
88.5361474774095 6.95117896627661 2.88000528055897 0
184.471720786299 -7.9303258938742 11.8930476562499 0
-24.5621394434611 -0.806327313544964 -23.5007287144949 0
220.381933151238 13.1561246102545 -4.56902175452575 0
106.355094015742 15.9473245865913 -9.28401648247931 0
-4.1858519679741 14.4562549092367 -8.35806184944831 0
208.581609391534 -39.8518675132859 4.25853640403674 0
227.255540160318 -27.2744814027762 16.7048953317832 0
173.169815835769 17.5497258579085 13.0931548835852 0
88.664836540597 -4.77145961607643 -22.976840996356 0
212.520469567987 10.3130747249888 27.2844344001191 0
209.488696487042 28.3644264130304 36.0630410272975 0
-35.7214015518105 -4.63786050702399 -4.32255242292618 0
177.668105164767 -2.39556468282128 9.20309362300221 0
101.748259147964 -1.36732956067484 1.50200652398948 0
206.834647229302 33.7357669406089 9.37508811912748 0
211.316634665452 32.3195862041153 15.0443550806871 0
217.11297774963 28.9908044682822 7.84535846875381 0
130.879579444294 -14.1200369776792 -12.0106556755999 0
123.413936102735 -13.5052817098127 -12.5436151743407 0
197.156268850073 8.66014583177296 30.7453913387375 0
147.573230433683 -9.21881908809951 -20.1263823299138 0
215.871387871989 -37.3583702892553 28.1463154020596 0
210.967818823629 32.2886119913029 9.30699552875816 0
205.816688496447 -12.0477998664758 16.7824365436786 0
188.062639473184 9.47619088050946 -24.6081128998967 0
152.133161439486 -6.76543025773186 -21.3017824970097 0
29.5455326223037 -4.14513025416004 -22.318000395981 0
35.6440845186315 14.7903007654342 -14.5863508138609 0
96.9763528082818 3.3408129847554 3.15152472721647 0
133.865555183928 7.79384420921322 4.63155674602933 0
221.730267883871 -7.78121033589747 -4.67056331362303 0
16.2808340047456 -2.99993015813292 -1.8982058491622 0
-44.8105333927315 15.4699203181685 -11.7167449889455 1
22.6435923174654 12.7258001277065 -20.0709339626435 0
214.723727780536 -10.5786255781953 15.144741303686 0
134.740010141426 14.6244437274464 -15.2509029020945 0
188.491405412418 -2.10177108259798 -19.5952099856921 0
217.109422972066 5.37245157209553 -6.17845055001876 0
117.762707028268 6.82428120130022 3.86089406734967 0
196.40105739956 -11.7404785035517 19.1829298193285 0
176.712883485265 -15.1695412947865 -16.1891947356852 0
-44.3630918266739 1.58902502767608 -23.4174285538781 1
213.039299272996 -23.9544116206824 -11.9370388003211 0
119.004829461787 -10.0454295543153 -3.22003327113404 0
198.095071829784 -26.3248163240675 -12.3076205627587 0
12.7194825071797 14.6761525526915 -15.533015727632 0
204.470404136329 16.750486736284 -24.7920291543376 0
162.379172997324 4.25999020143245 6.96384543945994 0
-43.4522601020636 12.7694922476646 -18.9341319621462 1
197.409149030202 -41.6880046984028 22.209478848798 0
69.0063089085982 7.70646333927514 -24.3627477589653 0
204.998509161342 -4.37166153835422 12.6007595761719 0
109.739382587712 4.62771847432095 3.31806276834568 0
188.917218814379 -15.7658581255101 -18.8815449627183 0
221.478124805457 -33.8466153428706 9.652429696803 0
199.57853133872 5.78281855562628 23.6811096751046 0
-26.8176127150125 -6.52125441274741 -17.1978740748872 0
195.301070557646 -34.5260586677622 33.9785717191509 0
202.052116543144 26.663767520542 -12.4387994747745 0
202.488155874171 9.13314687517994 32.5907832920643 0
166.177657431738 -2.48582703427056 5.9938722181967 0
199.397677686151 -37.956050446091 29.321028083837 0
19.3877444408673 -5.84445828341836 -20.6658321781405 0
216.082649796839 -21.4639426431204 35.259765419086 0
213.516385677482 24.5601557679152 -15.3651233805616 0
221.115194341535 -19.0193915623467 -11.9436535590547 0
192.051271465686 -42.7630891830619 17.6877808616177 0
212.091689681241 -9.92198085871277 14.7509163945818 0
199.585721243694 1.40260978542599 18.2520805988952 0
214.013151390186 -16.2678500080293 33.742370600007 0
216.601814347507 -7.09149026747201 -13.1851521152063 0
189.117130577606 -12.9549311512117 24.5066306646116 0
-45.2080583607204 12.041716790185 -19.6835231546257 1
129.378527259049 -4.17507419088818 1.84536467465285 0
187.131381045217 21.9695285451644 -14.5514203812025 0
72.4987036383623 -9.69642508998282 -9.11556767448227 0
221.237586945347 -35.1097842027752 16.2096957821291 0
178.498797874576 3.87769774579334 11.1940370931493 0
208.85278743824 25.5860575545181 36.3395118090637 0
13.8832236651996 8.57880538210272 -23.8244307961437 0
227.182861994821 -28.3308629850913 3.53090905927768 0
221.470323367315 -34.2654978402216 28.4506246811255 0
190.794424505455 -4.06588901832596 16.7407246995719 0
217.781153217143 -36.5291503654232 29.0160239926842 0
198.643037696763 -36.1777392393592 35.4814541581948 0
-10.509930808782 -3.40349097977661 -1.7542874314474 0
192.888196274256 15.0240845295222 -26.4931896317748 0
108.849120921619 -8.41301623768352 -20.583928121097 0
196.595162059712 -1.40195644580158 17.4804611376121 0
180.63649288181 0.693919939760416 11.2975467825228 0
169.351117897337 0.253297948899187 -22.2069396936733 0
-23.3493150013223 -4.59418895194043 -20.6342561917486 0
179.255898325636 19.7496758840351 -11.7601721069211 0
137.081060623708 14.2590849611666 -16.2920120272642 0
188.308544199838 5.82699203837771 20.3826922723899 0
141.024276405099 2.42119901670921 4.4821151951971 0
201.363712132057 11.8607989410666 -24.5442481599131 0
190.640356983159 -33.050419417055 28.3464676880482 0
175.467694417628 -9.75925174922243 8.38488326421268 0
33.5242920572734 -7.42066330430666 -19.1112036649603 0
26.4280198331794 -8.48338562410972 -13.886788168583 0
113.366085206783 -12.7745198823147 -9.72976999487059 0
213.216229537774 28.6932500827297 1.39745606297847 0
195.854266619031 -29.6654896383357 -8.74266964555275 0
200.798781459613 23.2108965887067 -21.778196916134 0
187.032635594916 28.1793640613537 4.10088554163016 0
192.842948838489 11.1649709547585 31.037472334627 0
114.654879403351 -6.29538576438811 -21.9971766918443 0
196.289006524654 29.9343530398768 0.259729789971093 0
16.6983826870958 -8.23428595214929 -14.5379548132188 0
180.734346288214 -2.15072530688752 10.7761241722785 0
63.9466849878568 -2.9244725552885 -23.6748203979088 0
157.607129078246 7.82044206728623 7.00492846709403 0
-41.1958437597141 -6.74630165573821 -12.7360243580712 0
214.787904601379 33.8081380674346 25.6937928149126 0
186.377745525655 24.7406539121995 -3.6982324011139 0
179.416168091274 13.3496680920404 15.9107774441699 0
219.745110866365 25.8521249718436 0.699458319300278 0
67.5474578290306 -9.76598866668624 -16.6927286401986 0
173.137406436142 -9.07369429903673 -19.6002295568374 0
-29.210970452428 5.03220724477129 4.34015555540402 0
215.285678468867 1.41810617417811 -8.08255444451608 0
40.2146050839919 -9.01428667715818 -15.3338736652297 0
167.952487435262 -7.55759252135631 5.86752654920859 0
12.8971930226816 9.33348775005139 -0.145413691429385 0
215.115650297071 31.5554336488173 12.767857762008 0
198.999055690033 29.2429660008293 -3.00979999706502 0
196.931209980967 -34.8195269048318 -4.4926750715342 0
116.92496257092 16.2163326116868 -5.89056493644005 0
161.516712823253 14.3420203410127 8.40917004188929 0
222.059826733431 23.8896315126439 -1.26241673674371 0
-13.8585362994881 3.9481618809564 4.46212260232264 0
159.375212350172 -11.4886632537955 3.6158325819312 0
210.881865494121 -24.1198729003739 -12.4357520217 0
197.770919065265 -24.8490365292416 -13.484021978408 0
76.3208821552511 0.841530968528549 -25.1060144136651 0
69.3495803253963 12.5087813687904 -1.11523251584639 0
223.68892245679 -21.3312692170832 25.4025062347618 0
111.152397809615 14.4862877637675 -0.35625453391041 0
223.18407276397 -29.8778969112923 0.279788009118878 0
66.6903685667845 -0.828368015293677 0.830240223010187 0
-37.1328714119293 8.01231776576417 2.03330178454246 0
219.864002711533 12.9107381897535 13.4913966061234 0
184.100535851745 20.051499966546 29.8878183894795 0
58.2275067130517 8.1114564938514 1.60758397676395 0
203.641266847547 -40.8984482897855 22.4150660917158 0
202.646993948924 32.4288252858034 22.2563562027051 0
174.584466346384 19.7933601249252 -6.29904251896234 0
100.570062108886 13.108780584722 0.291584908456823 0
194.45061414741 23.5476591421644 -17.9808998061189 0
48.8852583170394 -0.553025489281932 1.2005640304687 0
163.804064287979 17.854851324774 -7.03996698763528 0
200.893339856903 27.0989406715072 -10.6374054892738 0
221.683969021354 22.4018380440093 -3.93410886559496 0
204.789459160318 1.8337160809113 15.8231724916703 0
164.674576378904 15.7890288760696 9.00369076660133 0
92.4848332620184 -10.7862667998729 -8.85789019320962 0
181.067117461568 16.8170927565631 -20.2756592084783 0
-32.5220779633562 -6.14192198829908 -8.82854901534139 0
185.78335438116 28.5433959448522 6.69228693242151 0
174.451362377738 -17.8455762346028 7.84856753587011 0
85.2341628375115 9.33491735873879 1.54572951209858 0
58.7607728261955 15.3960350912204 -10.6545398826406 0
168.505235597975 -8.86161335319183 -19.7118011572011 0
200.223436624332 18.2029107354309 37.1480621928397 0
213.191310170442 22.0836111462723 -18.335884741925 0
185.741866293471 29.1160504645531 19.7698250054967 0
-47.5759573934711 10.0545172222189 0.63938425631368 1
99.2087189711648 7.66649970339466 3.20445974790492 0
213.354518538858 -37.5472811075633 30.8776908455286 0
39.2369196694474 -1.0693033778413 -24.229713261237 0
6.97787436904934 -0.252403712926245 3.1712716689245 0
87.8593313130178 -7.01645856266012 -21.4457602634025 0
175.023585143219 21.0820357763177 12.3105512309949 0
193.514614498449 17.411915491312 -26.0836900769291 0
179.656991305851 16.6303368077822 -19.7243251715121 0
200.058204896426 26.5582889015534 -12.6022497913375 0
-17.6265242102964 13.7867133053731 -6.48192969620233 0
181.057389478067 -10.0143092326677 10.024185875446 0
192.172149492618 33.8569189272855 10.0383034555136 0
-30.5514861997352 -6.52241717559509 -10.2941925488757 0
182.798536742461 6.08701006967327 14.0864621714448 0
172.549933250362 18.5176552274193 -9.94694383583048 0
197.997404138647 -3.48544887290954 16.8222361176632 0
157.523478808288 9.79863615957851 -22.8599691294868 0
179.767064653911 -5.07405454176088 9.51552035907175 0
204.077424370862 29.0073201511968 -3.51681183067754 0
176.92373753536 23.1130346963657 5.37870586357693 0
-16.0396533510374 6.62028524727108 2.61894697860572 0
73.225884523066 1.10995874568355 -25.1389105900376 0
219.902968525467 8.88072094918414 5.80996519460254 0
146.995392584493 -7.3188161519632 -21.2016729888215 0
189.153463850798 -24.8268133790427 -11.1264121463962 0
-30.3030769713865 -3.88514137865689 -2.39919225194319 0
148.942629261849 -11.6390571357051 0.625799545622552 0
80.7713229809268 8.20891393693289 1.98213688246588 0
194.679819735465 -35.5992212819783 -2.7792187630368 0
-16.0517416565768 3.15851887415541 4.63143753228673 0
2.2837028410323 2.52810290956661 -24.6821695401867 0
168.5576356552 -14.4007893982623 -15.887483535234 0
142.840746031703 -7.89439066860243 1.63091708922577 0
205.0289824232 32.2631944913425 5.17586382722835 0
184.18411242134 -2.69695180564458 12.6472471872926 0
208.756665183119 5.28258437041853 27.1397885254582 0
116.900541306064 -12.3812408051148 -7.10845551679125 0
212.017032718847 -8.52887187162338 -18.4433122011129 0
203.971565356313 6.77569286518044 29.8011240716069 0
203.767538096024 32.8262257558136 19.9642140088747 0
60.9969041633094 10.7905299783975 -22.1358689916443 0
210.767468163256 16.6809962875303 -21.0868623654583 0
196.956195408931 9.33856618667557 -24.5762002576592 0
215.422812786458 14.5166157122284 -15.7488653902867 0
190.345709753237 33.4459585054577 11.2792383858848 0
189.038074520249 -2.74306681707231 16.1740935323854 0
79.6287248106059 11.931777609762 -0.186409119969721 0
167.118095697367 -4.80642351616034 -21.2070355713227 0
42.3112412934726 -2.23384331824369 -23.701928232502 0
32.7915307710708 10.5679328477896 -0.861949367449692 0
193.188161717216 11.0765587467874 -25.6959449395001 0
164.227497737571 -7.72150773448093 -20.3703823658164 0
199.867290978359 27.3996565742796 -9.30066385778859 0
183.312396613913 17.4585909561248 28.3834054883957 0
57.5958042810496 14.7920995025955 -5.41885265557428 0
116.618011483151 -8.83665895314863 -2.32400107402596 0
134.933719991995 15.9880484284472 -10.4165990129865 0
181.41057066344 22.1293605818415 -5.91489850378489 0
184.844477377771 -2.36625105839422 -20.2840299731757 0
94.9175386554189 -10.6863681041855 -8.20129408458092 0
34.2054833284459 14.0971424448972 -17.1841381302837 0
185.118738273448 -13.8108928622987 13.127053947396 0
122.550507652155 3.46087223406798 -25.1469093803786 0
215.853795570521 -36.7429056516434 31.0202357891929 0
182.124278916352 -30.8286039267998 6.05294837043416 0
-25.9973544522433 13.1596850177672 -19.0873123411272 0
29.7831014313507 11.4900337987241 -1.84112149142603 0
217.962786897549 7.52403565421313 14.1838120389108 0
181.189741295994 -7.75372246721898 9.71719321571731 0
56.4784176685989 1.28381208724995 2.3070772503861 0
90.1599761500817 15.2508548068465 -12.3525791534537 0
207.306567801437 -39.6339301704908 3.42897731654617 0
90.5364987896304 -6.96023684539371 -21.534420192322 0
181.503876295513 -0.530426363603314 11.3069259824097 0
-5.13489081419355 -5.21326684292227 -20.5499064417627 0
89.2774425306791 8.77296909151612 2.05869932024462 0
71.1694122433096 8.9147446142151 -23.6651920235963 0
119.847982718407 -10.5423642151077 -18.5932271686221 0
167.568132701373 -4.35459367147947 5.96977754531283 0
204.641822972683 -30.6932903049309 38.7515065833738 0
151.734374441683 1.59545699564767 5.18795760339485 0
136.069860841734 16.4218068319108 -2.52902498735165 0
183.856831854291 -15.2833571621044 -17.8103597419424 0
-18.6567998215858 10.3796861791047 -0.951626234106903 0
195.196575627844 20.7301295309955 -23.0962693127466 0
198.917343839833 0.686606730188859 -21.0108738521105 0
140.143766955318 7.83299221360339 -23.8076510313213 0
-6.15386253650736 12.8195731701113 -4.44617157246023 0
157.074433841185 -17.9746761175725 -5.59482712852061 0
192.331607821914 -21.2513103721371 -15.9004541088497 0
-13.509808935597 -5.50502548686748 -19.8958167306688 0
4.66489810100046 -1.40876637642262 2.14836756801354 0
-31.9670788665722 0.912522750039697 -23.8384335375762 0
204.226107869458 10.5968552543017 33.296779270528 0
-13.5521809661105 15.0856451381167 -12.8882952079092 0
170.521061548328 19.5817428243182 -2.10979522465782 0
194.198468494258 28.0933662537517 -3.66045392576739 0
-5.77621437126678 15.0654325592916 -13.0284580169275 0
175.672657041617 -3.10498740830781 8.33088943058741 0
87.5610210656731 1.61775643839153 -25.2331349672028 0
165.2649064315 15.4890720581523 -16.5853588498051 0
65.3521704831826 -2.05421686989608 -0.0681828436984043 0
212.255463298373 -20.5506420688988 -16.1370302226568 0
22.0586721162695 14.4306266108935 -7.2478681575357 0
11.3144565958231 6.46719974402347 2.31045307865977 0
127.187305179048 -13.5531732950161 -7.18987730203166 0
-4.91101316992758 -6.09437913572009 -7.9096438949266 0
145.864964029867 -0.899165216038441 4.12634998306466 0
50.3186274009071 14.9370877092106 -6.43394745451125 0
-35.484261018339 11.808722472567 -20.4784966300684 0
194.735287062301 33.6541639867136 7.98890968464714 0
218.34606580046 0.715691133973645 2.06568370623034 0
199.112932048324 20.0462396661548 -26.2457440292148 0
214.000296470936 -31.2058201433055 -3.0401627404171 0
201.243179196812 5.2906570981893 22.3007621976258 0
220.194844198139 -13.3282292378548 20.262681357296 0
181.743767117799 24.2585091576896 19.6334442300463 0
-30.0302391325708 -6.60888978806027 -16.6505863344413 0
4.44712222824534 -7.27344262747842 -10.5584068987891 0
62.033021413134 -9.55276253061889 -10.535245259952 0
222.454971510975 -19.6520842065934 26.6272673279903 0
73.1011926044909 4.80041839850797 -25.2505285302814 0
62.1190264935729 14.165459765824 -16.2118332082102 0
184.68677959552 -12.01222496571 -19.5322001771058 0
163.557636590577 -15.4197083263561 3.73754706623628 0
208.43500316932 -8.44670231805414 13.5247314268501 0
28.7646803607154 0.497001179668305 2.65327796313182 0
175.802711743361 2.21669382306229 9.53868606504549 0
207.579659386868 18.7303686982832 -23.4458845411193 0
160.139507218891 15.5261657639666 7.75934944721483 0
-19.7206024805743 2.53038777819413 4.81511847284917 0
112.729586262354 -1.64177416986117 1.86117750563848 0
149.019526582611 15.9336204926385 4.85927099744536 0
181.791441840591 19.4108060196725 22.0704500386535 0
222.295770251278 27.2554938242487 9.60995908281091 0
205.644156296128 -38.332385381859 31.2405077666846 0
217.767884860474 28.0857460856077 5.71210964131356 0
165.881647099144 -20.0217585145363 -5.66708233051006 0
-7.4387635943329 -6.31367729544352 -8.56822688802385 0
4.06582908499173 15.056444200323 -12.6013459934208 0
182.250240757049 0.107124688603353 -20.8927392742468 0
183.443412692699 -10.8951453711703 11.2918411099689 0
-42.0013631081299 -4.45984966275274 -3.80974882057547 0
220.695953452945 29.7642301934848 12.0139228623303 0
141.481720184717 -5.8920305392515 2.31801338445573 0
225.189501629012 -13.9180921796603 11.9597495452722 0
224.779457079343 -15.5521554281201 -5.34707723987532 0
-11.5490114321827 13.7813844315094 -18.228995980318 0
133.255164688153 5.5694560696935 -24.653201827669 0
63.9446234367227 4.73301990746501 -25.3095484307212 0
195.308097548489 -32.2917255405594 34.7291825957616 0
180.530364918245 23.2332144699892 1.39621521363017 0
89.1788477529058 -5.18463631145039 -1.16320219524754 0
133.434431424782 -9.07328895786304 -0.617744067625164 0
221.362471378226 -14.7038669038252 -11.7318078275117 0
-25.3006209468365 -2.8430910195376 -22.2825376248379 0
167.41854736554 3.27047941276294 7.55066923070036 0
171.421966895278 -19.8942799281378 4.38815758326051 0
195.075509659828 -4.37834930399011 16.888319657414 0
218.791410951124 -13.043785283624 -15.6659539040998 0
170.424338240108 -15.6860612622038 -14.721593181193 0
175.760139850818 -12.3001265271866 -18.1000747262992 0
207.090728275953 27.0052281955723 -10.5001960726118 0
197.779361571427 30.5665560920207 1.40264709870985 0
81.6056934355636 -9.75635022651309 -17.8401139659832 0
165.454700882799 -1.32868672519154 -22.2236147088119 0
178.483830425036 -12.4686027744083 9.7173166412544 0
51.1868669394634 7.53007256024514 1.83306755562114 0
27.2673133477412 13.2060604056799 -4.07677022174793 0
60.5873358659733 12.8133517943048 -19.1912819452348 0
218.103332567874 19.1387891797263 25.947021792879 0
202.039973453111 -14.0858153099647 21.1892695109223 0
146.18325833369 -16.0078781845969 -7.39190945075077 0
203.040358997952 31.7627438750412 24.545708369084 0
27.3571234895397 -2.70790253875525 -23.2827742880027 0
165.848981209556 6.0460957836354 7.99018914300972 0
218.073045433636 -13.258331063549 23.425138363049 0
190.025418681728 -34.3709099972022 22.1792776916777 0
182.107542584369 -29.7832322043658 2.98062650078008 0
142.727751169747 16.3462954480067 -9.30678002849844 0
46.7824798828174 -2.59209177866672 -1.51071008144694 0
-16.5967585933406 -3.4130160931357 -22.0332144073183 0
67.3252417918657 -3.38020227903941 -0.946810443232818 0
121.278414746621 9.32789261816557 4.3211739813877 0
161.438447630195 17.5880845723437 -7.12673172037873 0
168.395477328093 -20.5537338524813 -5.9826012471616 0
174.421814135991 13.3785563696769 -21.6241059267771 0
221.229197627888 -17.1977537183161 26.5478604598255 0
214.079557250199 -27.5337888781444 -7.54055007847994 0
154.786013859241 11.6682987968522 6.99468330516839 0
198.110232555935 -42.98029576409 9.96279911440787 0
119.94131086574 16.2188479928435 -4.97435115188368 0
221.360505385568 27.4498158818694 19.6608715131832 0
204.606434195055 18.8767948988797 37.0524611244122 0
8.84722636975944 0.76980888571501 3.60902424558822 0
186.885481695996 -15.8892991018738 -18.267774002422 0
-44.4861223056584 -3.49343800844282 -1.30937279427304 1
107.525158718748 -3.36323968205171 0.693099363394603 0
136.030408977135 -6.05568508259899 -21.9447622936322 0
132.224011996014 10.8507846041815 4.98735359515444 0
168.216117562373 1.78968646072894 -22.7163630556815 0
176.415703626958 -18.5249673985929 8.60890843082522 0
166.678440516054 16.0786605836444 9.8126131841249 0
69.4844620578677 11.6066426588215 -20.9350467239872 0
-12.3737483701034 14.6865628110674 -15.9648458008005 0
189.358674955548 -13.8465385017933 20.6970838199533 0
212.43199570837 1.08692489148615 11.9215398634074 0
-46.4844117061851 -6.41073621959871 -15.4664040331316 1
193.206281902968 -11.4683108886262 19.6121155532824 0
207.408762468571 -1.836407544869 10.8865572332713 0
208.42533257994 -38.4229804049278 2.88230649650069 0
-34.2095465459288 2.68080449817173 5.10386892501689 0
71.0006100281597 -9.76685264231856 -17.0547331612372 0
197.437428136596 0.647262497970523 18.2599014491043 0
212.292137827544 13.6299562538223 30.5456323560549 0
188.227852574656 12.4210488100703 30.1404549112153 0
185.753691722584 -20.8948620856756 14.8215366874987 0
190.848690454613 19.8837934891067 34.7801739951965 0
192.866688859514 22.6518277611208 -19.2035693425641 0
189.384667527914 -34.026705103358 -1.65184969215255 0
222.29734147763 -9.43726398351388 9.27171536938991 0
197.7840716801 14.9646024711492 -26.2666635691928 0
133.205905746561 -8.40803833659771 -20.6177417055352 0
-31.1204871157818 7.18916675603 2.51692184782206 0
-8.08621275558983 13.3700771670847 -19.0021218314997 0
79.8860489100043 4.93344058865846 3.20253031885156 0
120.615255609027 -8.99630861845526 -2.05516196181525 0
199.619715245977 25.1476229128219 37.9475268630907 0
173.494344939697 6.8392073989411 -23.140413604714 0
10.1355732258125 -3.74541972140957 -3.11773313882683 0
-10.3488948899415 -5.24620031216357 -6.02096086488981 0
175.446587227627 -3.32959583255003 -20.947059309671 0
219.458930943317 -34.7162759478835 9.39406700242595 0
111.209958626903 -7.65886787878918 -1.78671582396802 0
219.406232687623 31.4250550942958 23.690992348903 0
184.511406152467 18.9810280492508 -19.2431800959844 0
96.763122949657 -11.536612774684 -14.4183653419003 0
193.302090727525 -4.61974489212297 -20.1560085312428 0
212.302728497174 -39.3865246197774 18.2246256546628 0
24.6538500078205 10.3695679027901 -0.936485270562369 0
148.187467730827 3.00099345196547 5.18003969673619 0
142.602358234723 -0.126610051312505 -24.1696920654902 0
171.927982587032 -10.9261728404609 -18.6797819626931 0
13.4100642147276 7.8935588780207 1.08892544797 0
-34.7703669185926 -3.90639992341638 -2.40655925527811 0
164.04279243094 -0.111341380558114 6.16003753830548 0
192.82245824611 -8.29173777911298 17.6367988034725 0
-5.55171864122052 14.0460814935767 -17.7655377128426 0
185.689480224997 -31.1787284458985 16.9878471849115 0
190.48582338784 2.94849864007223 -21.6883207792975 0
176.493057822324 -24.4364861750997 3.16522137706274 0
-3.07074130950863 14.2438827110355 -17.2565068134021 0
135.862513682869 -1.9064722792834 -23.8203083310584 0
209.455953058376 -12.89447957099 31.4802444109552 0
55.2080017879787 -8.24690061847992 -8.10233276999203 0
175.778790884408 1.40156848509773 -21.7942937626074 0
210.15825430975 -35.4920992871997 -0.32168615815586 0
8.45335610521735 0.31785627046552 -24.320127423457 0
-29.1241525172889 -5.96039215958193 -18.3291464751705 0
96.1164577050618 15.1641596271815 -12.9696911680722 0
89.1752287918565 12.1183440937905 -20.0796916337373 0
164.527878471339 4.78636635816544 7.40677270303378 0
214.240471698805 2.58060283888199 13.7808944198165 0
-26.2773131130814 -6.97836464743852 -12.141491818149 0
107.130121062509 5.39869535661105 3.48956704568538 0
27.2441817005109 -0.0664126879740947 -24.463122662186 0
120.352742108765 11.8353270590191 3.25247431163779 0
197.915950050081 7.59708383098662 -23.6346951740134 0
168.581363315747 8.75165419115088 -23.1829782479272 0
61.0414466240024 -8.3134073074421 -7.64980513737889 0
183.847559006028 4.78693787482735 13.6300847005557 0
180.081437507496 13.5564177120095 -23.0530034607714 0
145.823062283671 -15.485792245425 -11.7112234032875 0
218.771982261285 22.1687954416762 26.1380876067721 0
202.733956774856 35.0495833068059 12.9148573716013 0
205.976970651667 27.1303339591404 37.3761521634923 0
133.906139723798 14.8427624681985 2.3429274484739 0
161.22974268434 0.0402427642027443 5.84165659707956 0
2.33692765956651 7.53250625566885 -24.1139826516371 0
167.494167093136 19.970256762759 3.79088120067262 0
75.9171842861839 -2.1293636761473 0.433108850640005 0
173.034806851969 -22.4366822285189 1.13303058827223 0
73.409585996176 -7.33541708568005 -4.90899538362526 0
211.496143817419 2.00038431932619 13.0472916534706 0
141.670893945426 12.9310696737313 5.60645129662128 0
177.154906251087 -21.1676777844054 7.90991915176494 0
194.431898505605 26.3431012142456 -9.01609515842513 0
207.971096421464 -31.3680127504432 -6.01387680230903 0
-40.7319171236366 0.198958159560659 4.54083294654387 0
126.677974153603 -12.3643144171379 -4.93775727099369 0
196.189911058173 -24.467695526279 -13.601379622831 0
103.343232113507 14.1953479315051 -15.9384260872087 0
141.597075314862 16.5626537170894 -7.13143578235258 0
149.747849435729 -0.421526379095478 4.55357280807385 0
204.586019447328 -24.2997734140419 39.3462510108136 0
193.164619564055 19.8450465539934 35.8428489361963 0
206.382138789034 -40.6990983184087 13.8330851484498 0
20.3803069355177 -6.78643698925445 -8.29109707939747 0
172.898159439804 21.2578140461771 10.4067157315462 0
187.620749290918 -7.3219070204471 -20.2710814954649 0
47.3918798721207 -5.75551324849519 -4.7096611225396 0
203.392935531007 -14.5368225118579 21.9665262855115 0
201.975421331078 -7.19342034091289 15.3305928292638 0
148.311673259618 11.5700501017994 6.18286375935728 0
228.082457151861 -23.9659756221434 9.74209069192522 0
212.873435561559 31.6971583974642 16.1983538969913 0
201.039806011685 9.48561221809156 -23.8173422723073 0
76.077487945232 -9.49673350954215 -8.18668329827531 0
162.273061873804 -19.1300380814551 -6.43501566257024 0
212.94355175465 29.8150777405189 4.22841069229616 0
151.214852796897 -16.4344909882947 -4.92780193762869 0
92.9322280511662 -0.523225936230107 -24.7661052225473 0
186.538117556891 -23.2010708028716 17.2939397194945 0
190.73439819068 -40.4397695238608 6.95005120955254 0
127.880249924047 14.7885458554239 -14.6093489290095 0
214.545543497634 -19.9511993351211 -16.4119212506517 0
11.8854707671142 10.4207268581708 -22.705535927765 0
35.6445411802408 -0.987618116322216 -24.2342425337813 0
87.8705303758748 11.8480515383022 0.315738479147863 0
179.345755438359 9.27958758094461 13.3984826720235 0
-31.1587972112257 12.9066155203628 -4.24879318905893 0
206.204019935269 28.5353932276094 -4.55261886443195 0
4.89333125880763 -6.13692127916757 -19.6790013346376 0
70.2658242836895 4.18820087771018 3.14209579006245 0
207.227585463115 -6.99390997215667 13.032635593941 0
208.975728375122 -11.6679413063378 15.6979545525597 0
187.729813952561 -15.4693394443591 22.0876287068248 0
7.75069064048237 -7.58030530265689 -17.0846222453157 0
12.9537262892548 -7.90249911783963 -12.3333396896881 0
204.874151330168 -19.9150110893499 -17.948717493855 0
213.026553589574 30.6894333068317 33.495927676938 0
211.648572084398 20.5957447403473 34.2470094360033 0
197.426675118312 5.52241479667151 -22.5438356995554 0
221.235778502551 -17.2545349191421 -11.6041490393535 0
194.431211486478 -13.5107633924909 23.9308022356763 0
166.582679727798 -11.1774060193681 -18.5290597856938 0
164.037114459022 0.397865737317093 -22.8072178456711 0
135.863060591248 2.04721957505491 -24.8362449838702 0
176.722907294364 19.076008185765 -11.4415418217548 0
128.255829825577 -13.917162604134 -11.9529727623974 0
214.756792199272 29.9606235751087 32.3164574907968 0
179.886884751779 -21.0556976326441 -10.8772896808928 0
189.326500323651 -7.43048787450238 -20.2658866006643 0
156.76040705746 16.9242693926548 5.84243706992064 0
206.150597968237 -8.68268024859942 -20.9982986807088 0
25.2330048381334 -7.89817080511994 -10.8377880851754 0
97.3000067339376 -3.72886637035604 0.034789919483869 0
185.376815332538 -30.603765227397 -1.74492851356476 0
173.299543346735 1.4018558271769 8.55887888139658 0
53.0887050663398 -8.38125690468791 -18.4547480116737 0
-12.6151749859204 14.1250643047772 -7.43442304133126 0
222.361509329271 -9.71770943494865 -6.03014353790713 0
-18.4991501427831 14.8548736700098 -15.1772810587541 0
143.820822623777 -3.12713244472597 -23.1191652501158 0
98.6456180671138 -5.49435651827806 -0.962857767911794 0
-22.6371240382368 8.8498131593193 -23.1876782269661 0
165.508054889076 19.4090579883211 2.97436500949264 0
70.5929032809676 15.2463927871917 -5.58841567190297 0
2.21845736948281 -1.0180146680698 2.71984704562791 0
52.1731778704171 0.920840451501666 2.1999851521437 0
112.428705338565 -11.8801509651252 -7.08470194435576 0
97.20471905722 6.06524087409613 3.56701768507803 0
175.630999365132 -21.3597881289711 6.43514892568937 0
211.586487480597 1.11316471174417 -13.2245176336517 0
166.716503040028 18.9319322459116 -2.2409923787878 0
206.439628977887 -37.4866848382554 0.314262308076915 0
149.461231059068 -15.3776322542542 -3.41768535667477 0
149.837654731253 6.27222316548641 5.79501331753898 0
218.360611728543 -12.8095066909976 21.10391625309 0
203.162410523221 -40.0757545057669 24.6778828290193 0
141.695066366936 0.314326641462575 4.1152122624713 0
193.430148458225 6.07858289384255 -23.4525462566938 0
199.139927843779 -2.13845818537526 -20.86559534511 0
23.4953538271381 -2.12549345815096 -0.122339292950684 0
163.141329507572 -9.793230441427 4.79017403019784 0
125.742540982848 9.61223869822346 -22.5444500248406 0
181.4802039321 -20.0909700783322 -12.6674883777955 0
95.2931325123506 15.8907902626009 -5.86265408261656 0
-14.9134293348172 1.55122543623964 -24.3467986286769 0
207.255370380274 11.8584136624193 -21.667716807443 0
2.27022174529969 14.0874917749305 -17.6943628783247 0
136.17297912284 -3.31049977815057 2.7243202544654 0
10.7265531092321 8.57367751193732 -23.8194183144437 0
109.646559736844 -5.75809077048585 -22.3572480160765 0
202.049134397424 19.6937870288804 37.5295603745183 0
219.330368325757 -11.7603825734802 -14.4929920821974 0
194.428478507942 -0.910856580351909 17.2315609037632 0
147.44513318149 -5.010233625433 -22.2245105480315 0
-39.5392709082367 -6.32754113697948 -9.830782168341 0
36.833260143543 10.5840987891905 -0.799463048324199 0
146.009864043812 -12.9638257622561 -16.7751798399004 0
226.751691673401 -24.7931039876136 -1.20309799705805 0
183.255614655679 25.7766365484667 22.6865711244357 0
138.342892910437 15.3771946476764 -13.3030845338303 0
201.312470385763 -37.050338780188 35.8836373417071 0
88.1714025597976 15.0482859889049 -3.42721566394089 0
83.1588448052894 13.4724425547964 -17.5095975372414 0
15.9451781769743 0.819459865688142 -24.5404963861675 0
150.422482577941 14.248119236572 6.11188525121055 0
211.769959843154 -36.7479340928776 34.3870711613487 0
169.103122584059 12.5495224377193 10.8403079801339 0
208.880755231573 -21.9480185677434 38.7956826881246 0
210.930639704434 18.0980877100816 34.1638435876237 0
186.906901024175 -7.20130786799536 13.9763531606869 0
181.292490481446 24.3835500291696 17.4709786796321 0
185.085865944995 28.2180972346165 21.1181512402469 0
-15.6720878904306 11.7576395212458 -21.0676648374426 0
182.264265663295 -27.6261656899175 10.4894458932078 0
151.628187474416 17.1470774865223 1.51741427310844 0
186.774270251227 -20.5356439010396 -14.4179911924593 0
223.278672901592 -31.6372296209511 3.76074166241053 0
33.6861479406938 4.71176530890997 -25.1339671272477 0
222.584834481778 -16.4236107458705 -9.86531961966591 0
-39.1408995307604 -2.48645203959144 1.34013826570739 0
94.1304769908023 -5.52453871830574 -1.20993272139353 0
180.570374970913 5.22262414569357 12.5372815213954 0
213.14404737366 -18.9031067203382 -17.7920159079655 0
190.835432263992 26.2975466967816 33.8817453386071 0
176.857497066625 8.66452191786984 -23.3372330965593 0
180.948614714947 -4.76639685026918 10.368858493937 0
182.572357298157 -12.6556950295492 -19.0059977895132 0
180.805101234704 24.6568822771442 5.02007672946164 0
23.7669336545874 -0.191998715874886 2.52441737787727 0
193.25449256089 -32.8325970156289 32.5986749506985 0
218.307502258279 33.1980890977455 19.5986502165169 0
89.3557100290646 -10.1603521347106 -17.6469056987447 0
185.953246730508 7.51696753819481 18.3856614646283 0
210.400150412598 -1.46708298395118 -14.7107953211489 0
197.166316258697 23.1552159191277 37.4997926711152 0
186.276840687359 -4.35450986564009 14.1745156617369 0
169.23434165539 -17.8381448447789 4.80564892714977 0
