197.867283563474 16.2307251784635 -18.5684846575254 0
35.6763048353497 -20.2467324063694 -14.6062606828273 0
99.0997318023156 2.81804860422883 -20.2014547067804 0
121.55826705079 -6.54146725686509 4.4471009788207 0
195.973614503652 16.2162761073931 22.2618406900996 0
186.711165590648 -11.3937196677695 34.5072937391153 0
193.149097471915 -25.5754028891662 29.7129169199448 0
-15.6053125457929 -1.95796490198568 -21.5615698693032 0
165.566714783304 15.4617316521814 8.41753524897623 0
177.758594025187 22.4814896006335 16.7214559249643 0
179.021631657862 38.393571228092 -0.484194739502347 0
203.826855785864 -24.6711147378386 25.6174201805623 0
87.1777100833732 -4.35389389476392 -22.2952062954632 0
96.0056473770415 -2.81914051500628 2.38531010919953 0
110.306359250095 1.27525387252456 -20.3189454079456 0
50.0209634910183 -15.2205000366745 -20.696855315558 0
197.253075204977 -2.50527230730335 14.9718264372473 0
142.800448522047 -15.959491609873 -11.6268751215909 0
177.357207371774 28.6653452610912 15.4305846963632 0
54.5081804103074 -15.0684604318393 -20.6476225020105 0
116.737582405862 -13.8507165899521 -0.535299675454005 0
130.14246070801 -14.1045266192662 2.03288110311365 0
159.138611775172 1.74185857819706 -17.7883303472362 0
129.042796554747 -10.3736329363761 -18.9202693611688 0
118.362213892693 -3.03292444448497 -20.7011331399903 0
-33.8563091036471 -20.3163201338209 -16.3156975334011 0
2.87246539648273 4.87478369839912 -11.8946923092681 0
180.684092551457 -23.3708081355364 29.5922956759714 0
-27.6144755307088 -7.06354227764175 1.84336898442194 0
55.7414121585417 -12.1060839467853 -3.32362736559598 0
200.899098079258 11.3819417781391 -16.2432085547775 0
156.457837558842 -17.18159160846 7.93644371812949 0
159.07850714277 -15.2357759224835 -13.406647140168 0
92.0294469476152 6.0626032442182 -4.94616473050419 0
107.230971849631 8.81377593141769 -6.99382757759562 0
164.996910992312 -12.2130030468108 15.9679366459768 0
14.4468581633487 -17.5414836999578 -20.1124681508745 0
192.681751322259 -24.7030489585002 26.0106915077657 0
21.1710854166395 3.37543034029083 -6.86259538608584 0
192.665019404098 11.2002939413764 -22.0772559520823 0
174.748146271365 -21.2966588186816 -12.3731071894128 0
133.601244668668 -10.0368927852769 6.5265269233556 0
186.737348416628 -26.3981204633636 25.6416080252106 0
-24.566103972797 -15.1313766625577 -3.25396849757925 0
201.052781547673 37.4069877743433 18.1017221937867 0
21.3183136420959 4.68901108702566 -10.0180059107029 0
170.278255097388 28.8517798094728 -1.26194713368291 0
208.477930681048 23.8983283433878 -3.9665316217258 0
-18.0154976295612 -9.89670964007992 -0.760391772710133 0
-41.7507996463905 -23.5288305597203 -8.61291717570986 1
172.89688922194 27.5623492732868 9.4200128093935 0
150.279776736107 0.867518101061803 5.57322443242556 0
74.9597702754668 -7.82189833940276 -22.6527668031329 0
176.198497012446 -24.2817570530301 -0.45757725291885 0
202.053965312378 36.3263509575541 23.1520092300604 0
181.003907575842 17.9211041706581 -19.9910832337847 0
183.14287914714 40.917577749758 3.18724989566945 0
189.549560689823 27.6168506560916 -13.7033116974701 0
66.9326895301831 2.01071533646148 -2.58389587540188 0
22.0433999382157 -6.1802985129594 -0.669431126532143 0
59.0621457791737 -3.62520628151648 0.981007701854862 0
41.0516562695435 1.15152140081282 0.1534255003142 0
89.1738116484497 -2.07762847385746 1.75751159560194 0
197.351976768366 -27.7346663982483 13.576766023008 0
51.0864984175911 -3.28363063845482 -23.1424131653398 0
137.624236839689 -15.6540841533044 -12.670853168465 0
197.089773286866 17.5653868869715 -18.3324011117423 0
66.3965931420746 0.668432081279363 -0.748986941645225 0
190.888021931071 36.4293107104129 -2.64427452367669 0
89.2817523850565 4.04947907550115 -2.91552605782932 0
141.68417088499 -2.72021926389946 -19.033065558422 0
63.3011153674766 -5.16553977453348 1.58903901580847 0
198.531643412971 -3.34504235822072 -6.53910863584854 0
210.351902517674 26.6425638062067 8.63022041945118 0
43.4242654499364 1.78341131148471 -3.24016942231283 0
160.493940952053 22.2470077372488 0.920487737093614 0
-0.553460050528161 -7.59091575589552 -23.353645905663 0
165.812675092091 -10.2119492695682 -15.0293692330041 0
30.1057006734726 0.163676292377178 -0.857701971401631 0
197.428198728501 -0.40572426199107 9.54679051712652 0
139.801542819568 -15.4683279113292 -0.264129444336959 0
176.962591730761 20.568024033676 13.3490595981686 0
177.456758526518 23.6012914285278 14.8614681250992 0
30.4053075597503 3.07773565078597 -5.883400090913 0
-27.2763773226293 3.94552809884174 -8.72956050599137 0
12.6378455098351 4.61611302424361 -17.4147526431653 0
46.229471783098 5.05338838331765 -18.7751882282556 0
80.5102354992584 -5.99232624107546 2.38417699592083 0
202.879500845197 -14.6869571488235 28.8082385721384 0
165.92199701127 -19.2691865381 10.6737214948301 0
113.112415815328 -3.73048347504203 3.09458777244828 0
196.88866360492 15.1823709248872 23.283666708433 0
183.605133628608 -23.3496619166568 30.4285039528875 0
175.574738523032 31.6767909652996 13.1559031438713 0
45.3023218814832 6.23976069970482 -15.0127516504112 0
146.411486020493 14.5501338189575 0.248947224179951 0
44.072565183236 0.802610323257523 0.200628923795094 0
90.0580022688688 -15.6558636745063 -7.20547605448577 0
-15.8229973381765 4.55846435339255 -12.9229447671192 0
94.5710652139115 -15.3128051765234 -17.2529982809466 0
178.863915248238 -25.875288765822 0.817591956530481 0
152.155972030521 18.6379690082917 -1.9653625233563 0
140.125004924617 -16.0031528845084 -11.2692283812156 0
4.38022816502099 -10.5927512523948 -2.66527032368841 0
45.8338947428293 -15.795234099461 -20.4045752627443 0
180.947065922297 -29.3719832196152 10.1014611765823 0
-19.7174183988311 -11.6730046282793 -1.65783272266035 0
55.2882603935604 -18.5085776070094 -16.0705659266093 0
203.164841985581 -19.663235699392 -4.92795053964922 0
195.425778118996 3.88740381053898 -13.580106816851 0
-23.4906383781486 -12.2245000407448 -21.5680223918298 0
40.1391472176257 -5.20356365107833 -23.4499834116574 0
24.0133569019791 3.16366029799317 -6.3036104087545 0
86.0414459139594 8.14294666909693 -9.89943432126026 0
175.741577696638 8.43229241319217 12.3548178529014 0
143.195793474268 14.4192335901442 -9.7320989166321 0
205.172982552713 -12.6227291528615 20.254757786743 0
34.3579762263851 0.548485323119024 -1.24094885223491 0
143.425536862215 -11.5731555313627 8.00022043368806 0
160.731470603831 6.91903766724463 6.40611702037461 0
193.599406046134 38.9285930029158 10.5385665785356 0
44.5692301683376 -19.0258143138315 -16.6494393791902 0
201.841197194856 -20.7301537503524 -6.84469709107174 0
175.288548369922 14.879925039084 11.5746748273312 0
27.1152588648812 -12.871966796276 -4.58235545403526 0
182.957777051197 -23.042628183503 -14.8529508145951 0
35.9893437112657 -17.6144216902633 -8.78974681201643 0
175.159839591641 28.2232946084314 -8.51643633843968 0
178.755755316497 21.9139046288004 -16.4645213603479 0
94.7722385958907 6.33766055097205 -4.98271995212223 0
175.196876837549 -23.0765147107634 -6.20286200024967 0
80.219999473787 -16.1386472754813 -8.20025734313641 0
139.24173795833 13.5010879860623 -3.1633668623925 0
8.00637302136441 -9.08796209394286 -23.3708746299116 0
120.402555727777 -4.27213901996852 3.62983513921203 0
157.669530169002 -11.7286633228838 -15.2528117423402 0
196.653589809991 -17.4756746815505 34.3773955220761 0
190.920486961654 10.2647602426701 -22.0258434234295 0
123.866832622201 -10.7647911834675 5.45998182954626 0
197.44712741725 -26.9292478426327 27.7130494891641 0
202.230560628822 8.68410511937561 -10.1587205917212 0
201.181812283645 6.91614946976929 -9.66954103167621 0
33.5917103388838 2.51465599827431 -4.93270901148892 0
191.675199769058 -4.43107369041869 24.3351256567663 0
193.299936881536 -24.9924237160294 -5.74641113287847 0
-13.5892192640034 -5.68277647793321 1.48982140253748 0
200.246473709611 29.3292830662968 -7.78833790277853 0
26.7262016720964 1.72444721918066 -4.17181344753569 0
189.367228985388 -24.0812649529749 29.3827194488855 0
209.878898066364 25.959537808558 0.794185824882762 0
178.101645302603 25.4031799342839 20.3043104478783 0
186.258769160056 28.413724783568 28.6249040375789 0
108.904394003695 9.51383984848407 -13.6798334586011 0
176.997183060647 18.4502946433642 13.2259917295303 0
196.077350118825 30.4268324277213 -9.07047122688907 0
53.393401176372 -4.56114729237818 0.720833471538546 0
-36.4702281211045 -22.6409147200399 -7.42133839475651 0
209.110802233216 28.3062969586658 -1.7941451784855 0
169.993569763034 -21.4698156128414 5.71077573521016 0
167.759634412505 14.1967405943837 9.73083620583165 0
153.000215940133 15.3723003585983 -11.2308243804112 0
171.014462068435 -11.6244580608995 19.4013617668511 0
2.83012381214651 -9.65097600307714 -2.30155019193534 0
201.414047905685 -2.77031823253748 3.76623020846245 0
153.293164528541 0.138933410650759 6.26161036589514 0
195.808018855835 -24.9801147011488 33.0177754752095 0
200.581399397231 -23.0441069500962 -5.89356176866246 0
-13.0104048113468 -21.5949369207759 -8.92658271619365 0
94.3098629914072 0.159874186007263 1.38737334523036 0
-33.3698887447852 -2.81968910808814 2.08820314146518 0
161.405115920663 21.9832105685087 2.86280728732109 0
-36.1619234301943 3.35485966809026 -7.20650577887717 0
-33.7177508955767 -22.8218744694747 -13.299275482744 0
154.47200670593 4.73520668604381 -18.1540637615881 0
167.38678663591 2.07711567368229 9.49726831769725 0
136.327712851383 -15.5539593977139 -3.02569440691515 0
170.510996317227 10.0010638095357 -18.1568249216095 0
136.919004804123 12.6267115007237 -11.8968277460239 0
51.3564235202471 6.54980688417546 -12.3830014394381 0
183.065272863313 -18.7312832025995 -19.3672587522541 0
161.926269049038 19.3313781298217 6.37954927004226 0
22.1871729530505 3.45935847522101 -19.4921409082004 0
179.944314006429 18.1253514718662 21.7699671432121 0
60.0981132034772 -17.5710527235742 -10.575151350151 0
187.597999141566 -29.8393396808632 7.10756663680077 0
184.10699161655 30.8883668275649 -10.4544130017574 0
164.498842740862 -11.3860450797054 -14.9960945650911 0
200.809372954511 32.5984057524372 -1.93610281541282 0
12.2800114403204 -13.3342669871004 -4.55076251299134 0
179.808912757272 39.6475516056749 0.851287728682333 0
-40.4849322230368 -2.23152467402056 1.54157706993617 1
168.542993878876 27.2989421666518 -1.5563990735217 0
200.727453756387 -7.47255195081484 -4.97453011789054 0
-36.8345573913581 -1.01482528860569 -0.278393551372791 0
17.6223312934485 -1.47346163441006 -22.8331863756001 0
52.4787159590392 0.996959322344863 -21.8759556395255 0
176.653967987314 -23.5204673639652 25.4074151817557 0
-39.654037987511 -9.31884604340862 2.02937398439071 1
177.647456873505 -25.8074984271333 3.25151071025138 0
150.351531746752 17.7507014074309 -3.06478453872412 0
9.60439188806733 -6.05654638507227 -0.318192033847102 0
-37.2206444650376 1.11914961819635 -2.74993468311695 1
50.7761761867162 -18.8476514605074 -15.8288022224476 0
200.005910473919 16.2230946402285 20.3149987665757 0
144.74679522377 3.85117881778306 -18.5433820403149 0
110.373887418473 -13.0523854113845 -18.7766590133026 0
205.940208022369 -15.1572269773655 6.15167517147303 0
102.666489994835 -4.34734359284764 -21.6057393945179 0
121.805347942815 6.918177753575 -0.846277823529333 0
121.840938286484 -7.14688911586679 -20.2656600192274 0
78.2676420445451 -17.0265591696267 -15.2306989906572 0
80.4859641414308 -14.7246043057862 -19.3260026626581 0
184.959346646171 -2.87991181457756 25.3258073940185 0
189.888134307109 -30.635121195699 10.6805696971368 0
46.1142040963784 -2.79038949812551 -23.1147951698531 0
68.1083685507725 6.92605595533284 -15.8222530423922 0
186.197385649515 -27.0319292253216 -0.915854191613727 0
32.3909995038378 -17.1347888508214 -19.6454937736379 0
156.478358922812 8.98358995788414 -17.0219294651415 0
204.646623184391 -25.374482771846 12.1818875289026 0
127.736161583945 -14.609279578174 -15.5320485235033 0
146.105117220171 14.3636025334986 -10.8695958445366 0
-24.0941145678503 -21.2783808968248 -7.21760341411919 0
206.73126781365 16.9149044647332 -6.84931726559934 0
200.911579820846 14.6694859154915 -18.0919761474499 0
206.764112404735 -20.7067040345595 15.7975383883331 0
190.688555577921 5.13462430462999 10.1793426589695 0
71.8697663577459 2.53614611914601 -21.0108386654512 0
180.000622788093 0.917688542034687 -16.8342466743365 0
203.393213262835 -8.94404039338349 1.55441901367958 0
190.042938032224 -29.6887102213598 9.31474448430559 0
42.9372772511954 2.11109314877145 -21.1886811090404 0
140.105808722521 -0.778460410455222 -19.233226606953 0
140.047849404175 -0.80511830135897 4.61625061717735 0
181.758504035639 28.5923240817544 25.3639433977242 0
-30.31124827424 -6.21788338425022 -21.8051963209707 0
-40.929491652588 1.20196435449725 -16.3391320459433 1
17.841714198528 3.21142413119168 -6.73977375601062 0
76.6626590278192 -17.2722509003834 -14.6260026655865 0
40.2059501426973 -12.5387390747722 -4.12274496907342 0
183.042348159065 -28.0356536220476 3.31875882150724 0
185.639765227207 24.6606075151927 28.6415194293799 0
80.5837957275534 6.92429489250928 -17.4091957988916 0
28.3876111101217 -18.084036939113 -19.3138363342626 0
-2.16550661006761 2.72768637872372 -18.598371809392 0
16.5051310790997 4.47160500599978 -17.9204081581214 0
151.475966470253 11.4143939343594 3.25796358349406 0
143.95941753846 7.76614156349461 -17.1131654639873 0
3.54857725364028 -17.0872332940935 -20.2183368549886 0
99.439549841696 1.76137429924205 0.770924394336618 0
198.098884883285 4.12785019377767 -10.3088345376264 0
180.012645153426 -26.5359687533102 22.5069515934872 0
21.0820498891413 -7.59076975323479 -1.4482781107785 0
172.073750228267 -23.2558450789088 14.141054822569 0
-20.873352725354 -5.64683129693773 -22.3323957498928 0
199.018276407558 5.92705821536482 -11.8989484358282 0
168.221262230122 5.88805012602822 -18.0234973040969 0
205.653968619046 -13.4208967405525 10.4365962649958 0
103.896256977221 -5.34195455952571 3.24621434052009 0
201.117940190679 21.2563331481229 -14.907574040991 0
173.362786586701 4.7636178568588 11.4504429392458 0
-25.5501302601197 1.76662248013763 -4.13339186670487 0
16.9597449635434 -3.23000018696793 -23.2823994004324 0
-14.4549078221794 -22.3470311829443 -13.679045210046 0
38.3373728966048 -10.6753941371402 -22.9554087637254 0
64.5353440441643 6.08006492127753 -17.8088405702944 0
26.0372936167314 -1.31283989190071 -22.7738537454591 0
180.607126562127 36.5444405559269 16.4086310035385 0
0.720424169799403 -5.1144012202136 -23.2716057207837 0
155.244366896381 1.560068386167 -18.1546849275836 0
-22.4785966832553 -20.7272958524768 -16.5076536731638 0
172.86013740599 -20.5866898875931 -11.918314758602 0
-13.3191607621625 -6.94490816656294 -22.848179847309 0
170.429023953692 7.39651579547186 9.14962754806848 0
174.311418477339 34.5648850914506 1.86468931285731 0
196.870599372778 15.5312136375861 15.0472790385626 0
210.061889579536 27.4788670731289 11.2343157199975 0
54.7419051790897 -1.58225761757092 -22.7064210690379 0
200.59003667212 -25.2283745878978 29.8039530654002 0
174.121151666145 -7.0457294147608 18.7267492558147 0
-22.2309359590815 -0.0253762367186354 -1.81681113802723 0
12.1754300061499 -21.2990241656064 -12.5134717517972 0
165.755343751247 23.190747145707 -7.17770618156938 0
178.237619269553 13.3545568949623 13.9336221782646 0
196.278235442345 5.37824154308902 -14.4283422005463 0
158.070058011 3.29801325903249 -18.0484176432241 0
203.854599331171 -7.94401714162582 13.3865778431559 0
205.962048935878 -15.1919763768019 17.4724172549295 0
26.6142900360332 -15.0935544968796 -6.28183549634304 0
190.715683140834 -31.3675339256712 14.1315201261379 0
-21.6911290130093 3.43903157043749 -7.17332171137581 0
-22.6812044920308 -9.66392199236968 -22.2118226798188 0
37.1203695943384 -4.66169624813705 0.71599760943444 0
74.968226608875 -17.4749110644084 -12.4818542422975 0
202.57233230086 -26.0302057329393 15.8766864247569 0
189.355327493401 3.34954380006222 11.7548298810545 0
188.142482169118 10.4683849306449 13.0010790031238 0
-38.7870627423215 -14.5444920241339 -1.12762041544602 1
145.314371626238 1.4044941369847 4.72678151763558 0
171.87867728704 18.0875218011427 9.5823101930748 0
72.4497865315279 -6.73242125147161 -22.8464784427387 0
172.243575647286 -22.5276651601037 2.09929899346651 0
171.426995066336 -3.88621461547713 13.7882099335328 0
188.970276522664 40.2957451149161 3.31215749132149 0
194.124337617342 29.7610414443156 -10.6961292940787 0
183.999533210455 -25.4463477351679 -6.61725454313231 0
71.5102781278867 6.76951815127354 -8.83969881512144 0
189.241879681479 -1.4400020825933 18.0074313481033 0
193.752864100485 -24.5213062457381 22.7024813465861 0
55.8929653605985 6.64986885179489 -14.9185113926322 0
181.660084895368 -7.15131273789881 30.8827085775791 0
202.48191781115 -23.6140399946177 1.98615732516329 0
174.936315483413 33.9835041516792 12.1814056492315 0
27.2169986518588 -5.4907026940272 -0.220843003911382 0
36.5290317740947 0.547258887804856 -0.324405632129488 0
139.354498974477 13.4476360805284 -10.7301072462867 0
169.137537715728 -10.3024644480881 16.8318341329537 0
5.14565701028436 -8.3459042720983 -23.4194687408886 0
199.816806900402 1.73159241199353 5.04926172610803 0
154.582971471112 14.5657795605582 -12.591750234917 0
122.420073745548 -14.4638423492111 -16.1803094535827 0
194.486635230654 -4.81864394703742 -11.0536701033131 0
-39.5089549323419 2.77260004993415 -14.4088989710123 1
176.774091916198 -1.62676808186026 16.373666463783 0
-8.23612857988787 -1.21167229202276 -21.7660785792512 0
204.816501129395 35.7507288012886 20.1675217391957 0
33.0323238155657 -13.208622118399 -22.0958767023328 0
-29.0755309965162 -11.1795705207208 -0.323382189620617 0
140.568910831111 -6.63927392385617 6.67414138730219 0
100.545691577935 -12.4370605142396 -0.526040290734456 0
190.709610759595 -1.16911872322299 15.4350304516208 0
200.79547336508 31.9178997606017 26.6732816123142 0
102.4126153583 -8.70515750367474 2.58979573536302 0
-9.09364124941314 -21.8480181539354 -14.6784203960143 0
172.792581067802 -23.094480051967 7.94354250356474 0
93.011175051683 -14.8733598651284 -5.16854645520908 0
164.195771816647 3.88702077735687 7.71399303698508 0
203.461047967538 34.1562492608868 4.99430862136147 0
61.9565052639307 6.29967368636388 -17.0255068209902 0
-33.128308354388 4.11743221624912 -10.7127001325902 0
88.7552667587991 0.353923985778982 0.764961530355924 0
168.099236027342 -12.4350320689625 17.3002637096901 0
-37.4857286866859 3.84670627503111 -12.3973291651952 1
171.189386395234 -22.513719375795 9.95443981999683 0
10.8713566274705 -8.70780209286762 -23.4750955165968 0
179.153864989246 18.5626044578999 19.678691285663 0
177.131929661074 -25.880285159812 21.8971712716125 0
195.73689695313 -23.7737626149104 -6.43123587193153 0
172.565390847317 37.7206954401438 8.17544747392978 0
20.9397040730118 -15.6679092544645 -21.0490949360274 0
206.363835754812 35.2858947739961 11.8232349189874 0
169.425577689296 -17.4217218477323 -14.161472767665 0
166.442358023027 17.8654370480862 8.48055953198694 0
10.1203269279226 -16.3335812807902 -20.8790599737243 0
172.728549258472 23.1164865892731 9.70832864081183 0
36.0801341560451 -15.7048511241084 -7.02808936308433 0
175.637857090645 4.50110696861576 -17.6977773688676 0
139.700485247054 -4.70798844885497 -19.1584069704098 0
181.626929579082 34.6663325221798 23.7500090752918 0
188.879940466355 -23.0022885547492 -14.7889603457825 0
78.5814906122776 -12.6740477874531 -2.63351283476343 0
113.790824861289 6.75236183557809 -2.28514514869741 0
10.1310989962372 3.64891611016763 -18.781778799355 0
124.119270102237 8.06503033407459 -1.48377724383722 0
59.3080598239049 6.09669164091778 -8.79475174826514 0
98.8555165074778 -10.4000593491871 0.967713884580702 0
109.800150162941 -16.2762350536822 -10.63894798033 0
141.958511770978 -4.79580765353323 -18.8861398988906 0
198.294059590033 -26.5933230256301 26.6231465972726 0
184.23254480989 32.0213984790059 -9.16795216178217 0
122.827730473736 -15.8079484868037 -13.1244309848873 0
151.443980815361 6.05353449068983 -17.9563197990317 0
157.835269379453 -16.4162626830529 -12.1366653882739 0
41.1271350368987 -10.5575417054761 -22.9197244139595 0
176.946163891917 9.78930085488199 13.0302959394357 0
137.477434690062 -10.6131307855583 7.02408249382513 0
206.392272187074 -22.2959604720631 21.0423974606143 0
177.521440497988 -7.08237322858919 28.3654814127777 0
181.331041901273 41.2796714972698 6.46340931102952 0
148.58574318813 -12.0573881595369 -16.2083733303456 0
177.936344043179 28.3283042084711 19.1098019187286 0
72.0503290635647 -11.4196138551064 -1.87862299684692 0
201.903117328629 -4.75318577344944 13.0579420185977 0
59.8288891311854 -7.08088453118714 0.186673098098098 0
164.918346010203 -19.5865722313329 -0.839042399600392 0
-4.94032508848365 1.37944771794773 -3.83177858913091 0
-41.6827570180122 -1.91042528211372 -19.1584629658765 1
182.456098715515 12.0221057302051 15.3232689120484 0
5.10695070087415 5.03090108111317 -12.7863114696875 0
42.1238976429791 -15.5731511490766 -20.6850003053255 0
49.244738662197 3.35050712951447 -20.5579079827567 0
189.977311865975 25.0085746675945 30.189025332395 0
-39.292101502588 -1.50452571617289 -19.1450610852618 1
-12.1959997378664 1.33886481265989 -19.3088022950361 0
-14.4712459669335 -17.7511407581472 -19.1954338363036 0
174.022592875989 -23.2617085264355 -0.0700355815513161 0
162.111292383517 8.55138094005069 6.90704526280769 0
78.6634748327509 4.70186946361984 -4.51401225140509 0
202.181436185901 -4.51727976468649 9.92246309424918 0
40.1987584184306 4.91601297493677 -18.3922167391558 0
31.267654552968 -4.43327435182148 0.808723042811818 0
39.6662806082793 1.26983620867409 -0.437990151958815 0
166.675399326596 25.7910136069638 4.64692325671693 0
194.10571736092 -4.43790701860909 25.3499604484638 0
-35.1583885650349 -9.01785782070289 1.63426119799749 0
42.4594037178192 -0.843147639106255 0.657011183436378 0
160.252167067667 0.506250506360697 -17.4573938155469 0
194.677910098995 16.6935970624776 22.0143876381324 0
-40.3049998267193 -0.146468866280405 -17.9593648986727 1
41.2914948437159 4.55361538579839 -7.61662833591246 0
119.295096151748 -10.363659304353 4.71994744705809 0
197.948712429998 -20.5189177654943 -12.1997264618356 0
129.714161653999 7.91834686273109 -16.8644625131755 0
189.286475277527 18.7295529965743 28.1479811198866 0
154.644212794509 -7.28361496669743 9.76425878200253 0
50.6918341964372 -1.76887210569571 0.264373399929075 0
166.492499689196 23.2500387249646 5.85851984439431 0
34.5673755761556 -8.18865079619191 -23.40932399587 0
178.921652397055 -27.0302438941634 21.0395990408771 0
200.395277672323 -12.4614087911543 30.8195339592001 0
-8.0112988998523 -14.4426268241388 -4.00288111222562 0
8.98669195540035 5.12359988430656 -12.4776156509083 0
134.090458457422 -1.78875810386981 4.19862241417096 0
104.742808247228 -9.50515252003777 -20.9527608804494 0
29.1458810553566 -3.67207787385045 -23.3268994074181 0
150.094812864426 -7.62496610745922 8.78515655432597 0
168.264471831702 25.2929962740657 5.98765506813939 0
-27.3355983504861 4.32432803814173 -11.5153271316347 0
33.7441234984822 -5.92391204230165 -23.5177007518899 0
0.38677906069662 -15.0447792308242 -5.02850360470411 0
145.408155459331 -16.2408228263249 2.88416042096298 0
200.603622847763 36.4815547965669 6.17549045968241 0
85.0481407668971 6.91738202087405 -17.5032728511642 0
89.3438968561668 -6.60644042290546 2.31353832596952 0
205.073310493758 -11.127776141055 6.75675881173332 0
198.426942657754 10.7201612658506 -18.4488053285022 0
100.909847194513 -15.3989694754573 -6.07674114964767 0
111.140953360709 -4.52010073260948 -21.1286262275837 0
116.804434302481 -15.784171077699 -6.74694649577894 0
75.8968959478146 1.90725567428298 -21.2362270182162 0
-18.9444165923966 -7.23589807112711 0.845472239476209 0
69.5855113242518 5.700979569386 -6.93597107858787 0
195.030405929547 -25.7519857411078 -1.17141647027958 0
178.099546236707 22.2558129915425 18.254750986659 0
202.341818529407 19.6779946124452 24.4347896873355 0
194.844931798891 2.41367691660253 -12.5389022833282 0
111.405003842744 -11.2001433569491 -19.9327494668026 0
135.582097119568 -8.63574297981275 6.49664950343837 0
185.245342260451 -15.9956810351731 35.2767602423644 0
29.3834890801495 2.46094964172927 -20.6688617565789 0
11.785441320663 0.833806927121712 -3.19214840559947 0
14.1016239489343 -3.09009069355281 -23.2066225052048 0
66.4647825053947 -9.86013903502398 -1.13311570753008 0
-15.5453951853041 -4.42726895678086 2.11383809004415 0
160.551711084676 22.0154016695029 -1.88945910785852 0
-33.5826370404367 -7.76527134371741 -21.627970308402 0
137.617726787119 3.25020650136127 -18.9347291596556 0
142.906381810507 -9.60814051727051 -17.8930419537152 0
7.45494733552467 -21.6068918072393 -13.9879024231246 0
24.2908144916111 -10.4272435942068 -3.08937294053752 0
181.762141441133 15.7888896410171 17.5405302708052 0
89.2682913716215 8.5903817367419 -11.5713608173513 0
65.2318490511501 6.63322795418746 -9.53134390984251 0
156.506559454 -11.9132250504745 12.2457209599525 0
205.82427130292 -15.619365810828 19.9961463773456 0
191.943006573522 12.8847820072546 12.7901322949316 0
47.3131946505424 -13.2824836316428 -4.64971066927039 0
144.574099608794 10.1206677115666 1.81662129701012 0
125.258663724393 -14.4360298769727 -0.515112433835893 0
189.368860922018 -21.6704679599751 34.8760581206652 0
194.196333392173 39.1100337737471 9.05796995999831 0
197.152351708344 -18.0857874917118 -13.6173471631788 0
178.422205452517 -29.1252432774303 13.0305231479582 0
-28.8291247595538 -20.1759692408118 -5.81255860878032 0
189.07139112127 37.4561492681853 26.6507212979498 0
56.1619757176409 -6.47790903503097 -23.2262822617598 0
-0.577732970134762 1.32108667348891 -3.93401514985212 0
-40.1463918075152 2.72274010055138 -5.40645515222812 1
187.713189303136 -30.0187154975504 18.2428711443773 0
123.436652742757 8.64228956553349 -16.1789225295636 0
192.673076185008 39.842020215831 4.14812793118377 0
11.5013147063507 -6.04764032800379 -0.369174215293871 0
208.073608979684 34.3122160575534 15.7274734472522 0
201.88781486979 37.3033754754622 19.8129296168965 0
138.206366144856 4.56404129609911 2.73775513452097 0
37.0609365844598 -6.295405614057 -23.516737324706 0
159.965761741049 18.048312973058 -10.5581576834682 0
122.74264134952 9.48413024575732 -3.77353721750698 0
43.0525978500249 6.24547018062002 -14.5464607704829 0
195.086079661594 -3.60417058241826 22.3596395330355 0
198.692110846197 -14.4032250186113 32.6625288835255 0
168.215058831453 17.7674707487448 8.59422819088822 0
207.447768008761 16.4084582728793 -5.05692307312714 0
114.131992514718 -13.970806965357 -1.18601601001663 0
172.747265381714 18.4991227445727 -15.9420473370642 0
169.378168415663 0.82157628029243 -16.2979499996423 0
37.1513359597265 -6.30009056755876 -0.559314812068118 0
164.297364497664 24.3529152725789 -0.196354150213358 0
184.139080164582 35.9404888889672 25.3840732208035 0
162.265300034799 -18.8061324561519 -0.0218184976122451 0
176.401038412888 -24.5211450985641 23.247656089061 0
190.756612460206 -30.8878638687033 17.0008407375096 0
174.765361869405 32.650862036195 12.1031685496473 0
165.716623981473 -15.8520909035264 -14.0876794922863 0
41.8718342337971 5.68078858900996 -16.6887110712202 0
71.231309355981 -9.78489084190622 -0.745158566634265 0
69.7023418698559 -13.5192797645151 -21.3607013504687 0
188.179427158335 -21.6656926100857 -18.1334346350452 0
197.49597523527 9.20153163057909 -18.1654807285367 0
171.4086422221 1.36215968744099 11.0841336135699 0
143.60940924095 -15.8867188695658 0.171791191997474 0
184.928086912013 38.8805119827255 18.7004754394764 0
189.335092417891 5.25907938547916 11.1107782834681 0
43.4973116875282 -16.6723104660013 -19.6106238298418 0
195.772707706107 39.2654554804797 9.79713310939908 0
161.445994473737 10.9651110139188 7.70364897315179 0
177.561505175616 27.2235779028564 15.029428675523 0
184.077994662751 6.43534585489969 -19.4390387312673 0
182.363305774781 41.1305016480643 11.9742328568463 0
171.158355961361 -8.7266339210396 17.0555885646401 0
175.85852726672 -25.0057086060388 5.32074964352712 0
5.20069605930406 -19.4131809001196 -8.43436978569888 0
199.14272178665 15.7603477826546 15.5331238968547 0
142.527324788505 11.1731267901749 1.09917226293049 0
74.4541100542286 -15.0822935447549 -19.6653417685878 0
205.766842300341 -25.4611726927885 19.7691789114295 0
-30.4563484147481 4.23008551647702 -11.9078860543902 0
198.838454810235 7.73314819565978 -15.105996648081 0
-4.39368757925062 -18.2022415623666 -6.7669047449179 0
-28.1900761975186 2.35039105492566 -16.505101231607 0
179.217887594073 30.7270101291785 18.5579312189701 0
206.226843628232 -22.177255275421 9.64210152709301 0
203.809573273991 16.5888777988251 18.0938659200984 0
101.236538132055 -6.64014418282965 3.12750896239406 0
-20.823706473187 -13.1186832299051 -2.50725686931108 0
3.21792174142856 -12.0329723283684 -3.38768829186878 0
179.336203712833 31.6475913693229 17.6798292685788 0
206.84279790459 12.1224980866311 -0.577013390647886 0
132.300650324815 8.2628271176114 -16.6303532962968 0
121.907696362425 -4.93591948042769 -20.4954657215218 0
186.581208852136 12.1928324392796 14.3376808712368 0
163.067756868462 1.64614916098468 -17.4248177741457 0
-28.3626348121071 -9.59926943490312 0.376780486953741 0
141.901162640711 6.60837436824834 2.59942165350432 0
42.529710605623 -13.1582585533815 -4.62415393626582 0
182.091058362244 39.2055285663487 -0.844954284015695 0
-34.9017815737227 -2.07224022259854 1.23130514811748 0
179.940587333068 -2.0807679443381 23.6676495095828 0
177.467463008209 -19.8298141110987 31.0749399524743 0
145.071145292547 -10.0705136473006 8.43670197359115 0
-38.1772313570473 3.22889405436101 -6.71464645464542 1
80.5365459087716 2.16944028012701 -21.0390183199225 0
202.91503599661 7.81777642387492 4.61567697916541 0
2.00417278185661 -18.5221956475484 -19.1851484357086 0
165.591779564518 -3.0330298757986 10.8526727627419 0
189.354140138008 -23.9305140492066 31.0684053482721 0
9.03986846704612 -4.29746355795811 -23.3676029946217 0
47.4026737585505 -9.00507224916141 -23.1060681518334 0
-14.7932036114866 0.419221078915963 -20.0638203870863 0
145.345249976943 9.59974352657293 -15.9509917175733 0
38.0000729818276 1.62023742963123 -3.09336837283527 0
199.444129389835 33.5436763354686 -2.30729185734506 0
61.3415045261891 4.33631434490088 -5.72164880645014 0
147.472549302477 -10.5491413020136 9.07219500106901 0
184.735680968771 -30.546661566704 10.3477673811547 0
126.826843127002 -11.3655970254148 5.76099056906196 0
183.337946445095 19.0101675695322 25.5448662841356 0
149.751041790609 4.27743066412631 -18.3315617674857 0
190.972867390526 37.540867995027 -1.20444802869464 0
44.8736783909023 -7.43087905771618 -0.952162564373989 0
200.079066651145 36.588875036983 7.39469710801437 0
138.981268109861 -15.5985720248945 -2.19937191185459 0
76.5186040416382 -5.51820869414745 2.18377428075718 0
86.321543486671 -2.75749319091783 1.72518673316236 0
79.9461052298537 -12.9954159945299 -20.8270721894186 0
168.78489622951 22.4720603074324 -10.3249530729407 0
192.81397477277 15.3699694820863 24.9249949466812 0
187.651535507184 -23.3260400949609 31.6169290416802 0
183.244413513998 36.2158368862526 21.1297824919554 0
184.985405974629 -24.4114159035283 28.8341945930776 0
187.848120850251 -25.0841655644014 -8.67652712339217 0
186.777803759638 -30.9849200336009 11.4048754305757 0
38.0727328949147 2.61475994264278 -20.8088761864915 0
49.664942686907 -4.80876214962979 -23.3148120787122 0
136.114952052826 -6.17405488144089 5.83914718050918 0
170.77168177914 28.6983435221173 -3.16464737541353 0
156.235569910288 17.5292240846076 2.81773104040021 0
-40.8837319783275 -22.4549604726253 -6.72813752169511 1
40.3777730837741 3.44500044539493 -6.03459087903727 0
148.435191599055 16.8887754214709 -1.49549010166078 0
197.727770570624 38.8147771204212 5.22464286437591 0
22.4683877261545 5.3960567216312 -12.1259981087342 0
89.6707002210863 7.45833246346467 -16.7586479285384 0
-10.0843223292731 -7.29746562191268 -0.0564012487259269 0
-29.6177901057185 -1.16154556727938 -19.9653816239196 0
89.1034168036707 -6.07996392371117 -22.2765386007956 0
201.321154274014 3.68427181700368 -1.62103150894546 0
200.503546571471 -2.61970430441617 9.87722867787915 0
93.9255196038995 7.16079404777006 -17.2819332373223 0
158.205065602896 -14.2660432139632 12.4078542867873 0
195.375482481397 16.810766532759 18.3449280964111 0
204.284251882483 -14.1948120993853 -1.6094443002398 0
130.691992565215 -3.57518240792122 -20.0172889902537 0
96.8828257113824 -14.4332017904365 -18.2598939263372 0
54.3594174143782 0.903272217562158 -0.730618633643464 0
193.597622015238 -27.606605578555 17.3320360493451 0
189.263680758781 -7.26676471662375 32.2514899810995 0
42.8764784848152 -8.54385392656674 -1.54352104152234 0
102.573852679523 -9.85306731492203 -20.9619012777557 0
197.401536462964 1.22111601384562 -8.30628503796328 0
192.829266944791 -16.6614852496381 -16.7549178486963 0
183.561803480938 -2.68729262968713 25.3943809059361 0
170.425429451181 27.4480398884345 -5.20622301660082 0
176.824850564087 1.6144506820579 -16.8225142571511 0
51.4912151225516 4.74696702535607 -7.00915242552957 0
186.218566460419 38.0905997224176 20.8777225100567 0
-33.6895411854491 -21.9671812369636 -6.93251580775176 0
113.315067152596 -0.484503496641249 2.314876758875 0
61.274786502828 -10.4909412976987 -1.89984206716975 0
181.699350607578 27.9791084192072 -12.2272047818283 0
196.631923632569 15.0735890727659 -19.408900605637 0
156.637146316706 20.3858907254573 -1.37742197270543 0
42.8797117004212 -4.43628785102458 -23.3534562452421 0
144.534703039107 15.4884221570856 -3.72556478814356 0
114.293018170735 -15.4213206264712 -5.36370831348023 0
166.617517652866 22.0456548428698 -9.45289790429798 0
158.735134017386 16.4515817082426 5.59240068858065 0
174.146277340092 -23.2087656422694 20.21566935841 0
158.940241785854 20.3028621363087 -6.39121874481325 0
200.527082633758 14.6659210032115 14.0681978567845 0
29.2964334238791 -10.743694939459 -3.1705631055198 0
81.3044258823642 -12.9666308392761 -2.77674780898865 0
171.82179893588 33.2369325487269 4.67017382943048 0
-14.2387925994936 -11.9584668923837 -22.108409633168 0
201.694847108768 12.0457375852513 10.3241277863445 0
-30.1468661818833 -23.3880044556426 -10.9045659243572 0
97.8972356998407 6.2748722558958 -18.2466067716366 0
-29.5059215867728 -17.5204566113298 -4.02050499774133 0
131.327940263578 -4.60443786728842 4.70330282221576 0
164.682880760429 15.8217056174784 7.87604328747148 0
56.5058024364967 5.82169199929371 -17.8062685157656 0
200.535646094368 3.00412656619936 -3.760671539051 0
17.1075594304504 -14.307700324307 -5.47956285618529 0
23.8551523018924 -19.0860483149848 -18.5357742951955 0
207.797963251198 28.4414371447514 -4.09355670195581 0
132.613878873736 10.3678062631819 -14.7800021543465 0
194.080700632901 2.0749673410683 7.76585642789546 0
174.254523271878 29.7911318711749 11.0344967559142 0
110.374246727423 -0.416909022385329 -20.7630682580816 0
-18.6995775579322 4.49069910455733 -12.4315619706535 0
128.475230810658 11.0916804315941 -4.29607271275336 0
-37.8259169487673 -23.4017525564845 -8.9591828686993 1
-33.1744832866259 0.828185939671701 -2.53354692143136 0
201.439203467595 23.9749777483744 -12.5375407349692 0
184.137442921316 27.4895997683109 27.4311134958739 0
1.0626188339071 -21.9599365074704 -12.9503435830562 0
45.4161987615538 -15.9382291345142 -7.60358917327842 0
182.625917485481 -27.9234646866975 22.5791024866764 0
52.7498905177949 6.46015981321887 -15.2925772194767 0
124.611476635091 3.75929566540488 -19.0217917034169 0
153.43196598667 -16.8601835085537 1.73909796851422 0
208.826179492712 26.6359443524984 -3.28795773890951 0
181.318015396907 7.58189283002144 -19.5414560718409 0
152.888845836865 -16.4285648540247 6.04953243335217 0
133.709898004751 -8.35210310872325 -19.1453836906552 0
178.130855318322 -2.12943686755731 18.7836941066544 0
177.826786451814 -28.3774845317384 19.8606267381473 0
175.728873526774 0.479969290699947 14.3529168544266 0
197.567683404748 32.5417440051381 28.3042324747713 0
121.080129905532 1.10275760619501 -19.9373255280759 0
-3.59525056660802 -19.4033287177446 -18.2370291251961 0
165.071186451921 -18.1008238332371 -11.4794681216508 0
94.072818009636 8.74522069984344 -10.8851442785846 0
201.698036325158 -16.6487814932815 30.8394667172473 0
72.6433399439591 -17.5883045821538 -12.9028875125116 0
175.69966393187 -6.17985264628603 21.1763724411445 0
173.13101412579 32.2898479592779 10.0345946470532 0
99.6368914760988 -16.4765231358593 -11.2787304290197 0
190.155869485555 38.1925243057326 23.0701580517916 0
188.007261229193 11.3158735617495 -21.4013258217432 0
177.607746669871 33.1573834710859 15.771211417412 0
196.601116727399 29.0745928718246 29.428827389577 0
197.067958138842 16.6277653959591 21.5748701012751 0
-2.40274154152707 -20.9273876917482 -16.5508811039606 0
157.777336650981 -17.722233959247 1.24755542776462 0
187.487950784846 -22.917061687992 33.1484399851908 0
202.039719306296 32.9979128752648 25.1930868193585 0
27.9464586025255 -1.02251717619847 -22.6540272258814 0
160.204607742127 -13.7427942503033 14.1090115573722 0
190.438870720919 -3.55317363889354 20.4766422551276 0
194.444897888559 7.09431908276548 -18.1948346745119 0
-7.78159959733938 1.85193227466846 -4.47187625041145 0
185.100186132769 40.4457705749748 9.58037505592026 0
-13.9926453430976 -11.7744356969294 -2.15916295695898 0
204.82832835403 -10.4057826093229 16.1407217615509 0
151.425968830713 16.1428259899612 -9.44456998646524 0
190.999891225181 28.796501668482 -12.0292584362521 0
6.73870029851117 -1.32544407864481 -22.5262478320436 0
168.875841276679 9.46316692782397 8.62368256996058 0
183.156214623343 40.2670219016531 1.11905831337362 0
191.33761040486 1.90051170654987 -15.1559332489839 0
186.649991378216 18.2934506817438 -20.3095288551478 0
153.518682693647 12.7435064152862 3.5643807857369 0
76.2298993267481 5.59456711523773 -6.00797325997587 0
-22.6630711812736 2.23484029198171 -4.8873331593784 0
194.324354341994 38.1234587034835 -0.243946614820091 0
155.044814276791 11.0482224997711 4.5309960404974 0
115.066277192181 -16.1274482409538 -11.9589788891611 0
149.781367586587 -16.3897964000863 1.95183860956383 0
201.817473070928 -5.01325412057537 15.5544067527843 0
160.235756053955 -13.5668316300903 -14.3023004462673 0
203.905604073772 -9.51710957968441 20.4457405777679 0
138.506888478093 -5.23724700727819 5.87929098541876 0
189.873052474381 -4.81609436262154 24.9171137107727 0
201.10889160391 15.4781759222931 16.7323555830382 0
120.155555081668 -13.9574515790696 -0.277898139449012 0
48.3383822285591 -17.5470390713311 -9.66178027604123 0
188.742702854728 -27.8387901614682 21.1565186034839 0
204.908063345175 13.065141838292 -8.92229986998518 0
157.333550985692 -17.8684843571158 -4.99208500833913 0
-20.8395162767526 -22.4070595550309 -14.2831059875663 0
192.402186442305 37.8173583445043 -0.408660140887269 0
183.253162382505 16.4378814298855 -20.9271813964442 0
28.4827137921445 -15.8503871100182 -6.93980011326939 0
159.708967173215 -1.31444258101715 -17.0718380516013 0
181.746925053799 31.1493214693081 24.9521598335738 0
182.590060905489 -30.3841386280214 11.2591139390276 0
86.7805081302504 6.90447809614185 -6.71720555080656 0
184.528203498581 -9.80034365717873 33.5197477919664 0
185.293566808136 10.3809826626189 14.2281288858234 0
121.733330135627 4.40937151095545 1.01799066135365 0
195.361896188317 38.3185414263289 14.8637148066341 0
51.0995533979747 1.30119658621013 -0.91589648121862 0
172.156536795225 -15.5871851855093 -16.0855033800999 0
167.593438268609 -6.5186470514181 13.5258779172043 0
39.4235292400706 2.32677225891127 -4.27878118374893 0
-35.3344860941273 -15.3709283953061 -19.663071846132 0
201.919900711884 17.7803102786969 22.7721546095039 0
-18.6607259164975 -13.2726193811714 -21.5373799412132 0
-38.1602916089338 1.29620256367254 -16.5637683096671 1
80.153662663954 -3.67027244143737 1.79172277835803 0
100.860543691521 -0.826771264671117 1.91612690158273 0
87.8684328863198 -12.3428785268551 -20.6720788531707 0
16.3316009029119 -4.28788569318782 1.04787373074209 0
186.190938331777 -0.586988714264408 -15.7926726279149 0
-10.9800744915473 -11.1618435944732 -2.06973932641539 0
144.823566925195 -16.0492009405523 -1.356407094974 0
184.555195884911 -28.0539807073617 21.9081026748332 0
191.21957635683 9.6209301230783 10.6119826975693 0
152.173303504796 -16.9016382492811 -1.21276945046666 0
184.641810153347 -29.2247979639915 5.67772669900678 0
206.970488279297 12.5660653116482 2.96778897016048 0
199.26694796313 37.7022873367019 9.0991677209937 0
197.933867340317 38.2128047018751 1.9536866101535 0
202.081924242863 32.8442930987466 -0.151174429363602 0
202.825359334792 -5.95131196518403 5.31971470715737 0
131.778614277457 3.36796083066745 -19.0490632628266 0
126.355485105224 5.24429328001172 -18.3429235267986 0
42.1195298930751 -18.6259727863316 -17.6468871672252 0
86.6288772651028 8.5287414295603 -12.3471939183417 0
30.4356181174265 4.30612660753221 -7.99261222188199 0
27.4984328210505 -20.3907683209581 -12.0240363326387 0
112.050781247239 -2.42534634640517 -20.9954659738761 0
78.100355291336 2.81288193491264 -20.8158862361469 0
202.142755881457 36.9505961271454 16.8659982355815 0
175.545039491397 29.2851653060276 12.5517621755641 0
202.36017870797 -6.13215447327372 16.8162009969172 0
179.820957360309 29.2489593051803 22.9566828624107 0
173.98869936855 32.0348349728419 11.0703175424817 0
203.861609993421 -22.9793527512591 6.47501583032492 0
98.9273454549724 9.13059226682421 -12.4977518293391 0
172.372495993691 37.1388349882751 6.64496038800834 0
-5.3289193237828 1.66598300577237 -19.5464980360331 0
177.969784059395 38.0961302217108 13.1770116333793 0
3.69370664662686 4.88026517374743 -15.0902918390435 0
185.278490938244 -26.7387175826316 -1.63766545407158 0
1.10158623542285 -9.84724752915641 -2.30790557161724 0
59.621058399544 -2.31857130618337 -22.8091230401171 0
-6.64080305277616 -9.7473294812237 -22.9354695983189 0
-20.0293850111016 -16.7569980313483 -19.796291602333 0
185.007382561672 39.645487843425 1.52816026015209 0
176.151179071268 -25.6077941363353 6.76437961119841 0
181.274582429946 -17.4857089095521 33.8769784694732 0
141.243426562473 4.21219947818906 3.33004845309218 0
147.286172411729 -9.86953039670912 -17.2674252861999 0
109.276754788224 8.22327642391142 -16.1669019084148 0
190.697813731825 -3.85052050799948 -13.3624674554446 0
127.043299480724 -2.64194408049496 3.67900509834468 0
137.651491773111 -4.7512311054363 -19.3701647948268 0
192.630284832543 38.813570708752 8.88392670814852 0
181.955040306908 41.4087641948141 8.24814887847086 0
88.8237214397007 3.44239345745352 -20.2506158321983 0
92.5888050146357 -12.3209504270548 -20.4307288715322 0
199.326979324495 -27.0469731022572 12.9093167299251 0
174.80900669243 30.9555037772075 12.0847217198937 0
49.3443313982628 -12.7625944267989 -22.1222852430334 0
176.20625036923 -27.0965553326323 20.4756516086776 0
41.5559213137197 -19.61924472707 -12.7475275582785 0
-27.151381905034 -6.19389134266216 -21.9984269505457 0
202.150187548384 -11.9282603122881 -5.63581701078768 0
186.46291866218 31.4504595805865 -10.206724450269 0
11.0091407894791 -2.08559955388208 -22.9310855968406 0
-37.3391250210008 -12.687992222869 -0.141423958515385 1
195.618914452027 -7.24838796930609 -11.3899672834523 0
71.8749442102083 7.56496980530026 -12.8176454321759 0
-9.55247053985886 -12.2920310464912 -2.73007736335204 0
147.680071051565 12.0681322799025 -14.053563805537 0
194.04013916648 11.8124063734927 11.2857567149522 0
173.763921825901 16.53204675868 -17.4461251101605 0
103.681691765151 -15.8582737393118 -14.8066629643045 0
54.3560951509493 -13.0860448071009 -21.8463542457257 0
105.977621523598 -16.0680108442862 -13.7320699608893 0
4.67114343613822 -3.59060327942339 1.41048643964701 0
68.5078242621567 -15.7102113399955 -19.5557334257061 0
210.272522206612 29.5892092022592 2.50536567173966 0
209.605227861485 27.993597541589 13.8293507518423 0
-18.2537809511792 -2.94254464693272 2.13923516988074 0
189.129935571528 -26.0803508413046 -4.00490888235266 0
131.521687948411 6.52000250846225 -17.6777705262229 0
65.34431923368 -3.57751544982516 1.29554828577901 0
-38.7648494439949 -23.5099449507417 -11.2815859875522 1
198.724838696084 3.58023024217778 -8.57110323251173 0
0.778855805077627 -2.0591996237375 -22.6051371552592 0
162.018927577489 17.4445510207783 -11.9334237468393 0
107.375041795731 -13.2706269713639 -18.7471648999715 0
164.721701439782 -18.7718453889132 -9.40346409320663 0
200.315508397638 -13.9402572842735 31.4770826911239 0
80.4752159989985 -10.5139048399535 -21.8459368989885 0
196.949407157827 -2.75565049192425 17.8990023094375 0
203.812039712829 24.2491264186756 -11.3883834689506 0
-34.8909201947489 -23.2224704237757 -8.83434837449089 0
162.955374019858 19.2947155257672 -10.5503109358177 0
201.104972945582 -3.8962623865842 14.3361611713963 0
134.584126480208 11.4113325990206 -13.6203865163273 0
28.2405870010594 4.59187070299902 -18.0703688787574 0
202.157698494212 30.8569513856785 26.0180468319761 0
19.3167089415451 -20.1461465574697 -17.3218732235187 0
139.384516826624 1.95113879055196 3.80063790384163 0
54.9590850163592 4.1774723492395 -20.0533129421883 0
187.514185122265 -0.911153428797599 18.1960499833206 0
110.968042672774 -4.33728509363477 3.17995945295953 0
182.870071875844 0.036310956226163 -16.8960576324464 0
114.772815821501 7.40940698432017 -17.1574902271685 0
183.867972258843 10.8828995460656 -20.801218084737 0
174.054102291769 24.366950028362 10.6741069978533 0
162.655136088612 17.5549188831557 7.34661278503299 0
143.226145779796 -13.2666764820815 7.17871986195455 0
174.77635303215 -26.5912348114275 18.6963444606491 0
174.016347701764 -5.93815512135403 17.1439080559489 0
209.063134549328 30.1811639287278 -0.0829560839258462 0
90.4417005467798 0.691158360313575 -21.2747982632568 0
62.5002767507645 -1.28433659173538 0.464542330513135 0
182.151798474496 5.9493194594421 -18.9900333934996 0
210.216780301221 21.1853769361028 6.93575507011728 0
123.203299525511 -10.9769111330632 -19.1206072012302 0
187.650043580873 -31.6217383506744 12.9041228838951 0
-21.0705094496349 -19.8430799572244 -17.3471339948174 0
-20.0521840223341 -21.3566267844872 -15.7675014186402 0
189.515746209756 33.8242791872781 -6.82783271158073 0
159.258473764451 21.6564047378702 0.364530610803157 0
139.776278109126 3.53279796750916 -18.8046544317284 0
182.789237711278 -29.0040582265383 6.59677867106387 0
178.025055197548 38.8205701672682 1.88349064414541 0
34.9043757907711 5.18423562619471 -9.39694776603132 0
101.082344427631 -10.2342463234885 1.39235963550218 0
-41.0773479998027 -12.0774979897738 -20.4530489409743 1
196.602877933918 -26.2874095332888 2.22283297197587 0
1.96990664704349 -5.37665355694777 0.340556684855508 0
125.858780482826 9.72451371251045 -3.06781511007994 0
167.969609423401 -20.5984603629268 -1.16923500951943 0
35.5629183088336 -14.3642890579425 -21.4333621574578 0
14.8470281157963 -21.2150218012326 -13.0245901244428 0
171.983646819461 8.50800579633026 10.0216321377087 0
71.5148955151661 0.712743347200263 -21.7367150033618 0
-15.9804354116568 -10.7215614894424 -1.39508512050077 0
18.9975115863707 -3.42079021643859 -23.3080067430236 0
36.2899037374543 0.938863776693117 -1.99202778621526 0
112.684845295507 -9.94959887449497 3.51299035449887 0
186.431971908569 15.9740539749754 17.9279953299793 0
187.418344500623 15.2644581575374 16.5153291101714 0
134.275858342368 6.56882188023423 -17.6346198660873 0
168.924104257474 -5.2454125530109 -15.5142746599824 0
205.219274123143 -24.0408641560957 23.8196742384096 0
173.438124903593 30.0648701296052 -4.99555912985873 0
203.533279770032 -7.08466542268749 10.5769150242445 0
29.470834782657 -20.5986604125652 -14.0771867701568 0
111.062435157597 4.26276797337281 -19.1066030906799 0
184.350765493619 -27.1593722999859 23.756990053779 0
