-230.414366522333 35.1367952448303 -17.1621733062766 0
-75.614120830957 6.24503829369851 -14.0443717075086 0
-62.0028744295267 2.98170791210295 -17.8885188016944 0
-206.78449678422 14.7489427638399 -16.55419287895 0
-189.219353922428 4.19869673832497 14.9167100158899 0
-47.5551034849543 4.36452997044628 2.33200740927359 0
-93.9226076500865 -14.0664116830668 -9.97952229864944 0
-211.236369449793 19.2081013626611 16.1880615972087 0
-173.078844079772 5.613923336627 -13.1334420490478 0
-234.734684756123 29.5004884210406 -15.3156378751995 0
-208.690716572755 -10.4570101820102 1.86021777566448 0
-61.6484522354186 -8.0754153408041 -17.3875353022349 0
-230.298404311549 40.498649026179 9.97236475014017 0
-110.222883337143 -9.90012591681702 15.781138099641 0
-149.286422344753 10.8007021518475 13.0892615810254 0
-127.588954180644 2.46018909226487 -12.1466367922993 0
-27.432544918845 -6.08489389263483 -20.0600184898696 0
-126.295806624066 2.47567579115392 12.6445949033151 0
-150.719389176893 8.56444077067597 -7.79576995837349 0
-123.848719196209 -0.281129056558791 -13.0321615427023 0
-9.31407229474476 -8.64204603964716 2.73183875942045 0
-203.792355114396 -32.1283098715151 5.62212185901908 0
-205.43954630335 2.29870405746674 9.89724058186544 0
-167.82670044181 -7.9160038933491 20.0237978833641 0
-32.074846423992 0.026995081950859 8.29339999085339 0
-216.927093945435 -14.3855442137485 15.0482127031937 0
-209.751802575335 -13.4011293805545 14.182914732898 0
-175.88318002648 19.3322056492741 6.08309475602203 0
-112.28678291851 -3.24957362604671 -14.1307057258347 0
-208.439330199884 -11.7859418144783 -14.65915412225 0
-174.037063733114 18.1096669365785 1.98042296036628 0
-8.17473788827041 1.58503323711364 -20.7721022613937 0
-176.631362856938 -1.82696388419277 22.3447612506825 0
-118.1762385328 -16.517656995099 -2.27556965679505 0
-18.8430048786339 -15.1367091783821 -13.5764615201709 0
-75.7530311298237 -3.55533532709255 10.8008918428986 0
-207.999768744674 31.8072961305835 14.9620208594469 0
-141.162013627111 -16.0125597977406 12.9868636180897 0
-225.094367127206 8.53107909560451 -3.44097077253971 0
-33.6155287013781 8.60022152715066 -6.60703072439122 0
-41.151644176469 1.22685419806215 -19.6377635171854 0
-106.445820360331 -12.24150697138 14.4735477192139 0
-132.415396820076 -5.78876596668819 14.3711621047285 0
-196.0019192441 -7.71206121038385 19.5357232412145 0
-198.667700397214 -33.3354248752242 -2.16738630933617 0
-128.12063264846 10.331733922045 -2.67296736357287 0
-222.608654899984 48.9076852525919 -0.919354015259267 0
-73.1800242541851 0.0383201943604694 10.4471206713 0
-28.2035529708078 4.49275303277533 -18.6779620190206 0
-196.497848096232 -6.30822628377032 18.0453865836714 0
-19.8090618463071 -2.88721290721217 -20.8569012683955 0
-177.349324070832 -4.12943256929747 22.6778438125921 0
-213.156341748085 -25.3584505626033 16.670927659221 0
-26.3384839007113 -15.3264271886344 -11.7110307994411 0
-182.231783197803 -1.03992102349058 20.2826804299518 0
-182.576441147885 16.7405939651764 -7.38790077237737 0
-42.6540270341054 4.42765686738661 2.04156105591675 0
-200.278459628292 14.1275045456404 -14.3410252554683 0
-195.90043550836 -9.02634950282343 -19.9771750503288 0
-75.2054270160959 -1.24726621980847 -17.6559386700327 0
-201.625922678758 -19.3876904763319 -14.7686749016292 0
-204.856683422479 22.5962070126031 12.650531149215 0
-205.600476613733 -7.50691509702486 -15.1264988378759 0
-188.354467578669 -2.9721435202456 17.1105623456694 0
-38.7054126720495 -14.6177410423955 -5.57092613328711 0
-186.795830560144 15.5076433180456 -9.28618868950516 0
-120.180670179133 8.13470208845124 5.06573678690618 0
-104.1354939437 -16.0992055002433 -4.29286920660233 0
-175.389263037031 -4.79571060782919 22.2178357094159 0
-0.201451159076813 -15.499665008651 -12.2365629195719 1
-100.613871429889 -8.05192811185588 12.5299058217224 0
-54.8453268785283 -6.85004979541183 8.79052509142209 0
-155.112764091627 -18.5829899546809 14.4853642546025 0
-106.946251594424 8.86435091186943 -1.82817485383037 0
-55.938873310946 -15.12462176919 -4.24305102844401 0
-200.413558775845 28.1862955599593 6.46838932737003 0
-172.443410179684 0.532399257885447 -11.8417045092395 0
-200.769675758735 24.9212050758801 -11.7634896597683 0
-87.920575194487 8.8927239726313 -6.93895866862411 0
-13.8954872498515 3.17459205342622 4.67530265761548 0
-187.404450551566 -32.2609415355107 7.50678030204723 0
-186.074335947364 13.7294986368228 -9.89530610389478 0
-212.225940331092 -18.9225022500665 -12.9393666915857 0
-212.240111605615 -10.3607872606998 -1.54150990563253 0
-176.647610315397 -26.4172230933058 13.6387891174467 0
-136.278486491541 -0.962531364360276 14.9845478826295 0
-27.6918872172002 3.29465898578136 4.0868405508149 0
-174.631423212596 5.16700809647675 20.8958116495772 0
-202.950300078343 -12.0909355256164 20.7294553632646 0
-172.399780695499 18.1048917316608 3.8293469991621 0
-55.0108359920187 8.01935327913715 -3.77364089181177 0
-152.91188976452 -10.4535080991142 16.6620336457427 0
-152.050744140549 -0.282349260394099 17.954331708773 0
-91.7174715731535 5.87974333601307 3.81304361823018 0
-140.751539590866 -8.31787409356071 -11.3037912137021 0
-143.920953850486 -17.1914141897236 -3.06296637098394 0
-65.2307959965867 -12.5828508679423 -14.1607412899926 0
-189.043180974509 16.2681815367985 -9.51025901949386 0
-204.356548437309 0.0023647638930779 -14.2801105807726 0
-167.302891283999 12.9054272437724 -9.56572789017952 0
-91.6302914135054 -15.0739203394378 3.67758284401156 0
-151.516416875457 -16.9469709162072 -5.48415606826486 0
-111.609616795512 -11.4922965213032 15.9736495710689 0
-6.49166538365437 -8.27349180653801 3.15101088681056 0
-205.272874565541 -30.9860653353144 -8.97908055788102 0
-200.158576232834 0.677851384619711 11.0405890657619 0
-206.871230849748 -7.33632622182523 -13.7122766784292 0
-125.54615033819 -12.1650742505828 -9.73390779524242 0
-26.7726715246736 -15.1214013081349 -8.88149273152937 0
-117.072761340945 8.25571591516818 3.87356212128692 0
-45.5688472776686 4.72813753829718 -17.7629567761222 0
-211.003885068722 0.508014057302304 -7.39865681488829 0
-167.182371767449 -25.2020737929088 11.0606964503564 0
-215.995771713417 -27.4743406614629 -0.452667703764566 0
-56.6767011725073 -3.67377564458164 -18.9523692941887 0
-205.513121026092 6.85285348301615 -15.2581683463838 0
-104.772850493337 -6.85659193991235 12.2954007052099 0
-53.1432077046319 9.03738007782781 -8.1549540743945 0
-176.388353954617 3.35365680655789 20.8531611891512 0
-159.381136939256 -20.7955499954629 1.15021891092288 0
-113.644178146796 -0.259523384399364 -13.970784285291 0
-37.7989379803228 -5.64240804811246 8.88355998521349 0
-175.972269994544 -13.3667276710925 -10.8309992630234 0
-225.672059706568 11.0342171444095 10.7583283860113 0
-100.640246525074 6.70565961074304 -11.5501066455545 0
-232.770962617322 10.7334503950801 -0.535661582318843 0
-190.326164520928 8.15569428599338 13.3631299065623 0
-16.1888192162713 6.5978441771036 -17.3086581230537 0
-214.353985431097 -28.963632741482 4.44255656894898 0
-9.99435070263111 0.973869186337544 -20.8828308843923 0
-218.880983127655 34.0981987499337 19.0271081908504 0
-158.231422341821 1.64814940685671 -10.2874644888601 0
-108.959936682963 -4.1597471237399 12.1604042030623 0
-171.490706348661 -20.7962409728293 -6.55774120223134 0
-118.910842275226 6.22109100142 8.43795433441334 0
-175.515479168705 -27.5639436650348 5.68090090273301 0
-147.919876136718 -17.7932455835168 12.2762646467389 0
-234.064672609927 38.2045744465275 7.1275955106423 0
-158.468350080029 4.07245714979584 -10.004678161188 0
-222.952279140798 48.2232303337371 -6.17054900685482 0
-52.6109600138047 -1.15743792325346 -19.3951818551915 0
-195.930386084257 -34.132116852362 1.45671180865692 0
-167.290650250045 15.7733120310446 -1.87265439082577 0
-71.2729004516717 -7.91609986334649 10.07713637957 0
-207.768900433715 -12.6892416322092 8.23527039480251 0
-196.718315559963 -24.8989907269238 17.5977354508566 0
-229.182285357736 14.5121565467463 12.2592482152672 0
-230.806349883104 43.1445630488657 -2.03342515314165 0
-119.97731278406 -12.2321398216055 -9.85842536427119 0
-85.4739939932625 8.2492047759892 -2.13363008416787 0
-45.3243927123727 3.3997834511108 3.88739076801686 0
-133.746975171127 9.14313139213978 -6.82800124574138 0
-146.453822145517 -19.1031512052151 2.86673788650875 0
-235.45335495037 14.6850967277909 -7.66288346247757 0
-194.82750357732 -8.17165802191049 20.3858010195996 0
-201.025075650605 35.4135956146973 -7.19857256700839 0
-229.139738942993 27.572396095251 -20.2576436273759 0
-191.268630951742 -22.60887719568 18.9152888240221 0
-225.482999133691 46.5843130573306 -7.69183279583631 0
-118.635347780989 0.0957012588065604 -13.4771267343045 0
-224.085535419364 28.129400516988 -22.2908469518948 0
-193.962925491242 -28.2214678938276 -10.5068314085148 0
-91.9133799844994 -6.17308205495904 11.7621618903238 0
-200.097877942962 -8.76015671163017 17.2635112366158 0
-46.9149189234632 5.53780273449532 -16.8747107203315 0
-200.490095091726 -10.2442292389329 14.7793815222885 0
-59.2927859587487 8.79278772528782 -6.85849000648374 0
-115.192226804565 -16.0305859393998 -3.93782310253212 0
-186.013837162631 0.129161683384442 -15.4838683035733 0
-176.415958640328 -0.68559161411187 20.9031058808283 0
-175.778939247471 -9.39919663704592 21.4323432843895 0
-213.726936799063 48.5921068519507 -1.60702902729561 0
-17.7290424229695 -2.62757959718873 -20.9894224837108 0
-168.495331443306 -20.0490896445596 16.3959679896459 0
-173.264787136889 -9.87762939317702 20.7126175604738 0
-190.264866634431 -2.83186505499237 16.7068816401041 0
-236.012121890508 14.6989573450842 2.77920582466955 0
-87.3903220568254 -16.410274090348 -6.25951090253291 0
-162.577394024113 10.5197340510142 25.9261285821012 0
-209.045821928684 46.2805546260128 -4.37041204888321 0
-164.254727811439 -4.03271978589701 -10.6221820298662 0
-184.250194457211 -14.9550357971151 22.8409543214298 0
-137.712291160512 8.79343575106644 -7.27364042542565 0
-210.909525895996 -1.41762703251613 -0.447254947027694 0
-129.102356887279 8.38396240043764 8.07909100028959 0
-162.990115773971 -23.0536634886367 9.24703982078625 0
-167.703796718298 -20.3162009501613 -5.51342280746256 0
-206.817007558564 43.574700067696 -8.4572118959561 0
-185.020387880733 -16.5956446141743 22.1557364403286 0
-181.425800975532 -4.24972581676165 22.834465246619 0
-49.289133988647 -10.053659910468 2.53593149967329 0
-42.4247205303331 4.9988424902342 -17.5809083656981 0
-170.343318815889 4.49455773092771 -12.2884919982499 0
-203.600518708192 14.322738839124 12.9286421939267 0
-119.991495822675 -15.7645667093846 -4.47488220973886 0
-119.653978755071 7.89188780504278 -8.7405534525573 0
-196.675158890866 -31.3178743095727 10.1172538588208 0
-217.694067255953 43.0074145804064 13.606118674399 0
-196.56677634026 28.6945817519545 -4.25071585058048 0
-101.784844368621 -13.8299576542162 -9.5739566069628 0
-156.067394511067 -1.2331885403104 -10.5919217012973 0
-79.7807104896533 8.75965508316513 -7.43713765571749 0
-170.361963435947 16.5401369010046 -0.139611972408335 0
-1.15386243725726 -14.2948492268362 -15.7678013455607 1
-223.159156106637 38.1378162821766 16.5780844508361 0
-199.507053215049 -32.1232877216623 8.32570885454798 0
-138.172329876461 -13.8971346438904 -8.15992576156787 0
-180.847260539936 18.2884758922455 -4.64933917292686 0
-122.324706828986 -3.43907806956724 13.6157712664926 0
-135.619983608353 0.180182616426544 -11.8688361389939 0
-94.2877275900918 2.15506412815171 -15.3356434659896 0
-113.426313920509 -17.0215838271692 1.02995974460575 0
-6.76029080906993 -9.80267806683321 1.08813947780565 0
-166.464033319215 -9.70795912776702 -10.4740142518113 0
-137.023261294243 -11.8683119662134 -9.88381742755003 0
-142.725090919181 -16.2204653861791 -4.9596782006624 0
-157.003921387647 -5.55478048737373 18.1357947740488 0
-166.195462360514 -17.1651919034627 17.0658895190995 0
-154.104801732996 12.9387514074571 1.20527327784987 0
-161.688705931396 -3.22794006670769 -10.5139856221257 0
-39.3066926111407 -3.94363506497876 9.62552532053408 0
-177.587823745926 -24.9797653783376 14.4355532655228 0
-213.782166992599 47.3146176866935 -7.78639732154237 0
-190.139294342048 18.3598423529808 -8.58612514727859 0
-159.782190929276 -8.57851298877756 18.0321466460854 0
-11.1062648863669 -12.6307897040266 -3.36644104909271 0
-199.138910312047 -32.5655991496253 6.3833683108658 0
-207.61244338837 24.7315692607978 14.7926796943376 0
-230.669591006206 13.4782180777828 9.9770556652097 0
-4.1332733149205 -15.6282140214345 -11.8677069199881 1
-214.916125010549 -14.728819448366 20.7983794161243 0
-205.723891789343 -13.1084728036236 14.8577846066826 0
-191.818887083124 -8.98652445733665 -17.5286055445263 0
-117.596979400035 -17.0220917184642 5.95935294520359 0
-163.844605826743 -24.0566265316738 13.0925139406713 0
-202.911522292098 17.6097594714675 12.586291944508 0
-181.333551669394 -30.7059001293668 8.7139344818394 0
-219.966521426391 19.7088491125978 -21.7510432183352 0
-215.868340667655 -13.8734497237384 11.8847088420582 0
-151.130486054862 3.77945658893496 -10.1796285994389 0
-71.4173614438808 -12.4624217168985 3.09221420753075 0
-185.23662914829 -33.5326125738531 0.215722968466639 0
-211.915524750003 -29.5601267673398 -1.89459325847086 0
-134.987836987845 -15.7245152997813 -4.96570704854109 0
-170.744878474782 10.3382279347069 -11.2708093790483 0
-154.512889337381 -20.6437471543286 8.80158418197881 0
-195.469838360052 0.341956410624647 -15.5046593880019 0
-10.9626665379167 -5.81377038843164 -20.8595934312856 0
-124.993301433916 -8.96177108134912 14.4717868308421 0
-212.655442773995 -21.7624069078024 -12.3353674620467 0
-70.1760412574879 4.24375878150143 -16.6116130905412 0
-220.424215381845 21.0297860627937 18.8721717642495 0
-224.499880357039 14.2431911891829 14.8200845861344 0
-205.023161678115 2.25336501108312 -14.2191395926913 0
-161.849677753725 -1.68029310984215 20.8027475905812 0
-135.114279284631 -5.93194553567174 14.627659705102 0
-207.675098852739 -2.47475092745606 5.96121635344698 0
-238.836746714822 24.3136653509493 6.53802420249313 0
-94.4403202456188 0.797837848980566 10.2241373433102 0
-98.4167747875085 2.10037187357451 9.77245674548244 0
-25.0267113423055 -13.9281766863422 -5.31324106671013 0
-170.872627950705 14.6294065101748 -7.65505359504989 0
-135.161525501559 -15.8454716541112 11.9105622817601 0
-237.024175722239 35.7934245830746 -8.38339221652983 0
-146.58987792627 -15.812016805283 15.9542802837908 0
-213.503355661678 35.7397765781444 -20.6281528859176 0
-187.572349703048 9.83666770379637 13.4148396017387 0
-141.172022997356 -3.65682915951285 -11.5613968354285 0
-63.8597801476179 1.9353229819568 9.76366336001054 0
-154.861703407747 11.2424187157561 -6.78640529067567 0
-203.033910546996 -24.4601214859008 -11.611549522089 0
-27.7114290950956 -10.6999201749316 -17.8421347161629 0
-198.165847984937 -20.0673054803332 21.3715131952613 0
-95.124499854511 -3.44948010304282 11.3728599249286 0
-104.877340065284 -14.8440001374035 -7.87927087550763 0
-175.225847710936 -11.6535411251686 20.7961950207639 0
-41.1684242630571 8.65813363398724 -5.93552076413143 0
-67.7694165225894 -12.5616527025363 2.04339300823084 0
-200.857067500461 -16.3658569140404 22.2322072412792 0
-130.215036814701 -16.4622149602583 -2.4682312071319 0
-223.205050442882 23.1312404195431 19.0034760562132 0
-192.475630468431 -31.5965095503392 9.32010312383565 0
-217.085133838234 48.5135258199275 4.42477585084462 0
-206.060465709793 -4.05083755760973 -13.3687212303857 0
-64.4749424224986 5.6286034210224 1.59120441411269 0
-207.222093761355 -12.6671499397622 16.986754898505 0
-189.788436718299 10.6165855902027 12.7026464493234 0
-77.64158086349 2.57426475092158 -16.8630035795496 0
-220.756072730881 -19.7032830226998 6.97175608888482 0
-230.106661236178 9.05126069300696 3.005473401161 0
-164.300294000357 9.63308485172332 25.8169704849848 0
-205.069370300338 4.54387896605522 10.7703885265975 0
-159.998865880386 13.5005750677307 24.8801848675339 0
-198.310735579342 -6.96362599936202 15.3123032810805 0
-122.281450833349 -15.4037271055752 11.5191112594672 0
-113.417108593115 -16.4727838039526 9.34729121650479 0
-67.3849871736833 3.26501278916131 7.09327163488649 0
-207.861186457741 22.2301049490254 -19.0514669911683 0
-141.20398380452 -1.90981141141112 15.5940891243732 0
-85.4012453987386 -15.8463852707633 -8.20591845485238 0
-18.8569171063615 -11.6028206904828 -1.72210242820463 0
-5.72122268879416 -12.6198801310162 -3.22911220939595 0
-186.847269818774 -14.9561784022512 23.2928149274817 0
-207.32534036376 34.0370739068389 -18.3073124518692 0
-100.259999664957 4.92223311900484 -13.3687263734403 0
-214.573656478382 -15.3126854811392 -9.69270131312054 0
-108.470749982337 -9.12951655218606 13.682142904821 0
-188.597940478791 -32.8829189012045 -7.30299275714795 0
-166.427831158323 1.58207338258745 22.5828433466387 0
-221.137407953304 -21.6528715457701 -2.5962673353506 0
-141.752687396471 -15.2823438093985 -6.41902240364069 0
-38.7115326027721 8.08369120526255 -4.32866921387257 0
-207.442005857173 -10.85696461938 -15.3717629809685 0
-205.300973524964 42.8902017765078 -7.13980379905923 0
-168.031436945667 -23.4294622535091 1.8644621606836 0
-130.507945967494 -11.7507905178142 -9.9422323513885 0
-231.794785383497 9.92272378180217 -3.96092157386869 0
-156.073127743579 15.8090312317845 15.7387692347699 0
-207.405857204892 -4.69815154160488 -11.4297354771853 0
-168.18599707137 -22.5559440645019 15.4661509774018 0
-0.535173182164294 -3.03348942504865 -21.6102583200749 1
-57.9002338897731 -15.8137906272296 -10.7610523919044 0
-182.513365286155 3.929638175944 -12.6295692371097 0
-146.957755619607 8.88098759944237 -7.3870125579142 0
-196.305128750039 -29.9468783580006 12.1845991874351 0
-180.607437166588 -7.10058267623965 23.2031450501035 0
-173.856268462773 -7.86321641955715 -11.1619593974706 0
-120.897644927719 -12.5988224659664 15.0214676795677 0
-216.649614149155 36.5462052565164 17.9607245779745 0
-209.763261192217 -8.44404868557799 -9.89918911709908 0
-21.367435135666 9.20074354615213 -10.3281307418534 0
-172.601863421802 -26.0978698028987 6.19661134119878 0
-203.140409432371 -32.4144202954018 -7.92798294679412 0
-206.054528827684 30.8217586133945 11.1427743146868 0
-212.302675432464 -12.3501589211914 -0.945090754002825 0
-205.295881078556 -6.86714060725373 7.22050311981207 0
-13.0527083989034 9.28042818515071 -12.4292516452623 0
-84.9510687283525 -2.70226333135419 -16.8760583032285 0
-43.9687908648088 -8.02345129860275 5.46512556624952 0
-214.772657098378 -14.3752570110242 -0.490803317586166 0
-175.874609565304 -14.2759155448453 20.4581743385732 0
-98.9432878452632 -6.90713221012173 -14.6371392895464 0
-180.086859327481 -28.9402062496253 -1.22560370635834 0
-160.858879585166 -11.944736722779 -10.1036098725867 0
-211.403081623575 -4.50180175540857 -1.6526096288609 0
-189.931161691857 -17.5969517395465 22.5351980639943 0
-146.223197029394 4.13716717034454 17.0772984617529 0
-173.708984545348 7.96432455187136 20.2061097232067 0
-39.7535928672223 3.31399852789985 -18.9609541010667 0
-3.64584095694218 -4.64590508560998 7.86723835040952 1
-182.308758812888 -2.45407572199126 21.4813270585406 0
-185.143595788114 -9.12442225200507 -13.8613503252865 0
-0.0275746238821426 -5.60113512522222 6.46460169041098 1
-147.994616897955 4.6318598075572 -10.0506997360511 0
-49.9890773911699 8.29253207443743 -4.35884197866868 0
-114.813651883364 -8.78115006124833 -12.7707140382196 0
-193.609354185792 -30.0076635724188 11.8732478389364 0
-179.481421400605 -9.9709742400203 22.5302493811795 0
-114.352590867609 -8.13324558743377 13.0615329611127 0
-197.180868117869 -2.9328007741337 13.2877002428721 0
-204.515535409793 26.8808231705374 -16.5627567561769 0
-35.0058873939114 -12.72646512118 -2.30185645080989 0
-194.511067321908 -24.5482753688171 -13.141048005514 0
-202.497029416641 38.4710809546604 -5.28154273839506 0
-165.427045137615 13.5580538380691 -8.62195236864375 0
-190.92091856037 22.7602683319022 6.42646052528179 0
-175.003192241192 -27.0679257625052 12.2490276202306 0
-87.8841370487233 -16.2996879753022 -3.68348796775359 0
-60.9896320114005 -12.9163242962751 0.0742690166444372 0
-41.8992391429468 -12.8016857734989 -1.78906143014139 0
-219.782333827436 -15.8088802000937 -1.12188127735335 0
-169.35742748027 11.8841228109394 -10.0735921639978 0
-85.7334637799989 -15.0855651480642 1.90463712270322 0
-22.9616639524109 5.29910350995102 -18.2679576580658 0
-213.486270055047 -13.919106156913 20.3286148553797 0
-204.782227141157 21.9928686711785 -16.4807131349583 0
-211.624604309514 11.3068779933962 12.1349545818111 0
-140.665546134866 -15.0171963732677 14.6521713685792 0
-78.267228956185 -15.528130857788 -1.55568294543154 0
-172.927052514759 10.4907860515519 19.2606557038075 0
-108.276834943806 -9.9126578773848 16.2668327426083 0
-134.654313195342 -17.7072041598505 1.43691736923608 0
-174.446007689639 6.72123031900718 -12.5533146863872 0
-209.277822067621 -10.2934647936492 -11.231891712164 0
-202.1529847732 -7.48232552838805 -18.6634617007864 0
-220.43947947221 -17.7989409835649 5.91650133666722 0
-2.46645050370597 1.17910348549214 7.33997030206563 1
-179.139450162933 15.9866751134063 12.2053246821006 0
-212.005781664165 -17.5615422492792 -14.0352043175483 0
-44.3464852661192 8.54121027271632 -5.39367512238901 0
-57.8721066708826 -7.34215540079908 8.56357442864184 0
-192.856846719351 -23.3202724919827 -13.3079369660287 0
-190.659186681761 2.09015449947608 14.8336099067956 0
-65.1772449559622 8.71580895281435 -7.53309925191164 0
-16.7636260430652 5.31714402393608 -18.4377067877101 0
-197.088423938708 5.34789884966864 -13.8920458336868 0
-159.910921561771 14.8700177074593 -5.01624234921503 0
-161.97725806578 -21.4820063729338 14.1946032330302 0
-7.41059286377778 -11.6092031900614 -18.3027611716542 0
-172.627889328005 7.35997750973228 -12.17529345829 0
-96.246327178499 7.4834971121184 -10.703344536449 0
-156.295496952306 14.5680720822629 14.0244512474638 0
-196.781519722618 -23.9081604591298 -13.2291536204824 0
-87.7458192843308 -6.71491618006534 -15.8055656454676 0
-204.674224685079 -11.7124519236224 17.8587663761004 0
-219.638325271496 -17.3027647263671 12.2543589455785 0
-237.466218666951 18.6797744518942 -8.26535518098068 0
-119.799117989106 -16.7658483390712 8.00299022104807 0
-126.766229601027 9.93209252882139 -4.40714257431341 0
-188.076430911796 2.05105451828295 15.8701641928888 0
-234.834448963555 12.8446586112498 -0.253950339011552 0
-94.2349115847817 -1.29881344869276 11.0229682680996 0
-59.3268365147218 8.54990845060807 -10.5100788388468 0
-37.4566964644686 -1.8325414479299 9.01333250431703 0
-65.553701063853 -5.030855451314 -18.1053499846243 0
-157.033900025328 -20.1639798567028 0.512222399293385 0
-8.82406468195014 -15.5289184194933 -10.029384856919 0
-77.0172222675226 -14.1866190360852 1.50556563256406 0
-195.414983034713 22.3251930091459 8.10761709164497 0
-97.1158265941834 8.96298124095211 -5.31919444551428 0
-111.782301807911 2.57449778934085 10.9182726683352 0
-98.4651596382984 3.08637748915225 -14.6106377530008 0
-219.953299482523 17.6824107779922 17.7291944045553 0
-202.468345446603 -25.9378936302655 16.8541719405553 0
-90.9163174603298 -13.4172536340949 -10.8689117134202 0
-183.337373899684 10.3508520329166 -11.0758475343875 0
-147.370231162912 -14.7104110965136 -7.79631189541404 0
-113.602780202082 -0.495824063052327 12.0421116659996 0
-29.1246181675145 6.33620341940708 -17.0327697322594 0
-172.027197351008 9.02194831336516 -11.6511322177206 0
-173.556286206139 -11.003205655677 -10.7872863801582 0
-148.922789110466 -0.055566513830163 17.2319675842508 0
-184.771822795676 -30.3735928374396 10.9196945697985 0
-9.83869510375947 9.39657108762244 -11.49490773403 0
-49.1653742028471 -15.5609313274672 -11.9790147460697 0
-210.544982907115 -30.1738519089979 -0.387432825465419 0
-27.0141146292623 8.24470754427591 -5.4514496538553 0
-194.59087316066 24.511309335555 -7.61554933497212 0
-141.082196673365 7.61122599946599 13.4146798279949 0
-162.500748744292 17.1437118820667 12.0351579722303 0
-128.724346529022 7.25302337434591 9.68626213586411 0
-99.6230931772634 -16.2396597423692 -2.14444664163206 0
-42.4009825724952 8.82045606048245 -11.3319552428075 0
-189.589594728196 3.37792493534904 -13.75089627883 0
-204.271982985666 -26.6604451396208 16.1604846081901 0
-162.422626772577 -19.5154606676257 -4.56261510232092 0
-213.292291286673 4.28979729274266 -3.03601811104144 0
-125.216475346889 6.51465366221752 -10.1007442508976 0
-185.766587047809 -12.2879203602841 -12.6552177891719 0
-77.3021479226411 -1.26740693441041 -17.4591710746472 0
-163.261652162077 15.3608549240005 -1.71434214246432 0
-207.872812911191 18.4802116793737 14.4279462336459 0
-109.308083188923 -16.4328638211811 5.1709052811995 0
-222.005521740575 47.4780334554419 -9.04846752462979 0
-90.211130071112 -9.66860836673541 11.783017050022 0
-54.6755431996623 -14.2732877282676 -13.6651413432826 0
-149.221531763316 -8.10181412962608 16.2275286159983 0
-158.593882220182 17.6374871802602 15.5604509633841 0
-151.793049874861 -8.22597736939148 -10.836507798274 0
-120.255044125924 9.45435171068493 -4.76315912881931 0
-160.818303145129 11.4030478184617 25.5757561630049 0
-209.366021684527 5.28054139360494 -13.437038761344 0
-219.736822371347 40.8871628494895 -18.1428261096676 0
-125.544799465446 -6.68972889508278 13.9343513669073 0
-37.6284573895674 -8.21019263649388 -18.653468539266 0
-177.946156356804 -23.3042975120333 -7.82432084140838 0
-137.33467111361 -7.27524659634283 14.8811822472234 0
-113.224920877791 -10.8316987470165 -11.4659138825419 0
-214.494964554802 6.05041789046483 3.9534813354511 0
-9.34616318394982 -5.31389654143361 7.0270307017452 0
-10.6280463328506 4.00956774598086 2.03804703747603 0
-199.303382104881 -25.6717911000301 17.0599241898273 0
-157.981737423297 0.603317524593284 20.5078910775897 0
-205.456407918936 -29.2646280111328 11.6816575260984 0
-199.826947611592 -32.1809346604888 -7.9168748846099 0
-201.948107479909 30.5386681150332 -12.654797530646 0
-215.740975895748 42.7277323307852 -16.2244779163156 0
-56.7584112504861 -2.27673053997897 9.66845562321863 0
-192.805584175033 -28.8287000970135 13.2960119873252 0
-109.310468471006 -13.1357875826399 12.9091301994108 0
-208.540708284112 31.7692563904737 16.822681908007 0
-114.846727747355 -12.7302654384508 14.4450040174623 0
-59.5379518922081 -3.77905179147294 -18.7243566318015 0
-124.168444079072 -15.8828599254719 -4.07654862428772 0
-58.9891113357837 1.47022880104888 -18.6449548610763 0
-200.303348911418 8.34379864063973 -14.6931562517086 0
-166.383986593584 6.82117602165603 24.394210547754 0
-181.11901893491 -28.7659001767951 12.0831756602239 0
-198.066601937499 -17.7381340112783 -14.6760248138214 0
-39.2810077836427 8.80454116818055 -6.94916052238437 0
-100.427966076416 -3.95779131981747 11.53586513711 0
-209.192792129859 29.9195852348406 -20.4918714470212 0
-208.790726783616 -18.6467482897732 -14.3733218701502 0
-212.88915360904 -29.4305661199873 6.19181962501714 0
-182.565476223161 -18.4028907391733 20.1775573105978 0
-110.301180087776 -12.0769583578964 15.8162630513765 0
-52.2131282231014 -5.28646368294646 -18.8579888246436 0
-106.994108195408 -1.73009686048661 11.8323208948404 0
-226.089228047597 32.2335641984076 18.1253248260603 0
-142.329893432635 -13.6235502869207 -8.62617570097282 0
-183.50693308841 -3.9622276011673 21.9953129684333 0
-202.376314588449 37.7999568139248 -7.50939287293209 0
-14.4315064613601 8.24738601702293 -5.8193450035441 0
-156.559142701411 -18.5982260655028 15.5420236215478 0
-208.733828686355 -5.2277538738686 -9.82134542859931 0
-144.578834694591 6.18612899282636 16.325250114199 0
-115.351431043168 -13.9062336154074 12.3274557040588 0
-14.0070426214413 2.10780337019813 6.61348072610698 0
-215.843246452678 -16.9879381100873 -9.34313085763874 0
-231.855098679921 19.834458116024 -17.3051352424559 0
-147.059382038823 1.95564497678241 17.3069444995154 0
-1.50939016042033 2.47768285808552 5.72929008244353 1
-97.9904893244239 -16.0858376462776 2.3577562411335 0
-82.7874905434527 -11.3603672444656 -13.4644837076278 0
-184.712431564826 15.084078700465 -8.98392084715841 0
-162.226078716107 -21.2951139704181 0.439858549889873 0
-150.723123793688 -13.1199832115446 16.4618565380713 0
-176.309529120476 -26.682286960358 -0.7833714931262 0
-15.1833194491733 0.644842896386182 7.48989673740079 0
-128.931482134298 5.66782996988101 11.1315240722481 0
-233.233191518906 24.5639656276561 14.3993539125122 0
-128.318011800452 -12.857628867898 -9.00526430869105 0
-145.343350094009 3.92985375962997 -10.3789435308754 0
-180.16573364457 -21.2808794592397 -9.7238604399099 0
-108.018608494708 8.96537952668202 -5.73200362639817 0
-101.065436436761 -8.44721533681428 -13.82418831864 0
-6.15923251302808 -3.39659911972261 -21.4080101792253 0
-187.693391007477 -34.1639026239686 0.826078943724437 0
-6.19006976968481 -15.6121081185873 -10.3406029666093 0
-90.7955208558811 -11.5519899460912 -12.5983344837521 0
-86.3603864405714 -4.62579458764929 -16.4925255064701 0
-210.151514085553 5.16946909846048 -11.6685908618724 0
-168.954431607726 2.00215797318839 22.7014561574455 0
-230.459121646633 10.552539252474 6.56534372193688 0
-183.259558666965 -8.6651644690563 23.620855224798 0
-210.406032664591 -17.3278550903546 -14.8581602781281 0
-28.4968433209699 5.64929521525662 -0.22433449036014 0
-8.30023145061483 -2.99861772070979 -21.3594567683426 0
-188.427799049275 -22.4841836083699 18.5322324893282 0
-151.079682830501 6.70280359173079 19.2067789455316 0
-196.788084407994 20.5525749027344 9.31932538053539 0
-135.591313389854 8.69110682910849 8.87305059404225 0
-49.3810372277838 -14.4622179701441 -13.9088761017594 0
-105.222754006823 -10.6451914075213 -12.1274536471998 0
-85.8811310011682 6.28874112471514 2.51992772568004 0
-50.4749492993626 -8.40973685126812 -17.8232403250144 0
-30.5456582651733 2.88354586552912 4.81185461858695 0
-216.941059770607 -14.5077617669553 19.6979976510816 0
-153.503964079886 -5.02926243662834 -10.8462069375179 0
-189.328779262516 -16.740314951523 -12.4404996816043 0
-218.853841094272 31.0329691242836 -22.6423689731294 0
-100.948874980798 -12.9272370691324 11.265700852873 0
-191.514606093914 17.2260853267322 9.92190363974754 0
-185.000082462995 -26.6473354993621 14.4545841776942 0
-203.57930998229 -13.1418041582743 11.3924802875653 0
-137.622875538762 -4.69928838257745 -11.7343959953889 0
-29.0167272937863 8.81325360204643 -13.0701144479821 0
-210.167317605632 -15.4786347647221 -15.8935349438359 0
-209.356267348281 26.5396804300657 17.5288624714514 0
-224.526633655568 46.328612593834 3.234015815044 0
-165.579774739307 -14.7840665096541 17.5184609593869 0
-115.673861180038 -16.8426969403331 -0.565210266429767 0
-155.533366361221 7.91661718490101 -8.48326057820901 0
-125.513259202537 -10.1102908656342 -11.3490058093201 0
-148.319747964396 -4.61142015073431 16.3968668773005 0
-164.262129918576 10.5454799918138 -10.1780540385531 0
-178.1408831553 -28.4717560035878 1.08478557439441 0
-99.4889192442789 -0.0568419208657667 10.9768096994089 0
-133.330869806903 3.58113867097464 -11.2176179028217 0
-121.340903611567 -8.17035321501406 13.8117500291904 0
-115.877308636457 1.56004106748765 11.7052917027379 0
-158.63478014191 -4.22552405604468 18.9955030303678 0
-192.388163565338 -34.4783246223292 1.63915947094103 0
-220.24905946943 -22.0681385173611 -4.87644725627648 0
-121.835731819186 4.03187220437679 -11.986648265072 0
-2.22447979084503 1.1008371344974 -21.0471930487856 1
-136.608247358458 9.92683023019741 6.90244845990027 0
-48.6549739204061 4.58548997655891 -17.7330822708629 0
-121.246334869291 -14.4962734351722 -6.80932736259039 0
-208.76162883281 3.47927281960628 -12.0093617826148 0
-198.827170507268 29.4555158352137 -8.37585167652944 0
-206.744149135183 -10.2137507739454 -16.4705997961814 0
-14.6598463504183 -15.3612838065149 -9.72754778861346 0
-72.8566333275175 -6.7734020930264 10.8467034074394 0
-194.416571789521 17.1744612956474 10.1642237112671 0
-174.854399610683 -25.8057931595644 -0.394742922892281 0
-203.730712566356 26.5756407931798 10.073561710027 0
-47.2291448753301 8.93682499339485 -9.56598915767376 0
-157.275304148129 13.7713627008399 6.52018554123439 0
-167.925540145145 17.0678782265031 5.5878270015966 0
-192.957463019612 25.9403649278786 -0.493150969002204 0
-154.089577936152 6.96673612389936 -9.00733268724912 0
-190.202247206363 13.2144077342878 11.5957585019939 0
-142.815234258575 -2.90905171657292 -11.487569971614 0
-159.814097363554 14.3059924932561 5.81937353773562 0
-0.888350619850055 -0.685150129688671 -21.4236519671337 1
-109.974295863349 2.65706477114572 -13.6567003094088 0
-193.472085580044 -1.68923714392901 15.700932588379 0
-138.078694759756 -17.8281514115316 0.829686926785744 0
-171.616870007148 15.8466085525166 -6.48441556598901 0
-18.4119476469152 -13.285791368475 -4.39079736804015 0
-177.356650127461 9.17530711470673 -11.3933127111958 0
-209.206775358835 -12.0708399260241 -12.5189477503397 0
-220.661627711513 -20.7236112356854 8.64564810041604 0
-40.3795084015504 5.11786787658714 -17.5766792194148 0
-214.28877157697 -26.2047112823342 -4.59600169246968 0
-175.548473581325 -26.880554957721 1.59439482325458 0
-57.853266280568 -0.397915650953146 9.36440974823344 0
-234.728899150412 39.431916154584 0.880081862956689 0
-91.5368222831345 8.93025962114818 -4.99306486292704 0
-78.7030105906294 -5.38595874540856 -16.9762498593235 0
-123.343330194697 -16.6040882797298 -1.79079983856489 0
-227.932624487912 13.6903896345522 -15.9886714880474 0
-161.779462444889 14.5955417142403 0.0544184530029372 0
-160.313080507623 -20.4828328537472 14.8489494226499 0
-221.04876699234 44.1410533291156 -14.731202324967 0
-166.331940569505 14.0230575899502 23.5134558601365 0
-61.7627119194546 -16.1651260618771 -6.58470766243033 0
-56.3949653256865 -5.80342834401127 -18.5436685417974 0
-213.669342856496 -13.4449961595919 11.8557695269603 0
-179.11498926164 -27.3440364417887 -3.60613330167856 0
-222.751588697534 18.1832052919376 -20.7680061152433 0
-209.571363096346 1.81297982904707 -9.90719440441073 0
-4.05401234299001 4.72547074879723 0.399243422352461 1
-199.078012036109 6.80734581914745 -14.3819507192554 0
-203.420670907904 35.7303924925264 -13.2568729897289 0
-200.061530646726 -9.2141179786764 13.4957735170334 0
-78.4499091489563 1.55439773899352 9.72553617218512 0
-207.02622495033 -13.7314921452639 11.5519895228398 0
-71.6345835786727 -16.2763125564127 -7.82300236605459 0
-204.55943053289 43.1248524639438 -2.59626855789998 0
-138.703376377212 10.0400797314053 -5.64089544584339 0
-127.41825555404 9.83623556576751 1.75632034144632 0
-164.542880568607 5.11213534578425 24.2690289154749 0
-234.425335107049 35.036606949469 10.7638782883895 0
-176.745999650122 11.0693108973172 -11.1845642197407 0
-11.5907302936479 -1.02985039951669 -21.1220913826509 0
-218.990713526959 -21.8361613770116 -6.12135817796172 0
-217.638127175649 -21.1285465247788 -7.44440752343191 0
-183.915329956102 -0.312323439946237 19.5408537954092 0
-201.28848266087 26.595862361196 -12.1762951456997 0
-169.993419467938 -0.182100605988468 22.2364635418006 0
-100.353798089738 2.48597328976887 -14.6724381469489 0
-33.6137967863262 -15.0847907148359 -13.1276288628019 0
-165.157566934167 -22.2452327622431 1.00484342462285 0
-21.3036181918644 2.1222326254174 7.28604945573476 0
-146.99252247686 -19.044301087159 9.73730849358172 0
-140.461156112209 11.5873291895181 2.71038509944804 0
-12.3991434810021 -9.84912562071412 -19.2284433491645 0
-168.314905781202 15.9516271147058 0.177494629803915 0
-227.163327965754 13.6913632763927 13.1615425241137 0
-209.361769424806 -13.3971879420876 -16.2406984644758 0
-215.143503680955 -15.1631506350881 0.69661528465365 0
-210.704262156451 2.21793971942961 -8.55418220183758 0
-212.677657901789 -11.3223690035737 -6.73005600758338 0
-194.712972519454 -10.2075959774155 -18.576728382734 0
-238.915938121211 33.5476265743698 2.03599680859657 0
-48.9489811992207 -9.35622868363231 -17.4184584045879 0
-219.725655285065 -21.0765602559493 -3.19982058004587 0
-207.10046239955 -5.84761042535786 -12.2905270400299 0
-213.213909852377 -28.9665988912387 -1.68388513940979 0
-187.188200260397 -24.5672798055562 16.6525345547152 0
-135.26744925664 4.46224186189857 13.6105359990008 0
-168.011136921442 16.0498625940649 -3.99806359166901 0
-119.846906921276 -9.6247913505116 13.9703643340619 0
-145.763249106283 -15.551979993769 14.4146784329031 0
-43.8113224125123 0.795042854484121 8.41610679497512 0
-103.401444697704 -14.7462568877814 8.95312484522324 0
-170.014860765134 7.310067052735 22.8096671331514 0
-214.998612611092 26.4557790993656 -22.650745608519 0
-149.873785598128 1.62569235046027 17.8800308570406 0
-107.213414881014 -12.5546620363789 -10.3814670855063 0
-198.109129262344 22.7176838349545 -10.5524887218448 0
-203.241070865247 -2.65265578202056 9.47891517201954 0
-34.549694561952 9.01832903788772 -10.9314062148271 0
-184.210596052031 2.16106114017553 16.6454910764124 0
-72.0178362091038 -9.87019394482178 -15.4734610992574 0
-131.340897188685 -10.8270865612359 15.6629535294993 0
-166.964682162252 9.82101038783219 -11.1129388246092 0
-192.099487166698 -24.007764202603 18.161099959847 0
-76.3166391641464 8.70869591297375 -6.89860779660368 0
-88.003470681792 -4.25829253612528 11.2839636073609 0
-160.136683570456 -1.13448466839724 20.6622365502368 0
-211.108893499198 -6.44774638185378 -0.392709452648772 0
-93.2771213027468 -10.3054209391708 13.0284734704582 0
-204.350493922068 -15.2078586981632 22.0994896844708 0
-185.799989255987 -20.220044976632 -11.4305525726848 0
-222.602716628995 10.5999367828607 -14.5764706854941 0
-57.4654077922703 6.75340913562983 -0.890733484841854 0
-78.3195814836884 -13.6220083664797 -11.9251703267603 0
-28.8358604131012 -8.74303650205061 2.93762769378633 0
-67.6390563260743 -6.09579241936221 -17.6780300228047 0
-134.245986106993 -16.7831712340171 -1.83635201644486 0
-221.532345366531 11.7481204231592 13.2628732186045 0
-67.4816308341289 5.71041544847732 1.75613603283565 0
-124.169076263206 8.53699651647197 -7.62137288930535 0
-48.2102522570928 -1.43732033503534 -19.6088926455208 0
-193.042338359786 7.01343630205683 12.9796618183321 0
-179.974688034328 6.92182829049142 16.7159492070374 0
-116.834014056549 -15.242732589126 10.8040175644845 0
-179.937233287101 -31.1270934205122 7.47496873541028 0
-212.128037198263 -28.2599465500893 10.3696907229692 0
-77.530851254605 7.24124859992115 -12.3875869708851 0
-109.511848009613 -10.6322832354405 -11.8476272632626 0
-92.6447312987774 -16.3098331044303 -5.74435815611017 0
-217.775931280446 -25.0219768386226 -4.9765148525212 0
-50.3706032220373 -15.9967093400733 -9.79645231522122 0
-57.7738706028094 5.02280808963969 2.0660485714338 0
-205.364036645165 29.6141234371784 -17.7055761298349 0
-156.436917446425 10.8222170955076 23.2490216729149 0
-207.97789025578 -7.97293580072123 -12.6656365596658 0
-162.430198369911 4.53909218908309 23.862481616513 0
-125.899931628324 -12.8673680059998 15.8018480066217 0
-62.2142017623866 3.22338468171972 6.99844987738329 0
-213.603004742312 -13.2529093747259 17.7108002565218 0
-226.209222754861 40.9390693398565 -16.0733577971249 0
-27.9093120906253 7.57472465602269 -3.6685077179429 0
-146.31777377675 -13.4703933086144 16.8102519333908 0
-25.9740665752516 8.39967847815013 -14.3749767505731 0
-182.686590259389 8.36468068682633 -12.048179653294 0
-190.356783747848 12.961467385574 -11.041750118463 0
-203.189086371084 2.4149649601594 10.7912652098169 0
-205.393560129023 41.5999833802655 7.88672977625579 0
-103.085802714316 7.87701244374929 1.46878140733233 0
-73.2107740130036 -8.8122272213678 9.32396324793358 0
-116.407964194213 5.62135358873459 -11.3648150161365 0
-173.696810554414 -0.92936803665598 22.3593982398015 0
-71.6475767190297 8.06580912940914 -2.71518057851974 0
-28.7987720761077 -11.7887251632639 -1.55481605242196 0
-92.1948230688188 -2.64131656633479 11.2388862972541 0
-197.027205111357 -6.67819408333458 -19.3072159792726 0
-163.750720832882 -15.5729232355326 17.0462980993952 0
-34.1305631499379 8.09770755455977 -4.60596221354087 0
-12.8542172341906 -13.1915874671669 -16.7501850143548 0
-41.6330988794482 -4.0938986464964 9.66539295990658 0
-200.680959012032 -9.56637247931244 18.7424378148062 0
-103.635508065267 6.86224690365761 -11.1456460428595 0
-213.470226497928 -23.3483468618708 -10.5707466042862 0
-168.235540556056 12.2545137372194 24.1406047353969 0
-101.642187684945 -16.3811773190444 1.63470171629822 0
-137.844299134406 11.0072075971258 4.28805390836848 0
-202.523402205475 16.0497117701188 -14.6831700158157 0
-157.680902330987 -8.2651543773426 17.6302937498922 0
-31.2245794046184 -14.3679996130391 -14.7011800629327 0
-64.6648257677609 -15.0397336717231 -11.7665319959272 0
-16.2400647635327 2.82880570426103 5.82357178008923 0
-211.20755429388 -13.0180289266179 0.324076626253631 0
-75.5900609026597 3.82965966923395 5.71859559559901 0
-213.835666796799 39.952732115589 -18.2671367531608 0
-156.186751822623 13.7512942548489 12.0334111921733 0
-163.843377128213 -18.2667047026696 16.4841862614558 0
-239.777645504716 26.0413438957362 3.57312321791316 0
-176.482205017216 -27.8709768169579 2.96423360427924 0
-153.336374127528 12.7109770971082 6.49263158705279 0
-53.4418570862379 -14.6423606961436 -3.58416849076535 0
-141.49133842421 -17.8140075235774 -0.374411847465259 0
-173.523438511659 -26.1055862208128 3.02092365522709 0
-208.132232217996 45.968029648908 0.00548949721076269 0
-123.445231015683 -17.1786672597139 1.04056856365915 0
-69.5720741489362 5.942602097672 -14.9389275095241 0
-72.7707644773336 5.22876953410025 -15.4984706005492 0
-216.644229965767 10.3082993358395 -14.6718520613336 0
-146.778838210577 9.58362401354917 13.5962920134941 0
-200.698998312687 -3.9424420350733 10.2497035022947 0
-25.6760352308564 -0.484428845324783 8.20504418821398 0
-167.914709301423 8.23637623885221 23.9290745164535 0
-96.0090811654813 -3.84532673213034 -15.6687509081766 0
-96.7850561820691 -1.88613759451073 -15.6475989353337 0
-137.240433433815 -5.10015696706632 14.876184129815 0
-219.577260502874 -19.0280483312272 2.90010572291849 0
-39.3940344487985 6.84240820182976 -15.9730391582033 0
-213.77226255066 31.4469083648578 19.0043924480076 0
-0.635154372030528 -11.6362500445803 -18.8115271095686 1
-214.179730823464 9.02455394498234 9.38954923183326 0
-21.1941269477854 -6.76853030008843 5.63492151772734 0
-227.411723120799 10.662906974959 -13.0771834806622 0
-192.213102660204 -1.46436705724153 -16.4951925986551 0
-21.4041549623722 6.35456736933541 -17.4198842739821 0
-184.160431302511 7.10552032157435 -12.1063321520095 0
-153.428398192167 12.5551400791484 13.2803790550476 0
-90.5610992853219 1.43401658070726 10.0940527976674 0
-41.7866004163186 0.0352681973458996 8.64376541826223 0
-200.36566263842 -6.95368174466647 -19.08002387775 0
-203.987626329437 39.2252896477396 5.66004998564246 0
-199.316904001459 -2.3448528405843 11.4295942267415 0
-203.208878336794 -28.4266640429896 13.895766347064 0
-146.529202758503 7.62959466565981 -8.4123138113919 0
-154.978112697685 9.5885601300197 -7.68429870576672 0
-48.6646674521457 -8.24526766120453 5.53439507756443 0
-181.770911506772 -19.1867022161101 -10.8400753411047 0
-169.385986314666 13.8079711768297 22.1010961944356 0
-2.33018634422281 -10.0760943952106 0.756694250725869 1
-174.356311230113 -17.2613662867092 -9.69826937160521 0
-94.3802231330573 -2.8280011374077 -15.8962274925594 0
-119.151518686089 9.21833243872855 0.854935985914466 0
-198.872554869217 -7.39710410218536 -19.5917755685721 0
-238.475569045516 29.9945669892394 6.39711493387912 0
-206.627990037579 -6.36502431316805 2.61788894249389 0
-179.025344509715 -27.2055962456951 13.4435367005751 0
-36.5710748081566 8.65235867108316 -6.65512496139292 0
-20.7755597478859 8.49376715068957 -6.68913690237895 0
-94.9236777210479 -10.1006334472453 -13.4296697744002 0
-177.775522630184 -21.8401732105269 16.5925996069393 0
-214.622139809726 -14.5761561007726 7.33443260418656 0
-196.187975898739 -5.16088640350874 16.917978272829 0
-179.63250612655 -12.2100348096549 21.9438037755311 0
-5.41358208341949 -4.35269477396112 8.26005572261479 0
-193.002836560576 -8.60805619990999 -19.4462531078816 0
-195.836100932501 2.31313154659463 -14.5730301428063 0
-230.194230385382 8.71157287346573 -4.26585952198174 0
-207.11304615257 37.173329919437 13.119718868681 0
-195.22803387799 -34.0867756343311 -0.649781847867913 0
-185.98955244945 9.9466468276444 -11.4873485748463 0
-114.435358706864 8.38793763351899 2.64208097788297 0
-39.5154630787798 4.10606038576034 2.46463710106513 0
-180.048860125693 -31.712738436406 4.73959643017084 0
-160.626370227516 0.669348221398826 21.7074634638453 0
-136.617040683815 -2.20270476236702 -11.9071366518223 0
-120.31446829271 -17.2852566261229 4.90924217938454 0
-180.99067239819 -23.0540968505909 -9.27742699776601 0
-208.078550743333 -3.8881787246181 3.61766334918941 0
-160.424629281966 14.2551489143809 -6.98522859901691 0
-61.4194614398485 -14.7912644342155 -2.89537542612891 0
-163.968267727162 -3.47286456838019 20.4213399706099 0
-96.916819223288 -8.92315343050319 13.742268479829 0
-39.9571235455124 -6.77104971120237 -19.1225923383698 0
-207.96609992226 -29.0223003928975 -9.59525683694523 0
-203.558746580169 -9.29015804919772 8.79669110507126 0
-116.237854131873 5.76226229786283 8.70421636036236 0
-181.223668412319 -11.2143876858819 -11.937481547321 0
-37.135682016079 -10.1636992302968 1.11208358884651 0
-188.209454738628 -31.7678391713381 9.12072477472643 0
-113.873282051274 8.48475089181923 -7.61056555742814 0
-182.260657110374 14.5473709360994 -8.75996499368521 0
-191.750518564064 -16.583410017499 23.0467515617598 0
-87.0225854766546 -6.95161073579868 11.7063142290237 0
-173.779854022992 -23.5470659188884 -4.40967666901187 0
-44.0642451318459 8.39681381791433 -12.3680240060652 0
-207.364400126335 12.1256017610747 13.0159694279431 0
-144.272558755944 -18.0132255729197 -0.760362073681787 0
-114.627437634747 -10.4247536799978 14.5579983515301 0
-221.295432478425 8.97788760366777 -9.16333901136392 0
-16.5393652748096 -4.78436572407671 7.96727093632614 0
-223.572048507631 32.3004285229399 -21.6847332284768 0
-216.688725334989 -15.7251314786291 3.63175393780405 0
-171.929710035449 -16.7463468958189 18.0491409077935 0
-96.6247312063867 -15.8743864934013 -7.10074117167231 0
-70.0844834649226 6.60034917084652 0.438439268647282 0
-204.013678088802 -31.9964520532906 -3.64138771139396 0
-213.47990109432 -28.0425099250651 -2.53177541391118 0
-238.330177846115 25.4844052345559 8.01789795616923 0
-178.000899857498 -8.68860495145854 22.3021024663461 0
-187.511276401869 -18.4506285478985 21.644232272997 0
-203.908829699926 29.6006931512585 -15.9931036441128 0
-180.786988106773 -28.0444583318532 -4.34582202405125 0
-205.506737056212 -9.26407875924094 7.0977622187267 0
-104.095786557122 -15.519478457165 6.71091124356937 0
-231.483263576124 26.9373396679025 -18.7150367048532 0
-142.839741574857 -8.95264609145061 -11.0994839039802 0
-115.112795937786 -16.3156962142299 9.62151848967565 0
-81.3901492702345 -11.8246343261522 6.73126681258778 0
-73.4096573213142 -2.51452733601405 10.368474677203 0
-221.459298903877 25.3876304161035 -22.7138886924632 0
-54.2560356677834 -5.01376591020622 -18.829943605558 0
-238.025985021946 29.0617965521614 -10.5201248845868 0
-139.166516803762 5.71014984012361 -9.90742608030305 0
-205.717506015611 26.6178480703113 -18.178260234765 0
-112.305059054288 -10.2779061276816 15.4007715456919 0
-178.062813780024 17.0885163158776 -5.52960250811815 0
-24.7811601295343 3.10587684463167 4.53592535400211 0
-205.514701502707 -16.7388577099524 22.0273074921374 0
-191.501784417733 -7.62547225804872 21.8079428821717 0
-160.464840727962 18.6268978091017 17.2773864451249 0
-198.376028062931 10.24273317899 -13.8329072843857 0
-234.579467959593 35.2268570051017 -13.0804822764824 0
