157.157529926394 -22.811869995153 13.0483283208665 0
61.4110108615441 -12.6855501012237 -10.4724749964754 0
186.286321143297 -22.4140338089558 -9.37665420798247 0
-91.4542827007145 6.77864868947005 -2.22651230154269 0
155.069298200657 19.8507020347963 12.707878188514 0
-119.524058904135 -12.1529882703666 -6.28794326471109 0
74.9793991522327 9.53092034800273 -18.4508235703601 0
-120.838244640624 -18.2441327918152 4.79211505201743 0
95.6126654796643 -0.507175554948414 -23.8257851050917 0
51.3835197953158 6.44349862796604 -5.89573104426232 0
-28.8189955123596 -11.2067808104776 -17.5539945395813 0
-63.7879718986493 -5.91992599798232 -16.5406629998153 0
144.122808453714 -2.18811393023695 -20.2868508804149 0
123.82960480638 -6.5280950356764 -21.1946013784952 0
-34.4452891544296 3.95492154338236 -1.28104076304745 0
139.47529036727 -11.891048888009 6.35104633932243 0
-61.3328353998897 -9.07111561065687 -15.8186839527304 0
188.935259566418 -31.9628952852015 10.7647506140032 0
16.84147587846 2.46103121359666 -21.9691712229723 0
39.3788793974426 8.80139964778581 -14.9413253618607 0
84.2050654399761 -3.72468152714118 0.273248004231078 0
129.510397893176 -3.83330195817268 3.47249588515859 0
53.5271639023255 -10.9263326835475 -19.2720014826415 0
-118.079001248634 -0.924045339531806 -7.91845611384945 0
182.502331961303 -24.9215881941309 -6.10333542526011 0
122.543156984542 15.5628644267013 -10.643622698994 0
25.5293736634733 -11.0240180534508 -19.8599833236469 0
-101.52034768584 5.36857448520306 3.07194222045165 0
37.4894731761745 4.06955975068903 -2.74470183727137 0
98.4989582134522 13.1276253495037 -12.7881358683837 0
188.654861202607 -15.2456904886228 14.2642672089787 0
118.584087124175 -4.70686885876783 2.29882850327563 0
129.948963611178 2.31710703039819 -21.3025747482091 0
165.384739215664 -29.9730538999988 0.866579191811959 0
101.53564940885 13.0869972104229 -13.6286323426527 0
-47.7858312464479 -4.87376815361645 -18.4494702098894 0
184.167877846693 15.1138565834972 -13.7998700537977 0
30.844730863116 -8.21086958721555 -3.56997758256143 0
159.70444646111 2.36446515702025 11.8837067378263 0
186.040413368905 8.3898289172301 23.8750444736103 0
111.657051751346 9.18286457118818 -18.8680820332025 0
179.832767041839 32.3360704815482 8.26944216852516 0
-10.5261676792508 6.82673975823669 -11.5484314147865 0
63.8087731645268 5.14038995280757 -2.75789045247344 0
152.010424484342 23.9353640315152 -0.351618695915139 0
89.3263942338073 0.00792268907289675 0.128146526621897 0
163.827640621813 -12.2016293689638 19.136024549525 0
183.545341864938 -19.4975883874771 -15.7100369717329 0
64.1565325109368 -1.30382147530914 -24.3159594896242 0
-58.8383511379671 -8.75989042816281 -16.2481354352977 0
88.3716894789258 -13.2344103136075 -9.1415726130047 0
-84.5879046573512 -12.0055137579166 8.39897412313442 0
184.334513440784 14.049127125494 39.390111486561 0
-94.2078805725836 -9.60539514009323 11.2160193639948 0
-9.28042453059737 -1.6272631941929 2.47619278106345 0
8.81676768077588 -10.1576436913014 -4.44650604432773 0
187.812780891021 -28.9060743122108 3.9588980391604 0
160.572911361387 2.78022964232737 -16.3242282493894 0
51.2156338033392 8.85742381011252 -10.7368613029631 0
-58.1800598229342 -10.0076408926615 4.67893826215482 0
168.971347207136 2.71076407964697 -18.4722876586949 0
-93.351352918181 -7.83476073192076 11.0030150603906 0
-109.383838535321 -13.0712734137822 -6.74040402703527 0
164.531425120755 23.7845597305463 24.6482130271005 0
185.818173238433 -26.8568185747945 -0.72778233258935 0
176.527916441593 -17.5839899400378 -19.5326285412658 0
148.769569575738 -7.28025643549837 7.3034657638735 0
133.807147648032 3.02807462857871 -20.6209830885297 0
-51.6000032026723 -1.21153857761185 4.45676280095728 0
-66.1797491655873 7.53415212714204 -5.59202160250541 0
-116.703392639979 -16.9351723011223 0.307262245415614 0
166.242947433724 -3.12759562828531 16.088416872775 0
176.482153949935 2.92922768263807 -16.5204854373804 0
-110.570397365911 -14.2169792047971 -5.36737118046079 0
98.1172205454777 11.0067481655986 -17.4242676209711 0
-75.5659169169086 -12.4699257017677 6.21751597594568 0
100.345935410482 -7.223966376012 1.24766333797117 0
-14.0148192000424 -8.4630075179178 -0.706720499354244 0
186.412318630625 -12.5821257138718 15.9427296459057 0
152.072138777985 24.7420406512042 4.82510936277337 0
-119.595714504318 -5.41563528411 14.2659698537599 0
149.44068026136 23.5670240587259 4.2091336165556 0
-3.51606650487161 3.5635666891769 -2.27072616728534 0
180.241430295535 8.19653724583046 37.1787037233409 0
166.200314051636 -33.9622253516273 9.79888936792171 0
196.128574227543 23.2190027700378 29.0462937075712 0
-11.3582480181601 1.92252617734545 0.468014712752796 0
182.659383581616 -34.1191317919991 17.3008645280785 0
-41.6845287527656 -0.176779029631166 -18.5390642760342 0
155.725389440785 -5.28692892608478 -19.7423525073928 0
103.211354136234 12.7347073311896 -14.6327504609952 0
89.6586808531524 -12.2303261411242 -4.55815393953519 0
168.631848330402 7.88070580011914 -13.7592537430425 0
142.366987835113 18.0172386895108 -8.47850171447446 0
147.435810685623 8.99610096016882 7.81829197882883 0
-8.09092126009204 6.84293548646835 -10.6548877882307 0
149.661774675031 -17.2903854558014 -10.3169222092578 0
184.643445903871 21.5562099212061 -8.95087111048663 0
178.025925266675 9.44886719359698 38.1661102881993 0
44.1430713281656 -10.8490102481773 -19.6889376034256 0
169.265148815838 -34.6336265085988 6.5783436160916 0
159.871275294091 -22.9832105603277 18.3651332325955 0
175.669013587914 -33.2160570392814 16.6828550956658 0
-57.4873153520846 -3.99817476079335 6.22777207234456 0
178.199740502145 -20.8906464198245 -15.3323045636304 0
187.30168577112 7.72719161952736 27.2480116585112 0
-36.293817101661 -5.62381655858554 -19.5423424777188 0
117.189362397927 -14.7054327342911 -4.18868124051559 0
19.4110457695556 7.7575568479816 -12.5449150980154 0
157.730507484403 -18.9491234654725 -11.6681375322163 0
187.144816992337 -4.54091135732405 2.4967662194204 0
-38.2150682078637 5.96424836237103 -10.2133134263435 0
57.9834336844886 -12.2999211499771 -9.02957974512193 0
73.9006304948874 3.30579396133911 -23.5000418499851 0
-44.4951059679304 -13.7941087224491 -2.48761631283876 0
-27.0933776959035 2.02195314485351 1.02684395333396 0
72.1235800084456 8.83345111796787 -19.2300320387846 0
110.135254699308 12.1429107772002 -15.822292442861 0
61.4301390983812 -7.86031020264112 -22.4168007570299 0
152.957002108572 -7.12260345730768 -20.3962956971598 0
165.7802844084 10.290887719185 21.0606118277522 0
-25.3881732080227 0.913456381601073 -19.6925990063037 0
-2.19369313751999 -7.00621535436491 -0.64786793466334 0
168.019127602191 -34.6536411076803 11.9055268805988 0
-67.586994032825 4.04038680721793 -11.1620921642653 0
89.3723243329633 -5.48848908344478 0.546881518578117 0
158.771031156344 25.8759617775207 14.7972116347386 0
169.357875107354 5.88974021471191 -16.1370389278965 0
146.415367195835 13.8724594747471 -13.6221232363584 0
148.047664878633 -20.3036924284962 1.59914304014484 0
74.5599465926924 -7.4881771745095 -22.2280877155165 0
160.488098547519 0.693930467729921 12.1002961077618 0
-13.9123469943575 -0.615503489112752 -21.1292113142059 0
174.639487448496 -12.5825042050914 -23.7356474438318 0
173.212177163588 35.6063850790068 15.8194360824143 0
159.395687008458 -24.45730900754 -1.54014066464438 0
-91.7501892430762 -13.2937794302521 -8.69297587484535 0
-85.1211682251575 -14.2806169661921 -7.99191307614094 0
26.1904341177421 3.90784513683645 -2.37304684742593 0
73.7855820176196 -12.871884185871 -10.4308891117538 0
160.426445383333 -20.4956265305766 -10.7770050950527 0
55.2008960647443 -10.2469634280096 -5.45812012756129 0
96.7001980615169 -9.83776765058024 -19.2537613849649 0
146.780523469718 -19.5318992488505 -0.189520701857443 0
98.2220067041883 12.3002801259168 -6.05696271073418 0
10.458818064018 7.31444727566957 -11.4871781227087 0
185.946340640851 -4.29301066143508 6.6955575214793 0
187.815774883821 28.219589324904 4.83614960011021 0
98.2476194516549 -11.9842623602666 -2.40728837446559 0
75.4857738727869 -12.7905571459932 -9.20341503298919 0
151.014310394911 22.2419191330026 8.73715770693897 0
-128.787983347223 0.852723262384842 13.750252020681 1
180.936375608336 -22.5837550502505 28.2696935359573 0
157.197814434094 3.41751121504331 -16.07004378285 0
111.007726267273 -2.56221935449529 -23.0435064531055 0
-79.1890454196706 -9.2162471137839 8.90371879485908 0
142.356118293916 20.6021481611417 -1.56809291724342 0
177.285288713784 -3.23029635818315 -20.2967092703487 0
194.433302028749 17.153249687047 31.3006933751118 0
157.629265498292 18.6976289555486 14.5639068169166 0
-18.7262852307988 -6.96748023884426 -20.5180697074085 0
166.976411863724 32.907177941885 25.4939762525504 0
177.062751879056 1.94482675645414 10.3593408624312 0
-24.9666460630168 -9.82064689907329 -18.910317793141 0
-98.3251179189914 -7.32184599845293 -11.2798371256612 0
176.217184667848 7.85740571877847 24.5948112955472 0
181.600761222738 34.5746249781952 19.9477912166701 0
153.676555696446 20.6005250484924 11.1739893614488 0
-27.2214479488875 -6.36806274768847 2.84953590729974 0
176.364148358483 6.69155841323684 29.2309250671783 0
-128.703529487274 -16.1097682943738 13.327685792157 1
138.910396242601 18.3360952778908 3.30638545780408 0
-16.7885887417506 -8.86824869148459 -19.9092441623242 0
149.635700026771 18.4908715299372 8.73920171044198 0
189.258019791267 -20.2262155181291 -5.28210192461454 0
-33.5396011687345 -2.62588986491181 3.97060997426245 0
197.359157239499 21.437944067449 4.97667746684073 0
189.056932305152 -24.5615641738594 -1.69860140230114 0
102.844732889414 8.47265906973751 -1.05364775761312 0
112.577509708691 13.6559310483399 -3.35273666396723 0
-109.143277029137 -17.355823337231 7.94562485290466 0
174.325816185245 35.491193733784 20.6406801009042 0
109.842519750996 14.4320080321026 -6.60554255163083 0
93.4578934814788 -11.9259751597764 -3.30060810188821 0
120.215364586256 5.87689215842836 1.86445707157177 0
132.915194891809 17.111005704605 1.17054560803733 0
111.701856359119 -7.15000767049439 -21.1823320767373 0
190.964761910103 8.98025422859036 23.259305655193 0
189.291946407174 -26.7639838816367 1.42571213394163 0
170.951598041702 6.90301689489066 -15.515369614693 0
-51.4327087227172 3.54882832398961 0.160202270590812 0
165.36052459048 -23.261530044483 -9.23534757141956 0
163.747227112848 14.4074212732156 20.7240471220357 0
-86.4471161688643 -9.99238831465997 9.57336714796403 0
160.343805042843 4.9369805765694 -15.4597136371465 0
-16.2338305586211 -9.16128550245043 -1.093488037969 0
170.036634182667 -16.7413265104442 -20.171739769549 0
68.3072848221608 10.6256189745347 -13.0628372327739 0
166.802952317581 -9.39481099801787 -25.1369428909493 0
126.62254370889 6.91785897857144 -19.6434970936197 0
161.315344667905 11.1606038753282 15.1831188339142 0
60.6013575807555 -12.6402684158435 -13.9067251821529 0
166.602880754095 34.5759194716958 18.1204876014316 0
165.482417278997 8.52463598262899 17.9309775046251 0
146.542661781367 -1.1747554518237 6.31200883081881 0
190.140248227521 -19.0616494046361 14.6783446116908 0
-73.8090844528155 -15.8269488134026 -4.86331131753998 0
-4.62377970912462 5.88229538818719 -7.28419341041295 0
175.944065334246 28.2828445416593 -2.20362180338384 0
-86.4177878055461 -0.904346821563719 7.83160708148151 0
182.072648020932 29.1788317277963 2.27819086678269 0
187.738077455945 -13.4444622417882 14.1044348181085 0
73.2473278961283 -10.737490879953 -18.7695060118149 0
191.230704705232 -19.9813082901591 9.78891650880049 0
119.765638629588 -13.0516102530561 -14.0250312823685 0
187.173146260019 29.8263832668624 9.70933514785449 0
187.23134356112 -21.8624556396302 22.9826861036962 0
53.6677303532849 9.53056323805606 -14.8549436412644 0
196.475135408295 12.9818149966866 22.2823372004192 0
77.0772940844406 -10.1231626652601 -19.5308190002842 0
159.809346781987 14.9326576514789 -13.5975251481704 0
164.663088440848 22.4489818753448 25.7930987227097 0
163.057002810153 -3.84926095749471 -21.4592873050779 0
106.146822924844 -10.9834507327355 0.569831543537194 0
-39.0146972444452 3.27767054140298 -16.6248382132373 0
149.00481612237 -20.0822572313785 -0.265036837292376 0
30.7340660043743 -4.34364971378449 0.039874561064822 0
163.075569131389 21.3210441360617 22.0424992980095 0
186.321823828473 -28.6868010055588 3.3391509899855 0
163.524501368642 32.2846200726541 13.4790266429829 0
143.891802475525 15.7339495778785 -11.5414618352877 0
166.157410499657 -11.857958331465 -23.6489649317115 0
44.9445475444987 -1.60812995250917 -23.9668912911489 0
108.055760306532 9.89169005092755 -1.05547875111012 0
162.7998720988 12.6818024885024 -14.1549094551887 0
164.727758038742 -31.0971116959193 20.0958101723443 0
179.248644848262 15.2381477147625 40.6087138554867 0
188.004324701376 -33.0245068053439 18.9989229257627 0
176.386379510395 -3.37783100224766 12.7629695127153 0
113.503784090522 -0.330884479475632 1.71788505059529 0
70.7389345607698 -11.2768912679241 -17.8788730196967 0
57.0338214892997 5.68094519763236 -21.7030130542566 0
-18.4252641716608 -0.245457853111485 -20.6760285099294 0
78.9916380513205 -5.77991088116444 -23.1059919836698 0
164.082850779573 -1.01685141599943 -20.1471294947602 0
-67.0879215132471 -10.2954019185733 -14.3967027602034 0
56.6104698121088 2.79209043746005 -1.36933794871387 0
145.049323207236 21.6270954730159 3.40448931724349 0
-78.5102727884631 6.45636092979097 -1.08897315779082 0
158.649248612507 11.9504711944507 14.0446264801834 0
183.366110385476 32.4080649543667 13.5551796466598 0
108.130290257645 -12.3234553105102 -0.51043785756272 0
-106.527903717097 -16.0880381117881 -2.01967028321433 0
176.379090241292 -27.1206787556022 -4.98176122778332 0
171.227439732505 27.2607800456357 -3.73085298177579 0
-49.8696998073897 -10.9450207985192 -15.9233738824994 0
181.431340154961 18.0320876731309 -13.9180985889666 0
126.753016051044 1.82414969614992 2.99325375667261 0
52.5257319990777 -11.9304368578743 -8.15352107680804 0
107.65280698289 5.43430098007447 -21.7122246329938 0
189.713567115484 -13.0203421094005 4.57399087669936 0
-14.379932761114 -12.9685921054709 -16.4189734985199 0
191.768101953748 9.285847437211 21.2037579289181 0
97.6396334725702 7.77952290676619 -20.5779555369196 0
163.751227908408 -0.362274555017292 14.9604499557632 0
151.762841580633 7.73567269512892 9.30819392504285 0
167.82277888 22.866707097154 35.666253508547 0
182.475585397668 7.97031335182727 18.3990361278611 0
-126.163855366012 -11.9388396032107 15.6573671407797 1
167.122304984827 -30.588594735521 0.915090329119612 0
95.3681153644732 -9.29317822109555 -0.32779704220485 0
178.827136020049 -28.257622185306 -1.49058760349069 0
43.3980706783781 8.43738957418548 -17.3154210674917 0
-59.498238832267 0.308133000659551 4.61035300593736 0
145.286923988679 -19.0228055041864 -1.34766881261463 0
161.801024215292 -5.26464841510944 -21.7399246923265 0
177.953133008711 6.62169681281651 16.4243769069842 0
-94.96537234048 0.873704153043326 7.93293835475413 0
-123.41302300892 -8.80075330630033 -6.97255462632534 0
-3.60827800814827 2.44278685628672 -20.7283088317422 0
-25.4157301222802 -6.67172794008337 -20.1893286212299 0
13.9570150432979 -5.0690735621258 0.270216541180704 0
183.683040123208 27.8647455902468 33.3488089149877 0
148.288780777255 -18.61987501595 7.28081042309212 0
164.970039159028 33.332023181649 14.4668727713531 0
28.0054415939586 0.94507540517752 0.218334661393015 0
139.064562955231 -9.68093908285504 5.63669347014859 0
177.499591519261 34.7907972125667 15.151039104692 0
-21.2621377647292 -11.0509335392067 -18.2484039530985 0
145.306384050668 6.92793771728971 -17.6688460198276 0
-33.0030448607573 -5.06596284138315 4.26621524804023 0
147.442665030284 2.91996132018377 6.86392521603418 0
25.1672187603005 -4.29499834397392 -23.3631532216251 0
120.43597730949 13.5601029777715 -14.0365600384243 0
148.933769488597 -5.66778259565332 7.03548209415081 0
169.01011279915 -22.5805361113252 -12.1288685945253 0
-99.7021889678574 -8.65512742806548 -10.7501839852401 0
132.566330314177 12.2537103451096 -15.3608632276387 0
145.293461211796 9.82998570510475 6.99155789753051 0
138.808207736653 19.5040385925661 1.90427054646769 0
179.057924774646 -33.794371469892 25.5514108772076 0
103.921273346604 11.8901273752076 -16.2033861868645 0
-42.6858748319347 7.05370079850932 -8.08607041316204 0
-76.8369747880992 -8.94692503145781 8.57182154987123 0
20.9619864535759 -1.3271942360696 1.12891182505234 0
130.064014487339 1.53541702885998 3.40754060371637 0
44.7967084113153 -4.16398353206565 -0.110284909785233 0
187.424903149275 -29.2852431531167 5.60562548837751 0
137.733555225366 5.72251600862168 -19.1057580099245 0
-86.6497410573193 -12.0599362128887 -10.4897770963667 0
190.534886650599 5.70193035558766 5.63492664345603 0
84.239489621458 -13.0117543967908 -11.7770256279928 0
-100.515555394301 -7.39219438704294 11.9967482953121 0
131.348519880084 3.98434624165641 3.53380988635558 0
158.512172648587 4.40085812441182 -15.7944598047889 0
161.048831724441 32.2607278905784 17.6595116269322 0
109.245893901539 -10.3744188989393 -18.3583536706416 0
131.85965375913 -16.3730680797487 -4.77046644468673 0
-86.5534483433539 5.58629003388083 0.699143405385539 0
60.3919803163753 -10.91932337226 -5.97492644416067 0
-8.25019910636209 3.98232381081285 -2.80526417729707 0
148.361117923181 15.2070033265178 -12.4727222301055 0
110.725576357538 14.7069346874574 -10.1045192175519 0
-65.3608377947052 -15.719545820153 -4.48666357058837 0
181.522557650295 -26.6906979591236 -3.5489658850541 0
7.88869820694238 -1.09537218197676 1.4639821221784 0
130.185983769985 -7.03638620683514 -20.7665958944978 0
-12.6315803481516 -14.0649649059628 -9.30281983226497 0
169.535127640921 4.29965135295131 -17.1434949613545 0
146.050871493879 1.9960451435184 -18.4299719030911 0
128.189860058524 -12.5111534784119 -15.3920195766488 0
179.939635851234 -9.41866630769912 17.0458900351985 0
46.2341535851831 8.11756892447391 -18.2912789487418 0
142.600629560606 -12.6148119994323 7.29801518551108 0
147.24295204689 -14.6027626137157 -14.6312110302141 0
-122.778495995843 -17.6847412346913 2.18514852412253 0
27.0704519665541 -13.3324636607794 -12.95589403332 0
57.1954386312078 8.1526258612212 -19.1977820408656 0
-53.3240073108369 5.16479674459218 -11.1346324690461 0
-72.5337300997354 3.34767781598484 -11.5306869613523 0
177.36016026816 3.52991026818857 12.9072299744051 0
151.801699070235 -22.1181758391314 3.67621217374959 0
156.041262383056 26.6188518426639 6.65460498504565 0
7.06660576261002 5.59784034542193 -6.84287994995235 0
-84.2537277145159 -14.079893318793 6.8190791890759 0
-19.8538303859623 6.67688773424043 -10.7089289314017 0
196.503975353807 12.6115055325803 19.9993811910473 0
175.861060027704 10.3390922016748 38.4562045471845 0
-89.9046529017072 -13.4689288544878 -8.70366919554183 0
133.18378529295 -5.94249728242158 3.99839234507048 0
121.504012273889 4.09750458758327 -21.5486596962577 0
-105.258941303958 -6.58756209651837 12.3970359250236 0
171.633903598202 10.8691797194288 37.0118687237267 0
197.333347953133 17.9107079431745 5.33863122473292 0
159.301296819961 -28.5565269385168 12.271467605905 0
187.786978189545 -6.61840362697614 -2.82037565781873 0
152.583560893565 -18.2430958377678 -9.99391477790662 0
155.823418993408 -12.7984105926805 11.4996308392234 0
175.784418319328 7.58544060923783 26.9951412598861 0
98.2464301856286 3.89590100517248 -0.0743724272287982 0
52.9686331504147 -10.5256163842032 -5.89482886646717 0
81.9575539732304 6.644532659033 -2.49362911544218 0
179.377693741827 34.4909499940725 19.9413455558673 0
164.840083443172 -21.3676756122823 -12.0770024369535 0
188.053886920765 28.885717307452 7.93110115850723 0
177.959976448778 5.21895133339154 34.1605340336373 0
188.71260529344 -21.3721805508205 20.4474344543803 0
171.175182277035 9.55897535233645 -13.5850235002119 0
189.082686555317 14.8722101469947 36.7670996823802 0
157.560957759869 21.1018751060513 -8.56449588280659 0
-115.217190205816 -0.229301280437406 -8.14435024621891 0
164.743426445778 26.5207913432308 -3.62934990382693 0
150.814496378456 16.2675799229384 10.356928653053 0
-55.1007289059299 -1.53847144957501 -17.4428220661673 0
37.8391881558731 -12.144999147062 -17.6488960094447 0
-103.004035818333 -6.45905722763228 -10.7051946203652 0
102.834751059496 -7.2317396037173 -21.4275074758676 0
-72.8883998153526 -3.16869894034661 7.52055876184809 0
-16.9044291132541 3.70662052461876 -18.6843922999616 0
28.6821529994772 2.17724035000189 -22.6528555614721 0
101.289960135387 -13.1030128004666 -4.00005253236827 0
104.283154380922 -7.14117676686412 1.45338075788307 0
-38.630920277189 -14.1075343946697 -4.58916024409992 0
-112.034699548572 -17.8085124863858 3.42634866956563 0
-121.419985538499 -8.524498433352 15.1596776796917 0
97.6053266455834 8.30031199645053 -1.79931246055685 0
115.363478976872 -6.71559056285638 -21.3619330402146 0
140.69791959633 13.2127050203052 -14.1416871909809 0
-31.2842174024674 3.67540492738509 -17.218657421698 0
142.524881947926 0.860212053319994 -19.7632796536596 0
139.024224101245 2.75636161047571 -19.9049874954234 0
-92.2847775005303 -16.2244888850934 5.73176863632 0
39.1982976157929 -12.7957312098494 -10.6411220231512 0
164.313801196986 10.7739399838342 27.6159963249697 0
154.592254579749 -8.49133467029754 9.47435219681623 0
182.508128955474 5.28792304992176 11.5098687414493 0
-94.7581352287064 1.90361865961013 -9.8732819094913 0
137.912948018393 -7.69713525399954 4.95965779593345 0
40.0782922350426 -8.89520498785039 -4.32268552395061 0
-84.219241245315 -0.370711173974789 -13.0441859364526 0
92.9311815061076 -12.7804925774144 -5.1632062764995 0
135.240355041857 -15.5204504836993 -9.03314714466837 0
-87.6828790362255 -6.17575009812276 -13.1051911667596 0
15.0957730504204 -1.90029868964876 -22.9693878479462 0
56.489944791822 -5.24124411546892 -1.06015360223538 0
184.365001590961 31.9774527551132 16.4260759007786 0
87.8714662002692 1.68629397853893 -23.8994097997209 0
-126.592789789498 6.58184108794477 1.57558692086816 1
69.0208781381017 -8.78134859670647 -2.96778472055263 0
34.350390730862 -0.332033879087728 0.400726517561383 0
108.813461105705 -13.3869582858247 -2.43885909131006 0
70.7376094286995 10.5722377727836 -15.7952249179465 0
154.583917370326 -21.7513162572159 -1.1520712958315 0
157.206479956699 26.916386964327 3.1348524863191 0
189.254724467505 -28.8502819583085 5.18784356016273 0
138.717529889564 8.56823529474509 4.97717198364714 0
-112.713902088381 -2.78051518582845 12.3321241860156 0
31.7871976087962 -11.7235927909066 -7.61403171974618 0
179.475680078191 -33.2708535163176 17.7152565869099 0
184.373545015485 20.2709478285117 -10.5715381527314 0
3.1713967406273 6.67024716452021 -9.36507623209992 0
120.628579692467 -13.6443310436616 -12.5649986213189 0
-24.9953570926686 4.89558484358188 -16.2293350268145 0
137.943232220423 10.709366307328 4.66258529803391 0
-15.4592413216566 6.65444672874544 -12.6474984759748 0
153.485056021255 -7.6641582810889 8.62532999716623 0
25.7334378487174 8.05300647872251 -14.9420619061957 0
149.307397488853 11.9219792873301 -14.9281116520036 0
-20.3128068356394 -0.795390851855708 2.61789887733274 0
175.422939479196 -21.794456768716 -14.2515763308787 0
17.8284055282615 -13.2827435138754 -11.1919161919851 0
-17.4416389190736 -12.3158251692818 -4.52264884748944 0
94.8898197958923 -8.53772079874809 -20.6449972974244 0
-102.539179579903 -16.5558459568821 -0.673756713117966 0
159.103766088025 -19.9162359270538 16.2155587923039 0
8.70360129001454 -12.814767234137 -17.0390344999043 0
164.785096287156 -6.42183796270361 15.1643157241666 0
-98.0460991439067 -9.86513908677994 -10.4878175997732 0
130.658017198287 16.3186715446177 0.85257548308858 0
26.786078874406 3.43259261372692 -21.9843960842747 0
31.0592559194258 -2.59778581285919 0.985241345644086 0
-53.7595164367617 -2.5711623885622 5.82184542541076 0
8.09429700350611 -4.8029033410611 0.987013476654289 0
136.272538020452 12.2359535047165 4.08344317653988 0
0.047148562682963 -6.19927237773722 -21.8369852199976 0
178.328061914405 35.2810875362313 16.8757950039861 0
-91.8001076735387 -8.14694327008855 -12.038867592014 0
-11.7766668482737 -4.11155452088959 -21.5341691986007 0
-122.89941717272 -18.2979995812042 8.62000446066192 0
175.17947977996 34.4756319117434 15.4756811739311 0
-55.5259964205416 7.64513599861237 -5.3307572475937 0
61.1096170618139 -5.85223793069748 -1.33548672940709 0
86.5566544879327 -13.0132809495368 -11.8805414308188 0
175.049157702168 31.6031493760094 28.5611301456487 0
21.8214329059135 -13.1312267765334 -15.8614074727585 0
162.313928450517 21.253531899145 -10.3911003255586 0
149.683412728161 -19.1885572422701 -4.63251124831017 0
-113.674762165774 -4.6516864168187 13.1892238299548 0
191.477049580178 26.033855229476 2.46623585648711 0
-21.5496619943025 -2.72465026656845 3.48999642843343 0
158.72321471734 -5.3618583285453 -20.4186646172555 0
163.348530205563 -26.9431847097684 -1.78762737443422 0
111.844469153417 -12.8271045200381 -0.124713788472625 0
51.0811752931507 -10.5939359206926 -19.8458808025312 0
-80.4803333108677 -14.8761245043037 -7.41388870519581 0
196.228285358957 26.8019605635426 20.3892994360279 0
-40.8793866455181 -3.90415267138386 5.10122995976288 0
194.035620256402 27.3289943612742 26.2959262055733 0
-81.0741883428871 -8.16705713289547 9.34185783549174 0
109.662547240812 -14.0519365278135 -4.57069402033772 0
146.253037937815 16.8403642367197 -10.6567410438527 0
184.517540150871 29.1334917635845 5.81421106678178 0
176.456576052319 31.4880886949906 4.26882969030524 0
183.199934143557 -4.05141884434368 -14.655511866911 0
186.484950949595 9.73411163922816 -10.8414052168628 0
62.5243172467542 10.2079712828695 -14.2713243295715 0
107.234818931828 8.75640461491214 -19.3742026372481 0
153.103167568261 1.88164083242612 -16.9542914614448 0
179.028140984673 25.7368066399078 -5.46949424902741 0
143.50913163811 -17.5041073167397 -5.58990471523521 0
-70.6879014785038 -9.70114058191983 -14.2770022833475 0
154.396727627649 -5.34460785441557 8.84345702725932 0
184.352238229382 8.02639168881252 23.6865571091842 0
184.451820586832 -28.4574539499261 2.220052522826 0
77.7233469945041 -6.93083677438955 -22.5060851386323 0
174.998529614528 3.31042799176544 15.2142349566582 0
186.965844928297 27.7749357248976 31.53942171938 0
0.994834310926045 -0.632060110932615 1.57502263914144 0
80.5843225579376 -13.0259202762684 -10.8457895175103 0
30.7658601292593 3.87440442942835 -2.35052376280241 0
64.649262355858 0.041171028222375 -0.311852254514322 0
190.509988647601 -16.1513588368516 2.91160497393543 0
102.521470865513 9.92800728776179 -2.16622474075557 0
153.621890251842 11.347181093956 11.364307595406 0
-124.026543870483 6.59786740023732 2.32654873637583 1
27.7720230890596 3.04412392965464 -1.19548192918896 0
189.955743214471 28.0554867192327 7.63507038037075 0
176.630313039009 30.3493503654514 30.0588865194204 0
116.516516753973 -14.6591007082942 -7.12962102137504 0
198.414492720433 20.0138809582663 10.0788089825929 0
-12.9575462803979 -2.71299330667563 3.07984743752924 0
125.143742148242 2.70751360228241 2.77260374440798 0
77.123550062044 8.51753537467747 -5.03752562939777 0
153.601983679973 23.1081597315534 -3.77787913495482 0
144.357917847484 -11.7761156909009 7.56193936534262 0
172.467891552289 13.0545206485967 38.4569262861907 0
150.800921792748 -6.89239230587118 7.36586657292775 0
-96.0103361393309 -8.18727340587645 11.4152847076528 0
161.134524599193 -31.3002395248378 5.70920955414048 0
68.4643316715355 4.42720520351688 -1.94214504976624 0
157.587557969469 23.9209471640939 -4.52664626450347 0
105.153301894599 13.2316383938149 -5.40977152611102 0
177.662205247605 32.768004984792 8.02230464963571 0
185.799768741535 -6.2071511483916 10.4333738752417 0
120.398486145134 -14.8494217563678 -7.28209453151274 0
-17.7662846998807 -13.9528777387196 -8.06859036386467 0
183.361808534012 -27.6513470165801 1.11164654559417 0
189.729291156124 -14.3810589761702 -6.94032667231902 0
169.676961462541 23.0570286207363 37.8806324235747 0
20.7002029294621 -13.393307613082 -14.8279679555799 0
54.7306381866469 1.30257790681429 -23.7919409387955 0
104.527093562493 1.65058923897422 -23.2777382650571 0
171.107311615811 -15.9913564162738 26.4788738432275 0
71.7681257244851 10.8819930395156 -13.8901137925502 0
138.894262080186 -16.7257395263732 3.46767611311256 0
178.792992449565 17.934333327298 41.2066665340965 0
123.93281728387 7.68544288211987 2.08446022737446 0
-61.6640631802904 7.21172515715272 -7.67968848262202 0
4.92901446954514 -7.05304883866072 -1.27608003978862 0
162.523820692544 -27.8368074108225 0.231887207976717 0
158.841662596691 26.6023722098287 -0.124851186740695 0
10.1057871355158 1.90768710333754 -21.8479606889376 0
83.3989437075412 -8.93242771306086 -20.7058011424151 0
98.4455415613496 4.06304328192925 -22.8340183276472 0
-106.497788287975 4.96741264900731 4.45771958732483 0
45.481829860037 3.49658270011255 -22.6146960828149 0
-55.4272461361935 -7.9121554092963 5.90520107223459 0
166.099821256371 -16.5946692483744 -19.4865909817004 0
159.97652484847 28.1534164379205 3.26382346689751 0
-111.607757517874 -2.25328250515687 -9.22844597962609 0
8.74111267445842 5.96856448381221 -18.5598099146316 0
166.168828069242 -32.1428504972263 16.4372806922139 0
-52.1203601447284 0.263099301319282 3.9379217714892 0
195.220259538184 11.2121796573375 21.6215195270622 0
148.842470900199 -17.4553913420479 8.58507277268034 0
193.568219116352 26.8456975282006 7.09346785401115 0
147.757842187583 -3.86629098280442 -20.000977477969 0
-121.665243136069 -9.97268444707427 15.4647670149801 0
-98.2862750768603 -17.0651428043294 2.70644902983134 0
158.615625963324 21.8714699558627 15.2036613690332 0
171.342741836188 -25.8086556638845 -7.4826484272948 0
122.886066620732 -14.4096252490326 -10.4613430662525 0
191.923721254805 27.1906485513798 5.85894522591102 0
186.675432050314 25.3381454161951 -2.745190815468 0
181.08030560587 31.0540493079625 6.26749233130875 0
146.614477328828 19.7653527796992 6.54928227327205 0
170.054596606117 -3.43111983389541 -22.968023755024 0
37.6054324597174 -2.74051413352428 -23.8474365429051 0
160.266824360957 -14.3894753096771 15.2919744757535 0
86.9171304128035 6.6761384172147 -21.6174309571533 0
-52.717058595719 1.72155261352115 -16.2048230055977 0
-84.1367079043632 -5.55959896227341 9.13420617650443 0
-119.166250442614 -6.12360875836232 -8.16769521077162 0
107.63348561996 -13.8475634091529 -10.298613029694 0
189.852017541097 -17.9135212501352 -5.06739196844326 0
47.6517186880531 -8.38440013715444 -22.1160654772796 0
55.1390253662158 -8.93272282774494 -4.0512281147771 0
183.417897424691 -27.4020810085669 26.8062114163537 0
114.244698485074 -13.8962704385009 -11.0906341277195 0
157.042742967806 -5.78866754979003 -20.2025666088229 0
188.123550748961 -25.0266755459111 -3.14932082444769 0
120.450388718647 8.97881642053873 -18.6456379753215 0
-30.0316849399007 -8.32464969465943 -19.2715532942981 0
154.571817849613 4.29244044243793 10.0533093427656 0
183.413560106285 28.4309989337289 1.86966950203848 0
-4.63958551814971 4.83309608836989 -18.7956900105653 0
161.346381162952 23.6750218214599 19.0529601430823 0
128.193291149231 5.72962631014851 -20.2243342249646 0
145.910689325374 5.15679575927387 -18.0255169036409 0
155.2998434934 -6.73902469483257 9.34759995553419 0
166.14725360166 31.6587698416695 7.71937481975071 0
149.771311510745 -10.9512041958538 8.6707117966871 0
-88.8717029711206 6.15637411841227 -4.83874146032388 0
27.1471309892789 6.82686961925581 -18.9253847139731 0
123.310863270577 16.1673108211362 -3.42100514714724 0
163.323586629757 -30.9495178829326 13.8826384783337 0
186.172308711806 -28.2549630075941 2.1185626055004 0
95.0398081976923 -13.0515289683099 -5.58536412676476 0
24.0637744006698 2.61266150086596 -0.765797162788941 0
177.368816277353 -30.2456132111726 0.808431230526187 0
68.1225785924217 -12.8078996929025 -12.0948821722056 0
-16.3642129299059 3.44178714130914 -1.39857420108165 0
32.2679244209933 -13.0805916292928 -14.4610035998329 0
144.929603506598 -10.9783389034105 -18.4656207275309 0
84.5476253325184 10.3911523932973 -6.3784727439932 0
145.135505655649 5.352175171671 6.39824685373769 0
-118.710792495488 -3.18439932627592 13.502267108306 0
154.183043014237 17.9464028258218 -10.8760815667184 0
-124.511770047688 -9.71962381194365 15.7600306188622 1
187.713608226924 -9.68245704135673 8.58966221927434 0
44.898504927237 -12.1394777560944 -17.0926385781603 0
179.487281875575 -13.3390726287849 23.7399457594545 0
-110.167726779061 -4.50491591430023 12.6096558494463 0
-104.218424812991 4.52784974521891 4.90278489322138 0
174.450122378737 14.7723790796748 -13.8812895821675 0
168.59340339778 -11.6003954256368 -24.3533796723167 0
163.613394316809 11.6592256305908 18.1027604077628 0
158.753530628456 6.80163024389259 11.8380522665744 0
198.55369333626 23.0244845583802 20.8740051432647 0
150.717169481344 -13.7219064030144 -16.733472171928 0
-115.048485407171 -9.89905642258969 14.5071512811124 0
169.610165992712 25.5979550582107 -6.04136169693948 0
163.897256207154 1.68578204349681 -17.9140921990634 0
161.469950318972 22.0966407912063 18.8936193231583 0
-30.1109653148738 -0.589463910569917 -19.7936220660268 0
177.85893743628 -29.5088201403927 27.9185586379786 0
36.4561145560873 -5.03247418425288 -0.999070785567425 0
6.17124501650331 -13.1828008363067 -16.2517344793163 0
187.684240327751 -27.5701955904304 0.843435537090572 0
51.9119456589567 7.86162973174393 -8.27667396412391 0
182.197082482143 30.2676089329546 5.21394991000389 0
-54.8300365476316 -15.386157753566 -5.25227823845619 0
108.576463210821 12.8511111297085 -14.7652710267609 0
151.72750955211 -13.4689360677891 9.95823020989575 0
-61.2965606395767 -8.6549959637586 6.28973430727089 0
102.741067527832 -9.01141878946689 -19.92814059715 0
173.343967134309 7.13070096798266 34.8555064814397 0
171.433045712752 6.82712213679071 33.0820153858944 0
183.027069778755 -11.0908491971005 -18.9544977497126 0
34.3179071385321 7.49521658463175 -9.36308912744522 0
55.9357631291813 -7.45839949840471 -2.80288448571736 0
-28.5202474198437 -10.5721728832515 -0.960018373636954 0
144.045518546338 -9.66587799498977 -19.5918207317939 0
173.776410079656 -1.23318675736424 -20.7201150703162 0
120.986740598353 -7.74224583132641 -20.593096838871 0
175.625815218112 7.89147430862848 22.9961998235283 0
134.101451580095 6.7517978420103 -19.0836132101906 0
61.4955186399454 1.5541974404593 -0.766592651978457 0
-83.1364943707582 -7.67913935513061 9.33176426245605 0
72.6538827784558 -12.7799187533704 -12.5247493715093 0
86.4291287964882 9.31205145731717 -19.2703514596325 0
-42.9877987278019 4.49610710654741 -1.63905051770775 0
179.142415458059 -30.6749276801722 3.05457499925944 0
159.546473509498 6.24470560769148 11.7384302704519 0
136.56597270694 -5.11171993493801 -21.2561631286146 0
88.8609249311572 -13.0931000290219 -11.6516060023773 0
153.85966137786 15.9041897616065 -12.4528357141136 0
106.717055519388 14.2820877603853 -8.95350211538415 0
2.78661943514725 3.60816773764937 -20.4551250066845 0
167.887394686316 -33.0554169441666 4.86294490750983 0
-124.83185875942 -6.51537412316108 15.089587815897 1
-25.1423118705073 1.36033707574082 1.70867674333254 0
159.243467270409 -21.3349847632216 16.6273104704128 0
-72.5820856029187 -11.7701250341484 6.19897505931287 0
-77.4149980040986 6.06889009822235 -6.98701848850036 0
17.9289601229752 5.5654526543228 -19.8346270046804 0
192.626639533371 9.55508628534944 24.9678210618102 0
158.1431475923 -7.15636373988482 -21.3795785500035 0
89.0056030334228 -9.77324968816788 -1.61926731513843 0
172.342727945083 -21.8257297573435 -14.1774801080796 0
166.818856054762 -15.3513830858781 24.6334596876615 0
170.249631808432 -32.3883572699461 24.0393413724892 0
141.500045669993 -17.5130050918098 3.84980224356512 0
184.914773032823 30.0295542050914 7.20931316908606 0
167.710833204532 10.682186092449 -13.9687164484038 0
145.784526661848 -1.67150731042384 -19.7946472981865 0
-85.2836202774015 3.49345994648946 3.71346430320415 0
166.411745890471 22.6553820659714 28.9946931421524 0
106.688635208245 4.61360189955001 0.566867197145644 0
4.53917752179965 5.50144080322592 -6.69005001762801 0
20.5616506263384 -6.47142612130396 -22.7021174837097 0
167.228907831456 34.7691275770681 19.5633280253287 0
150.599425924523 0.461045320395283 7.47684614826475 0
62.1325221199951 6.42826806187978 -21.3073497807426 0
161.981402905675 -10.6197012049555 14.2062525799234 0
139.977431757256 -16.0005876202148 -9.00189296328046 0
126.050050736114 8.60242187933746 -18.6273021643415 0
38.0269205054201 -0.320347369323588 -23.6613196091107 0
-125.094891644045 -16.94401134473 0.389026291918908 1
-111.151908241548 3.23676739095998 8.69994547409471 0
167.829876678922 20.4963125284143 36.1652594365802 0
25.8277748685718 -9.11470005871963 -4.31144080773264 0
63.5759889388372 2.72428758213368 -1.23446384327248 0
-44.2629066608886 -10.7213320646964 -16.6976336821817 0
190.185681263538 -17.1177623649741 11.1078741698332 0
197.809627542723 25.6794505477952 15.0854344813324 0
96.3990555697314 11.762464457035 -16.2601486266103 0
157.676509925075 22.8280511481599 -6.09790285743571 0
-39.150109538684 5.28697519551129 -12.1663529362841 0
151.718845866178 -3.08890191439255 6.85851743865041 0
2.7452950874402 1.67461269182101 -21.5495449079056 0
65.5008220682821 4.3297293623957 -2.00021243043595 0
147.852517953105 -0.156018531552857 6.51135608416182 0
-67.7347031197365 -10.0446716612116 6.55722104943346 0
-53.3903178011597 3.92584317328521 -13.4771986122263 0
10.6880998559864 4.67683865943002 -20.1541569746094 0
-106.949594899941 -15.1756776690419 10.5089337611326 0
137.901878019209 -15.6604576091727 -9.31818428443053 0
113.134537212188 -13.7827097467875 -2.02102435570744 0
163.34476761669 14.5530139076199 24.7942184587497 0
-122.816008750925 -12.0785831101012 -5.91348385725657 0
151.071752439712 7.978766235946 -16.3764164594598 0
161.240550902722 -13.2889871148786 15.6578902179513 0
-97.061910815118 -16.8102421273423 0.777322819689258 0
173.247486531509 7.71035785051214 22.6262345690145 0
-87.3589906817356 4.19532302004964 2.96329712899739 0
111.408678051494 14.6841212588377 -6.53225204002574 0
58.8834126214841 4.37128081362469 -2.53757395335384 0
118.010721859488 -6.7310141400718 2.30784894659635 0
97.9869830858729 -13.6068256315561 -9.6260954750083 0
116.124634024803 -4.36189145602883 -22.3767945192143 0
-84.4156308970084 2.12868998331765 -11.3220265277971 0
187.085580095607 15.6728312959591 -12.3500635652711 0
104.744984331823 13.910814117402 -11.5138464829207 0
49.9762643456626 -12.6263012036508 -14.7874638453118 0
-39.7301960834499 -1.82654785633865 -19.1878809493875 0
-110.41417465282 -16.8544823880272 9.36759076926465 0
29.6829774943284 8.10029114918214 -15.9073374128563 0
-0.124251814968225 4.29188649679367 -19.6870027104708 0
167.883812127405 -4.03491788274234 16.2633251593249 0
-62.9144728868884 -1.76070746675998 -16.5502804416895 0
111.329992331018 13.7429213003267 -13.3926492411044 0
84.8103826380978 6.65834559590691 -21.6477420696575 0
-50.6485997458089 1.03532203597017 3.2245378694542 0
17.0324709229867 -9.77539055848308 -4.59682312681887 0
-67.2594681302648 -8.22046559548695 7.67100008375705 0
190.556317109914 -29.5191467910209 8.26870981294707 0
179.516194283763 1.38220976080081 -15.1062241694328 0
84.9806091510164 -1.67312423683443 0.130128574361434 0
-19.9778122621986 4.64946537269958 -17.2813142174983 0
52.9308972116262 4.31170133894937 -2.90374020281384 0
-94.9459230151637 -12.2911926557009 -9.2644515620466 0
166.134321037214 20.0745760330346 -12.4797583156554 0
190.756368254108 -17.7364495144112 0.662054706208088 0
167.261741768138 9.31937739374117 31.5727044347675 0
-97.4623749923231 -14.0422860544148 9.56023392445679 0
145.11185067461 10.2829809718296 -16.0768002739524 0
104.380435074269 10.0788851959839 -18.2882952284946 0
-28.0328315942919 -8.26197395162131 1.08630457614991 0
141.426953324891 -14.2515680229407 -13.8405660366375 0
46.3090782458674 -10.1161923165563 -20.5281560454351 0
160.344139959695 -12.8558665438984 14.3743893751127 0
-73.9312528232707 -12.9439449212625 5.31736125565197 0
159.666363443515 23.9113590913324 -5.58666605659808 0
-44.1505181117142 -9.16616482998885 2.59046873623101 0
145.083465386194 -16.6585453916872 -9.52744984515947 0
145.846611156567 -12.0608250723467 -17.5911224616106 0
148.595317001873 22.817352504306 5.56445155815871 0
12.4974504215496 -4.37462113615826 1.39967377063962 0
163.623332284728 -10.1555111827172 16.2365578008755 0
-102.485872876391 -16.9254696459757 7.12871738161094 0
95.6097406941479 -13.5100173925148 -8.12106636881466 0
109.94081578265 12.6114613055291 -2.82138474367777 0
166.606791343421 9.45635217439289 22.5534957640906 0
165.902150715201 24.8257658827735 -6.82018308577766 0
109.843667154238 10.5933017063778 -1.21579695043417 0
-114.249790976627 4.51277291244101 -3.7828692695591 0
165.32462976965 23.8216456599954 -8.16069962214946 0
191.108946893115 14.1161016725336 34.6880470133298 0
152.419164737398 -4.10357760392087 7.9422586646717 0
-12.2029775025312 6.22817299704284 -14.690241079153 0
-20.8076369649911 5.53653691822131 -5.00825177910143 0
169.575890553426 -9.18059991755922 18.7660456168097 0
-63.9298876260713 3.39384062880597 -12.7676143562305 0
188.861480334065 -14.3444651821189 -9.94284899008398 0
180.376963828917 7.57434574886019 17.7714594896325 0
172.679678815417 -32.9950415589349 23.9211691421302 0
-5.89833218491578 -9.6982984800233 -2.70286226016562 0
154.334506005794 9.02304989027139 -15.5301596676118 0
-1.74783429848317 -5.58538372470835 0.738584295527873 0
-33.1558903365808 -5.49547995206345 -19.8396533427277 0
-11.4633954815496 -14.218631991175 -12.9872654862805 0
-41.7132748628565 -12.2283745179034 -15.6298837109202 0
38.146304350076 -4.72817513050462 -23.5827995205543 0
195.016753774006 11.4513347096967 3.49321132337354 0
180.494538335006 28.9808627427369 0.515144252412251 0
-126.051504324671 5.26855158022021 9.0217616636595 1
182.865627906448 31.5601448970799 9.71902126857464 0
158.478256950533 14.3441122723909 -13.7041351020866 0
179.723733548701 35.3693246016976 18.4715481631489 0
158.213593832312 -24.1583875972843 14.2284381111264 0
-78.2382651416217 -10.7714760416002 8.08571169227119 0
-57.9801495040833 -15.3693043690071 -7.79902026756872 0
29.2130122635134 -13.2423497983083 -12.0336273751146 0
-7.78086401201135 -6.50224426839028 -21.3720433430112 0
193.710937687815 8.98772069815298 6.72180888005578 0
160.638788693752 -10.4977339461008 -22.906142934882 0
196.190735952812 11.5352979203957 12.497318028839 0
163.880254541124 5.090826224357 14.9819334903904 0
-18.6468243127188 2.90659008298435 -0.493600542045557 0
176.294141107729 36.0301887341063 18.076502488562 0
10.9311186133231 6.47319212760029 -8.46355993512138 0
148.398719560955 -12.5479523683076 8.49937060712329 0
113.615637977768 13.7216811335925 -13.5736929644303 0
160.806858709939 27.0010950108819 -0.497147013167724 0
169.947835268257 -15.3578378707401 25.7273404654978 0
62.5786436723803 -12.3580980317776 -8.86817503441793 0
-79.068879381815 -15.7413159878251 -5.04661759102429 0
90.9276983646807 -12.8832915535419 -5.9530633972623 0
141.230122688949 -9.0762498602817 -19.8001240762513 0
166.389096288478 24.2727828382603 27.3390470508126 0
165.544633757905 2.43939324956063 -17.9891851644387 0
149.144125679501 3.13099816474313 -17.5710621006141 0
4.14011091672865 6.00365876940662 -18.1150919867909 0
19.4472791878295 -10.9153563389008 -19.880522716942 0
154.527695838616 20.2063959413311 -8.45263745176408 0
116.646767526567 2.22089323749691 1.88913003078162 0
-64.8212037699596 -8.49224341140146 6.98428098472754 0
159.199142724838 19.6817223753216 -10.6603886323468 0
-6.38931246656357 5.06482635812443 -18.3485826136091 0
112.877260271947 2.3056835885678 -22.7357033069033 0
-56.3002163055878 -6.90824534467956 -17.2508525005327 0
-41.7149610672848 6.97980247375048 -5.25125022425787 0
56.9251696983145 9.52053458592354 -11.7699830328302 0
-48.0960298847006 0.145780549634464 3.76370326048572 0
171.539412064393 12.2579313234531 -13.7924530612428 0
16.0300624422665 -13.3772977868026 -14.9133714829619 0
38.345325905555 7.9778834054396 -17.7803388670129 0
175.251312071522 4.87815295020662 16.4866108407458 0
-69.8371223805487 0.488733362724746 5.21787586535436 0
114.909170808206 -3.0807258107067 -22.7631262473757 0
166.57309576453 -32.0705760199144 18.522824940083 0
160.360936625629 4.10444508292361 12.3804731448193 0
-101.394254174178 -3.70956315655182 11.1578209089658 0
-116.648443284474 4.955792703924 7.88261898723543 0
-93.6833979643023 -15.2563775630018 -5.11578283255503 0
182.06630061049 23.5099626540722 -7.63102538621834 0
-23.7959175301093 -13.7605436291257 -6.61890051859148 0
-46.8727295493781 0.0411178910759006 -17.9196459496539 0
24.784824149294 6.87173685887068 -18.6417935350799 0
155.496077463811 -25.5424367534113 6.03317645027492 0
8.29118830931775 6.85581305602435 -16.5130036933831 0
165.169455783481 33.7988112170149 19.6302845420728 0
177.745575423774 21.3821881254903 -11.4650366447685 0
116.314603442413 15.1403069377554 -4.63427052699116 0
173.981694666615 3.63357877722731 -17.1959178598599 0
-74.0927439313064 -8.87729470013259 8.36607270626206 0
-103.111786373808 1.94746227804803 8.37042127303586 0
157.8223847466 3.0352821842304 10.8647123041821 0
161.858673554834 20.3726685415482 19.083377541888 0
189.126216459966 24.7591809125362 -2.14727901848739 0
172.276024074092 -8.28587695905413 -24.5952271244696 0
-105.381955277779 3.68527043780581 6.54054515462948 0
-101.877106823317 -8.45877229448429 -10.4435542279681 0
129.344260541052 -4.62726990713768 -21.6518772936819 0
120.95763918532 -14.3356245740611 -0.398423502654773 0
170.551123853286 -12.5130066116745 -23.9101101330509 0
149.468358796856 15.1923375651835 9.60455516621272 0
66.8987549097252 -4.05007957638094 0.269125340734252 0
163.976836033086 10.8060397889098 25.7125737992255 0
-76.4601651295217 1.55953376127575 -13.0139018647327 0
169.825787230582 10.5937950930957 35.386793600154 0
169.284405621465 -24.8406955473667 28.1425220889298 0
16.6899614975909 -2.93037381854398 1.55551063879138 0
166.284442560452 33.0187808443972 24.066529212247 0
-15.155592316711 0.407659634464126 2.06519000489346 0
12.3748159152903 -11.8866591649997 -7.10633040247094 0
176.382644018462 14.5036721743036 40.1674526113273 0
-92.41555550315 -16.6934796540184 2.84151401514211 0
105.298236685605 5.46474862995208 -21.8189917390732 0
5.87801883723778 2.17221963066186 -0.0997383656549329 0
187.064607455551 -3.51589110420847 -1.0665376347505 0
64.8879061833932 -4.01530309234387 0.374017382753193 0
177.33598775152 -20.4263902963196 28.8204650486303 0
164.388373617479 -26.6301829532598 -3.32164755463644 0
163.910690011359 8.50396881843902 -14.3956937594711 0
-75.8007821847004 -1.64356610300104 7.27034863794885 0
148.55314855386 22.6812532831082 -0.374502003136825 0
125.148118956858 14.9700137760924 -0.453252199572126 0
158.646972593299 27.4006414240097 2.43102919868736 0
171.017677492694 33.6719931595806 10.398731743416 0
-126.724847677586 6.19459742391412 7.2093915766736 1
-14.229625196362 -14.3850047331449 -12.1522426626979 0
84.1434987730329 2.45493098324975 -0.52101945453867 0
178.523294084309 -31.4421925232681 11.097223439905 0
82.3077515706204 -12.703340299626 -7.22153148989814 0
-109.398169352493 -9.72083915580899 -8.78908702785892 0
11.8744859379727 1.78169397297018 0.234482470276741 0
190.457193409137 28.7808130392963 18.2122869172187 0
-18.0522641715176 -14.1765429045589 -13.9388762403937 0
162.321822252377 32.1261557029813 19.6866883897215 0
143.409357541229 5.710619532464 5.83123428647293 0
61.1210970692476 2.36123819131329 -23.6761757975201 0
106.868479272659 3.89589272610201 -22.519443063246 0
-1.33524620887706 -1.23775066103218 -22.0581306954642 0
139.197825531288 -18.0474290042481 0.0716558443262292 0
19.5593489475011 -12.3355813804931 -8.32739782660465 0
