73.5570147108472 10.7497479761757 -12.3705933576208 0
168.231910876935 15.673825377775 7.20034871660005 0
190.814249270865 -12.3413482154631 21.7602591502907 0
183.257858889108 28.8193475513436 10.4776267900029 0
7.29874018752676 -0.733834300733306 5.28394746522223 0
81.1690811806718 2.88432100429459 3.81060105705982 0
189.704725857159 5.98615001414257 14.2613932270876 0
20.1153593704313 0.837213006490075 5.6175199336084 0
217.933504758437 -27.4895542832487 1.8034224311592 0
194.700551274433 21.8107708152564 25.6941770536475 0
-37.6509180094832 -7.85485983274426 -14.8046943306074 0
85.1045157623061 1.57621478361259 -23.1833477982267 0
205.924663158071 -6.71990096709856 19.1051699094639 0
183.916880402451 -28.5371445425985 16.4001085799408 0
170.566396880264 23.2238495410767 -4.99589192992302 0
205.048320750982 20.0372570233169 -21.755261853573 0
208.394429052257 5.57080758615331 -20.0707195190828 0
186.034987611498 21.4506834859 17.299016859833 0
217.383127001462 28.1897823112171 19.7989235948317 0
133.090321167312 11.3866809996598 -18.5840337860044 0
172.798087047162 19.0226584146888 8.43190359763794 0
92.2988875595676 9.98697078266032 -16.6756010230172 0
192.234692938812 6.41669816894267 15.4933166169013 0
-2.82471617579702 5.6039926034056 0.192380713703934 0
149.14800547216 15.8958149867632 -13.845494083409 0
39.0739445938619 -1.58783858551078 4.70218826462763 0
223.438009496996 -14.1772209745943 -3.41092196623298 0
186.040778106408 -30.5128374769875 5.29446042589867 0
203.835644087294 11.4730858934607 -26.8561358590213 0
215.97473235944 7.60989991062642 6.61139857842277 0
152.980523146312 0.311214723734928 -23.2958349676391 0
164.971147356967 -18.0045892668128 -12.2792704082341 0
172.507570931847 -3.6107252480079 -20.2482123826973 0
181.930104099479 10.8155139780048 -25.1104611443014 0
-44.963668665197 11.7053241906743 -4.29046376842327 1
224.064142788516 -7.26259210887185 16.8337032382425 0
205.893631784851 -3.84728063920403 30.1086375197044 0
-11.8799018939179 8.78336297349686 -15.9443083802505 0
-18.4687738760338 -11.5332258537084 -10.4911105268521 0
184.438927622799 -29.4760699992626 12.1823319985828 0
153.281684704432 -2.25871087427275 -22.6032849101079 0
34.3940477394889 3.52457380528671 3.72186586118966 0
187.818061718286 33.3064861538903 12.5487582774273 0
-43.4463223383897 7.17134294473071 3.5794848650231 1
21.9688523179448 -4.54134087282948 -21.4954028242021 0
183.013021123944 -3.54695622195763 -18.4407326106734 0
127.489714035092 8.11663730522775 -21.0833829856198 0
184.387695025683 -1.00733359834274 -19.5964002157224 0
26.1261636661956 -0.382823015475125 5.34011972520191 0
188.080473931275 10.3064127576091 -27.1285088805156 0
189.741711582708 -29.1255268324924 -1.42588994618137 0
108.138284063369 8.99931845270487 1.9276868460687 0
127.365018738238 -18.9706651809736 -8.78881356044632 0
183.768602281864 -28.1636796963032 0.461953191250745 0
220.136574527858 23.7067293354196 11.9890953795963 0
161.849728412087 -9.4535013964191 -18.6351100112018 0
193.815349853967 -34.5025277988296 8.26628713802253 0
227.986742188527 -20.8599271305374 10.0513668359193 0
210.198720163996 -27.2872036301143 -5.18910383975759 0
33.8269964887266 -8.53509262200699 -19.7642293026612 0
149.460150140239 -0.344206940714783 5.270798923398 0
197.291732737876 35.5285621978263 20.1713091658202 0
180.979412787466 -8.29072559358118 12.296912550776 0
-44.2391804066236 4.91366374298893 5.695693319448 1
111.574834289937 -14.5512584109718 -16.3769102309408 0
212.35837864728 11.5160846581309 -20.2550783079596 0
219.915931633656 16.443458052135 0.83441723965069 0
178.36400502011 14.4772973013742 10.5728233155629 0
-22.127943103132 -11.884403573568 -3.72023260839446 0
139.981178738867 13.7379036414904 -16.2748265533652 0
37.6227152828307 2.734801284291 4.80127260178681 0
43.4990253984218 -3.95611593461432 -22.276632397857 0
212.221672656636 -27.8970362299322 31.1012495727538 0
195.533855533697 33.8466080397779 -3.27150128391971 0
24.5474566286594 6.62676515951382 -1.81608733216127 0
207.905061460353 8.8097768295643 -23.0088151286845 0
212.574421948978 34.6594245448065 7.53987808143474 0
35.7975973701312 -11.1569531294377 -17.1294911658146 0
12.1950173839772 -11.249662991721 -14.9231085872628 0
92.7075630514825 12.8572277297788 -6.99996777329926 0
133.453687922628 4.9683252886586 -23.0330347229005 0
190.65116147227 -20.3594728658729 24.025730256302 0
25.6076943505744 -1.50316210218073 -22.1482232143055 0
132.875001732102 6.94746047326777 -22.0847982801518 0
226.840326035615 -15.9250441534149 4.66463475247309 0
226.013197414101 -10.8227425192429 7.26472716202474 0
210.320528040119 -22.7428224119333 38.6446935565915 0
134.735821149173 -6.77677048344037 -21.9603974812425 0
202.879017282358 -4.33935678352795 29.9073181068291 0
217.662181953019 -28.5445397667239 5.89309283293061 0
211.336755731271 -13.1855013502114 -16.8027387984657 0
155.26814043188 -16.1407330058323 -14.6742567778926 0
164.651613400688 -8.87765288152201 8.06108908291345 0
73.3874453386902 2.24904628578631 -22.6353511300865 0
192.541206670867 -9.79164736798229 -17.0536328559436 0
0.705732608089223 -12.2105907090894 -5.4190217879234 0
212.659484762838 23.2168430656518 24.7397821522806 0
144.662363978384 17.4651995172081 -9.27166379405241 0
88.5459126936881 -7.79338525009124 1.1597686397092 0
213.907855479585 36.2785381375391 8.89405567516551 0
202.885963519851 19.140497167585 26.4457970808488 0
69.0049533345108 1.85495171738325 -22.6593592916889 0
184.973584115935 -6.42015452653552 13.9426734263709 0
-27.6259599742017 4.70298508139344 3.74634382780455 0
219.219013972053 -2.42672692210166 6.24266152710213 0
144.265434967234 -14.553796015645 -16.5294670877173 0
22.4581725743488 -5.77767925101887 1.1144185182498 0
-37.907952193773 -6.1455986054542 2.64621561997771 0
215.093467753846 37.2011973866845 8.99108389218302 0
199.283171428751 33.0792100202062 -4.85130678314156 0
211.635072962506 -5.60062082402476 25.649247065003 0
153.171137178431 7.40937970352342 4.91133204448008 0
179.600248426167 -23.3979407100227 -6.62450230873779 0
139.828581282683 -5.21709208590757 -22.430253754493 0
69.905951098263 -14.6049817577138 -9.36004606458853 0
37.1612250038808 -3.01496339596507 4.05070431095313 0
107.137903575629 -3.95903659676088 -23.6676843300425 0
182.756400199605 25.7925791984512 11.7389000369097 0
94.1919201501466 11.4322662769708 -14.1375911440935 0
118.484165134808 -3.97579113263639 3.16843116057333 0
189.350413223209 14.8593347407354 18.3634281232168 0
50.1473466083142 9.77450645610661 -7.93563145668173 0
-6.66894962971012 5.7924249467868 -19.389353406882 0
226.705877790996 -11.4321104775147 14.3999269312477 0
88.1396544064161 11.6868855560869 -12.4056862222236 0
185.309931786885 18.7202162275328 14.8394562091986 0
-31.0214269823603 -1.6332423715173 4.57541960544656 0
113.188399530425 11.2852452777854 -16.93007283401 0
203.525172886907 -4.54713510860507 16.3890350706868 0
206.21231454021 3.36432520104183 -20.2371895281937 0
216.67260616791 26.2907394069954 -7.47940043911211 0
152.174672001227 17.686503184696 2.63876164583697 0
110.298474677608 -3.16168775092784 2.88372550781384 0
134.556109851286 -10.9630138934799 -19.5296370879896 0
183.904482529105 28.1653214399203 12.2161601859161 0
-23.8797224270758 5.62667297601024 -19.0637780187181 0
207.169067531614 -4.75125872784869 33.2982579397627 0
141.142029990859 -19.2200105859701 -9.79983041089935 0
179.961188916672 0.56605852014404 -21.3516001469047 0
-28.7271089472901 -4.04416122455862 -19.0659844944379 0
156.790493201445 -14.7108566711332 -15.887330635761 0
190.388447113102 -33.9054205919383 15.3572590712732 0
69.6765496626892 5.67728978292283 2.61801527001882 0
208.271980266097 -17.5824883612742 39.782776168844 0
89.5283331918419 11.626313290153 -3.63436604927124 0
184.563666478747 -3.81284368915512 -18.5780668188042 0
1.63251426444228 -5.19203626676235 2.74689510162512 0
205.672888279511 -33.9081509349693 17.838654489053 0
176.182471611857 -25.9547158165358 2.94746314280233 0
125.675208007006 -17.1801661024372 -12.9416540637795 0
202.241132247682 -30.800265259176 28.4521738578481 0
169.119523900168 -22.8789629251641 6.58550101558273 0
214.369756411702 36.2760935242272 21.3128656517249 0
198.423058281466 -13.5940017047403 35.9356808273773 0
101.131681860554 13.5124043454189 -9.60203380565509 0
85.0256402254187 -12.8251046332462 -17.6860412973283 0
134.862865568773 -8.75061810608641 -20.858265398635 0
-27.3678442254335 10.8298645427455 -11.7777264452016 0
217.406201859902 -26.845724237244 -1.24369702834681 0
205.73593160115 -2.0830565308306 12.0205037658643 0
176.005908159775 -24.4178100781683 12.5063232128493 0
166.2523764814 22.4821836131109 -4.0698156492468 0
25.3630984337758 9.24532701205555 -12.6144418964487 0
176.170670257364 -25.2030026774115 -0.119070564133899 0
184.894017108815 32.6611152111001 9.55323990373492 0
177.670650070757 -3.97074827226343 10.8412343404522 0
161.116490665283 19.4737164175974 -9.65569972253392 0
116.118250701057 -17.0729874492952 -3.24674864363491 0
194.338258576701 36.8630516495698 3.70062879823391 0
112.256433916969 -17.3379433442855 -4.66610901571658 0
34.6309180384664 -13.1236762742956 -9.54626797407541 0
189.785879716396 3.07745437857642 -23.7635031217941 0
186.608105693177 21.6402584257443 20.01915112021 0
61.7616934090726 10.432829289893 -8.37846479374416 0
216.231435206394 26.4240000517138 21.5212608672821 0
19.4507737324267 -9.51940137443808 -18.1431369233036 0
200.57803088793 -32.3185136727838 1.55952769942571 0
-18.6282976460871 10.1242539772914 -8.18057301084055 0
208.755539366395 13.9825477661411 -24.5402849521176 0
93.6053799182308 -11.5274621413633 -1.10169810110279 0
226.586651918236 -25.5430753600325 12.0141781626387 0
168.429557953083 -17.2900192734721 10.5718356287604 0
65.2137025473453 8.29105194473681 -1.56706073223655 0
-10.9742991165827 -10.8644722964589 -13.285544251345 0
45.5176706698797 7.08447754721673 -1.43493010636521 0
196.37342817867 23.0633473259753 26.6081046692185 0
188.32944186002 -2.67618387805057 -19.6380393900337 0
184.683668932831 -6.73498394741058 -17.4368377679776 0
170.07385678103 -23.6161891726198 -1.04946978690607 0
161.628628736492 -20.7485888477774 -7.59451268409085 0
178.91748647788 20.9928275910323 -13.3728333242245 0
146.085728606659 12.7325756233321 3.78421126790748 0
200.187945396202 16.2381159160838 -27.2914195822846 0
70.665723550974 -5.3930949176763 1.71447711484447 0
213.281507866304 -6.52851230132879 -12.0484277786502 0
-12.5813595650046 -12.0839157593845 -9.80119253421069 0
-40.513941193164 -5.53438118008958 3.00141156742 0
186.418685615591 29.0469368610402 17.9836931757976 0
197.687506812924 -8.02384182853531 32.7206746360096 0
55.4549981887649 -13.9976307554325 -10.8598803301003 0
173.556657156347 -9.99961824316628 11.2390912904681 0
217.815792732045 -29.3906397411704 9.80166120462958 0
55.9101971096101 -4.48435517920353 2.08848156294888 0
193.607587808013 36.2788849007959 7.33146764157906 0
185.848453041718 -28.6693107885377 0.023854979372824 0
-2.47270490203423 -8.60145302032058 -17.5543899507202 0
71.2730974927052 -12.8664654489491 -16.8758009976664 0
186.532414044496 24.9326813424919 -12.0392226380227 0
119.339954910136 -18.5233223343044 -8.41413034037289 0
80.7058258476732 -14.6734395469382 -6.48872791986425 0
114.580459955775 -11.1664512224954 -19.7668077083345 0
207.33802552463 36.3481005144357 15.4355676584714 0
223.990488511176 -6.55941762040494 12.003395539939 0
200.779391078729 -6.01801853554647 19.5667444934972 0
95.6051068983728 4.44263042506081 3.27580365472879 0
142.973643874945 -12.3340040591554 -18.2878777308964 0
179.335197919391 -23.4271210402232 14.8420396519845 0
150.803707794404 -9.12481582978707 -19.7070307647032 0
168.691766217921 19.2466380994496 -12.5519739380994 0
-7.75979018570171 -12.1026831848134 -10.4526952109887 0
74.1524099025165 -3.52508418203026 2.87641860207513 0
44.4660758366317 -12.6481941230676 -15.2479747212211 0
35.7240492479525 9.46589872987462 -11.1409807878828 0
208.820901823273 -9.68864415537768 37.7672692283221 0
194.638140635941 13.684140287833 18.2966748146418 0
208.083791690659 -31.7055687900049 24.8631273905014 0
212.789848973815 5.78931076200841 8.16380166576929 0
219.419445829822 33.9199370772458 11.7229806794066 0
187.849676535486 -14.5097374982513 -16.2131598324066 0
81.5037819825528 11.7051961046866 -6.39955926439048 0
34.4525797777365 -9.88256232361824 -18.6005967166975 0
170.009044396699 -20.2045061685559 -9.29915973604209 0
209.552507004809 6.96826128040948 10.1988175766845 0
149.881171945149 -18.6418266468379 -11.4259779556029 0
-18.7053818734602 -11.3691451523127 -2.22760830143323 0
197.550717543313 -12.7926808188866 -17.6847503902382 0
219.396217157555 -3.22736999133858 10.9605124518475 0
216.154107048534 19.4290246753712 -15.897373910646 0
-9.74467416357581 4.70792842095876 1.93464932882199 0
210.108258230414 -2.41240443916545 10.7136223195487 0
201.008464036049 -5.80667734218521 28.4956046558487 0
116.024563761412 -0.534292504359534 -24.0288969724206 0
33.1269879097715 5.41285704922426 0.610936444443891 0
88.6888091001572 -15.5265557149648 -12.587602730932 0
191.14871624807 -33.5265670151962 7.69344404180665 0
147.308799468864 -13.9602353426548 5.31656646367236 0
134.886608828987 -4.57959745603514 -22.9494020604513 0
143.028049656918 13.338489192318 -17.1744462639236 0
217.713666052663 28.3877159912745 -4.30786441102198 0
-27.2645953515114 10.8912468905232 -9.18420543120332 0
177.524229163287 1.56287650588025 9.71872681863415 0
190.085722758694 -2.79166234886013 -19.6350599424641 0
209.205274058869 -30.3606055400902 0.788762259171589 0
216.868117398171 -30.1252776467636 16.8506565739928 0
212.726916515375 -28.3341356894384 -1.0302525685998 0
198.199160017892 10.6842879834323 -28.1935538571249 0
51.8330661666065 4.2252217953265 3.21839392122963 0
219.21483881125 -4.70924048892678 -2.06196942907601 0
-19.9278465634715 10.3691990715467 -12.2030754003776 0
205.014488219887 24.1937439245183 -15.3610174538373 0
59.7592975969443 4.51879645096752 3.59676391311052 0
219.870641180844 -14.5823563945914 -8.78883667710685 0
198.86918995373 23.7642263244118 -17.1715698772617 0
226.991055884278 -22.4904562244207 4.09788051210915 0
200.671389726514 20.3316368330848 -21.7245696542449 0
73.9341474455094 9.92775686323626 -3.11355570854947 0
44.9287126498788 9.17662745372336 -14.3939690653453 0
119.47897010392 -0.141414719944386 -23.9898731702522 0
183.6602816247 -29.4034512543947 4.54845600428435 0
207.632745184196 -3.61301280323453 29.9944097026471 0
76.8787038342649 2.40584054507903 3.87710868161118 0
198.143670416711 -31.4250278943582 27.7670595646701 0
196.147984089277 -0.411868127590877 16.2601201838213 0
209.227700109633 -25.1200312650126 37.5283186047799 0
196.13129524276 16.4992320381676 21.7325900044233 0
204.375090641922 -35.0326474398261 10.9692792276902 0
28.4122860880813 -7.24961314420032 -0.862235505287634 0
208.698255715376 15.1605171643245 23.4701401379232 0
183.406377005173 0.488598194338909 -21.0353739830717 0
172.529924950173 -8.90590344140315 10.3032814036449 0
46.4533788801932 5.7559929299705 0.74858050613583 0
153.496784616371 -4.78895279802666 -21.6421578918572 0
39.1190385099543 8.66764456357457 -15.857772605981 0
220.339598588958 -25.2742713330701 -1.95938023314694 0
79.3666338347478 -10.2708745067201 -20.0995357551727 0
207.599443378241 -32.068492531298 5.1306739916403 0
116.744889115504 -7.05631979101012 2.66824133060349 0
1.390834978286 -5.08413434150847 -20.3970666117 0
82.3858926981062 -6.47800912027761 -22.3673669760411 0
175.035892156412 25.2356159067041 -3.37883875169811 0
206.62700127024 29.218295157975 -7.97215243997222 0
22.8432972106853 3.80054239004946 -21.0120653370233 0
159.959875897617 -17.106282304299 -13.5251929732264 0
181.464675574428 30.2441390991518 3.14569101817243 0
184.777004986211 29.2818318856592 -3.36613750711357 0
213.975143644703 -5.82391768154796 17.4787823541042 0
201.365761876889 -34.5003370995218 22.6883932874174 0
205.009581948752 20.7291029863045 -20.4420655961719 0
185.195411282074 18.9183902870492 -20.280710089832 0
201.6884591831 -36.2737117579897 14.776893251244 0
86.1602791816592 -3.66955290293608 2.4907878852137 0
175.701373625433 25.8936977250818 4.25761939470112 0
54.785461399625 9.31763455354717 -14.369040130158 0
201.340957396901 33.8906467752549 -3.74889434264162 0
42.7513303711981 6.02124299395012 0.115813170069409 0
28.4062686780691 8.39043760754287 -5.44828064188429 0
131.031649127253 5.41451891600244 -22.7732565829795 0
181.888042052335 30.5251892435892 5.1919507114821 0
-32.557811360163 -0.41581333478865 5.01302781528844 0
208.977558684895 -6.68536414079185 19.165930678896 0
181.154302397075 -9.14975138183127 -17.4699215543365 0
44.9214511311926 -8.50119473527167 -2.33474779384818 0
219.410522513439 18.6479596075715 9.03881578546017 0
209.678057323693 -14.8715856787402 -17.918096815483 0
210.011644106188 -26.2541081782715 35.3548031237048 0
-5.02824594653771 -1.29708045133613 -21.1130351590957 0
148.308692464961 -11.2165905158342 5.60070558389896 0
110.029260002077 11.5278632662338 -16.2432061074826 0
198.488095954958 -35.2233388707551 21.3676302357524 0
207.575057644686 34.989404227624 4.36092522228464 0
109.540258598667 -16.294667965443 -13.4616603873137 0
-0.734785598430209 1.61937472683506 5.2444432076755 0
184.075802682195 32.5669387647107 8.01029903493717 0
186.764408102413 -2.93626898239186 -19.3353871892507 0
3.58852654166433 -7.1897229681542 -19.3087453519739 0
-45.5562027425442 -4.28700174623079 -17.3714722638465 1
203.004859202453 -23.5620692988791 -12.4749758347835 0
227.110043661346 -20.4745232405075 5.02465854769709 0
157.563586977228 -15.9130597442735 7.04043009573786 0
191.902922749999 -34.1568915637556 9.11874811584291 0
146.550465986993 -8.65249818264832 5.22431667690793 0
212.926833560168 9.7853156048836 14.2113860165658 0
97.719730071156 8.17741894066694 -19.4500724845017 0
61.0369325056448 -13.8130917954456 -8.2472451975459 0
207.938518987203 18.3176733061665 -23.7070059465353 0
175.835350183422 4.79212977539243 -23.4753626704055 0
209.61110934327 -29.3744181115035 -1.53729679207246 0
158.241153312626 17.690890820405 -12.2435607979166 0
228.036723888495 -21.976411838494 16.3294377564521 0
-19.1677135134185 8.78286049604992 -16.2018249401056 0
220.542894205239 -11.9798524604888 -7.5485286405246 0
199.480039186148 -6.72116134501569 20.8200895372032 0
-30.3113035654343 -2.14819244390855 -19.6211002751619 0
157.628694263506 15.7934433326656 4.43857081303309 0
18.0215196191474 7.84324264441049 -4.48300935050439 0
30.367851144636 3.03629006341794 4.39704444435701 0
220.69882104064 26.1846713063326 0.567064833803575 0
42.6522089984132 -10.9811916577553 -17.779501955587 0
41.8103908241251 9.27431466347107 -13.9349206470486 0
140.516974848699 3.12100961047698 4.08610010337143 0
-44.6490287241778 10.5484211521825 -14.0340378146839 1
69.1903182314426 10.7892520145146 -6.80813452977605 0
197.417628484131 -5.45869264909194 -19.1216279615499 0
174.57523533594 16.4401034349744 9.73171362000653 0
216.215199640742 37.796012987202 17.0561597292795 0
181.055207414892 -27.8970135328439 8.65573769217396 0
196.196866494116 9.13132252904659 -27.6082530835102 0
74.0977341118188 -4.95927543092312 2.19270346264777 0
33.45184139682 8.04201177578706 -4.14126319229648 0
173.343245379132 12.5945185003272 -21.4576192653545 0
111.513665022132 -5.32521290815544 2.65796869683153 0
141.995616775069 10.4138160799057 -20.2145314409659 0
-36.0168514398984 6.9227619574685 -17.6195913312149 0
206.418265308334 27.4682629008754 27.6053274293614 0
183.62360502091 6.51985379094675 11.4862155172261 0
187.349022484265 13.3173789497376 13.9351783169042 0
85.0916101179109 -5.55730739307601 2.24857164931224 0
-15.6351190350231 3.29354210270885 4.11614085677348 0
166.692494702749 -11.5157474555626 -17.2467020867503 0
216.228090045977 8.58749953345582 -9.96355263657102 0
218.275373538981 23.3119910462086 17.1583768838074 0
174.494866972721 19.6412821475839 9.14040038123639 0
150.834895572229 14.9019042828982 -15.7956417993667 0
27.2364047653331 0.925907633616326 5.4087926661072 0
194.90983047359 4.80549204822244 15.5354946066356 0
220.089505239168 28.2564868254831 13.6830400910893 0
185.751096070809 -2.31600473277427 12.8204979967747 0
186.688083256519 24.1943550978512 20.4039339796121 0
186.684713405154 6.62886949493252 -25.2484821750821 0
183.337807840648 17.3056306103515 12.6563973184051 0
-2.63983532570334 9.23841794520206 -14.3233006522403 0
214.355964271521 5.74088012110878 6.33240707210295 0
182.803364033977 -24.5636518868322 16.7372797446123 0
216.933857551176 -4.31527123593944 26.3155722525885 0
-10.998164376343 3.80313598972563 3.28946133221838 0
-35.2213259785142 -11.1059996490345 -7.02755413980124 0
116.554778389612 -15.6503205561088 -1.29601377943839 0
182.393815149323 -20.5436811077465 -11.4957263240813 0
222.670348734509 -5.89883622975486 15.8916490447873 0
203.21580556624 -32.9166061895832 4.65526990504472 0
13.236808395484 -1.61854226184023 -21.7810144174763 0
189.018783064681 0.957435169152158 14.5532740843598 0
39.7012866801537 -12.1563286992791 -6.6853330772884 0
222.856512723176 -15.6343517516111 -5.59406467192251 0
65.6752779810653 -3.59303067558422 -22.895627989003 0
20.9357859718836 7.18426933134519 -2.90277661796489 0
0.040231429254374 -2.41073953117493 4.07400998008666 0
105.054102165645 0.0637699842569136 -23.9474588024387 0
3.50941319136 -12.5091276549975 -8.24068155772348 0
204.732117483117 -4.00102354735884 14.5769887511486 0
198.843593297703 33.2769345138754 25.9786673205185 0
57.2410882227454 -6.63261501224593 -21.7184098801869 0
89.1583865419914 6.65160263270119 -20.4783661448984 0
-38.9233892016919 11.4947285504232 -6.59740241061076 0
-14.7012059641788 -11.2597885834941 -11.8496815523008 0
138.261231039823 12.1851901459063 3.32339044837903 0
127.422770539303 16.1985975149155 -4.96801025642387 0
126.09054427246 -16.6225224104619 -0.672929376189365 0
36.9632695445344 7.84643527978436 -17.4945585251508 0
185.844023086919 9.22243621280431 12.3925215619844 0
193.4511965454 -27.0118635983964 26.9431021668361 0
187.096811630343 -15.2989016608373 18.1467146554065 0
198.104260177356 -34.9176899210514 9.47720086495855 0
220.484709332745 -6.16986653486616 25.7344053040869 0
161.273524682595 -2.45182863898444 6.72396609894797 0
-1.61992050270149 7.16692857060581 -18.1926982965197 0
171.783645141552 24.2260306439687 -3.24343730523965 0
169.718230745701 -15.8169415444904 10.9329926951002 0
216.788699430493 -29.4795844332159 7.91793983930513 0
108.965870546668 0.583368411681268 -23.9779107865567 0
157.265249153487 -0.710939373224382 6.05309328478779 0
224.396754238707 -8.74965673719082 21.3765994280223 0
212.69167684107 -15.3219031249988 -16.225631597982 0
129.982198277861 -11.6584913162392 3.2879008483368 0
176.105933363787 -1.51664479490172 9.28651945946116 0
48.728125540227 3.91083976853247 -21.3665364836625 0
195.33035128835 -7.05281246665215 -16.5805427200312 0
202.293565653938 28.4602127610283 -10.3465463075985 0
205.610494705167 -32.6159504785098 24.5624201489435 0
149.547309489333 11.0628195934587 -20.2288489634866 0
1.88365821931416 5.87637551927544 -0.371659626304068 0
192.492172940124 -8.79009757664666 25.6602879637022 0
177.969535225502 -2.16330262699288 10.4261015134948 0
78.2469157709302 11.5526971479969 -7.34497373817631 0
189.903744796557 -17.616103231081 21.9670994563141 0
186.755789401424 32.0150076464815 -0.859092329670831 0
-6.32365750937992 4.26386902713146 2.48113362064507 0
226.244236908912 -23.4450227201455 23.1949303836577 0
194.659721093981 -23.8893356326696 28.8833599732102 0
169.991108256107 -15.5093950387732 -14.6444147314176 0
-29.6675046695375 -6.18952527393297 2.64666776631851 0
38.9153872081991 -11.3769232463932 -17.0144495099126 0
213.170092598321 -4.00276680642017 13.2666105642315 0
176.520572438658 23.4247974173343 -7.9920019394936 0
163.976103945248 -1.96119411874963 -21.767948390322 0
202.615749102086 -6.29313054659753 27.6825889042148 0
105.786897620407 -11.9194272603198 -19.1037659298416 0
216.676153765832 6.98943203802077 -4.98947512619076 0
224.762342054384 -26.622276101145 10.4154640631432 0
198.18427167361 -33.6970903689772 4.70972502617251 0
44.5016395992343 5.41715365582136 1.11882797685526 0
204.923998523451 3.7747533936869 10.528758247909 0
211.136504955526 24.4633340527772 -12.8639167963133 0
149.5654943446 16.5544097687748 2.9932089299543 0
-34.2847253533026 -6.96068974419278 2.0976802715376 0
-41.3061976365487 -2.32555068584391 4.59426470327914 1
214.617632257552 -14.1038288209493 -14.5885576319294 0
179.023558916022 -15.5388329163 -14.9753669896486 0
175.876548662189 -3.35373195593934 9.91644195459911 0
194.631863072908 26.6445115040468 -12.6381377651652 0
200.028779785184 15.1243377641917 -28.5269150818214 0
173.069041105988 -24.8799186098968 2.62429356574761 0
224.803048603314 -25.0227103290055 24.7076767535364 0
214.9327535224 -25.4204955522499 34.8641038834639 0
-44.2977869898831 -6.1216150096713 -16.012535353048 1
227.150930933532 -24.5132622304542 16.7383054729301 0
163.572404414611 6.94096874804899 -23.022454995879 0
24.3458420718773 -8.97814207337612 -2.45997523069766 0
185.442113043442 -15.2085452943206 -15.724095115117 0
220.444482101977 -28.1945773239684 10.5696918238942 0
192.727417581713 12.2090497010382 -28.0377806199118 0
212.980551573795 -3.66996268900159 28.7352978863111 0
-27.4909949371267 -9.923185416814 -0.516165722848131 0
186.025388280388 -30.302101124175 20.6488196655886 0
20.2666412574237 7.03181378531065 -18.3973836254564 0
177.399098741156 10.128214059969 -24.01189313562 0
104.657283420626 -16.0262790732899 -4.0812632579172 0
140.543621795643 9.12857061164604 3.56401046806267 0
226.250362521662 -23.8857709432102 2.86049329748346 0
219.680742839404 -5.1766914679624 23.800217610699 0
178.190515996586 -8.75611527867794 12.6114003440497 0
209.426085129716 29.2235413401234 26.5236319681364 0
163.542493690171 -16.9279038335944 -13.5628952341998 0
188.23581159789 -26.6201088508183 22.6744175275497 0
206.84731010793 -33.7222985961291 9.13763753983113 0
208.33327136848 29.7645180339535 -6.74009284669144 0
203.00154872919 36.4652390519462 16.2290192897386 0
137.715116728117 14.2764791216818 2.53216496446669 0
170.869952200079 -23.2950662399141 -2.66659840838319 0
195.49343278049 37.0515422294612 13.978590826438 0
191.591374629047 -0.235897395685856 16.1313015406513 0
217.28163627256 -5.96635215361553 30.6552645110796 0
206.295568670433 15.9304967517451 23.5171915151907 0
107.155541906767 -1.65786171732995 -24.0476192030868 0
120.168768974601 11.610898590877 1.28664835766868 0
192.034745449704 33.7116117849257 -1.73514959915105 0
131.503720160297 0.105259344182109 -23.9531332169098 0
-30.7898676628763 -11.0512147875032 -8.80799772861937 0
92.7343488708469 2.86475335889343 3.14214634367051 0
188.899894501218 30.2316677424791 -5.15028827771413 0
216.367038554038 37.9234941178429 12.4710203128265 0
25.6887098647576 8.61650266134657 -15.689942893061 0
156.808833372786 -20.7094759626075 -7.44806948814115 0
180.11321211664 2.14164212733897 -22.0646264871651 0
105.418071591514 9.21722025450244 -18.8498381329026 0
169.736356293911 22.2886882889638 -7.44061806329446 0
100.574470474816 0.725428433307119 2.63421759687333 0
54.466619813983 9.9851412607559 -7.99907307480331 0
182.475032983057 13.5979538757394 11.7378668695541 0
217.828156210153 -26.5218047725963 30.59763242146 0
158.460792079654 18.9075978737584 -9.96718067775247 0
4.02595457885681 1.6576068576193 5.38062720184504 0
191.637795912047 35.5025086494574 17.1397278159008 0
208.173438865493 35.3292270375599 13.0727839629362 0
217.308556711347 13.6900428019635 9.09873637662639 0
113.749841265266 -17.9053453175036 -5.8664619229896 0
32.8726932690947 6.96165294737715 -18.7051393096541 0
84.0520642688027 -11.9909706083638 -2.62537580485738 0
193.214916915552 -26.8986359476106 -7.63873447255742 0
152.050951138753 -20.2237322579348 0.616953640250111 0
40.9615811422978 -13.4315254013387 -11.8538296902849 0
84.1616772678734 -15.3165758480625 -7.15339781009476 0
79.1061045783428 -1.94011662523579 -23.427042055523 0
106.412010233843 -16.1155799580863 -13.5419994976863 0
153.363411249337 -17.9060603215609 4.36222942955349 0
188.860424099386 19.9013213111567 22.1490666432354 0
50.1427104944737 -2.50708364986367 3.92809096533871 0
214.340833727127 23.2448988965455 -13.5262022072228 0
54.7695863009061 3.29513452590784 4.49474342263351 0
168.385889460507 22.8999753413406 -4.46005120608886 0
-45.2716666200846 12.0881326593937 -9.75781827796443 1
155.68164607116 -5.72653852895428 -21.022374672232 0
209.618349294388 23.4517516514446 -14.2436305210398 0
3.09969615279961 -10.1937931572032 -1.65833016010021 0
190.382354160836 -8.70315120232793 17.719582745931 0
-3.87247782666592 -2.33647841962697 3.9803551320524 0
198.388889102792 36.4199288696679 14.7383474710881 0
109.973418118021 2.81809638579128 2.71204688031682 0
-45.5100048609654 -2.26062596982059 -18.3066944991832 1
-14.6424620080139 9.33438556735489 -6.06842608902814 0
1.36881743363831 3.6445949239584 -20.7700310700729 0
164.341408195312 5.46116525548229 6.40373446597841 0
131.344350075976 9.55757985761664 -20.1990865719488 0
97.8994842142522 -9.54948607126838 0.779229509075374 0
192.746692618728 -33.6474892935478 6.20642548222686 0
116.214229755954 -18.3482287123286 -8.20419192695585 0
173.904859294833 2.57744826526796 8.54873144154909 0
107.52812533001 -12.2690533344451 0.229863531471667 0
207.893472328582 -2.07942927667764 10.7130812294614 0
174.397283946646 -12.0038916234781 12.2389917955656 0
40.9474578221008 7.06056416098505 -1.74600258835609 0
223.030696880899 -5.67445736999179 7.26578655263073 0
225.319878026777 -8.1939698770647 10.8752944362737 0
189.287472214307 21.8440164355451 -18.0079566694206 0
202.018714430306 17.0937541091378 -26.299844386887 0
185.551020957078 15.5008023213779 -24.4129092354261 0
204.198194145508 8.15478676781566 12.6050174330617 0
178.967591359056 7.07460893769759 -24.2496473177012 0
-16.698940423829 8.56788549785141 -16.4639787040361 0
180.402180019654 -5.71064692634079 12.0959129029287 0
203.785454356884 -33.6497043559223 6.99826684814563 0
179.731747793809 14.3052199878591 -22.4695950370593 0
63.8087215599666 -6.02718678378525 -22.1521957469167 0
193.200739162791 8.14552739071725 -27.0341198810584 0
219.369908896146 25.1620217627635 15.273574741422 0
204.155643777596 -31.3770879199805 0.530182187821567 0
188.523331181078 -32.4482289197653 14.0344165808471 0
212.641468136091 -26.6671817727712 33.6072405805726 0
52.8624127261894 9.47398595358071 -5.72570478287287 0
-0.547559277684484 5.61886194685739 0.0481766517247574 0
140.703500564874 -8.15086391680273 -20.8896350592879 0
103.872292735693 5.66024507939663 -21.8705012673417 0
95.4433860270743 10.9520324006904 -1.48697823868186 0
15.3856547895171 -12.4040399673785 -7.86233512837451 0
122.255399741273 4.65805843341347 2.96951190680225 0
219.277424133298 -24.4621347447446 32.9146440990899 0
201.105658748585 -35.957671962799 12.050689806803 0
193.996805553283 34.2837113109686 22.7351787046941 0
210.40186689081 -28.4032059111214 -3.01649003200711 0
13.3483245246706 -5.02601676765581 -20.9862691000883 0
112.51835031326 -15.2678982700921 -1.55117195732475 0
153.517643799229 -12.0395180682742 -17.8927889002297 0
-35.6233179244492 8.81457596888468 -0.591180121238391 0
211.841002111112 37.2493513037175 12.090762634235 0
63.8916861281844 -0.40163348646733 -22.9809002579551 0
183.120633004255 4.22448563244644 11.3738625931416 0
-31.8532071203423 -8.81764823586744 -14.225927927357 0
197.752181267049 -18.640458005733 -16.7832810046113 0
204.797277457528 -28.1685781193662 31.5261825747074 0
208.461228633722 22.6599817786083 -16.8640661046396 0
190.932250490755 20.1427366705497 23.472083528643 0
74.8869333348027 -12.5642294338706 -4.33341453944834 0
185.839760865856 -17.5039321944333 -14.8025328001334 0
152.924422786663 12.3723998969737 -19.2706419504454 0
37.3173195144119 -12.9994890111229 -8.67793014338516 0
177.179632849785 26.0953286116012 6.01637872392526 0
191.333338220567 -6.07348968609706 -17.6111879838079 0
187.846624666095 2.17364852658327 13.6265807044085 0
163.418902822192 0.0348937312442266 -22.4434615716779 0
192.385402477246 -8.89150353430159 20.4400647554923 0
209.027085366849 -4.0371072906781 31.8151239899513 0
-36.7250966371669 -2.23582106808021 4.53970126119008 0
195.07660200526 37.0972256348927 5.66678479192377 0
80.1872573139452 4.23971760430363 3.93830616633636 0
-32.1900054725148 -10.4705398187806 -10.3332630069769 0
-32.8020807567409 -5.38881309343728 3.11753343352194 0
183.979442875354 19.3458929713882 13.469482905479 0
84.5477663163417 7.7891134512578 1.06303232650707 0
179.075888942019 -26.3014144887707 13.6606295816766 0
192.528054128932 -25.0475747011988 25.7984297260996 0
192.419843559892 21.8515334662328 24.6276663037686 0
188.951291024461 -24.1824274229658 -10.1495449855294 0
177.450312140942 24.674080710167 8.11845014351476 0
163.864397432618 20.9402020672934 -7.85229433742005 0
58.2198750835692 -4.66350527107372 2.04797817316483 0
-35.1504123640357 9.89974149383077 -2.84795315564757 0
24.3438858952604 1.82831710371363 -21.7458416197632 0
165.562568312609 20.6791935252955 -9.34409560985632 0
198.082324083086 -29.3732476469622 -4.96875748203682 0
-39.2968551752402 10.4897032267365 -14.0296721416389 0
29.3107119664658 9.33390095483741 -11.6147932647211 0
184.704915968036 2.10355912292829 12.0546382156428 0
186.163543774301 -30.9770538511993 7.93069920576794 0
216.094036990314 7.12977950850705 -7.95295542922757 0
195.069729113181 -8.24908810246166 22.6021459319985 0
37.5738815715304 5.19189930643522 1.14095227494934 0
206.188903650468 32.4914356168008 26.6899392794 0
-9.7619128233112 -7.28209576490225 1.7385286217847 0
173.998139144039 -7.76790159885657 -18.438502643354 0
173.280850562604 -14.4045922235708 12.5920526531536 0
5.04127432825309 -8.68664242088007 -0.132875181549709 0
69.7507556040187 9.35939964988941 -15.6813234557387 0
204.026280760825 16.9899202796553 24.3081102796238 0
149.401747523486 -20.0027104784705 -8.50939876946468 0
28.1592330308925 8.95970037767388 -14.5888106699687 0
224.556758906231 -21.4404735840669 28.2068754192173 0
192.972075003525 -34.9199992647847 13.927800156836 0
212.124826853872 23.4677142844864 -14.1542094378225 0
175.660696384234 -21.3658215550443 13.7506740346575 0
220.647788907205 -27.2463418826802 3.64225635943718 0
77.7698577147068 -4.43830492068533 2.37791305084502 0
163.698796210291 -15.9591002288364 8.60095457592592 0
83.4097798404543 -8.79709806182287 -21.1645669459083 0
207.543897378958 15.6700367307616 24.2333455467901 0
190.388161995146 5.15212510482278 -25.2110152480925 0
23.3007630124911 -2.01638921411762 4.49329459347252 0
188.869558545354 34.73232058256 1.29057981203302 0
101.872991151098 4.89063145533907 3.19638281658244 0
-32.033168238728 3.2402562060168 -19.6981162157993 0
217.791940942884 -16.6194482415976 -11.1550273092352 0
-13.4969066683652 0.00772659448369169 4.91017490275499 0
191.941783063977 35.1900864188345 7.4472280011885 0
34.7447573507105 -2.3110499492021 -22.3339727120887 0
-37.1292446300462 -11.1115887567182 -5.47586336271962 0
73.860363075059 -14.7183181412394 -12.5303622226781 0
122.179434235789 11.050689574004 -18.0530956607636 0
-10.692386652295 9.70060966570842 -13.6127004674608 0
204.639682339665 35.3482578081332 6.63788623468434 0
191.049325396468 23.1231056935465 -16.9363070253795 0
77.6061322218571 -9.25522390888999 -20.8152764371033 0
0.983937279686685 -12.5397923431468 -8.13454860862034 0
202.80992935736 35.3846221064832 -0.193316718681336 0
152.758893070264 -13.8512438903545 6.38039519482039 0
19.2724304750749 2.18783918889065 5.27543417242823 0
107.843181381549 13.4726498927626 -3.05129473043158 0
195.039485192633 37.2269616242093 8.46566333477137 0
14.7930901621043 -12.7029989409885 -10.3462697423453 0
-45.0233805741106 0.682260052547788 5.61905611511075 1
187.694625862867 -24.1881594257787 21.9954617422916 0
192.141871906511 27.0847909648883 -11.6616687770194 0
75.3651736961548 -10.5040867872969 -19.81623933114 0
200.110090754163 -33.0642975589757 26.3593847664788 0
185.542307459043 -4.69079963243115 13.7687394279076 0
109.158456488567 6.02450026890934 2.99008271158729 0
133.218839116301 16.181363006023 -1.42704750720451 0
159.432705584978 19.9257388481242 -7.98606782138241 0
112.878040648558 -3.01734475886376 2.97160352845426 0
130.590917280798 13.1809570297229 -16.0049792307516 0
152.025146289462 -17.039126886897 -13.7250187406489 0
186.668653220957 16.0222378996156 14.9710264707653 0
208.953194485804 -17.5447127448417 -18.0197571896319 0
179.65750948418 29.1942904927351 2.72891915772168 0
192.613085698877 -35.0395549170999 15.7672102490371 0
21.5454509980467 5.98407108214964 -0.804632586937708 0
134.240805302098 -2.04410481338977 -23.7159689827068 0
207.269846589258 13.5566925053698 18.0895090222671 0
211.795938122755 -33.3391460976018 13.7307307331596 0
183.838929120828 13.5836994948219 -24.8235369260854 0
91.1469402140027 -9.77213448800672 -20.6318783289017 0
162.089316294405 -6.15766577634488 -20.2495688265564 0
87.2053559427788 -5.89533654013503 2.20220997423155 0
210.314702888018 -19.6586589887408 -14.7242704214515 0
206.219719087332 -31.1376649193303 26.7431212529219 0
186.635956827453 2.3089743191476 -22.757478759916 0
-12.6047169790091 9.69684486552319 -7.88359684974692 0
186.95617174762 -23.082768019848 -10.5659171520365 0
185.45619271338 -21.3387045528634 -11.6472599487923 0
212.795273284106 36.1196955443012 9.81867093436206 0
201.680018246384 36.0885564986809 10.6111854055368 0
143.766280009619 -19.1011669731085 -10.269095456495 0
16.543698797678 9.23189511322415 -12.7904705957317 0
41.7101123731611 -5.64619359322323 0.847553823747818 0
161.423605734693 -15.621515567272 -14.8591913522685 0
216.292430367221 12.334792229076 11.2355133845372 0
166.365067349526 13.7509355862871 -18.9546470502812 0
225.465377311675 -22.867086571241 0.26689751534637 0
185.319558956689 22.7939302146281 -14.6823314629165 0
223.141268861957 -7.57685697726174 22.5987299453651 0
197.28650379388 -35.4345401927537 11.0847960079557 0
206.961630347037 -2.7771609283045 11.7935407537542 0
199.11231458648 26.8852749989166 -12.630823938132 0
173.629158701466 -17.5723849230261 -12.9433862087844 0
3.38540689180266 8.69734435512059 -15.7369764110438 0
197.008185855282 -24.8611026757048 32.3632058732682 0
109.955067694047 -9.09827527498736 1.97231783610893 0
212.986062834099 -4.92845558083484 14.9020821284989 0
144.289404549852 -19.932725433047 -2.19264848925638 0
184.893421899858 -23.8399932483042 18.7487925458369 0
32.2420877824559 -2.43879386663049 -22.2636030076892 0
201.824086709365 -15.5159557659701 38.3082140031661 0
183.291357283905 -20.1463858522132 17.3108469638523 0
201.380649975716 -23.4239428332474 37.7773831324836 0
220.50701873329 -7.09941853193645 27.7170029714502 0
19.5288960811092 5.10830270733602 0.684180680274541 0
163.3839996966 -22.7033487621525 -0.133557064612679 0
31.8281316254261 -9.1181711953404 -19.1944450824973 0
-23.4824038905031 10.0529604701111 -14.068286646464 0
174.696067666028 24.237663594714 -4.92827625857831 0
86.8857087562305 11.3717616695928 -3.6366592717655 0
198.430231515803 4.02725940963223 14.8534189076922 0
152.095864457024 13.2969999557442 4.34337740308669 0
208.32609547377 31.7930813170469 -3.38505569020453 0
122.8036015002 -5.93106815050593 -22.8712641739896 0
219.285753790412 -27.3037018151439 25.2996794638025 0
102.012412758076 9.20218944217604 -18.6212484628815 0
1.67660532377042 -8.80328981582589 0.0059302350307094 0
218.573731248131 14.0930828219828 -9.0130113852602 0
58.7092809764181 -1.49342478198775 3.81814964524087 0
194.784040296142 -35.1882139565363 22.3682142093926 0
215.489377022195 38.5227674898328 14.8439858738919 0
60.1830846590297 5.53545062730004 -20.5168752196228 0
188.524180785777 -8.53626553791201 16.5049017615081 0
123.4204077049 12.8957617703475 0.737228934367168 0
192.646617922345 12.5814712088756 17.3218662437781 0
197.743936289973 37.3073087060748 8.41795338927927 0
155.352503924956 -15.7791343363719 6.46403683899328 0
46.3046630058349 -11.2760065258224 -17.6259705592879 0
202.186439732797 7.54477959356429 -25.3898842814006 0
118.961380577458 6.59118940129769 -21.7595081797568 0
146.337987289217 -0.638130955922728 5.03471490396551 0
-12.0636336849997 8.97828395702568 -5.41445171017096 0
217.655919918621 -0.85118045071339 6.69381931751545 0
112.235628002569 2.58520904008257 2.70659671171479 0
195.510822196108 -20.9568319916821 34.1079512842512 0
115.03239613452 14.5162845314789 -10.5219188672981 0
124.674083661926 -11.8248341863082 -19.164913161411 0
181.720438151198 23.8239868862038 11.5274632385609 0
189.581915722522 -1.38095255764774 -20.5377742279712 0
94.9348493202772 -16.520233199966 -8.08046912146116 0
143.270569427115 -1.48836896024776 -23.440518352346 0
92.1576177376927 -1.03821489735007 -23.7408546569932 0
199.640640774617 -34.5569456243618 23.4835870017056 0
103.686416096851 -4.08792093225135 2.59424637272816 0
41.5671174228888 8.62759394988773 -4.90070557734081 0
176.295980256786 -18.8305437863131 -12.0041755408278 0
191.678999603134 -13.7037104802358 27.1466888093592 0
214.96536960128 29.3813942623617 -4.09719919821858 0
145.145190638567 17.1061102120523 1.70024896337292 0
221.186395267119 -27.7604471220668 7.58984450947908 0
13.9382307119684 -12.313691044163 -12.6216020009966 0
220.957932186569 23.4915634826454 5.41055925905914 0
127.942710756107 14.6989404111678 -12.8200108123265 0
40.9614487674459 -0.69061784613445 4.89908398979636 0
64.5116759234991 -2.93551973065535 3.27363274624823 0
107.11334315874 -6.37124766082361 -22.7812645517507 0
159.467352943842 14.6522090936466 -17.0648516065471 0
34.6881209023494 8.11347334260425 -16.9938173647342 0
220.257419298557 26.2941675415861 12.7235200308489 0
176.753598953976 -8.06682469677536 11.5893854710927 0
206.218552876554 25.2119788048773 -13.3446432984877 0
186.318458653271 -11.590440472553 16.5109242345544 0
35.6577756261444 -5.53567487246468 0.922744321930467 0
201.221204198875 -7.41517702351758 25.6776267970547 0
141.055852425719 6.13503169561884 -22.7899140196416 0
-36.5302855477044 11.2295484838988 -6.4074877335504 0
100.628098626474 12.8243463979641 -11.9865546312652 0
185.199559132824 -14.8512076274394 16.9761416785051 0
219.595137878039 20.6273271817491 -8.37938248606003 0
188.48310550217 18.1169664903086 -22.9231680838354 0
10.5742326454035 -1.05932574691151 -21.7401783911454 0
179.509258129234 11.2595792846695 -24.2303572586113 0
100.4631314188 5.98273374605479 3.40610823831411 0
211.206155681679 -6.57614264312794 21.8871033859349 0
203.84651014042 19.1339408799167 -23.3020517077208 0
158.974538374898 20.0577450078979 2.63471040795454 0
169.183366340446 -12.5799267983483 9.85786781466614 0
62.1317956158786 -12.7504821192634 -16.4792002555226 0
189.610208921945 -20.7634447807956 -13.6711804585911 0
210.156310164744 11.1221884176928 15.7710018332042 0
127.886207356269 -12.5933216562933 2.79107068433639 0
186.259559258155 26.5157414039105 18.7381662881122 0
151.620278024736 -18.5511445770324 2.95997768259979 0
207.551995635567 -24.0110123480014 38.4591061892433 0
175.35469889458 20.062720010753 -12.9880712336109 0
182.798846975576 11.4600788318945 11.1691170011034 0
115.931606146045 -4.04450674994861 3.03694316781516 0
93.9484026796167 -16.3057370077865 -11.0259140732032 0
-30.4659792165901 7.09855406023034 -17.7923728533013 0
187.200754513618 -24.8285200175747 -8.31323824639326 0
-9.48265208839213 9.90265804956366 -11.599965597887 0
218.957544711572 27.4875459616694 16.7497452354019 0
188.004666203246 9.22046210801281 13.1597071025699 0
132.807310150221 1.10916793869445 3.76846296946012 0
49.6509342002368 3.56015150501853 3.97790904991754 0
132.109077532967 11.9807851045643 2.84203094284347 0
220.683994477196 24.6224244352828 -1.22993054876703 0
-34.7089879686039 7.8346016708603 0.865257174092485 0
203.658686792372 36.8280434293385 24.859571012838 0
-33.0026064397979 -0.655283577990871 -19.7444976808452 0
169.749213287425 17.8766483368894 -14.6792887411073 0
174.382424279343 -9.96199772394682 -17.4693816486555 0
158.24124241859 -3.73646112880073 -21.6986530934438 0
163.875357242764 22.4068539246623 -2.63027265068586 0
210.756237495954 -17.3213496607913 -16.9551152203893 0
157.388739252524 -4.01622588262378 6.41480529649787 0
198.819965481846 -7.91199550920125 23.0459255671506 0
100.437726922936 12.9271792936298 -3.83766667631071 0
210.592870150707 13.6013870429891 -22.8123821169385 0
204.322157731151 -25.5885749837812 -10.0998361117865 0
206.945029544707 10.2262328940424 -24.5718239494527 0
-24.2312793699898 4.1743033227845 3.84058109935603 0
148.15390867556 -0.662119697096703 -23.3562817775695 0
212.134820660654 20.7218491372295 -18.7223107187366 0
195.977698421534 -33.6019278525619 4.57396464411189 0
188.637748142374 -30.4584068550918 22.2521368324259 0
61.981675310587 -8.28252169860473 -1.36545190583018 0
43.469218433801 7.71529722579376 -17.8281287743587 0
202.418959712857 -35.3808743050463 16.5401526445126 0
173.862991430836 -21.2415766691811 -8.06708822604734 0
221.003696939456 27.7830369722963 5.44039151131363 0
194.656726684442 35.3562699904252 20.0171031642217 0
191.549442463524 9.44849800568612 15.7057030449037 0
146.539730067995 10.8094112864505 -20.2062328300684 0
36.3560111908487 8.31656687541646 -4.60947832268099 0
187.165592136277 -26.8231509737743 -4.4830757585291 0
79.3537847921057 2.71850422767461 -22.6573696915884 0
192.86909717003 23.9947590423051 -15.7051048019831 0
105.358367502272 -6.97707933360992 2.07139978220966 0
197.514084876119 0.777351186180954 -22.2495653837969 0
177.391887971055 22.4108661090305 -10.2870312719423 0
-29.3519466004719 2.79948661365901 -19.9411367154053 0
200.688890744801 -20.6543037315259 -15.6843588250699 0
160.798595589713 -13.8064575637923 -16.3123365478867 0
174.235858646182 -4.50658281174822 9.72446187948285 0
86.6744990394787 -15.8863308316493 -9.13624984768768 0
181.831188748983 -13.0438693180026 -16.1773080466525 0
95.4361015584059 -9.522796351898 0.561591973742498 0
206.406166607069 26.6386655740784 -11.5024951528988 0
156.703204893723 12.4322442653478 5.0592413047793 0
41.2060770432767 9.55800465162704 -11.3173467714937 0
103.336361153476 -4.97250845575648 -23.2910878609062 0
179.232333696766 -26.3773426735796 11.887192195191 0
198.241877745343 35.8892816532353 23.6186074851068 0
204.262369939578 34.5782329681141 10.5700311912114 0
193.623237650509 -1.73756662295809 -20.9078852473227 0
199.237405583261 -0.0238453061367555 -21.1968856232671 0
175.404378445677 21.5757417675187 -10.7591563578293 0
196.372312895165 17.4567154544324 23.5426568479872 0
-19.2149741753035 9.5324467059818 -5.76498149979697 0
206.424853224451 37.8761466891403 24.1672082047342 0
180.856896694803 -17.1493602178032 -14.0643287845794 0
183.063865219874 8.88303125705663 11.2886650401531 0
65.835329741088 -14.4776494453174 -10.6069159665971 0
106.923967033118 -15.3434894499105 -2.69868894854924 0
197.301559824766 16.7952523461255 -26.2170265608311 0
0.449177041597372 9.55769647235961 -11.2284920479236 0
95.2831063712477 9.92662550744203 -17.0515400054947 0
197.183999610759 -14.7221997323785 -17.5727525931754 0
74.0510309761595 -6.22900561519696 -22.3583010150051 0
165.913559209592 8.26966965387321 -22.7683148395333 0
155.667839851406 20.014165256525 -5.95440525734239 0
23.5759795312039 -4.22277836387243 2.6534722657122 0
57.722431721376 -11.4050185292122 -4.69339339198146 0
73.3224845727293 -1.14154578755003 3.40406261212937 0
215.687607370428 9.37294237190957 9.96861205980078 0
222.098839323233 -25.894721229401 1.368879623467 0
-30.525274237632 10.5803781924411 -6.06280389585921 0
216.262151600453 16.0612037380394 15.1841188760006 0
198.609260440352 13.6724412849158 -29.0730824940842 0
129.009048913431 16.3792595991542 -6.39310440283129 0
224.80710660702 -17.0732255301931 27.2400641283886 0
