"x" "y" "z" "f" "a"
-199.778417046349 14.1535384312059 -12.5422542144252 0 0
144.391774014653 2.28034048979397 -10.1598890671532 0 0
99.7977424465704 1.7459308427637 -6.14349224656372 0 0
-18.2993360311086 16.2897501756013 18.2668198304007 0 0
182.084138649008 -22.8017415750308 13.5540290154782 0 0
-212.665326718695 15.4275275052561 0.286471609535801 0 0
-193.585379129687 -31.9195928819747 3.38125455750113 0 0
81.2598484328187 18.2862418416922 14.8968670306734 0 0
-230.694217688689 -41.065322570609 -3.58132713665477 0 0
-196.256148718153 9.70110635289847 -15.4991994023702 0 0
139.422155452422 -29.4236447513939 2.7218082577387 0 0
144.816457746573 29.5834070819301 8.8991729245369 0 0
153.330963548115 -28.3472970332147 -24.7220650394584 0 0
148.904035887734 17.2065590271111 -24.0127108141288 0 0
-151.100943280141 18.3190424577378 -21.3513789259539 0 0
143.121315046508 -22.0538966798017 -11.8062851076174 0 0
94.0815818977106 19.91869601778 8.09653482666315 0 0
155.914027416405 -16.6994851840754 21.589616980074 0 0
119.940818457806 -16.0790770681479 -5.14875805101454 0 0
89.9322282707049 -11.3980878942012 -0.161366766037169 0 0
158.345767443319 -6.69592078305782 -15.9203494122143 0 0
-170.979955429464 24.9018921642921 7.46222744508644 0 0
159.606699335275 17.705068159997 -29.3925803545465 0 0
-106.640140066377 23.7048955991207 1.89211783458333 0 0
166.792131238854 -10.0808497251492 23.0428339149065 0 0
151.515806719358 -35.2884381611586 4.47330897888091 0 0
165.383470715722 -11.1924300936795 23.50499117579 0 0
185.520562011957 -12.1176428640462 7.60962078599739 0 0
188.127797557493 -31.7832758886386 -1.08065229765036 0 0
-44.5151691200709 -5.66150153764672 13.9206613274397 0 0
-168.138196361806 23.5374257031084 -20.1873544155373 0 0
-147.845821839509 14.8527361777991 9.77475571820454 0 0
-61.608083285556 22.2161771536692 3.75483177634357 0 0
-189.980265821053 -26.817416179101 0.965928168873598 0 0
-17.2911150063267 21.1978711998708 6.80176334532652 0 0
-87.4357298854603 -0.792032990349613 -4.88870987576031 0 0
-209.244401430714 -14.0183377118739 20.7268509591238 0 0
162.519285413898 -39.6064356081989 1.12352261176869 0 0
146.970414923194 3.76099532086443 -11.2710189740649 0 0
-132.244316713662 3.15022115726497 -14.7024842980309 0 0
-24.7697326017672 18.2817522032378 0.132172398084063 0 0
17.5815139103915 -5.14214919259597 -0.0369476540600908 0 0
-108.637759904227 -1.9083772252228 11.9451710459247 0 0
153.080264571796 -17.819837651462 -24.5016378273377 0 0
-132.683431149714 -8.58913406452528 -0.983832287375488 0 0
-89.5901377159261 -0.955724028565582 13.5327227106079 0 0
-5.96711434561522 20.0624112620188 4.47160468547497 0 0
124.513362495228 15.5503849673574 20.7655888088771 0 0
-235.127787870643 -25.111811822577 10.7146514726486 0 0
-206.993629025546 19.3320631250178 -23.948631556989 0 0
155.833009033405 30.7584687109142 13.5671718397635 0 0
-174.979995980884 -2.71145101908482 10.1225281049445 0 0
-189.821032937638 30.8887242078217 -17.8860344090807 0 0
177.398736235202 -30.477954484222 7.73614419919358 0 0
-154.093552658468 24.1752352795767 -14.5445455449835 0 0
-210.559139088409 14.7655079759569 -23.3164720091799 0 0
-127.50668125926 12.1647207072215 -15.7496963310497 0 0
92.5514268953352 -2.12774433632828 20.4760755886094 0 0
-200.663094566524 -35.6591768896689 -12.4717001727246 0 0
-123.179961622434 -4.34851672934923 -7.10382594138121 0 0
139.390240065743 15.8288843676225 24.4201371753883 0 0
-62.3906899144899 2.56093792071065 -5.6442419226046 0 0
3.1501417565355 -1.49481255213617 17.8928644973304 0 0
186.611880915114 -13.9565883078746 -9.79569072202764 0 0
-53.8314516078575 7.93162936566733 -7.52386399239567 0 0
-225.76332643119 -19.6447270153652 -12.8051147487583 0 0
171.679163393089 -21.3336990703325 -34.2585376030398 0 0
-71.1858286453359 -1.74889856195635 14.6668387460163 0 0
132.433112591595 -25.3349265004113 -6.24399414451157 0 0
-36.4490141786299 5.37352663563393 18.7134477287109 0 0
-205.443359773795 -6.40025832199253 -10.2786509810163 0 0
-156.05498201909 16.1684841516533 -21.5446952623905 0 0
-213.21270434503 -14.7838665156669 22.4375649740991 0 0
48.6487597451463 2.567575292526 -5.88977851125521 0 0
-143.638246875601 -7.06020788689226 9.06444013237238 0 0
116.350836677791 -7.0589593269252 -5.18781083713655 0 0
-203.255129767344 -24.4342087604513 -15.5574174831147 0 0
16.3913909119458 15.5225373218865 18.7844292777438 0 0
42.793231209606 -1.8037298329609 -4.29141030444407 0 0
-114.222847539395 23.1891971492996 5.20718569788264 0 0
-220.826523647498 -15.5006289374208 21.7019971361576 0 0
176.996486315058 -1.22543327631173 -3.45505043014295 0 0
80.6692719479872 4.89545540329556 21.4510863278026 0 0
179.696929781397 21.4375464177887 16.8840980864993 0 0
-202.333311196445 23.5557594623091 -23.1470046834694 0 0
-213.633565255926 -35.870888423861 25.5358868377073 0 0
169.336000353804 14.5003083819466 -26.1755587563899 0 0
-234.300814775825 -36.1397727609428 -0.466814412315266 0 0
145.317275697311 30.7573526955137 -14.9602854172511 0 0
-10.5253164948914 -1.65167189703532 17.2801054180108 0 0
-205.823497764952 4.36988719917129 10.7327198641935 0 0
-202.399008967569 -1.75219142563279 -10.8053754574494 0 0
-221.861792104547 -12.0050166351161 18.0199181467353 0 0
36.643828407717 -9.68142958590584 10.3219525584543 0 0
-203.869337128752 -14.494328857722 17.5924021729437 0 0
127.420283256842 4.79535480545047 21.0506990419689 0 0
176.216970834075 -37.8391266672353 -1.68235235935155 0 0
-14.0975188456763 -4.07748989009798 0.148111643798396 0 0
54.0560867199715 -9.17806969364979 3.5107773262595 0 0
58.0790410763445 10.1667399628534 -5.62142304479713 0 0
-102.877349467145 23.4034911143329 -6.24145911886312 0 0
173.640127003326 16.7879695742668 23.2055089838104 0 0
183.549745731149 -10.2402105960521 10.3066590954764 0 0
-137.320964678982 -9.4594064672756 2.57666107766151 0 0
142.158361339875 -11.2670241379769 -8.85438017914456 0 0
163.600888007173 -14.7798415462186 21.8629998049617 0 0
-195.175534631591 30.7836602595659 5.2727235903427 0 0
-185.033915984278 28.3376554497215 -20.6093223234368 0 0
176.852844394506 6.53586841538978 11.7142115505309 0 0
-156.491569883631 5.74868087560444 -21.0176745228901 0 0
-187.821531489757 37.0046984528586 1.26763602602589 0 0
182.614501981522 -38.6946421917973 -18.0846004681337 0 0
-110.032544010281 5.21366687353119 -11.4464925675881 0 0
165.232946140987 -3.53164553301088 21.0940902014855 0 0
-212.166620128395 -8.65311955294308 -7.25606598790849 0 0
176.538549635669 -39.0080551106684 -25.3979720885052 0 0
-87.6481932812538 -5.68679266556074 0.349407237305541 0 0
-156.048473176259 -13.6504923070583 -3.7054256451921 0 0
-203.434241888381 10.9228942953986 13.1619809382684 0 0
-134.106003313164 -8.26654814660544 6.67600132260262 0 0
-118.734175793518 23.905527510158 2.64281611444175 0 0
149.540620637548 32.6957057102909 -18.955859676295 0 0
-191.249254711814 -9.16301060978627 -12.9977775635206 0 0
-144.045397670283 -9.8164762403308 -0.287371038864991 0 0
-96.3527096654867 23.3895118814314 2.24527387995132 0 0
-214.324896127189 -8.51695098327066 -2.30601941652264 0 0
67.2374074994692 3.74358588244027 -6.27907951714069 0 0
-207.232477222821 5.45221866055262 -1.83644205253144 0 0
-204.798593485336 12.5978315005725 -18.2860728572887 0 0
148.572426015304 1.51444769482368 18.6149726766219 0 0
-222.401110516707 -47.229543408091 11.5744536835492 0 0
-110.581887604596 23.2380757720868 5.27754250858256 0 0
-196.787282078876 -33.9604719650247 16.3797256387895 0 0
153.800192626114 0.637292230444052 21.0457642415327 0 0
168.132686493747 34.3544124247959 -1.56767083913359 0 0
-224.509872850383 -19.6487609756594 22.1924069563807 0 0
-89.5476491287227 23.2210453324804 7.24511480717078 0 0
-148.376732908457 -8.69880365609976 -19.6825518551339 0 0
-215.461730143935 -48.1560202117868 13.6282944321718 0 0
14.7199431221893 18.2994321967898 1.41494852129813 0 0
164.454289371078 -41.1956393090205 -7.6102230151153 0 0
-150.816640736157 -11.0771307534302 -2.09926453470379 0 0
92.3740132146506 15.2775041531621 18.6836654387451 0 0
-141.073400751419 10.0623620069722 -17.7556720079003 0 0
179.210067430619 -37.8695840131836 -7.43017768583728 0 0
-28.7680169852729 -5.64527073033534 14.3477058037101 0 0
-202.678032591505 -7.76629170390809 13.8805014194824 0 0
-178.651639756071 35.0654231866964 -1.26887283751778 0 0
-184.509255476184 15.3776514395464 -27.5980177434653 0 0
136.934340324587 9.37370921867835 -9.88135632130194 0 0
122.42074982114 -16.4613619110053 15.3143812490365 0 0
168.124615174961 -8.65920246597427 -13.3608091028966 0 0
73.480554235602 8.75151424660298 21.3878563595565 0 0
-78.1147772057104 22.3955300840354 0.034011165647632 0 0
157.792750543731 37.1156396599561 -17.4347815317287 0 0
-57.8076004790016 1.56102594144387 16.8552581368632 0 0
182.031303986878 -8.15043185162239 10.4419848052293 0 0
-30.656716018329 1.87937680486952 -4.46830383439561 0 0
-121.96281811194 24.6215763529273 -2.82769309570613 0 0
92.0846273433818 3.85194370684573 21.4417471712281 0 0
-174.343924176858 17.2157996334279 8.67176103346144 0 0
-126.420576723887 13.8614316001226 11.5890728838378 0 0
162.978507772175 11.9816995449921 -24.8604583886558 0 0
135.289463644395 -25.4016909069866 8.82048940689361 0 0
-111.21777669752 -7.4607146005043 3.65420890160528 0 0
34.9464753943553 4.12452506196387 20.6031071340698 0 0
-213.217254268159 -29.6232831738689 -18.4782822607069 0 0
134.862395644052 -6.72563505548424 19.7141513500547 0 0
147.204270611551 17.1949129186051 -18.7998371188777 0 0
-135.378615760386 -8.65623583739784 -1.45649346496235 0 0
151.701568762749 3.28474241885947 22.6981395287513 0 0
160.880777621937 -36.7532195902892 -30.2621144706822 0 0
83.2171860741316 19.8651837166896 3.53144536801333 0 0
-169.190098650053 20.6192389736597 8.76337405295396 0 0
-219.923119072813 -47.3339792104129 8.68931199154664 0 0
145.949227072314 6.94007815735488 24.716240108805 0 0
131.245919627259 -14.9706481944887 -7.12982171476178 0 0
-5.92085149465364 -4.15090541396475 15.9580396620006 0 0
-176.75590799932 -17.677159786077 -9.14521976267175 0 0
83.7559025509913 14.6696571224947 -5.4606085083951 0 0
-201.157951973097 -13.5211147675895 15.2443797214512 0 0
152.882357783077 13.1316272684677 -24.6246965041833 0 0
-190.414217502458 31.9912415310084 5.20453099156448 0 0
144.038778316724 -31.4690353645201 -10.2966306539765 0 0
-60.4918798321574 22.5033863213608 11.2269325639434 0 0
-189.390974912951 -24.0884244762744 7.6162494447084 0 0
45.6307597178302 19.9275639924717 11.1576141654525 0 0
163.093033679069 2.78067813806824 21.9686075137775 0 0
-198.824353057057 25.9544126991826 8.92639730288078 0 0
165.577006394839 37.1096563962775 -2.81279340824446 0 0
-210.142136907135 11.7536629153303 -2.37214039142101 0 0
127.244515766177 17.1966540525243 -9.56942627121834 0 0
-85.8021715297931 16.2363492590716 -9.61116181659768 0 0
-228.311197914382 -14.5381991330916 -4.9652035105829 0 0
-204.920039768133 15.2002146451911 -13.9940328797838 0 0
-201.661530059516 31.2799914383026 -15.3620201418582 0 0
-185.103935457809 4.7866240864892 -21.5712102865045 0 0
165.277694744539 9.46774556156572 24.7395076174508 0 0
-23.3493796691921 5.71431685494229 19.1828869831362 0 0
10.2885221668998 19.5863820864238 15.5208653161345 0 0
67.2522079755303 7.58104307060858 21.4305290297007 0 0
-213.982985667644 12.3392265430427 -13.2611868282788 0 0
169.015061293655 -4.93845247248727 -8.67505221018971 0 0
153.85102084205 -39.7003292214553 -17.6952141214587 0 0
169.605915110366 -12.131437083747 -17.6034567879852 0 0
-213.824152274067 10.7519822406455 -18.5500677761621 0 0
68.8904561574474 19.7758658145923 10.0472024948936 0 0
-207.774688433393 -35.7194647758645 -16.694068277126 0 0
-209.526659984728 -42.0695953307162 -13.7634958835197 0 0
-74.8988071984832 13.2352989475844 -9.44069250343886 0 0
-183.482531162995 -12.14645421639 -12.1274053428021 0 0
158.917496949117 -41.0097340926187 -2.07509731399394 0 0
178.484064571973 -13.090331336514 -17.9473235238068 0 0
-213.699819737083 -32.4370051481362 -18.1995971012491 0 0
145.855648001934 20.0856674139065 -18.2568926053398 0 0
177.813951122276 -21.0122418678343 17.8298112714141 0 0
146.327329451407 -14.3261878384356 -11.9371903580629 0 0
136.062670490502 -0.96500109330585 20.0284023032951 0 0
-214.370072745807 -46.6898683877288 6.37946051308444 0 0
110.209877995947 14.1890082962525 19.9163558036456 0 0
-212.222496684317 24.4146839935347 -17.9926525394451 0 0
146.470616912692 -12.7390220402453 -11.3084929979103 0 0
-193.154869326349 9.31476525021845 12.3754261970567 0 0
-51.3773138062289 -7.6098316273748 9.45946215609941 0 0
-137.105499797306 2.82185372711578 -15.9480059575243 0 0
-217.368536348245 -45.0480069470556 5.54237395294884 0 0
142.493382056525 28.962594992458 8.92570318249696 0 0
174.714825685516 23.1368559466809 -27.636263463558 0 0
50.5056267488393 -1.77408240984659 20.0242272725406 0 0
-129.505059569689 23.1477246044826 4.88516618257202 0 0
186.998627569752 -31.6699486631241 -0.0536591806333915 0 0
-152.106439181002 12.6461756632191 9.5494234994455 0 0
-196.951549154502 -8.73670778438319 12.4924584345182 0 0
112.124177380837 -5.63187468345514 19.473531909805 0 0
158.560901971993 -21.5177997551271 -31.6449683413817 0 0
-213.751325625143 21.0578598344484 1.93888958378624 0 0
157.37339536998 9.52822596076231 -20.3298317171771 0 0
133.39238817696 -19.2798365936526 -7.98105094241594 0 0
157.889613270853 -18.2929604184116 20.0949947168069 0 0
144.275861454385 -34.7643774352369 -9.14274890665635 0 0
183.69995714634 29.3593490567377 -0.9145615753916 0 0
155.064530756001 21.4100096167269 27.4814880755949 0 0
-188.856181185643 17.9638115669539 10.1002436655287 0 0
-118.81108344992 -5.720358214551 9.14752931588984 0 0
120.006558034807 -22.2215394790384 4.31695629616457 0 0
124.882158738965 -17.0453041374962 -6.01519001090057 0 0
-124.573607816917 24.6084390849772 -1.11362712023404 0 0
-213.782858565933 16.9650883934457 -1.07436291811264 0 0
119.937017977667 -12.1263139309213 -5.14001393268394 0 0
21.8585292591964 -7.53264508244241 14.12391247605 0 0
-162.570788476998 23.9046392615935 6.78446657744836 0 0
136.668535414334 25.9865022304954 -10.3551150098353 0 0
-209.131512629648 -46.6753108547669 16.7173724768202 0 0
-126.033291147697 -8.37040739934203 0.453895732198556 0 0
-29.9305562157387 13.9361825965473 -4.47132506989848 0 0
-92.8973147634158 21.6217687862753 -7.30249165400314 0 0
169.618691873924 -23.7743403288741 16.968479257814 0 0
124.052229786058 24.1506264686762 1.00540070555548 0 0
39.6612085462799 9.01717493282528 20.9222097614602 0 0
-162.976040448174 4.17338622723595 9.01943954743307 0 0
-200.778324163985 26.6350602982416 8.05132626198901 0 0
150.368811076708 1.6813646127472 20.338994882708 0 0
179.889608455168 -37.2672728437366 -5.92510801356658 0 0
184.172921619552 -36.4439374869645 -8.81453375907764 0 0
132.882177530984 -24.9015165472747 7.71160591927932 0 0
-68.4695119016897 8.95644285137141 17.6291393403791 0 0
-168.26542506822 18.0716099967019 8.82866504121874 0 0
-148.552912436676 -11.0676894402751 -19.9139629344029 0 0
-162.947519196517 -14.2360991942141 -2.08389500900709 0 0
-195.386123658195 -39.3117727193233 6.03408155170477 0 0
177.648117784898 -5.41646913277789 -5.85008125013903 0 0
29.0891835160675 -4.90882489806715 17.2276708408227 0 0
164.559243742131 39.8530051347918 -7.14800042394207 0 0
166.609956126662 17.2455728368319 -28.981355842334 0 0
-27.5206312410385 19.0833297754794 1.1553774116507 0 0
-200.633312860457 -43.697644051323 15.1449405681237 0 0
-51.7278233532732 -2.45899403786769 15.6806392198221 0 0
-205.200387537128 -5.44162645039887 13.6089832083072 0 0
157.85676891223 -23.9135735618924 -31.9057458793232 0 0
132.057401997454 -20.8861225071797 -7.4648718177483 0 0
-197.800848418179 -3.25451418446885 -13.2354356240482 0 0
120.062084808137 22.4599355373561 5.68342484284801 0 0
132.023657087369 8.93214706235899 -9.04421005176669 0 0
35.1926282937533 18.746197654773 15.4693422979813 0 0
-166.124246597061 3.41187646082696 -22.5966057435769 0 0
137.477681618885 8.15534553866319 22.5573782392083 0 0
70.1270619517609 17.1571735732067 17.0581379326406 0 0
153.584843979339 -16.7611479820507 20.9527322679891 0 0
-49.0591462334547 22.5238088079512 9.30180604858735 0 0
-50.0828565629683 21.4931587809147 3.44764982315979 0 0
84.3425156565255 -13.8824906901681 4.81377670340526 0 0
167.408301592427 -39.8696987961916 -18.8422471404309 0 0
180.957864710952 -13.3064012842188 -21.3140247552114 0 0
183.00356907195 17.4810314481477 5.28006520610841 0 0
-118.194930448389 15.4171610662901 11.9429514369049 0 0
-137.021604324281 22.4815606995133 5.97729332530706 0 0
-227.804019097953 -44.4105770760362 11.0006271820788 0 0
-196.219640134877 17.0614204647199 -25.5606744432955 0 0
-112.804398230395 23.0346340680805 -8.79461542994461 0 0
-117.05765894183 23.333113462864 4.68080032137459 0 0
-125.125598578205 11.8343002185366 -15.4007405637848 0 0
33.3212538126509 6.71417465447711 20.756532054574 0 0
176.253799657446 -4.94269012887575 14.6844024181585 0 0
1.12361948160487 1.20342787106258 -4.32190712983697 0 0
-130.586543424388 24.8782683990744 -2.00066942217958 0 0
161.361534793736 35.2947059416762 -25.5098348614005 0 0
-4.49463491029377 -5.58506880342845 1.46610415114596 0 0
159.136012495154 -40.9509071405289 -19.3534758136056 0 0
-216.128982394429 -7.02019549478519 9.8347203586233 0 0
-89.0583289604722 22.7551632084927 9.450602084498 0 0
-215.273369790235 26.5116548548475 -8.41360758133021 0 0
43.082199499149 -9.70621541003138 6.94778982510188 0 0
-131.794275511615 22.509306284165 5.89804708609221 0 0
-30.5982438914986 19.9450585996038 2.48017151024269 0 0
164.737109994122 8.16043873403093 -14.8973233347501 0 0
-184.590195125163 25.5244849680262 10.0648524638234 0 0
-220.788754847647 -35.5832000949917 24.2833636724592 0 0
139.629198171839 -12.314069645723 19.6979411932312 0 0
183.524268482448 25.0106444054225 -14.9146285941267 0 0
171.840920429207 -33.6834053657978 5.36759085536868 0 0
-205.234958181794 -24.074186100794 -16.665608128998 0 0
-222.641605007966 -10.6993057311103 1.37988843947856 0 0
-209.54516504632 -40.0825340568836 -15.1580314396785 0 0
-231.469278231834 -29.5647349100723 17.8835343909908 0 0
131.461360801147 -25.2347943898335 5.61442634625403 0 0
-36.9860121236712 18.2530606382998 -0.932828957135155 0 0
176.608910539687 32.3520778844145 -2.19747847977613 0 0
162.92583079972 36.8870304361463 -18.7956480154497 0 0
-202.942978898735 6.83139216282203 -8.7163609670525 0 0
116.869438611723 1.98482284830468 -6.44267843311868 0 0
-210.285475701675 2.96113860901075 2.39958445017838 0 0
-231.177215236937 -34.1464406377232 -8.67102700701372 0 0
181.984312680153 17.7286102127251 10.0286759061329 0 0
182.955622959352 -36.1052253255146 -25.8794170134548 0 0
-58.9196100007105 6.86333940308288 -7.42014118871713 0 0
-6.8310844124909 8.29405928106185 -6.25571129865135 0 0
156.489479522574 -3.95885808661766 20.304467002734 0 0
-208.957766174746 22.7051832563431 -22.6274476278915 0 0
-125.031172515985 -7.20801018214875 -2.62222685551392 0 0
161.529721123399 -41.9547600521168 -8.34949994725999 0 0
139.609019688858 31.6765892772205 -7.01452247664403 0 0
57.0003767539457 3.20355965766478 -6.10114495668241 0 0
69.5525490469137 -3.50302248871498 20.0142598395786 0 0
142.214358495816 -24.9598142236842 14.0888804633588 0 0
155.14357524313 6.0601829626345 24.5086067899859 0 0
-203.340946746367 26.6613300431132 7.46724174338002 0 0
-179.780198498272 -1.69627165703473 -17.8348890167337 0 0
190.388528590168 -24.7440865671254 -0.519276128100326 0 0
129.295479488227 -16.6355679331688 -6.91833456102225 0 0
-29.6204218406841 -6.90851990107114 12.8889676082726 0 0
155.748636020461 -2.74969952898404 -14.9140997215784 0 0
-140.720466658211 -9.22806573461532 -3.33191275840599 0 0
157.044542501174 27.4378815716369 -30.1635029789963 0 0
150.926414026595 -12.9278279924089 -14.5666557079914 0 0
-25.0062144376807 -8.14833440726115 8.32663069482898 0 0
149.854552766752 33.4040350281111 0.339857897766844 0 0
154.9124474386 31.1643161810136 11.7354926574038 0 0
115.030203990589 20.0178686893131 -6.46608631087717 0 0
138.717855687027 31.5053864382155 -5.08711487766259 0 0
-212.378781929349 -6.9683409983711 -3.29945281269835 0 0
176.149550064422 -38.7972528731803 -9.27841387714781 0 0
-204.35570423265 -25.5474983317329 24.6221957591039 0 0
151.180073290905 33.3070483204002 -19.8322649843564 0 0
82.4403629685362 -3.06344727330863 20.2410055554911 0 0
145.975235807121 32.3952540411544 -14.6026641176232 0 0
150.836355189901 -25.9077218508724 -19.5489250133659 0 0
-228.489199867452 -36.4786452709651 19.0096697136296 0 0
95.9528388546784 5.284853551991 -6.70548066965934 0 0
182.787443942216 -21.0512165041538 -26.8758787013255 0 0
-212.547410562013 -40.0088724338382 23.584998490699 0 0
30.2805709908179 -3.35193519343134 18.3160741418614 0 0
-9.27815042071521 -3.34238481148281 -0.65589541085263 0 0
40.8768041574441 15.0137408880616 -2.95511257266138 0 0
-47.0279541664911 7.74509428686112 18.5470423432422 0 0
156.95868167419 33.7343968951597 -25.8249942272403 0 0
153.182185527381 -32.5865689454267 -20.726277238699 0 0
152.238546386759 -4.54018955945107 -13.1061060439669 0 0
-195.651023224648 34.1281073086644 -12.0575538501726 0 0
149.619428157713 12.888443678902 -21.9637372673283 0 0
184.037049156187 22.2882967251991 -8.81270817640607 0 0
126.954679314359 25.1409556487293 0.575728498769792 0 0
174.42633764567 -15.6122293210234 -30.7864428082643 0 0
-183.572253440068 14.0647749056459 -27.4608469481233 0 0
-172.876004941297 30.7703739619227 -12.1238728152038 0 0
117.98641109423 9.2862999027235 -7.76082990015932 0 0
-208.738351775387 2.9991123809173 7.36861020538572 0 0
147.452991976791 12.2825516827222 27.4558070173831 0 0
-14.8158091760205 21.0201668816001 6.48831544832359 0 0
-136.227682592872 9.50287629435573 11.05784620607 0 0
-121.181426012583 24.4984681640164 -6.01398716722654 0 0
180.071539261959 8.73411706151639 0.668300869934911 0 0
-165.346907875637 -17.4239431492485 -12.4059370420827 0 0
-38.4601366301376 -4.45857515562421 0.692437076058887 0 0
-216.879680408012 -8.77286048844142 0.98337381665864 0 0
-197.538141780057 -1.24769915303316 -13.8165293622158 0 0
-203.11099875142 -18.8812129105042 -13.3495425799242 0 0
-128.690124155428 21.4280159293271 7.31827530688466 0 0
120.624109464969 10.6401247583626 21.852185830893 0 0
-148.853357214468 25.6710535655713 -0.99452733364462 0 0
148.11503056227 33.6207760763403 -15.2347395736628 0 0
-36.2310247703199 6.14014761982617 -6.44773032970083 0 0
176.335587682149 36.0937113433305 -6.63960925856328 0 0
142.970309228781 28.7924280264372 -13.6498521598073 0 0
19.1409901380504 -0.206721671195862 -4.09010360258522 0 0
148.002564858764 -37.7607193450653 -4.53925796877105 0 0
-218.854259308319 -12.1290585664142 -5.49923205489835 0 0
-163.64499614775 13.2585143165251 -22.2986989798157 0 0
140.795349125601 -17.1402980533343 -9.77851090638603 0 0
-7.68391311405267 17.8542975251663 0.389386396591731 0 0
84.1633256021415 1.11573517349334 -5.76696683305077 0 0
-165.708867090671 7.15803550065293 8.78501449247336 0 0
-198.787557793747 -16.6244445426818 -11.8674721466325 0 0
52.8528308999618 15.0451032462334 -3.2493598725122 0 0
14.6047452459939 -7.4281929064199 13.6938560396908 0 0
146.465097032228 19.2417112198329 26.0251614634417 0 0
-184.772430087874 10.9785206573934 -26.9976530361786 0 0
-209.91797225336 2.61439508457339 0.35299343950839 0 0
-167.827578741363 -11.1409206584441 7.83966689170224 0 0
182.53271839224 36.0813916290204 -8.39124927064453 0 0
-158.257065097953 4.36215558394196 9.15977414902641 0 0
-165.613954415341 0.819550883776747 9.62243629097179 0 0
187.078369918761 -34.2856986210058 -4.12191348042923 0 0
-177.804842278947 21.7284222742166 -23.179749888969 0 0
135.732271872756 27.0567516963888 6.97423208352141 0 0
-102.267001498751 -2.79525800189628 -4.93320175372395 0 0
28.4034100746554 16.9677350283066 -0.775561718051635 0 0
-86.2271163390806 22.9131477867944 0.0471104031624768 0 0
-1.32911672700074 -3.22493740513454 -1.36448605737494 0 0
148.914797632148 4.71715420578838 -12.3165802759766 0 0
-48.2103100996736 -6.33051049588182 12.8428038767477 0 0
183.582962492283 22.8589028834687 -13.6918969519089 0 0
137.213893092861 2.79339254698164 -8.51627708600296 0 0
-214.545171102784 -45.4563708667307 -0.7676335589799 0 0
149.767087136293 -21.9569189627412 -16.9823467244549 0 0
16.9676247697944 -8.83608193223087 9.22963755806757 0 0
-7.67855836190403 -8.04442066775813 6.74315312226446 0 0
150.791624970898 20.3152262723681 27.0412270104013 0 0
-85.5906072162541 23.2782236101864 5.02299159421296 0 0
-101.652425192698 -7.43583208463563 5.76663649183749 0 0
-50.9959921500883 0.914894994281552 -4.41000517769903 0 0
26.8673154686455 -9.03325080243674 6.88694861747269 0 0
173.427050024793 37.2537212643979 -9.28602147262535 0 0
-198.595356851427 -12.4100125176111 13.293558476024 0 0
-150.635782560142 24.3444649668003 4.09872203116673 0 0
-34.1335880112568 -1.34499200423295 -2.24917924290341 0 0
-195.147739985244 -37.6101373899308 4.67195958034422 0 0
111.524623017554 8.14838524243257 -7.37049918843691 0 0
150.306902262486 33.6594714523594 -17.5037388772843 0 0
-216.666915152016 -6.87324738174664 7.59499545452033 0 0
-185.098054983044 8.71651362071196 10.1899725323722 0 0
-203.959704594789 -26.1523250893721 -16.4532791170996 0 0
133.514710175847 -18.1720129137809 16.346993169265 0 0
29.1532439002679 -8.90048060137644 5.94778027188841 0 0
-198.130817039826 -43.9957125484403 -0.330477618832675 0 0
-168.770518407658 29.7180132464063 -8.96846903607014 0 0
-119.669428833186 23.2775963433237 4.80242182556127 0 0
111.107430843134 14.2185931140131 -7.97481538222373 0 0
-212.326106653992 14.6523284829941 2.29668389385066 0 0
143.362602620509 -9.85953955231448 -9.0225710220504 0 0
-196.001786026916 27.696963667131 7.81813505418594 0 0
188.464532809607 -34.6713266527166 -12.4941699458378 0 0
-203.202403552732 12.8026960687936 -10.2481081963589 0 0
-104.062754922702 -4.67078776925007 10.643789094422 0 0
-51.0374922608607 8.45286102547005 18.4357317693314 0 0
-201.67891920364 -12.0445787245517 14.7883248726987 0 0
-218.251898785828 -7.91957398638071 11.5370739661751 0 0
170.408516162341 -40.5124735309923 -3.163404778657 0 0
62.7623219513358 11.6855416100285 20.7899940805319 0 0
84.6751383919076 -7.85586318282176 18.6443483820646 0 0
184.342523465314 -18.1729299124987 13.9072438705069 0 0
181.065151019994 -12.5402339121197 -13.298597399995 0 0
153.332615759706 19.2060563000579 28.7540291845923 0 0
-151.305324375111 20.649246106801 7.98654122416835 0 0
-195.64291356196 -5.80673117103789 -13.429843815546 0 0
-204.718554497938 -19.6281481866493 22.9625979201015 0 0
-204.280399658639 30.6569571176124 -14.4064182908996 0 0
180.973593103161 -28.9829541373758 7.54299330025737 0 0
140.870577635495 19.4484450478475 -13.6912559155609 0 0
-170.725656910466 30.8570092869412 -5.4243945631084 0 0
159.665889600849 -17.2306259446792 -30.5867842162484 0 0
-11.6700434992636 11.1453172625652 -4.99477261994203 0 0
4.98459715429466 -7.70228169019837 12.4745339876294 0 0
135.294694236624 -1.19013679583351 -7.44996905523806 0 0
150.721051065961 -33.6783444632732 -17.3822550184245 0 0
-82.7357520127887 15.676021551773 15.7357352828762 0 0
-127.589458548399 -8.23403110990776 5.81783095066929 0 0
16.3027233500989 16.179094544822 -1.5398833550492 0 0
-191.420580670323 29.3556407942957 -19.6090684722778 0 0
173.969448849222 27.6360504521216 20.141302326489 0 0
-37.8096516840599 -7.40778623664727 5.26186374336671 0 0
-10.0526827462015 -8.00915826798775 6.64342544594526 0 0
81.2372470277503 12.8193569464414 -6.18819180961329 0 0
150.884888516325 1.71461632785507 -12.694228831869 0 0
-67.6443652445809 18.9976858786676 15.2916617095938 0 0
-190.664963659238 24.6474758346491 -23.5634641323135 0 0
173.287648004414 29.2671314117704 16.1910238416349 0 0
-227.289977640296 -46.3655147258384 7.42410406932242 0 0
155.723285685539 -40.5906564189897 -1.3250956271524 0 0
-191.44544948197 35.1638260907963 -10.7514044069578 0 0
-156.880782294669 19.6891733024592 8.4672563874478 0 0
-21.1549047985374 3.41460065499445 18.8769275827447 0 0
-189.984264221275 8.75566676008635 -24.3706044662586 0 0
-59.8160505174031 17.9642673113846 16.3208770168119 0 0
116.711669005785 -14.4469737220581 -4.57348134706285 0 0
-131.635616153985 -7.63073639340945 -3.52200637416874 0 0
147.214109844574 28.9749542937772 -18.3271946764123 0 0
155.436230449902 -33.8577077888477 -24.4517232612926 0 0
25.6950183703822 -1.10888178773016 19.1761356299423 0 0
-149.837012036184 25.7028019018446 -5.98461651721647 0 0
69.9829850923151 -7.81302870474549 -0.562542207637739 0 0
-157.164622885337 -1.64877393148875 10.1367882131111 0 0
175.332078419463 -1.23426720591161 -4.21095309008044 0 0
147.123281929613 -17.1991273427681 20.2857947680102 0 0
-80.1762895142616 19.3242461559821 -7.07126986453537 0 0
-215.426941331446 -15.7059644389532 23.2459528020168 0 0
-234.0370014334 -27.2599594117706 -5.77712909197355 0 0
155.197951400394 24.6016729789359 23.8011202380775 0 0
158.196664407513 32.9215754996009 -23.9697913755482 0 0
-210.795879766241 17.506237554892 8.88800952736135 0 0
-186.168571700166 -23.6999247720233 -2.2962572758736 0 0
147.996585004519 -28.0610754006686 -15.4178299657932 0 0
161.32737682386 -34.8621376375349 -32.9009526860722 0 0
156.87887930621 -14.6488200305579 21.442044009225 0 0
-33.4267799382468 18.5973586806687 17.0138043166861 0 0
-213.105228109667 21.6445271563292 4.19770080056544 0 0
17.7400218405383 10.3547378634714 20.1785365586202 0 0
-219.507466730621 -29.5022092144758 -17.6523736398496 0 0
183.193535727 -20.5886864622994 15.2784256157177 0 0
180.686001663558 24.3696759425497 14.549665104404 0 0
146.525048646941 -33.6750950744602 -13.1490702116371 0 0
112.996214820587 16.0373731761656 -7.86997939414978 0 0
108.292193642531 15.4031023077736 -7.65879692119096 0 0
182.437686794274 -8.43920521195039 -5.31551593011279 0 0
-90.0150580239162 17.6727658788546 14.1497141946531 0 0
-209.439173387771 -48.6893109884596 -1.59424496766297 0 0
34.2050508875218 -9.07200072440491 12.3332338056457 0 0
-224.321210675566 -16.0397185719499 -11.6937337309013 0 0
140.990684517339 22.0964450607743 20.8747997217893 0 0
144.260033138745 28.8858327835342 -15.3005655504327 0 0
99.882442213387 0.0285511690176588 20.8371085266438 0 0
74.2409553095824 9.85470090996587 -6.88581159773057 0 0
183.494609992825 19.8979114777312 -5.39856670591067 0 0
188.755149554288 -32.3643917128205 -2.75505826899706 0 0
-202.070278165971 26.7128878750379 -20.9564307932064 0 0
137.663563387868 -5.62777227351664 -7.14359880904995 0 0
-201.235780338717 -16.5974341967973 17.4508663467282 0 0
-219.138474217389 -45.0465455623554 5.79927532135146 0 0
106.004271868554 -13.9751738028601 -2.08040413731672 0 0
154.578015454667 35.5457840584569 -18.3975440421827 0 0
-234.976334493835 -32.9906790926218 -1.57084010968913 0 0
-182.978468067467 12.1159286534134 -27.1438914907754 0 0
162.182240192 -38.8512346347473 -23.5995967783018 0 0
150.522299321185 -30.0010921601333 -18.7371566492152 0 0
-131.740203630069 -8.94450857425342 3.59169400416875 0 0
85.2770667577892 -14.5967823635522 11.4162710076157 0 0
152.75104764008 14.7993314489647 -25.6852500946399 0 0
89.8312950068782 8.34096537124563 21.5497389777495 0 0
-158.861267173615 4.25908297077114 -21.4512579358686 0 0
-209.942284779985 8.93350347857786 5.58371920424438 0 0
-167.652435657284 13.1199985323054 -23.2290973565968 0 0
168.200965048697 -37.1605390244149 3.24631202709512 0 0
153.147647199474 -41.4404119516093 -13.2213914809861 0 0
-177.620323033866 -5.91567821801944 -15.8052234615952 0 0
167.886128524226 -15.3612264320812 23.5299384294358 0 0
-18.1950262597437 11.9790126582453 -4.90981136178368 0 0
156.327337850993 -29.5480356340198 -31.4791454393902 0 0
93.6998312672376 12.4324751862007 20.5519661901394 0 0
-100.841683210883 16.4057947210234 -10.7133254461751 0 0
-98.6830014379317 23.4696209181222 3.3406737161004 0 0
95.6711003764329 -0.838258185859991 20.6792083028798 0 0
24.6809005438283 -6.58563274309716 15.550577958356 0 0
54.4993389390437 -8.92091541180942 15.6470626718942 0 0
80.8197488703292 -7.89530225379976 -1.8491617476837 0 0
42.1612721785095 2.48233464327211 -5.8230178994766 0 0
-210.82652133043 24.1829624559386 6.66273323502798 0 0
66.2380930830133 5.16582602756592 21.3321801714219 0 0
158.577030948635 -1.72585132160306 -15.0218414346465 0 0
-208.015643430164 21.7653455690211 9.44293754691621 0 0
-68.6597891690478 16.3479806825338 16.5402416282461 0 0
-140.891735738309 -9.24071063806094 5.563458279169 0 0
67.4430938140641 -9.28065810976072 16.7007221998169 0 0
-144.539545703358 14.7059494022535 -18.9472684494209 0 0
171.796060412279 5.86227200803019 17.8718819440831 0 0
-201.199258047259 10.2568441952344 -11.0098268089367 0 0
8.79034430303073 14.4314388139697 -3.05213408958513 0 0
-184.889847076666 7.69000048473752 -25.6266646033302 0 0
-76.7703468223027 20.2730109208787 -4.85441239808431 0 0
180.888507729607 11.2014105153755 5.14073919810563 0 0
181.250656756985 -18.8442866031139 18.0075378696674 0 0
-202.504512432699 -15.8364624681551 17.9836330697536 0 0
-227.84871137518 -42.8870503544847 13.6322541662777 0 0
-136.698429889143 3.91330176589813 10.8054264260018 0 0
-79.9021883306367 21.0771261358705 -4.39804147575718 0 0
46.6707589498471 17.9102508571927 16.524228966382 0 0
-134.341913030043 -2.3631427882298 -13.9268691901563 0 0
153.767965470027 32.9093801875456 4.22627130478762 0 0
-208.720127358235 29.6232193211423 -0.63045375074713 0 0
181.266937139661 -37.3951859236784 -11.3758226430822 0 0
170.251773231294 -2.74295076560788 17.97177110189 0 0
169.03880105664 -35.6144033136695 4.98843743753269 0 0
-104.297238788313 20.6894424505171 10.5852313567025 0 0
86.7161497999659 -15.1638725502985 6.44226876774011 0 0
-194.615865792704 -34.1209181016735 2.59391513203474 0 0
175.514613609773 16.886879176594 21.302235771094 0 0
18.1071074937694 13.9662132692808 19.4490115658912 0 0
6.87883618723277 1.75535991812286 -4.67620835039484 0 0
158.532934654908 8.37693338913661 25.8177227554514 0 0
-95.3081674545227 -1.75155529606731 -5.05623144220012 0 0
49.2918575682863 -7.52179964805071 1.24298700001136 0 0
-0.517579853973054 13.948288980272 -3.43799051898082 0 0
111.535603358252 17.0981885655086 16.9760701179177 0 0
176.623744407101 8.37702754571051 -7.93088810169585 0 0
-210.811608522883 -44.9855214661336 19.217530629005 0 0
-62.2817436444335 22.7340650876525 9.12714904242566 0 0
-142.610216249963 -4.95046641644656 -16.5787794899152 0 0
170.915382641764 21.1471454268484 26.1012804620326 0 0
158.331338054869 37.6805805757247 -1.57418746543103 0 0
189.887520687711 -21.4803416241181 0.0734486040434442 0 0
-198.424582709189 9.61297246329619 -21.2226091052422 0 0
-138.835121680356 16.6680533151277 9.62656921367197 0 0
-195.189274741388 35.9069325313308 0.0875176384828752 0 0
-196.890432380532 -43.5883612463657 4.53220130619197 0 0
149.35304741143 30.1499885148333 10.5198732758101 0 0
-114.212272239122 21.2716536404984 -9.99075849515033 0 0
136.815369471684 17.7811712234851 22.7712311100409 0 0
-90.5591629518893 20.4838558226037 -8.19183833438809 0 0
179.66067604658 28.1345097477141 13.0346175888159 0 0
-47.9481503727769 4.00659468375968 -5.70675893123696 0 0
-189.873430247895 35.4787112043013 2.16678807510563 0 0
61.8814536995012 -9.02962421742397 16.37610761359 0 0
183.86438864625 23.7949375438458 0.765647718422115 0 0
-191.696719857892 -6.5065455300421 11.0684456524382 0 0
-128.028820456382 21.4878946282153 -10.9883827269172 0 0
151.711189818195 -33.4399537142857 7.21037683767008 0 0
181.419657535693 31.7117856578683 -20.6655791175443 0 0
158.370176594713 -36.2325474707642 -27.3572956389813 0 0
166.338669684524 32.7309502114003 7.93266791724635 0 0
77.3709521337924 -13.0562492105296 12.6584328963621 0 0
140.89246046872 32.3149438985897 -7.9869695108444 0 0
-90.7711444356771 5.92648147696776 15.6069378158596 0 0
-163.701488637632 -7.36992525734672 -20.4166607557609 0 0
169.518573031174 0.059783296281009 -6.0830215280886 0 0
-116.505874694768 -4.97152354459334 9.87854142024421 0 0
159.119006816575 36.4435160933244 1.47679098119084 0 0
116.851800774728 2.01774104350292 20.96199169435 0 0
-90.1960005008821 -4.10889339741552 -1.91954736640735 0 0
178.4316543047 -28.3014974591764 10.5483493216164 0 0
158.501208310569 30.6326897866036 14.6887321541289 0 0
-60.1843107672655 22.5758007190532 6.17362495191945 0 0
116.789650576593 -3.86754070860908 19.8810760437074 0 0
118.409543982642 -9.60956122883036 18.5362680817588 0 0
-198.874996579562 -4.06389526692844 12.8655981407512 0 0
-203.147722102987 11.6830275128532 -19.4803246352831 0 0
169.386113287353 -16.8820320891179 23.0837520380715 0 0
164.967943673364 -12.2206238347128 -28.2215688235138 0 0
165.150027975386 -41.3179477130633 -12.9947602148134 0 0
163.070590461441 26.2848199892024 -31.3203948632147 0 0
-14.9827364807928 -7.63228210036425 11.6205245053368 0 0
165.60882922753 36.9184396423239 -27.6516437552084 0 0
126.4806985522 4.28409849610099 -7.31649442439263 0 0
178.822793800655 -37.1956334382262 -3.7482028519864 0 0
104.631435374928 16.5949519318259 17.334553076884 0 0
184.172565125509 -9.99895296608611 -4.59877801972669 0 0
-197.046945486219 -24.1354116515193 -9.76881690518996 0 0
-172.304028408579 21.8235210205537 8.69087277311378 0 0
164.920680133322 25.5457409402094 25.9840655274556 0 0
-61.610718441139 10.6891913383065 18.0539254589655 0 0
152.39767035519 36.2801200515243 -2.60567409367474 0 0
175.006809877946 -12.9804911342791 -19.8821116667834 0 0
71.5642837024118 9.24983023138977 -6.84703951290645 0 0
7.23767092145607 -6.60265001093068 2.39192441711425 0 0
175.700850467744 -39.1601478664598 -4.72348690200811 0 0
142.305170451524 -15.8387007865191 19.6820303797852 0 0
-212.947645069663 -8.8173689168943 -5.66139879588977 0 0
65.262382774246 -4.51301948593344 -3.23106685642213 0 0
-217.83728530707 -23.6079422170058 25.9347967509647 0 0
114.586677321331 19.9686261012717 11.7329011379315 0 0
132.040694368619 -9.13746922024092 -6.59939792665386 0 0
172.495266012563 32.0619123244268 -0.0773299804007315 0 0
-219.096484427377 -10.4429043747389 17.8189474009802 0 0
182.504645446677 -36.7363117046507 -9.51760655056663 0 0
-207.255096896161 15.1100364926841 11.0965029552628 0 0
144.587089849596 -27.4783937386506 -12.9612294858561 0 0
-194.299386639814 -32.3942612046828 10.0649542887688 0 0
-88.4224257363183 14.2674238957977 15.693911653633 0 0
165.663832338075 4.10806315727381 21.4047937471745 0 0
140.22606513726 -6.14171703565559 20.014983917629 0 0
165.454069929982 -1.41836549174966 -10.5742697330932 0 0
173.986015578736 30.4992514324264 10.0564226631523 0 0
161.347229831875 -35.6039133034097 7.22701345894559 0 0
101.239711912509 11.9981281058102 20.8300549140434 0 0
-91.9767740587443 11.5419813338345 -11.2378783493016 0 0
-213.208380982152 -6.27310885276126 -1.02328258916277 0 0
-214.743556130471 18.4105123047857 -1.60624088736003 0 0
182.314446284425 -37.2750865624969 -24.0697507348701 0 0
53.0807494940065 -9.91072288072175 13.6369368566925 0 0
90.4588485450366 -12.3926697131507 15.639224176759 0 0
165.281768947522 -5.47146093770956 22.0934143948696 0 0
-228.008031230404 -33.3215553524308 -12.4830027468032 0 0
-44.650535321401 -3.85176040846249 -0.00630062797505059 0 0
-205.754339123135 -31.4152516994715 25.4699089503623 0 0
151.133071048073 30.1631684412348 11.2371698067578 0 0
-200.198774792222 33.1540780509153 -3.81582987354103 0 0
82.0853661040614 -11.9405344177048 15.2266847083 0 0
24.2816389776917 12.9001583305478 -3.9172081365371 0 0
34.6522827422779 9.13816877523629 20.7677860287236 0 0
132.160116139199 7.24879053766168 -8.60430113968179 0 0
129.400445830124 6.28776803552556 -8.00080354698392 0 0
-115.152803805069 19.4298082066216 10.1746441247581 0 0
25.7532465808884 10.9377884969465 20.3338827617472 0 0
-96.1163046884485 14.236050412256 14.8213349930779 0 0
187.265143430458 -24.7302707057167 7.30538994925336 0 0
-190.947608632523 17.4536379816392 10.5738364017082 0 0
176.88481190674 8.376989503871 13.2306297624445 0 0
43.3248408040878 0.811462921572122 20.3852969354353 0 0
15.0681851819677 17.5113500981303 17.5354400086502 0 0
154.377351715747 2.55499480970538 23.107313245047 0 0
-188.42950835669 29.7851370439536 -19.0186024104738 0 0
184.615339159012 -31.6740998372643 1.57165411971929 0 0
-207.486730521071 4.79572773945098 8.38847218890756 0 0
-185.928398764647 16.2906500232514 9.69465410352836 0 0
-4.29925662471162 -6.85087544697441 13.4352349001516 0 0
170.939722514059 7.96257937482195 20.2847248021454 0 0
-175.320146240831 12.9752865229792 8.7133427692839 0 0
166.398786073391 11.9061681434104 25.7288266577317 0 0
135.523178207669 6.80888078728825 -8.99506538241447 0 0
148.237449524118 2.73205659247484 -11.5378612748989 0 0
120.61463977237 5.56282809896658 21.4787888470347 0 0
-162.308186021551 -7.04257536684194 9.54923104379558 0 0
-48.120524195338 1.32561590157999 -4.57944369277384 0 0
-218.312880654884 -45.0617540832436 7.97397101764195 0 0
54.2253287324641 -10.7695949300849 10.2879495018889 0 0
82.3470493054483 10.7624634185248 -7.22470873484364 0 0
-64.33695920333 -7.32578955630188 9.12875642538755 0 0
141.984484100398 -13.01448632 19.9858820709543 0 0
85.2576749056971 -12.8238550269437 2.78249626424616 0 0
-180.86638962972 29.467688823121 -18.9827262522509 0 0
173.210644040471 -1.23753686737337 -5.04587750078071 0 0
-192.22661383528 33.7047865310705 3.18023210979534 0 0
160.622940072907 2.61948454067332 22.7834993384467 0 0
-197.530092293441 -39.6251933216552 -2.38772679660019 0 0
116.150446238144 -19.8361666361359 9.25430171077766 0 0
118.038339747264 0.765212861912014 -6.15055993077769 0 0
-52.8261399633956 21.0738835120814 1.93302986113803 0 0
175.453770214276 -19.8196702952695 -32.5874788738665 0 0
-177.438337593058 34.4655513064922 -6.66346231748004 0 0
163.763300022398 -14.2842530214869 -30.4396939357241 0 0
-200.421998508389 -18.0271917696802 17.2674898118708 0 0
-214.90576055745 -7.14478265080298 3.43314520282646 0 0
167.339473052589 -33.8191471124448 7.20134717413203 0 0
154.961493499683 -4.46280504814137 20.3181847825627 0 0
159.582356927799 9.56867942551643 -19.3255238959061 0 0
157.537470355387 -39.6639883699491 -21.428989980007 0 0
-100.665499947954 23.544287245878 0.896854234430319 0 0
-43.371055108653 -7.87075054591037 7.57510272140041 0 0
-116.881621253695 -7.68262052943457 3.12461575439386 0 0
146.29808702651 -18.5587652215867 -13.1110333546787 0 0
31.7965660649016 13.5955097074844 19.8085933701478 0 0
-128.684857723297 24.8610618456591 -4.52843510119291 0 0
179.898587384542 -24.328200994966 12.9832646851364 0 0
-0.697930612824676 -2.09302323228843 17.4021182670944 0 0
178.758513347929 32.3510701412299 -1.93986564215815 0 0
-37.2316165892942 18.4832182550086 17.0339090320845 0 0
117.845560445768 -19.6867235566603 -3.13723253268928 0 0
131.788426651836 20.6507760953851 -10.298438142656 0 0
-4.36597878631988 18.9197146211965 16.7730239162335 0 0
-206.310544630858 -17.7390333355118 22.6160484237998 0 0
-145.896507838681 -10.8630608306442 -5.58275596701488 0 0
-203.419390142662 27.9683646425122 -19.5007648653801 0 0
-9.47390391881161 3.62769739160818 -5.33071817413124 0 0
165.05180356316 12.4578156527563 -24.1421603167134 0 0
129.275909719118 -14.577521608991 17.4832012055515 0 0
185.978119652665 -24.8487250362518 -23.7283278142715 0 0
-162.047621996779 4.20799490774268 -22.0356278850696 0 0
90.6588712680426 4.17726061483886 -6.51569447635615 0 0
173.020641309333 -40.1930271860464 -18.3073341822324 0 0
155.300246587233 -39.4925122516622 -20.3197570779247 0 0
167.676372118074 -1.19347509837538 -6.72795034228495 0 0
132.940810044648 27.1448321616234 1.57765149240903 0 0
146.898991964969 23.9914929249188 -20.1625102358201 0 0
101.504818416484 20.1097637258228 -1.4672879235547 0 0
-52.7676913147714 2.26509445921969 -5.07625849634458 0 0
185.428239971706 -30.7075067249831 1.90019996261467 0 0
-31.6710012421027 11.1448966118797 19.0273606664649 0 0
-154.19050347139 -10.1588755197959 5.37439186545812 0 0
132.096827816558 -11.2209956968429 -6.68379482443464 0 0
-222.976581643679 -18.6487024502507 -14.0846729483694 0 0
-230.780738058632 -26.2802650567296 18.7001724415797 0 0
-235.221377936873 -33.847113103494 0.306474146399897 0 0
166.193251278812 30.3448544985816 -31.0413315099658 0 0
-205.563956896676 -5.02115134709097 -10.0604729454177 0 0
154.564476157822 -42.2913154532042 -9.73350062702015 0 0
-205.647502765062 14.082933076453 12.1523690393581 0 0
-169.944303488339 -17.8466574141453 -9.29135609525321 0 0
113.052372301596 -20.791032249965 4.98747084477793 0 0
-211.537340077986 28.3335002329977 -10.9199688573673 0 0
134.751169038954 23.2184454068175 15.5019118859074 0 0
-207.724899058711 -33.823867046825 25.6000665988267 0 0
-148.301044229977 -10.9968809900521 -3.57881893557931 0 0
-168.924355390823 -16.9863794327491 -4.00084431191677 0 0
-205.848163064689 10.7862018064359 -6.45995129305989 0 0
116.053358953402 -19.5073479948156 -1.89813364116162 0 0
151.94828059443 -22.602327923014 -21.9301669620952 0 0
153.88430990489 -18.2243943018391 20.5436962028922 0 0
-193.902548150152 33.0416193995118 -14.556065244979 0 0
149.273411670908 32.3706056341535 2.11318824935411 0 0
182.455741172874 -19.4573260682746 16.7154378382859 0 0
160.583316295977 1.23427803744527 -14.5101438038832 0 0
123.140731766677 -13.1484577387999 17.4665187338593 0 0
-102.342093752919 -6.42429014475347 8.68888847044878 0 0
-167.831193091704 23.3306011547125 7.78157400120728 0 0
165.396787283092 37.4624906906077 -24.7727807549493 0 0
32.789470316177 0.787991980450078 -5.21278076055278 0 0
36.9495270145819 -4.33227250436188 18.1079640352653 0 0
-118.642268941579 9.75599526697107 -13.9427226653767 0 0
57.1876505180294 19.1628400507914 13.5742908996901 0 0
-59.904062534389 6.00433160117169 17.8152466124817 0 0
160.303244339148 40.1668581035391 -11.019348585182 0 0
183.30752256657 20.6095433553453 7.09383862411464 0 0
177.765279843906 26.9654281040672 16.8202285775454 0 0
-61.2428066213722 6.04885497871942 -7.16900673034587 0 0
-184.110349701423 3.94019634647241 -20.1350907172345 0 0
161.2905318476 -24.433160337385 17.227930595345 0 0
141.365748004318 7.13495412365906 -10.4479311604048 0 0
149.204541069873 -35.8972378184561 1.21014114937039 0 0
182.758301430765 -32.2575035306395 2.53861346008071 0 0
-182.568723866829 18.1769738686591 9.1818155364037 0 0
172.489110836413 -38.8743765104521 -26.945361196509 0 0
-219.798630808398 17.5757623506293 -13.3923520909832 0 0
176.877520361592 -16.554640124799 21.7416187352835 0 0
-217.030515482376 12.234854375734 -17.2760603773499 0 0
157.203738352089 39.110116844114 -11.341306750643 0 0
139.419774914065 17.3260435119675 -13.1107428449562 0 0
144.775370869217 24.8541551570501 -17.4027574568155 0 0
-214.590613496904 -26.7948251128952 26.8060076838907 0 0
145.678113552735 16.2743616453097 26.3369125258483 0 0
144.489413585247 26.1940780176153 -16.9210297820311 0 0
143.786122266142 -2.1256527980045 19.7221391422343 0 0
