"x" "y" "z" "f" "a"
198.746564488339 -32.6040127812361 6.33147329217198 0 0
198.020522845225 -25.7935721716551 22.481664037049 0 0
105.524596272719 -24.8238482624714 15.4678029444585 0 0
-230.331663305156 -13.2527852033368 -13.3467674824052 0 0
-43.4539590857674 -1.69877777792519 20.0153143065055 0 0
-206.748029334615 -38.5809194283842 -8.09088387507745 0 0
0.497014843068147 -12.7013576199355 -2.40417869057004 0 0
-183.168743401173 21.3245324294457 -6.38008141939713 0 0
204.08547800251 17.9314292269379 25.0561618112104 0 0
-202.650865934943 -9.75769821985709 -34.2321290014081 0 0
214.396083978347 43.1950121287288 -13.2676697020359 0 0
-180.830088611563 12.6323643843485 6.92483624032863 0 0
36.9856866008913 -7.11656083284038 27.9930166801348 0 0
167.989020434647 -28.5902679683845 16.3968261200467 0 0
-201.168611342086 -7.19792774765769 14.5475386562074 0 0
-126.816841978127 -10.1896456469761 14.8579991243536 0 0
180.088360808772 43.5745118246315 -23.7640266774954 0 0
216.657760512054 38.2572249134445 5.53038480419303 0 0
-168.533899180869 -20.392147879458 6.03674905391445 0 0
200.28714492165 -32.5383138460041 7.82546885177836 0 0
41.5405647467819 -16.5484454538831 0.625790715196967 0 0
-197.206381923981 -30.2603967470157 3.11383254718469 0 0
173.960293828102 40.6223517059372 -13.0202024302498 0 0
200.33109707919 -3.49656522126387 17.5221101580514 0 0
0.544633219882029 1.03454605995298 6.66555497066792 0 0
-213.591469641782 24.3605191534498 27.4274364878277 0 0
-194.576192733546 5.38051819860075 12.7842211828728 0 0
-208.818529846797 51.6816665674829 14.4590245899452 0 0
171.188439300806 -11.636512499685 -25.0816850240973 0 0
1.01937670033382 -19.3287900618523 1.89653345795829 0 0
174.987439340736 29.2971399600644 -23.0984267256938 0 0
213.479809819002 28.3667795692206 -19.501875987113 0 0
168.112254460337 41.7124254777134 -8.82050156645295 0 0
27.5386222229123 2.6166518526637 9.25281244100051 0 0
-28.335104950263 1.54755244165435 8.32672880316651 0 0
-165.031868133494 24.2469213988104 -22.8893582190762 0 0
170.671234612964 -14.3991136101039 24.5989664956114 0 0
170.994546400388 39.3776165681414 -1.193575909573 0 0
-207.918273861865 -37.2546622509157 -15.0590335239757 0 0
-208.292036698065 48.9859872901747 -5.73084913053936 0 0
30.2117281415285 -0.0595419348736379 1.19672464791487 0 0
158.29421973051 22.8168562085278 16.1821121918288 0 0
38.8057087731097 -12.0688958924794 -2.21066327326031 0 0
-227.915817752189 15.5584902150349 25.7987362864011 0 0
-96.560524482336 -26.5751092639705 7.22840288267568 0 0
201.683410432906 -32.9522436356642 -7.48661331455714 0 0
-180.603940643359 -31.6824496724729 -15.1305215043303 0 0
-50.1149201532508 1.73937233492338 9.60137959509206 0 0
176.381012871234 27.8600532133021 -25.4360104794742 0 0
-216.926717176411 5.1761611681656 18.1783896495948 0 0
182.647852561874 -10.8080320989129 -37.5538044794453 0 0
-135.079006192541 -10.8857337672618 13.609812034467 0 0
82.2296389747811 8.82304663622857 22.6958620180831 0 0
-97.3671394317706 -24.3513822334038 -8.69216079063867 0 0
203.982749302128 13.151363604985 -20.8733896478219 0 0
121.620515406742 12.3910193924139 24.419783400991 0 0
203.822078059139 -6.75255131108812 13.5759941441586 0 0
-178.514872801058 13.8162386058879 -24.1768251322619 0 0
210.404194341558 -22.8494739559263 -12.0633912069826 0 0
-99.4358631928529 -3.03040902552821 -10.4355535501368 0 0
64.8706074741425 4.27585323793271 7.87659865006578 0 0
102.618710271679 -12.913815131556 29.0190816804446 0 0
-227.441248394304 31.421845774427 -18.735605325856 0 0
-65.7780119433637 -25.4195468355973 -0.929449103027859 0 0
208.802185750193 -22.4163708297702 -31.0780807211597 0 0
-131.271139438636 -27.3083619559472 -2.66758533044537 0 0
12.4136362669018 -14.5687619624509 -1.04077914168485 0 0
-223.969138397654 -29.8205190596917 -13.5925078361927 0 0
103.086484556261 -1.53200325616188 -3.01168266420982 0 0
-66.8300121316543 -1.76848343303885 17.0396830988368 0 0
-165.555772518399 -23.2854795385332 3.63519814370248 0 0
-66.9654452609366 -26.8391181397134 11.440966952446 0 0
171.17554256259 -29.1136130355189 -24.7679150600259 0 0
-224.933716900872 -14.6600664067019 -2.19078998521335 0 0
205.578904955838 -30.8653874497762 12.7321903195026 0 0
178.026398253385 43.2920428870595 -17.9464080204567 0 0
161.540065567267 -27.6927919880303 1.97916444627167 0 0
210.454677478445 -21.7931359295823 -9.13034186518018 0 0
-186.589026034655 14.0489233731552 -15.6027323560824 0 0
207.508228963621 -5.65683280231862 -5.00175400189291 0 0
-126.932771324094 -3.18055913801052 -15.0501288699175 0 0
77.2522237917881 -15.6560512510494 -1.09249659236907 0 0
205.522534455555 -20.8050002670103 -35.9131547527999 0 0
173.414904523758 -7.04886202757197 -24.3408041415364 0 0
-242.523970041757 19.4048943038059 18.4907422672614 0 0
-171.035996705944 23.7229938235346 -23.9820042795471 0 0
211.337818989428 -20.8206866670715 2.32553958371897 0 0
-164.229083867124 -25.7812985779775 -17.1974121872567 0 0
-175.261989669865 -30.952047811753 -9.33073618970704 0 0
-105.434199721259 -14.9725666336827 -14.1530019175908 0 0
191.784216781493 16.7573288941162 -30.6796290706429 0 0
-197.443880088071 11.9256552550414 -13.8717203681987 0 0
-54.2083185983776 -0.274682725992686 -0.178579847740631 0 0
-58.1891183268535 -19.8555721898842 -4.28887879089644 0 0
-127.073872090423 -18.5307264422158 -16.3001125202389 0 0
-234.352556307137 6.3852836599469 7.32711904517088 0 0
-173.470585141207 -28.7173869328267 -2.38398560089258 0 0
205.311511316574 -7.596465198298 10.7046009934858 0 0
-145.201922415782 -27.9331486951532 -7.46103319605454 0 0
193.787423513588 46.2074830047499 -11.8816284410114 0 0
-226.136180299156 58.7368099829303 12.7290369607438 0 0
198.434387424703 -32.5053680800686 -40.0392122545557 0 0
-86.3992591443414 -15.3100669437647 -12.1397662458923 0 0
41.0370026317578 1.74900020400088 6.37359550860224 0 0
108.554618496222 11.5945144829585 9.59531171947308 0 0
-220.452630681673 -16.3419328868695 9.7978422328172 0 0
-203.861623549235 10.4397731948299 14.3266090224169 0 0
-209.863306088855 19.3756478567353 20.304839655239 0 0
131.004279982302 7.74466053808312 27.5058517141287 0 0
213.67635270997 25.9300387352583 -18.0564688418582 0 0
-129.595268673982 -26.9597242146039 -9.64710228067386 0 0
-174.835945481194 -9.24553777283803 -28.0481034307025 0 0
136.957134586413 -14.3772378322849 27.7090645622376 0 0
-206.494106937911 49.8368413831498 13.3592705055022 0 0
-36.6675835702344 -15.8154937133855 -3.15371528731627 0 0
199.777348921915 18.7506722289958 -29.0210858017503 0 0
-54.6336969320206 -16.9175565950581 22.9917902223435 0 0
188.117439169091 7.8906618588316 -16.5535965618328 0 0
40.5712989580674 -0.296757836391738 25.8367088875541 0 0
9.80770890818964 -21.3666138034914 3.99557410850565 0 0
-233.533194252135 8.12764975348801 2.8038636817857 0 0
-150.847790625739 -23.4295330726938 -16.5692432486998 0 0
197.73912456666 45.2719032380445 -17.7315911746828 0 0
156.320235992586 26.2315724191982 -4.39260065030113 0 0
203.731779032304 -9.01358186453089 13.3202842457821 0 0
194.819505327018 15.2100362653471 -16.1951342655699 0 0
-206.628221173952 23.6655920985063 -12.9029173987715 0 0
-79.3003709400918 -12.0011078103631 20.9020515898059 0 0
-134.572860958119 3.00328661082213 -14.3240115332203 0 0
-125.541700716863 -23.451888606137 8.4521101359135 0 0
164.881525957996 39.5905051575908 -5.10850367280087 0 0
114.662711031107 13.7673427349006 11.6992619063284 0 0
-54.2334953344705 -4.76848387784846 -6.72823894991436 0 0
62.9084179909593 -1.97606658359565 27.8716095979276 0 0
152.191812154326 1.58338425862985 27.7750644463359 0 0
111.166638715789 -1.8563636335231 29.4018418998291 0 0
112.014567775507 -19.4917797745865 25.4047204553793 0 0
31.7948161302259 -6.74744849275779 -6.02751450019115 0 0
144.397086865357 -0.832398803209506 -7.55888931624928 0 0
154.512225335132 8.43264633769472 -7.4412993814498 0 0
-8.83927392764399 2.03017049532362 13.3855338892602 0 0
139.539576772666 11.4606881801899 -2.9423023718516 0 0
-8.21208023517093 -24.0093156939055 5.16406272272744 0 0
137.208705563701 -19.0577421170494 25.6088268540755 0 0
182.410322132154 -6.32480405128188 -31.7450668752888 0 0
197.536819213349 0.289036224119701 -10.5554933551732 0 0
-220.092383397776 -30.1269245169909 1.20178662348468 0 0
210.597288266571 46.3884184028349 -15.2024131356449 0 0
129.732042710467 16.3940729389685 20.6653415719588 0 0
195.796793782791 -34.3441493852031 -7.09806517068259 0 0
209.816721473275 10.3003664085652 -12.4256036516762 0 0
-122.457466806367 -10.0073276353368 -16.600853034942 0 0
174.439976801487 6.75072971142405 -16.6959436267315 0 0
-74.2309305896669 -25.6340500278983 -2.16804372979681 0 0
-83.9572963214534 -17.260985200324 -10.7744460066308 0 0
175.870822153584 -37.1629490585161 -17.763110152319 0 0
49.1226320774707 2.05917151834417 6.16320073407288 0 0
196.278294468589 -5.22632968173423 -33.0690330005051 0 0
52.4928133921962 0.544520309954404 0.882201788811253 0 0
191.776584329514 16.1219634249787 -25.7057785683344 0 0
102.480626267833 -23.6339903592556 5.91633331349537 0 0
181.288234706108 -6.82875603600579 -33.8680437614891 0 0
-84.6592523079224 0.895707864998644 -4.24606505917508 0 0
-127.875740999353 -16.1419063193156 13.5474049302288 0 0
205.857206154382 36.2539491875308 7.79479031938851 0 0
180.213542985736 -6.78825635641254 -32.5523180466832 0 0
183.192410428089 30.2243545778948 -32.6424675652163 0 0
-112.938922695157 -13.1247727054668 16.5254732768501 0 0
213.738752615654 44.068283912654 -10.4294659525521 0 0
-189.05241253044 -35.5498628842642 -6.95676486137167 0 0
-147.314500625749 -7.78778601340258 -22.3813851692704 0 0
-131.860391547986 -15.6539265778052 -17.5301483933008 0 0
50.4653114040948 -17.9837211549575 26.8781492312791 0 0
-150.275237727316 -21.0356403092187 -18.4008960177475 0 0
205.992366992861 -2.68733662761677 -9.89695067526704 0 0
-11.0742136995863 -22.3355006437472 3.25147746622289 0 0
146.769990642944 -8.19766004324396 -10.2833640560311 0 0
169.349607851196 -29.3736936028125 14.3358476135074 0 0
118.524373504643 -21.9287078836385 0.658597774063294 0 0
-141.536684217319 -13.0006110961974 -20.1499010884077 0 0
84.9662095946767 -21.6895250027923 4.00124333734689 0 0
204.121592281294 -8.83135760993372 -27.6573435576777 0 0
-179.900551198654 11.1075268028526 9.41527446323959 0 0
-101.007240403171 -25.4295640004692 9.90567653966493 0 0
23.9389020799516 -5.01980677130967 26.7120395741066 0 0
191.270858763134 24.9136450870054 -34.4533677340914 0 0
217.76422241363 27.324487912702 12.3826761516924 0 0
107.815167220369 -17.7858540146689 -2.09752401165463 0 0
-243.487476831302 35.4546860116141 22.4509698345505 0 0
-29.2615242487281 -23.8459448818048 20.9877733899579 0 0
-163.822604602602 -22.5569201228005 -20.5372601197783 0 0
208.76903463641 32.3125851190806 -27.5472514122388 0 0
173.190780948743 -32.613767810807 -1.67778547079983 0 0
-189.943776912926 -12.1384211040324 11.3484243338016 0 0
-217.028767447295 -24.9033843943579 6.99667137598659 0 0
-202.987258054857 47.8724344500547 10.1158999019897 0 0
-64.667287960694 -0.00569717132842406 15.0749952677531 0 0
181.648111165686 9.76445326739539 27.6346320584194 0 0
206.535018074043 -32.9300882254371 -2.18945887431476 0 0
183.567817501193 -2.06224843105258 -23.0285240570807 0 0
-67.4895830695645 -13.9792934802427 -8.4034965622396 0 0
188.61951643179 -2.6042072828706 -24.9990736247356 0 0
-84.9757044663029 -21.727721202144 17.7873094260919 0 0
-128.481100327654 -10.4585891521665 -18.3331316552157 0 0
-115.329593850129 -11.2335748787263 16.3196520036797 0 0
-115.250944847156 -25.8191144045062 4.61906693635735 0 0
137.148257235882 15.0581430365353 23.3229450115823 0 0
127.044604814798 12.795072920044 24.5389906509448 0 0
-169.716790149849 -27.7253429662138 -1.5088590967644 0 0
-127.311467444802 -15.2386063850739 -16.5883883406555 0 0
-231.28621250565 -19.0298734688492 -8.96500394015697 0 0
-214.587301634382 -25.4454638445291 6.61724227621901 0 0
-72.0991804068347 -0.67604387313157 15.2607098628284 0 0
-236.179873666726 8.95957750481051 10.942421811682 0 0
207.595638218124 -7.31190083246833 4.7109244629106 0 0
102.042531694998 12.7967749076088 17.1594138452021 0 0
-219.325898990309 -12.9076705520845 10.4409656198214 0 0
-177.649677717918 -28.2223307477158 -19.9405387858807 0 0
-123.303943862475 -27.5593802018362 -2.72810850807843 0 0
200.64436821107 45.0110523577214 -30.6210306006434 0 0
165.935874121181 -10.4556541401503 -17.6818274958532 0 0
-196.988370161601 -37.5577070686384 -3.36287795611706 0 0
108.904792002124 -9.59001561485901 29.6010069576509 0 0
155.494430838257 -11.5080035528504 -13.5687660645443 0 0
202.701880999308 -32.4465788364152 -5.73994902281927 0 0
114.056863644501 0.712799541077435 -2.93470409095567 0 0
-112.886103754736 -25.4440246605343 -9.85560276386579 0 0
-215.499290205548 19.5662892015494 -15.1292947177166 0 0
-38.6681383782837 0.919882028328682 15.2485893987912 0 0
-161.83011881666 18.5845203020271 -11.651642558857 0 0
-220.149616887635 -3.02870851837442 -24.7073356597651 0 0
59.6220313063076 -11.0713151774637 28.7879878023111 0 0
170.874071337208 13.0239840636636 -13.8454785016966 0 0
-198.079769757188 6.7517031623814 -16.9413209529319 0 0
-217.74710250121 -0.277662051702655 -9.0873531562862 0 0
142.957923512938 -24.0648854326479 -1.62489476736964 0 0
186.237647282411 26.329859805733 21.1335356308374 0 0
-157.482296780453 16.6129434833838 -11.8558199047308 0 0
-8.39159529892929 -27.1027915580881 12.2885446403858 0 0
-226.364893706192 16.8523229933635 26.9997555732133 0 0
199.437564183994 30.3091681810037 16.7587072360728 0 0
-207.285831993771 52.1577943552498 8.5610294254901 0 0
-205.841508771497 39.3238193411586 23.6522896480123 0 0
176.398189501613 17.4418061817166 -19.1416797515272 0 0
214.981940850541 16.5310371947866 -1.45936012753431 0 0
196.735442267409 -33.6262558760274 -37.8777662323393 0 0
-20.7286011304586 1.13060598438258 17.0563248297376 0 0
-13.565103635372 -2.00428701261785 -4.73430270779236 0 0
102.267041418474 -24.9879678812655 12.1842967120726 0 0
-85.0478804873225 -10.6506571575592 -12.7708716709742 0 0
-220.028725084075 -28.0323434915693 -23.4003579509288 0 0
-248.850360598443 30.3341073922263 12.4216179781709 0 0
-135.096741810859 -9.64872744583567 -18.8943108386325 0 0
203.183048785108 15.0724381222515 -23.507888250065 0 0
-15.4228998424037 -0.212570024565409 -1.53796912159806 0 0
-224.831361831734 54.4834189157836 7.46391970805356 0 0
193.410813765448 19.003997846223 25.5182635028486 0 0
131.853296276949 15.805163777231 22.048361616889 0 0
192.399557106603 10.8201447681591 28.1373967238759 0 0
125.878941735035 -4.10711351922095 29.6932999528054 0 0
-199.518121583807 20.8365895917355 12.3184641620092 0 0
-220.237948834019 -31.8496133934491 -14.1455894653211 0 0
129.464844549666 2.75308577687332 -4.11892250341587 0 0
-37.3443454989524 -21.1932968379851 -0.44193763905454 0 0
-219.495695073249 -8.3753546011032 -7.20939401340481 0 0
-219.819989679904 -9.57806390864544 -12.0631118249705 0 0
-117.04886813629 -26.8310471466099 -7.80567634695346 0 0
203.59320990982 -6.57964672422082 -24.4394516618274 0 0
28.4293530253429 -9.54815903413064 27.9544927082133 0 0
-59.4228237778329 -12.8602326922096 -7.18961373206875 0 0
-162.423784353977 22.5175273808803 -11.1842753924018 0 0
156.840757516947 3.65526070007421 -8.87153145906511 0 0
110.324464070353 7.33955635015353 2.72208063917644 0 0
188.281311354281 14.5574976649529 -28.8691336236018 0 0
-224.098627984711 -24.3651567767504 5.06498363549999 0 0
-34.0827895059989 0.104301219145467 18.140346240629 0 0
170.180557294951 34.5662098550025 4.97672053701541 0 0
182.356790966399 44.5215612120935 -23.4392363335994 0 0
138.132677083417 11.0070145563381 26.1870988562121 0 0
149.861964130071 5.37027413175785 -6.83415111853607 0 0
87.825235945555 7.84086762657964 24.8541515191679 0 0
-122.830828788568 5.69581462542653 -3.54803684745088 0 0
13.3608217831045 2.94269663202093 14.1609187034604 0 0
-129.993864748726 -10.4295669843424 14.3608925112181 0 0
164.575287516494 32.1323896807703 0.823033143542242 0 0
172.794011932617 -21.0741931439253 25.5366226751353 0 0
-79.389394044835 -18.8226537029494 20.2218199333456 0 0
-63.2197529328925 -26.0147284975301 0.512946574814777 0 0
144.740596908573 10.3517913508818 26.4561260757565 0 0
-48.7775259849089 -24.2834442941372 0.581280966184787 0 0
-210.382639927436 20.4885968419201 22.8040097310915 0 0
-78.9103397108594 -3.90255142229654 -9.07142337527592 0 0
102.637362116869 -23.9810915754928 18.4433832480868 0 0
-155.178766867134 -0.1587155078329 10.3531034712901 0 0
147.378846588706 -25.8123627080094 4.99958059868369 0 0
159.040513372991 27.8386952330175 4.40296639791895 0 0
137.897032134825 13.2530653910103 -1.36424365927869 0 0
209.536679603391 24.4498786980617 -24.3223854154883 0 0
189.374317330431 -15.3961307225527 24.5226192652178 0 0
203.578756303279 5.47891266664701 -8.36533138275853 0 0
170.391020091866 7.96188920805568 -12.2632649340293 0 0
-230.321292449756 12.9302813078651 22.420429584014 0 0
153.036381739579 -25.3512011872727 -5.76734642956618 0 0
-200.463873379109 -32.5530733749334 1.02930261202983 0 0
-86.5077360001147 1.07688339237688 11.3831307444772 0 0
112.195144845808 4.64623851923024 -0.765744945757296 0 0
-87.6458396089586 -17.2665992021743 19.5073466985783 0 0
-67.7680516015828 -10.4278025633934 -9.67468910121574 0 0
-166.221841268357 25.0382854915077 -17.8227529325544 0 0
205.832800036784 -10.6326555387222 -26.9761636892827 0 0
-63.0035751021381 -18.9429247899771 -5.63211475343644 0 0
123.077170437459 -5.24762976197029 -6.40481728151683 0 0
209.715525887868 11.4028689866367 -13.9600913530807 0 0
-74.2471938366428 0.187110764069122 -4.52494302031474 0 0
-237.426875714388 35.6965251919398 -15.0312445147075 0 0
159.032210645604 -24.4453276154993 21.446215470031 0 0
-131.379376219476 7.36126650007136 -5.3227560733628 0 0
213.286706144216 42.771579497417 -3.97197436799737 0 0
-210.572446538123 25.0925499994915 -12.2247035271956 0 0
-203.183420461114 28.3439610378309 12.7932737766459 0 0
-210.589940238089 8.05580012157871 18.176803508046 0 0
-244.357842537849 22.1299884644219 18.0641993066278 0 0
-42.1115554742688 -1.11493606052531 -2.18586491553789 0 0
-205.620584303938 39.2493829375512 19.2059215979657 0 0
-212.060722021674 29.0315035637889 27.7073169990427 0 0
-151.182922559772 13.392956320145 -14.5788242899296 0 0
-108.266674867142 -6.73348604181473 16.0821134240955 0 0
211.500346041629 -31.9376367017249 -20.7724633388832 0 0
-149.072911848645 -28.0475757114877 -8.67079731331324 0 0
75.7912130572591 -18.1513221163228 0.735051775030788 0 0
128.389340236099 5.8173250502375 -2.61115326572578 0 0
40.6290742343124 -5.46437487289472 27.8360122129408 0 0
213.642616820269 38.1109481440639 7.56301801721661 0 0
-160.895555194642 6.10326056452797 -24.1769076790362 0 0
-218.910033832153 55.3560624006065 -4.83069465428095 0 0
163.517848467707 1.13008327078768 -11.4414309053232 0 0
102.926119312319 -20.6040467382695 24.0924765261718 0 0
184.285976928476 46.1930717706532 -1.74078417078011 0 0
-37.8943156069035 -25.283633078827 3.3833752989042 0 0
192.109483351842 -32.7184980235888 -31.7339448765069 0 0
124.436882951427 7.91470043730629 27.2421510493747 0 0
-224.336379861374 -13.1182249961105 -0.673153517301469 0 0
-217.970028234641 59.2883618435555 7.59568335411076 0 0
-193.421633900835 -38.180261504229 -7.38615641208246 0 0
-208.673252466115 50.7045989815238 -3.81307249322504 0 0
188.924200235733 -37.5576121472993 -23.7004612909642 0 0
-44.4976131857802 0.919094395090863 14.63391154718 0 0
-225.677082484159 -15.228860604477 1.56531943814512 0 0
-65.3865262033387 -5.63533780183134 -8.5180553111695 0 0
212.135466354293 32.2195736033414 10.4958061964356 0 0
130.068021480228 17.8898442086601 12.910799090916 0 0
-45.0195169751356 -23.9139903890579 0.777772966473788 0 0
214.374660928837 36.4724391055662 -17.9545527597997 0 0
-224.870878317805 -16.9020415083937 -26.7857604052476 0 0
107.845234320172 2.42100059586889 28.3887733895713 0 0
-45.3279450552255 -23.5714600085731 20.30791694925 0 0
216.326214997064 22.8473356796069 7.73299636061319 0 0
200.313908081864 -31.1619538527772 -25.903046310047 0 0
172.227670001293 29.3134588886575 14.5722935984001 0 0
-177.511993796296 10.3378848387105 -26.7136869056704 0 0
-186.093853727917 -9.99784299148353 10.5489840858652 0 0
109.741858981832 -0.329619926886524 -2.9323022961847 0 0
111.185072348715 -11.6960555750429 29.2313582401338 0 0
-171.474260468281 6.37781389328088 -27.1270821451276 0 0
98.5641392910711 -24.4322426437713 16.6985873566776 0 0
-139.949167123751 5.90582997366716 1.97968295833902 0 0
172.918997205356 6.74263594306352 26.0860765096158 0 0
-211.567375792043 36.6217931540293 28.619611957712 0 0
112.469394330165 -16.108789604105 -3.88046961611547 0 0
166.60924466958 -30.0862716771273 -18.3200959021913 0 0
187.926634135062 -6.75253832765984 24.1399932203599 0 0
36.5439266164024 -22.3788586935256 6.36998588714429 0 0
203.440389094095 20.8366901235738 -27.7293469247567 0 0
-238.732222487097 15.9288420373622 -8.0024253299225 0 0
3.55404819392411 -16.3765151280888 26.4667248476445 0 0
168.415910809594 -4.0709212173061 -15.4243059988255 0 0
171.620634586737 4.05940753178561 25.6399979632622 0 0
-184.131686067785 -4.50852948382948 11.8588809986398 0 0
171.453711937806 -30.9804586079346 5.76684929615022 0 0
-221.223326322511 54.92678184488 20.2187192526538 0 0
-110.738954187036 -4.88394436938383 14.8404104758379 0 0
-4.79167320576132 -11.2350373356126 -3.37228974066641 0 0
198.845701517228 15.2948871331522 -15.0375963981568 0 0
132.045228415281 -2.83559930752706 29.5422696638834 0 0
170.767034804498 -27.9517199962704 24.1595681524101 0 0
-146.202422335422 -17.0288054328005 -19.9659565289559 0 0
-98.2918672496173 -20.1165379842163 16.8707013438821 0 0
-181.43339726378 -15.7661429866596 8.09014565014126 0 0
149.04729992595 17.0365021403655 -6.73728295026803 0 0
174.486080288978 -31.7273471637685 12.0782595446694 0 0
-205.948610146178 5.31651051978792 13.4492476137064 0 0
-30.3429279517917 -15.0409824984342 24.9918834747351 0 0
-69.9053314117587 2.02684355799246 6.97821586760718 0 0
104.325328623795 -24.4516886564642 16.9881137061393 0 0
-203.01297863147 41.9755706816286 14.436312483361 0 0
56.0346078496581 6.29836453947242 16.8545379770299 0 0
-236.401665904109 30.9562795437153 28.3010853726786 0 0
-116.225003281278 4.44238843397144 -1.83706172000327 0 0
-94.4398103296399 -7.8131218073191 18.2893694400882 0 0
160.972940192141 -25.7886665118653 -16.1768496621166 0 0
156.581565246797 -18.0698213170088 -16.6858491915559 0 0
-152.214757715487 12.1962665357697 -17.8387154912268 0 0
-219.974606475592 -3.3339890730947 13.638815350874 0 0
-53.4262088233995 -22.6903826425601 20.456181898489 0 0
217.073311074394 26.7383305096376 8.17507923038931 0 0
-207.910054217345 -35.7256652976019 -18.9942358185541 0 0
214.21425041489 20.6088483335405 -12.1620276607794 0 0
171.16349023136 33.9965340211651 8.04423509641374 0 0
128.549390001199 -20.2744969583421 24.7165460264418 0 0
-182.843811549003 16.6196596033177 -15.8680799269704 0 0
-185.724857489171 4.19243975842489 -26.8429643442523 0 0
-11.5263694685463 -1.96499437637924 -4.51472730053893 0 0
188.229862019286 -33.3977034089546 11.4661746727787 0 0
217.234000537401 24.6856805230865 13.4780627174882 0 0
-118.67878453626 4.65374354686112 -1.23850226798345 0 0
135.262511370271 10.8708448749009 26.1933817467843 0 0
111.587963503649 13.726405730217 20.5448087760514 0 0
-217.683774145432 12.9360688171898 -12.9034556023087 0 0
199.849693297195 45.771002653196 -6.23530866485067 0 0
-227.422606849753 5.17720372982593 1.61118461484177 0 0
164.330755182978 18.0162255930696 -12.538853833473 0 0
208.745595665658 2.02338390562298 2.51647742455685 0 0
-11.6471072051524 -8.57419152275465 25.4394302045638 0 0
52.0645211830994 -16.0220695256575 27.7744836553816 0 0
-71.9794123597039 -8.07075895993185 -10.4932710329251 0 0
-232.702585303533 7.723148703914 13.8683590434542 0 0
-124.334882695591 -5.87381590400331 14.2842795862415 0 0
-28.2897461608398 0.446851039290703 18.2663835494158 0 0
-168.270833811395 12.6989936632909 5.32759075865981 0 0
-227.466872883233 21.66805440439 -14.452336665189 0 0
177.410544858844 -20.9511108323912 -39.4267038340651 0 0
68.3941921654831 -19.9880987358224 2.85490891404387 0 0
186.130821903413 8.51655247365615 -17.6566806402417 0 0
175.349741193947 -7.27608940979331 -29.8907423191683 0 0
-226.617185147191 1.07629820358674 11.5900067834462 0 0
-221.193701322306 -15.1549106592641 8.49777578857486 0 0
-199.675239172231 26.9128054639753 -6.76944025056171 0 0
-23.350635697256 -0.804209023729318 0.208315200792656 0 0
-223.523292328281 -16.6487322685146 -28.3571920579494 0 0
166.848843060832 -29.0830139211617 5.05481420149393 0 0
169.011191590707 4.17085447502864 -12.9333382408856 0 0
163.722227726835 24.1079286045467 -10.6010723140383 0 0
209.766723130116 29.7786202468065 12.9526705708044 0 0
-242.42540228284 51.3466454874418 3.4877067729747 0 0
-31.4467728788601 -4.79169566082039 23.0948739366811 0 0
142.688168037603 -11.0380307308956 27.8860465406268 0 0
-32.3017762532123 -20.627823755019 -0.132070248446486 0 0
-183.265248710491 15.5377521024422 4.23429667160993 0 0
-220.753997197819 -8.47591903115845 10.6430210151817 0 0
-177.477402744908 -24.4121601226116 3.03077989222423 0 0
108.151548173193 10.0104967722841 25.0426734194249 0 0
102.811557721825 -14.8144984576694 28.3567366356014 0 0
21.0040798154637 -16.4683856704043 26.9764138858952 0 0
88.8946263788604 -24.0783594204238 17.2704658459431 0 0
-210.755662313659 -10.242037076393 -33.6253889852291 0 0
100.512582320867 5.23612835929379 2.5062363163676 0 0
61.1496902561426 -24.5063569492459 16.0623398096909 0 0
188.8339024692 -1.55375339169608 -19.5446685399855 0 0
168.436469163623 8.66866492853768 26.0304988344794 0 0
185.296464397769 -31.5152309495279 18.2648584526101 0 0
107.482961077091 -15.1621036202526 28.0930649342037 0 0
-201.366222880825 45.5446981579097 9.46918247892875 0 0
-224.955677533658 7.70900269005077 -5.22298910614924 0 0
33.4989041625873 -18.5700152729725 26.3820571713546 0 0
-205.54310845012 -27.6686503293879 -27.7830891913373 0 0
192.567443025615 2.07050082656768 -13.6490448417816 0 0
-197.59929931547 -18.0488094705335 11.9228698003532 0 0
-99.1444899034024 1.0898489725278 9.996106911813 0 0
-80.2071551692822 2.3925339669337 7.70668976829818 0 0
-230.64025228495 -11.9382096489772 -21.7577129371198 0 0
-209.250921917478 -1.45418406201959 -14.2642358235557 0 0
-226.905834937962 56.9578649714697 16.1822800793307 0 0
-188.041138533526 -34.6855361562649 -17.3176448103512 0 0
168.671355328522 9.32248458630699 -12.9938696476446 0 0
159.172212039548 -4.96894692878726 -11.8007413524595 0 0
188.810505346063 13.8140969770683 -17.0751989517421 0 0
125.814694706471 9.31914626854162 26.665570062871 0 0
17.3214935052951 -25.6747110284053 17.1026774787988 0 0
-197.52730245541 26.5904539534151 6.29589298818679 0 0
-23.6909161266212 1.15270534127125 16.5400812333417 0 0
-213.106498114802 -5.48731373558199 -10.6758862500119 0 0
-135.768657663776 4.71754620105231 -11.5146296877203 0 0
-71.3719808285972 -20.5468308086351 -6.5235039091393 0 0
-146.765290539216 4.24682855643039 -18.6887486001999 0 0
-25.551421859465 -8.70474743435524 -6.44433120990903 0 0
-32.7023394504375 -0.977514615538607 20.2242532961215 0 0
167.046832293037 -26.4338112358241 -20.7404043875689 0 0
194.581682427714 -31.2867584534926 -30.0702103091052 0 0
-153.112377196824 -22.2457632283241 -18.0169416440864 0 0
-185.535011500507 2.48793709293997 13.1855624540519 0 0
196.073476291679 24.036256876708 21.678962084836 0 0
179.162027904276 22.4979190702155 23.0388755045357 0 0
-193.229881103734 -35.797745859169 -0.891789495210867 0 0
-197.621034038303 -16.4834386606108 13.0470939437616 0 0
-223.926265642398 19.4305120365397 -13.7617113410196 0 0
-198.554617074127 8.89002680028911 -15.3297520422069 0 0
117.572663992938 3.5461918358035 28.414184510821 0 0
47.5035417545135 -24.2176883608863 10.465424262101 0 0
-5.97917828479171 -22.5904382554473 3.97044372465195 0 0
-153.221794740126 -7.19156282193652 -22.8334739481299 0 0
-75.1199249602491 -23.8380467653924 17.0086352139805 0 0
-215.952888914501 -27.7366549602719 3.50616930609422 0 0
100.287945067292 -22.4067327377325 21.5131514957089 0 0
-169.892008640341 -29.4716972210433 -12.3776338868001 0 0
-229.693853871965 39.0654466444111 30.2813442164677 0 0
-221.311531196524 15.4520221362825 25.6811448923834 0 0
89.1478586172485 -11.4420982379325 -3.93445641869098 0 0
-54.0078144160624 -15.675254615273 -5.26182184189113 0 0
145.53069042697 21.5383350844299 12.6975213591568 0 0
150.456892161899 -19.9916994478472 24.4812399022229 0 0
-153.665588414844 -18.6996022225975 8.54270538863995 0 0
119.498019645134 9.68012667466043 2.99909714416098 0 0
61.3724212520256 0.181315268802153 -1.56205576151359 0 0
113.732911381054 -18.4580345601202 26.2553060012003 0 0
77.8965445888558 -11.0930142540672 -3.65024303635305 0 0
-159.631462611816 18.0423948728406 -11.8069949451534 0 0
-174.155388393995 -28.8217269070652 -16.6537573535709 0 0
93.2034973349932 -24.0662105708627 17.5008275226366 0 0
-173.691889777421 24.9443241976808 -21.2066449090439 0 0
179.116856071658 30.4690211497692 -29.4833709537589 0 0
-129.720301418286 2.1639814411414 -12.6527546220228 0 0
-216.648802794104 -11.9523864864615 13.5362990800905 0 0
175.91087587643 38.2745698758424 -19.7338412700117 0 0
143.938431117376 17.9816946681738 20.5804488579353 0 0
-149.162201119174 8.76684675564185 0.132026950275589 0 0
75.3706174035774 3.68048026781234 4.76883180205326 0 0
-189.925853551877 -16.4760719627578 8.96762916003456 0 0
70.3818984189307 2.11252108794754 26.7111727703787 0 0
-93.603481537048 -7.83784713067856 -12.3037536944514 0 0
-207.865529809815 42.0621761762284 24.2014275051116 0 0
181.89883666198 34.8754319766038 14.7232827593367 0 0
-173.752293245128 7.89330401762764 -27.6556957641338 0 0
37.3992516342736 -10.0138147792058 -3.73931057290521 0 0
-213.037741459296 -8.63000404775338 14.9844617785646 0 0
99.4745960983982 11.3564677089573 13.0667172949276 0 0
206.201184023919 35.4203106792778 -29.643346057741 0 0
80.104750889742 -23.0816965620025 20.1477709177508 0 0
187.344456893044 28.3028413290433 -34.4452750515644 0 0
-98.0133957457321 -24.1425517048353 12.5776615305073 0 0
-140.716107738741 -27.4660626388863 -3.63587944041564 0 0
201.838721036201 26.3308255655186 17.9551309402073 0 0
-157.672836553612 6.70306623713461 -22.3376588810357 0 0
211.283693292379 25.4937997106472 -22.2381518056967 0 0
176.296248367271 40.4772514523756 5.71925189172254 0 0
-205.570112805117 -27.9850665407527 6.54753506449441 0 0
216.465560511905 24.2703831043896 10.3862324707161 0 0
21.2780983854651 -19.2077017843495 2.33077036856454 0 0
28.4301230355897 3.78800918980176 14.8129868677162 0 0
127.188494135585 -14.9390213872459 -8.25005154876858 0 0
-160.687786584628 25.3219261612162 -11.5774782904002 0 0
-227.753145475019 -3.23906399250423 -26.5343011828663 0 0
199.833996108567 23.4895351707541 20.6022217644702 0 0
-227.370856063923 6.68943629142788 -2.09152905844524 0 0
-78.2440497101099 0.395741268277461 -4.92491237127877 0 0
-226.322463439481 -1.46250280655224 4.04497324809443 0 0
198.966110505824 -34.6344730679707 -16.0551643642659 0 0
-232.492210201166 24.4327910358037 -17.2466394589762 0 0
87.1209540161188 -23.3345179265871 6.72043175947027 0 0
159.128816335113 21.3918708891519 -9.06296954830614 0 0
-153.807381391756 13.5455467520456 -19.0254615508788 0 0
-46.5675535133262 -25.6836323285474 2.84026396570922 0 0
210.026653544465 7.85267296301009 -8.90293506284181 0 0
78.9729946463685 -18.2300772048047 0.627646249431385 0 0
-208.331433305246 53.1848721535779 5.67641265178545 0 0
156.309411401111 -4.63376577484727 -10.9527724840409 0 0
203.815738493876 -11.5650536491536 14.1971990441575 0 0
-227.532011406869 16.3131775295418 -10.2906225913642 0 0
-225.45704120342 11.4609030563848 -8.0597462339609 0 0
45.3563923780656 -12.9699137353055 -1.71265763673797 0 0
176.258896605294 3.35515065109102 -18.8811763254683 0 0
-149.514457521643 8.99028347381563 -5.27236805753036 0 0
-150.748275162977 -2.27226110130074 11.0159476110535 0 0
-203.896295420738 -32.8738865711197 -23.1233037047653 0 0
210.670622095727 -29.6357710783792 1.27842690871925 0 0
-66.8395418983098 -0.0138509846827885 -4.21725831684239 0 0
59.3773968870364 -4.62724610245947 28.4230918216771 0 0
-26.4236709198401 -8.64038285630832 24.3918659626473 0 0
117.94288497632 10.3932902861358 25.6414868210069 0 0
-82.8867889908063 -21.0207949411462 18.6326393653911 0 0
108.342459760775 -19.4562534883529 25.3520364339055 0 0
-181.249607820348 -31.2906580881359 -17.4231657733456 0 0
-201.698160431908 42.8839536592672 -3.79188259372459 0 0
81.7508939661486 -22.1770320715998 4.9664041604613 0 0
152.27438789417 13.7232280100394 24.4141082127655 0 0
211.128915382278 41.7529927641189 -22.7971425618927 0 0
62.3232705209648 -24.2838823905443 11.3987326188603 0 0
-197.325643520687 4.52535145257564 -18.433834993835 0 0
-214.658902860447 49.6275573871526 -10.8085311890151 0 0
-170.774669394729 1.87485360543403 -26.9652842425892 0 0
147.464233223015 -18.5837279150958 25.4663111458103 0 0
59.7626574853337 -23.4378305498079 8.50154618621 0 0
-118.297033367826 -16.4202780726918 14.8316136520375 0 0
-31.1619696640209 1.7012376147341 9.32937680263012 0 0
-213.730492163394 -9.84429424751916 -17.0633884662342 0 0
-240.937276708038 17.4306021721763 18.6345698805995 0 0
-201.924860943913 -32.6042010498428 -23.5039235597316 0 0
-189.724954768768 -11.4883503408745 -32.9827354790429 0 0
181.161341700043 -36.9416947821974 -11.532338761926 0 0
-134.98571452419 -17.9388151906755 11.7303385419217 0 0
92.4217354589475 -23.1831554204906 19.9497525342382 0 0
-210.116800536816 16.4414897509457 18.2839007490844 0 0
162.771756942139 21.9449038153893 -10.5860866802541 0 0
118.306611347692 -24.7164889213084 17.4441857463937 0 0
-109.648000420922 -13.624087292533 -14.5367017126273 0 0
62.3691042967373 -9.3993713567473 -4.21189947581116 0 0
140.604710536303 -21.0867315438664 -8.77895554681192 0 0
171.98102091923 16.4152973707131 24.4277003364962 0 0
-125.784960987408 -25.249937672054 -11.891697193376 0 0
-212.180672782078 -15.3275440456771 17.0938997712986 0 0
10.8783088815054 -23.3100363686669 22.210092848499 0 0
-137.777678027683 -25.8734690410936 0.71758913105696 0 0
179.12375938713 -37.6687020095698 -17.2479469381073 0 0
-80.2803986446596 -21.6600355144379 18.4680619895342 0 0
192.053538691312 -26.6565192094094 25.1972112820708 0 0
-175.506008238047 14.541216953982 -25.7622189704474 0 0
-97.0464842273549 -7.46592781664364 -12.380456206586 0 0
-227.621896868234 7.58152609984372 16.4662471418942 0 0
-217.222974764268 31.4943696757211 -18.7338087157935 0 0
-220.491998360575 9.97440396463766 -11.2387773281259 0 0
-101.649186180698 3.1127054694449 -0.604929656539381 0 0
-221.746277571738 55.3857548587583 -5.77173853141407 0 0
59.3436233815717 -22.0461975852589 5.86361722649675 0 0
186.582352427996 -5.75819552063084 -28.751171932821 0 0
154.878151369807 2.21846980851757 -8.51597156435828 0 0
173.578720683002 34.7296681426451 -21.6168100494173 0 0
197.472994367596 45.6325733411765 -11.9726549443182 0 0
195.268617125334 -32.5054355119077 -31.8576559570508 0 0
207.757871715437 21.4443250788673 19.8966926612459 0 0
-216.175207825217 -3.64112854315752 -27.0729682724176 0 0
-171.129498324736 9.15291147286965 9.35782302904509 0 0
-216.588944539872 -2.05342188454013 -9.57663777148329 0 0
-212.291589002822 18.9604385902817 -15.3746474932669 0 0
120.969049590808 -18.5436176876442 26.1554996303051 0 0
-89.8464285967427 -2.96288472615743 15.6259035246462 0 0
-193.60178886965 -26.7472484576466 -28.9713180523042 0 0
-53.4960863427639 -2.62160062820261 -5.65181982653789 0 0
186.586717401367 -31.9007701774842 -31.0738947367386 0 0
210.414103470096 45.250512791203 -10.9146404480911 0 0
213.184723470632 14.901350411416 12.0037688568614 0 0
149.854863794443 21.2267659183159 -4.78459704593704 0 0
185.710690016107 -25.6421971263382 25.7654371050541 0 0
197.554046213169 3.55970592999851 -9.63618056141222 0 0
158.407880477636 -27.42961919636 -10.2002102730484 0 0
170.449449388099 -14.3274151270677 -30.2613644916078 0 0
-231.486911445137 3.77438546307172 5.10202520523266 0 0
19.9051423854977 -13.587974233505 -1.30007684674387 0 0
-228.278500141303 -7.84467731619305 -15.5288354477773 0 0
-181.672852727428 -4.48404832031208 11.1740653538676 0 0
69.7307693123282 1.30836981029054 1.15648986001049 0 0
157.66086107788 2.00442380350416 26.9965541826744 0 0
172.330313239922 -29.4876266987758 21.7181529590694 0 0
205.505562742991 -0.400121871401955 -9.67555939276288 0 0
-170.735490201419 -18.4739486965197 7.20373584161002 0 0
166.701298147179 -11.5364132795416 23.8674394651717 0 0
140.461051113544 -18.8362218799329 -10.8004057071067 0 0
131.624577217499 -24.6243267047912 3.69320343106519 0 0
207.241279537902 -32.1307081636822 -12.9492735612125 0 0
85.9691993954739 10.320171603459 17.4862256154429 0 0
198.873764983524 -30.3882345951959 -28.9201431214535 0 0
186.519553816927 17.5349390702399 -21.6740710799989 0 0
107.826733532495 -4.27437792912181 29.6239654573498 0 0
-92.445183143535 -27.4414598037535 4.15054688414431 0 0
209.266865367951 -18.0077415773323 -27.540057113076 0 0
-206.183215708723 21.3500707865248 -12.8241850095196 0 0
-44.7618367763589 -10.9402988641729 -6.2602420926668 0 0
183.797808737516 -37.307253109784 -12.6330253854014 0 0
-53.6028687014985 1.51053920194475 12.0998553347315 0 0
208.23573204156 10.1530829590628 -16.9182771672144 0 0
-198.315629616538 18.5101515212386 12.5739180847946 0 0
140.118500967975 -23.6467832745438 20.722364035314 0 0
82.0348822438222 -20.7911241803635 23.9878478002013 0 0
124.186450079342 -21.0475124270772 -1.63164046770603 0 0
207.988976157139 -16.0006624129377 9.3241447092773 0 0
181.339141282213 46.9976057978476 -10.8291412533773 0 0
208.041193294464 -13.6785156201277 -19.3762962257469 0 0
125.758554407844 6.98428518258651 27.7210399166643 0 0
114.836465495889 0.114336379432567 29.0812998158206 0 0
-221.54453866767 -10.4738425467676 8.49164735269816 0 0
101.137156763721 -18.5496517450336 26.1844145362859 0 0
-220.49264038716 4.91313367215832 16.0123491744074 0 0
-109.453663251468 -8.53392309534333 -16.0938579140951 0 0
98.922792179001 -10.7198978668951 -5.19633835060653 0 0
61.9692945739898 5.95245416484304 12.4971996791773 0 0
177.577089017872 -11.7902928554638 -36.0061679079426 0 0
-115.236595419215 -2.087717563058 -12.7740283503272 0 0
20.3006581385369 -21.6055273437998 24.0462875531302 0 0
176.960348841188 -6.09798018623193 -30.6638629522701 0 0
84.5836657397123 -12.5646821885588 -3.20244140017082 0 0
193.705514020166 23.8790164091731 -33.934136479099 0 0
189.176093192402 -32.8141254441603 13.7414873937412 0 0
173.849829319239 0.142736656189304 24.4407854044615 0 0
-231.876956869532 49.1835536297101 -11.4067516897117 0 0
-143.713474055871 -4.26056009974691 -19.7592699102071 0 0
-207.732479987048 12.6420646183732 15.7415071085367 0 0
-186.858015282682 -18.7912899984853 -30.8835378656264 0 0
64.7963003548034 -23.4364520682497 8.38002877568008 0 0
4.42018352957033 -24.9242874936828 7.9745360857597 0 0
194.164322753283 -30.6785165960403 21.3298991082474 0 0
-178.728877264838 -16.5391674714991 7.75789258472617 0 0
178.514158873763 -30.1216200247209 -32.3807536296819 0 0
-150.500087876269 -0.179249998355171 -20.0408306840816 0 0
-55.0585587236341 -27.5368163579113 8.25501918051174 0 0
120.035399185569 6.08047542258887 -0.998566221920646 0 0
-76.9844488475315 -2.86393626231568 -8.29266819005989 0 0
133.236307639894 -15.4528574822547 -9.5413287460192 0 0
-142.360874170628 -13.0685457891259 12.3379639406606 0 0
165.61311849234 -28.0379776941453 14.5338898323219 0 0
-88.2321604735789 -16.9382746448797 -11.6783055403167 0 0
119.727929256968 8.33129274788131 26.8994031046836 0 0
179.273695332502 -19.8756597206906 -40.4267699707385 0 0
212.487679793469 25.7613197545587 -20.4294764875755 0 0
-120.716667372597 5.13614521812668 -2.95765531425374 0 0
-199.371236601724 27.2085955249808 8.2708067201373 0 0
197.662703666505 22.5639735753571 22.0474865268245 0 0
157.949181138666 18.6799641125675 20.6401382364404 0 0
27.7099074646593 3.39099098056899 11.9278301909001 0 0
-80.9752836792725 -19.2758547290051 -9.23830284329029 0 0
-38.6672915356202 -0.799069199999856 -1.20541233069876 0 0
-125.861745408296 -16.5749293903704 13.7442738215862 0 0
-209.404327417181 53.7890724059604 9.05110602669288 0 0
-2.7871711902934 2.05082288048328 15.8752743950349 0 0
4.07688799986516 -26.4680395084173 14.7955246243608 0 0
-117.647478695869 3.15181347556671 5.87051687536845 0 0
149.48963473286 -13.7788989543981 -12.6128784821278 0 0
16.1540556537132 -17.6257138834944 0.874930914265608 0 0
149.369662054562 14.2197797057099 -6.70994424423978 0 0
-234.38036891073 36.2207949805749 29.1695377497115 0 0
29.1360456802539 2.88327848633367 21.0733627255018 0 0
190.547640867751 18.9689023727688 -31.4297902217291 0 0
-203.950969604393 -22.1568583457669 11.091399230298 0 0
-128.936758846767 6.7621794139441 -5.20141051253722 0 0
-168.364219071582 12.490274524442 3.18617899221447 0 0
-127.823677026102 3.07698586687408 6.52727962578405 0 0
184.266683699669 48.6183293247423 -28.5578434367508 0 0
137.205775099434 18.5541824187211 18.1189584842165 0 0
36.1078444000733 1.05636458765566 5.09344875911594 0 0
-197.322253105364 -28.3757384040162 4.30100894026995 0 0
-205.14545035443 35.9324793698873 -3.70580334535303 0 0
-147.430695097367 5.44335259472398 4.12973276056403 0 0
152.627379508993 -23.401542309134 21.0935111658823 0 0
189.95634252805 39.4756929624622 11.8374484847896 0 0
131.455344008036 18.2421222901115 15.093688991019 0 0
-7.54266459227639 -7.82448362293694 -5.54105139165944 0 0
160.997893346342 -21.2368297837567 24.6388228468867 0 0
194.445006718162 30.0586293933289 18.103012542706 0 0
197.10186310647 -7.80687379383237 19.7291621074765 0 0
-157.560097153721 -18.2465172176024 8.41904500916219 0 0
179.878019791225 33.6787334239896 -30.1368559435298 0 0
-162.499512726309 -21.3127989107564 5.39190680674773 0 0
168.626625091516 22.0305948690919 -14.8807470704392 0 0
202.155328498925 -19.2102152391782 18.341232403362 0 0
147.188879275933 12.3357977048223 -5.52834894539997 0 0
178.079780775484 32.9625432569209 -28.3810655984043 0 0
-121.041139702949 -24.6752300600367 6.28155470278557 0 0
140.744360391173 -0.0918592740759869 28.9942860848849 0 0
-145.833176495473 2.82989420294872 7.96965911400591 0 0
141.937254220968 20.2633706581773 8.28293276120991 0 0
-103.855207656919 -27.1506241373197 -4.52000311881298 0 0
-208.73445129469 37.2229238236474 26.8926242060465 0 0
197.952143702358 38.9407350855258 8.45318435837011 0 0
-187.395644353735 11.0466142265576 11.2231312568477 0 0
202.78862330217 13.3627241698326 27.7432316903362 0 0
-168.218057982163 4.78613187889156 11.5322221677485 0 0
-39.8845671168149 0.159292102688618 2.34084766377307 0 0
-67.2341699588779 1.8602523451353 5.72608400046497 0 0
206.592982040373 -11.1842188774465 -19.4622605115081 0 0
-9.18165034525618 -24.7973108484271 20.2761353938195 0 0
168.331768166949 38.696798013247 -11.3548482884887 0 0
208.201171335726 7.95773268097487 -17.2770336072787 0 0
-181.116867892852 3.45151127391814 13.0080335912424 0 0
165.947516183369 -30.0164164994775 -9.89123608581701 0 0
-231.495801960944 3.98746491111069 7.55155572635083 0 0
119.748067810901 -7.32788426855843 29.7823257422161 0 0
-171.939177963722 -30.287200106112 -8.79374585003096 0 0
-212.514171972229 31.8136512562194 -15.6863704085958 0 0
201.842534520719 -13.103567104352 -36.4285982170643 0 0
197.654105934814 7.15105312668141 26.4869569724417 0 0
-89.9571622860233 -26.6213444863608 8.15874374099583 0 0
-124.438868765506 1.23726978448361 -11.8525132650812 0 0
214.127566294733 15.8813073755257 -4.12782275835926 0 0
169.885898621463 -30.8641391402252 -21.829411999463 0 0
210.705994351823 -24.8588487650487 -1.74452546693644 0 0
-202.783229560459 41.4539313496154 -3.05910562088977 0 0
-222.195033028245 -4.3321272619974 11.6776844542683 0 0
198.837296392292 18.4741925421734 24.6058891275254 0 0
-205.050169152962 8.09584853652219 13.7960071028371 0 0
212.749150868465 44.798331843833 -15.3326412314784 0 0
173.222105682902 -6.91666992628455 -20.517778523901 0 0
185.901637532246 -28.6646113468277 -37.3056035352728 0 0
-219.202598964335 -4.57268866876636 -6.37710217476574 0 0
-185.847184416388 -0.240691799295669 13.1548052749276 0 0
-137.589728283256 8.50458932276758 -2.18722453869203 0 0
177.917179058799 39.6424152890235 -19.7578679498451 0 0
-229.923974099789 55.700460093989 18.7086215176985 0 0
206.762041985767 -20.8152223319661 13.4497378845163 0 0
-112.832075648485 2.09084286480381 7.86209347848824 0 0
-235.643347101125 23.0910704268199 26.7907338407348 0 0
-146.322920880581 9.17594309132952 -0.457025692412854 0 0
-173.248865525832 -27.1276379518691 0.218492255847704 0 0
-217.132618687334 3.26013222441713 17.6572536733711 0 0
199.791279465582 15.0927602696419 -26.7960689937385 0 0
165.990411335877 4.40406067935998 26.0331525856513 0 0
192.000233828167 -13.6717598214415 23.5621021362582 0 0
-165.023118913765 -1.89854886583054 10.4363712050058 0 0
178.791846129407 41.6499777266071 -23.1975086217249 0 0
-86.4519353238892 -18.3966296641165 -10.6710513757025 0 0
-201.830342336691 19.011712214949 14.5096660140137 0 0
-117.898798069062 -3.12248686511483 13.2442551015995 0 0
-174.829372112124 23.0230381432237 -23.277110825943 0 0
100.591618123333 10.3209287103643 10.0335372374201 0 0
-166.999848436073 19.3621310098526 -26.2036549909677 0 0
-248.631053785477 39.1499325993665 9.3862635657493 0 0
-89.5479489475693 -7.96497817747249 -12.2259364474444 0 0
-212.161293774666 3.04558008109861 14.9434376409108 0 0
88.9289608848976 -21.5989842410533 3.499914648892 0 0
192.377480701471 -18.4244423216808 -42.940106797592 0 0
-179.906198560265 5.56302944642334 -27.1943374998881 0 0
206.740853229074 -31.8167029833013 -34.1932177864115 0 0
171.213578997668 -10.1114972919201 -22.6701817522722 0 0
-143.492620798476 -0.0950498776679021 10.2160989644686 0 0
205.407473616667 -33.295579245985 -18.6228224055082 0 0
11.7074438802309 -7.88303658138034 -4.98733971629291 0 0
-9.99615376557193 -14.5928817256312 -1.89294280073659 0 0
112.038494103104 14.2065818189238 18.9245980213724 0 0
-80.6617974334117 -4.56549671939462 17.8363777655169 0 0
-173.341157302666 24.1466095979135 -14.6694141074435 0 0
50.0804893981609 -10.6233451264378 -3.57895588141428 0 0
174.944213535782 -34.331947404691 -6.26113731946619 0 0
-243.678747376603 17.8291133314455 -1.19936999290033 0 0
53.1837360156923 -23.1009153146799 21.5429557943711 0 0
210.628800744239 -23.8988166987671 -3.80833620198782 0 0
44.1772684118286 -8.74821264030077 -5.13975331969215 0 0
130.52612489558 -14.3891457054893 28.0321767558389 0 0
-221.84498269825 28.7306088540347 -19.1452291460797 0 0
-225.248248613527 -0.433762724719513 11.7207605531489 0 0
106.258766399593 -20.78296110343 23.969005510037 0 0
-196.049470621557 26.9097646573843 -3.80918977287112 0 0
