"x" "y" "z" "f" "a"
-207.503636688307 16.6516099647525 -29.0636344173914 0 0
-208.27906452706 4.65864331917446 22.5634178339182 0 0
65.564969422023 -6.58615059343652 2.55471791835568 0 0
-186.252798167033 -29.568415435587 24.3360382017524 0 0
-186.575710821428 30.8809241478783 0.105515041814235 0 0
-154.580842158186 2.17819435490038 24.6940189045584 0 0
156.280942756401 21.9149415097018 12.4145493064204 0 0
15.9005907766496 1.84139438112448 -15.7843046379524 0 0
161.337479975599 31.7237749632673 14.6693976618334 0 0
-187.452286776115 18.9721875453798 8.63332832478422 0 0
27.3264839040628 -18.0424640605274 -3.60271275151747 0 0
173.073192140596 -9.54741599497802 -23.8475925540665 0 0
-147.367743978626 6.02037483971524 -9.6721522514274 0 0
112.032961042565 6.76112858298765 -23.427189470618 0 0
-57.3321065215721 -7.35880088627561 5.60134872256833 0 0
153.559346691704 21.5134357123427 -16.2072149307497 0 0
-109.592383834686 -11.4246227610882 16.1410406289561 0 0
79.9588350020266 -22.5378181478019 -15.5045286304541 0 0
-153.428853504831 -13.4278242687328 -6.44382173880276 0 0
-151.609507993005 14.5086623868713 4.54920416784987 0 0
-208.549928370173 -23.7829847577982 6.4921474657551 0 0
-194.956012935846 -3.26411231006941 35.2524024883075 0 0
-145.125910040333 21.6706706584621 15.5926539010105 0 0
107.874239844684 -19.8165837376075 -7.23766282962915 0 0
186.778929652617 -0.0209496137948252 14.8740861973047 0 0
-61.5167153309225 0.828615154016494 -8.91010155519852 0 0
125.399440251523 -5.1071437476145 -25.7004197840895 0 0
154.269659331672 -22.1172714930158 -12.3931511995529 0 0
-105.629002469947 -24.7436387020591 3.21524576073536 0 0
-181.288352290599 -8.40891795272691 -11.80554391506 0 0
-206.693042604545 -20.0813254092013 1.08463800694729 0 0
197.606302351334 19.7802087649967 18.5561268073248 0 0
-170.54875652266 -14.0387737138955 -4.30120585910836 0 0
-108.291814403595 -17.8063618213054 14.2189690888507 0 0
105.931018433637 10.2418510664542 -5.61851601528527 0 0
-173.161927685072 17.8795051693483 -9.07131370974422 0 0
169.92094531161 40.0454946220492 -6.86512954788713 0 0
56.1746232526023 -20.7662049532624 -6.3148499292347 0 0
-6.15179630677294 -17.6683966034978 -26.9540399142612 0 0
-11.6869637014499 -1.34329782614291 -6.07343198094935 0 0
168.833822963246 -28.7718067005894 -4.70920105991697 0 0
105.249826402703 -18.4291550618775 -3.3396895919105 0 0
-180.939499431387 22.5987908367718 4.595088968191 0 0
-51.2841247603448 -0.280748303251582 -6.44714871217369 0 0
180.731039150465 47.1603485164861 27.8275907108405 0 0
-120.980303214132 -22.4894417937446 10.7022930037713 0 0
150.644292253535 10.0266968519507 9.78195917379946 0 0
-9.10699054482475 -9.19640992745863 -27.3373375423023 0 0
-163.560144161987 -2.83369918219533 -10.3246806350828 0 0
-19.4387483249299 -21.6400330115204 -4.65766451600574 0 0
205.653153118978 25.0483423400383 16.2325069339523 0 0
184.881440231222 45.7227389861369 37.6505246883706 0 0
188.21902518627 -26.9792266723863 -13.0209684524126 0 0
-53.367625480389 -3.21698038708736 -19.1261446205792 0 0
113.124999158859 -18.3829445158191 -22.2422361723074 0 0
-29.8234199180031 -11.316306585269 2.75160097086203 0 0
54.3091411089673 -7.05455403631471 -28.0257869092148 0 0
202.875985567674 41.7732542472705 3.72794971087595 0 0
48.3067235113208 -6.89182135859729 2.19778513033924 0 0
-212.98391508335 -19.7229472056573 14.4446229193013 0 0
67.5603204241326 -22.1962197148268 -20.9489635777853 0 0
-196.736365725651 15.3068002751481 10.2936006551929 0 0
-156.85116153268 23.5525374973642 17.4209519111843 0 0
-200.882817163359 -27.2380478891236 18.6714338800958 0 0
-148.554823222289 8.54614245019591 -8.85103262516394 0 0
-6.36445594295093 -20.8092555902444 -4.94386526024643 0 0
-147.388354914307 -8.39100149819479 22.5663461141138 0 0
158.758813663277 35.153214804061 9.01861323527283 0 0
-170.904652203918 11.1603438582419 -12.359721507426 0 0
18.7897921404044 -14.1277937977043 -1.69792781859057 0 0
-185.865783546128 -5.66134113090304 -14.4237552211272 0 0
41.4056294373103 3.35816325112766 -22.0068064255541 0 0
-221.967549877737 49.7387531720472 -16.6931562732638 0 0
-197.155687646649 -28.1380183552132 8.36007818830115 0 0
-126.639470620344 6.68078664300473 3.70755788583686 0 0
-163.734292108571 14.0732443084047 21.0432659315522 0 0
12.7968957104677 1.5447472732115 -18.1291253287116 0 0
-164.768484363608 6.88814955536777 -13.9380628643929 0 0
148.393008503036 11.8913957095164 -21.769749588095 0 0
-162.656856101604 -1.68035006009747 -10.3340245949305 0 0
28.8770063860783 -7.55035457637253 1.76161093372117 0 0
203.913822210684 44.5398301722955 20.915622247638 0 0
-195.254412262083 -22.9420399822754 29.8332644491405 0 0
147.221678239721 -21.0478257244137 -2.77013629434559 0 0
-205.190567304177 55.8601728656224 -21.0076821411641 0 0
158.878236043032 37.3296965514526 9.09503767232947 0 0
29.8512907425696 -21.7997543242528 -6.92560276775015 0 0
166.417704262425 0.935237839129619 19.7455214356818 0 0
182.731043430663 -9.01330767721809 39.2481224686907 0 0
-49.333592556137 -1.17168750503968 -4.52936225217999 0 0
-201.257375114469 -3.24518941334963 15.3345090177127 0 0
-113.417175970564 1.1276406417687 -8.14549269991193 0 0
-209.443398458582 5.9777271182499 -11.0533689178624 0 0
-179.387266741425 -9.13351270651948 -9.43276206520659 0 0
-226.721709227623 41.2663393100906 -17.6724791762215 0 0
-168.036819861821 12.5688582960763 19.3723790666019 0 0
-102.081431477546 -24.7897711902584 -2.58097975024856 0 0
206.266400613797 24.0018027916608 12.1326120469511 0 0
-150.143172823295 -22.4169878406425 14.8989831774425 0 0
-4.09591483099191 -23.7103209075257 -24.1623962092698 0 0
42.1333448429788 3.85031821599535 -14.7307254589818 0 0
72.0005622201106 -21.6184993503824 -9.02770914789088 0 0
-174.324140493377 -0.447975042757554 32.5573082606217 0 0
-183.630448210563 -8.4995526027046 34.677466310378 0 0
-100.119321646984 -8.49961202704633 -17.2270304818157 0 0
-197.243790066057 -13.8106121494681 34.4494420193214 0 0
161.984194097709 -5.98327772490633 -20.8381080795794 0 0
-208.795218721416 -17.3466742155329 -2.81301071955962 0 0
-147.877449061331 10.8414015022459 -1.32540343890589 0 0
95.9536031417401 -16.7466900132441 -1.16819770939988 0 0
-184.906027068812 6.92768166154493 22.3133531551844 0 0
156.571064711694 -5.19725930880266 14.3110676148664 0 0
93.8200361308036 -18.7265585507099 -3.93206578804788 0 0
18.9197970015749 -1.65999070371352 -3.40959947646866 0 0
180.051728371694 -1.58587203060676 -19.3551754111585 0 0
-176.430676852593 -1.80225945707432 -12.8321379667291 0 0
-189.516071813458 3.63859482275871 30.346319932822 0 0
167.668251366693 -32.5137274355871 22.1070655071592 0 0
150.320669387134 22.5680850231666 8.45320521848902 0 0
-161.127754033472 -2.42184658359154 27.676335048704 0 0
7.12571926584224 -2.45715860729014 1.95806051134319 0 0
-167.12647056789 -26.0007016620762 14.0113042900535 0 0
171.435380337352 45.6446888416798 32.9837024668376 0 0
-185.082470911802 -17.3341907017435 -3.72399953854292 0 0
-132.259821650884 9.98895273718754 6.8869300189186 0 0
-214.094697799303 55.029723019278 -6.20929418355311 0 0
-198.435295777367 -1.35510058820391 20.6152276199382 0 0
-160.765530247461 -23.1030115809794 4.37504498997627 0 0
-104.680844313432 -24.272464263431 -3.74489726139939 0 0
-213.721181590702 -20.6716415912298 12.7653704275572 0 0
169.691765956602 43.9656587554152 29.9309634046392 0 0
200.916078110998 -24.1200561918331 2.10220519050982 0 0
161.514910408181 13.721375672831 -22.9928484736008 0 0
-136.182119176958 -4.64634145884518 18.807172946321 0 0
-135.730719696781 -14.5336664271641 -9.68913790739245 0 0
153.596597271512 17.6478126598358 12.4038649636803 0 0
-125.478044403156 -23.6450465471741 5.20292048860725 0 0
-213.124196748333 -17.8219297857563 16.9223358024092 0 0
200.323149534694 15.4832981282283 10.5606299379234 0 0
169.728379283391 44.2652945781521 32.7668582648405 0 0
111.598010897142 -20.6327898130887 -13.4579944116617 0 0
200.603143054402 20.1989636808449 19.7723392616304 0 0
168.800455771383 47.7060642448617 12.0413624309033 0 0
110.284353124732 8.41027594441639 -2.23002326408732 0 0
-216.228710969224 -5.72708440248962 14.7403272585302 0 0
120.261148879633 -13.0901188571589 4.10350901528305 0 0
-221.669832530133 42.9494082375749 2.47788413146068 0 0
119.378301197316 -3.19245647032976 5.30893767929057 0 0
-22.7000012405675 -27.2855999593425 -12.6685808227928 0 0
-120.607294733596 -3.65552595076903 14.892155030589 0 0
78.4206104399893 8.59003616467262 -19.1930045540823 0 0
-176.468299453672 -19.4273376247252 30.5996883296351 0 0
-188.853789118741 48.4697252023913 1.2613279431105 0 0
-169.550180024207 -1.92925470585474 30.5908922835584 0 0
-17.7217582429769 -17.3748891529077 -1.4836409140973 0 0
20.3228795266092 -18.9817632554761 -26.3523197767066 0 0
-215.505608942652 26.5536007003954 -32.1426081629506 0 0
-118.665633969444 -6.33221448917937 -13.8147531976724 0 0
162.202991688277 -8.33869972717232 20.6247956175005 0 0
197.429225753161 -5.88278868033219 -3.60414070067858 0 0
78.4042374222303 -9.60315988257736 1.03278278479536 0 0
160.767347389096 34.3536729006936 -4.05476285385475 0 0
94.7283193070468 -20.9398381821047 -19.7437398748759 0 0
68.2419699473216 -6.18083970474087 2.58540739159216 0 0
186.479097128816 25.4413194247924 -20.6657175102672 0 0
144.846896407053 -15.3254294056691 -23.1286519185383 0 0
171.890452918191 -30.061025615565 26.5662763762538 0 0
-144.884714766494 21.3350047956684 10.4338067970247 0 0
-219.044239045023 50.3100716641598 -21.4506958024093 0 0
-58.1739943447147 -3.67899955085993 -19.116978386255 0 0
154.905870130759 -9.23943984484685 14.7899510707605 0 0
-137.296320441011 12.8388875345775 10.5553327551917 0 0
-167.863526338715 0.00480817095959319 -11.997238554916 0 0
122.255207437574 -3.79193045718962 5.99128164658779 0 0
-190.678978615914 33.0746790071702 -31.1213640072776 0 0
-32.7288924577803 -25.4504329803432 -8.22052489900707 0 0
6.27026445194703 -17.3399071311668 -2.79422010946168 0 0
199.666187500631 -26.190113653042 -1.42194596210139 0 0
-212.330581209334 -4.00366493535999 31.8663987322344 0 0
-11.1968940088059 -27.24854742167 -20.3659585309673 0 0
-223.85941904708 45.3665608965669 -20.4960754191147 0 0
87.4524731726303 -2.80930518861283 1.88059371175676 0 0
-82.7535144700778 -3.70528167221448 7.26234170180017 0 0
-151.089392539154 -18.9033839070044 -3.49691155154631 0 0
156.869511279939 -22.5802485081272 15.4660257673896 0 0
200.000778305227 10.9410878742081 -4.67430011619779 0 0
124.097925465955 16.5859861914296 -9.93523362684599 0 0
-179.996677923034 0.966001556676871 -13.1221482174762 0 0
-164.832173578006 -24.023127329239 5.52439170068831 0 0
-193.319932628889 35.1021352131787 -33.5669397227395 0 0
-211.491294942303 2.0496051119329 35.4182567718608 0 0
164.741024999568 -28.606730427907 11.7499480300425 0 0
-171.011698707107 1.76195691619749 30.5970714250085 0 0
197.524296575867 -16.8171510533468 35.2687163359003 0 0
107.440665513795 2.42756194387974 1.67135989308467 0 0
140.84189214367 -18.3195801492953 4.68640800299373 0 0
196.232930034004 4.49826900427346 -5.55665409988263 0 0
190.534772967432 -26.8669602266391 -10.1666567758495 0 0
164.150476942292 27.2271562736968 20.7089877563644 0 0
36.7778074141324 3.08280236685767 -13.5441581431138 0 0
201.94443412381 24.921185146091 -12.4626181405204 0 0
-89.0766485823614 -3.29226950564612 7.84573711941766 0 0
-147.966503535079 23.2447534931778 10.5416658700407 0 0
-17.7079802290675 -28.0396610739139 -16.1950160930925 0 0
201.298680475324 -12.1020221168438 9.54869953697592 0 0
-158.345880730759 12.6870200751374 -3.87784104312045 0 0
-176.359073884586 -29.2521121569797 10.3162204458059 0 0
-40.7527986508814 -4.18072527370137 1.22268859770246 0 0
-154.767041794069 3.67877636908913 -12.7380668931906 0 0
-29.4139259973003 -8.36483995774838 -25.8208382814461 0 0
188.283116053519 -28.5838589538718 -8.7144994180345 0 0
-149.498539736501 6.58648171014873 23.0445455000107 0 0
-132.009243050735 3.07974190864045 16.0685034835103 0 0
-219.76283131592 17.0405812107815 -0.94525067308086 0 0
-3.75608867345378 -26.6362853294292 -21.1776167608876 0 0
156.889397836714 7.19605524730199 11.8792898520132 0 0
19.5633233745338 -10.8092578100314 -0.51120072074341 0 0
192.176312101673 7.40438533389016 10.601106927317 0 0
-165.139628886242 16.4943704866419 -3.23130714821511 0 0
160.23823153238 36.710474308054 1.42137630642608 0 0
0.89463960016289 -6.7435632412235 -27.0991453513403 0 0
-201.277946749267 6.22558883314392 7.52484495631575 0 0
25.4830675434655 0.705044380947277 -7.3442062643868 0 0
178.359320779652 20.6745773913393 -24.3563783581839 0 0
157.643637609924 28.9440098047536 -9.15178758846898 0 0
-79.8756796825263 -20.1093164483608 7.35745671147586 0 0
-175.463935329998 8.87750146147194 23.5600776245735 0 0
-189.79655795103 -30.3605474317785 21.4708827017506 0 0
-35.8563991299053 -15.6555618246913 1.45551956112658 0 0
-71.9221875792814 -26.3985750396095 -7.66374473184814 0 0
-203.632750039198 54.499794564958 -16.8689048426716 0 0
126.952188018388 -18.3549812727342 -1.29379130426268 0 0
168.604705890137 -29.6417242905067 2.79230947424623 0 0
195.540062668933 45.6725266116158 16.2998165801685 0 0
-180.566154849388 -12.3981924994721 33.3319817887037 0 0
143.998238080298 -19.9946648302483 -16.0495601911318 0 0
168.763408844545 22.1950021503412 -21.225012746856 0 0
-127.261225864141 -23.1812486991968 1.44644619011036 0 0
167.033763502394 47.0696379607574 17.5147400491444 0 0
-33.5456569645241 -1.78746041556311 -4.8419824090584 0 0
7.9606922179899 -10.9234876682519 -27.8333966109313 0 0
-6.85479460377688 -19.3172964467092 -26.464587784512 0 0
-143.771288634831 3.03210809972487 20.291651008813 0 0
-201.124546763759 28.5422168578467 -35.4413113585954 0 0
180.729218973715 46.289751662242 -1.17360559199675 0 0
128.839456346951 -0.498595757733682 -24.7330907465112 0 0
156.419958533841 -23.3807364014549 -3.31219239319853 0 0
85.7075746924695 -14.7452704533022 -0.34997227941256 0 0
-158.010444332216 22.138726163293 14.4826857613047 0 0
-210.191741542369 4.17248340310262 23.6075537266796 0 0
-207.739288965272 37.3238128684839 12.3027881936135 0 0
-155.616386531027 15.1059611383038 22.778152569657 0 0
167.106788118218 41.1984557065819 20.8323727884467 0 0
-196.583890048924 18.5377872887899 9.60082444553404 0 0
177.889663171537 48.5862533086895 4.46675774772687 0 0
23.1604805214419 -25.2543727238746 -20.8628968756594 0 0
-85.6220734950558 -8.11896114938687 -18.9848052617887 0 0
-160.369953840113 15.1767237619315 -2.3674083063139 0 0
-193.71093421892 52.5906452494501 -23.1263820097286 0 0
168.984508483757 47.0746690936563 20.2203020501627 0 0
-60.2947693260297 -4.64203331904195 4.51169167413266 0 0
-193.0043928176 -22.0700287148469 29.9728819994658 0 0
-217.558390965344 42.0941629438269 6.83158210043746 0 0
159.648394700772 32.7030964310046 -5.3315495963919 0 0
139.10845726154 -20.3973362179422 -7.10690334761895 0 0
-201.229535787064 56.6825022887748 -15.9451785935686 0 0
-200.853901752241 -19.7525525477324 -0.793923181412212 0 0
148.367198547032 -19.444886640507 -18.7980215283877 0 0
-85.3938625420898 1.22627742086318 -8.36850012909289 0 0
152.777588177125 -19.7587495408283 13.2735875387539 0 0
159.543372381677 -25.0988540356028 11.0567240579482 0 0
-5.91572597784166 -2.06600992190547 -4.31953616298166 0 0
178.618888979303 47.2490876055283 33.2998926741042 0 0
193.680684228293 6.60934160431153 9.69506356437778 0 0
-208.397906264774 -4.39669867978168 10.4139179109817 0 0
176.799605329129 -24.7092056501095 -20.7428959201235 0 0
-134.326495168935 -22.7040072367312 1.43328940384659 0 0
-174.657626667188 7.60380114409925 -13.2089319512816 0 0
43.2577866533803 -24.6137408746397 -18.7066874766828 0 0
-81.0961172429725 -3.82092211648723 6.3654282557059 0 0
-211.606919348016 49.7217667289376 4.85586501914718 0 0
-118.219011914782 -23.9581658110216 6.03124629021233 0 0
23.7118286624479 -7.58480318807641 -27.8388008228644 0 0
-129.150894754131 -21.9105503263749 -3.01933436880863 0 0
183.042669825335 44.6141615374061 -4.07709009318021 0 0
-203.501664898434 55.365110341412 -18.9029343981161 0 0
-132.771649869589 -8.33608523522576 19.0047649174692 0 0
194.195069489079 -13.3255095908145 -14.9572154970612 0 0
-116.517828014273 -24.1607462403947 3.83147819703902 0 0
-109.726867645392 -24.1674490371883 -2.49645599368388 0 0
173.551717860066 46.7077976794416 1.75102062600617 0 0
164.491304248835 13.6320074476281 -23.3532683386727 0 0
-190.215401289789 34.8670592378811 3.49716529580704 0 0
-199.77805906449 11.8873181315109 9.71519448724671 0 0
65.7064170027969 -16.0540264359246 -26.755134449426 0 0
-206.583874574266 -13.9814042360946 32.7489550796241 0 0
-191.329349021924 2.87267790118931 31.0826999352983 0 0
-209.857678756781 22.0227910683987 -32.4652219033838 0 0
66.8433868561895 -20.9928577339019 -22.8833903571734 0 0
-149.363554100621 2.25835093351328 22.8619963895888 0 0
198.253106331195 22.3052344615759 -20.7335556203749 0 0
-2.3492073249174 -17.3564246284944 -2.41659396062006 0 0
-77.9674052298238 -9.61424528422538 -20.9348352203823 0 0
100.486124739612 -11.1983666922884 -27.2063697836916 0 0
-188.207311083282 -16.8755969711558 -4.83686022067322 0 0
-203.864553543032 -18.4076038605689 31.8444001651823 0 0
-208.32438118648 43.0149235487446 -34.0282326930002 0 0
90.0828897818189 10.466416552924 -13.0376341293719 0 0
185.153884319976 -10.421166373734 40.0422887700294 0 0
105.227390291974 12.7712682831646 -15.5037321304401 0 0
166.685729525988 42.4249135430172 21.4173401865372 0 0
-80.1965280264055 -17.0063131255962 9.59546214671622 0 0
-20.6237309743984 -5.13001620034085 0.180311078135419 0 0
-214.153366784195 19.8792292938304 7.12970961987441 0 0
166.9635906277 5.85242040707853 16.9417085742186 0 0
24.3344355522358 -19.9594006359534 -25.8141119950424 0 0
-186.491300511021 35.2121934043232 -26.3216726567748 0 0
-119.102366263147 4.53672389354057 -0.373050395369764 0 0
-104.799670026652 -13.377239458392 15.37531955476 0 0
173.688297609827 -23.4697321259111 40.441417592831 0 0
45.6112928386117 -16.2039237837141 -2.63823223288038 0 0
190.779156452455 27.9654691533964 -17.6896453781194 0 0
166.186113714882 -20.7870391269716 33.5559353617614 0 0
-211.380870599607 -6.38887583738468 32.2152856813307 0 0
-196.971676360141 1.97171562728224 31.6248797761483 0 0
-18.6860729371603 -18.5014399053239 -2.18699550911835 0 0
108.636467762319 -20.8985912206401 -14.2518568573376 0 0
-136.014156326967 -2.4985069865264 -11.2731035110884 0 0
-196.56656863241 -24.8870343802523 0.327396623524766 0 0
-60.950921056281 -10.9889720986762 -23.7561023572347 0 0
125.199914147057 1.40999274536235 -24.6181936588939 0 0
-210.844928279773 18.4216051366569 4.46805191114479 0 0
182.196713761474 0.76934979562566 17.4133829045399 0 0
-206.313668163358 50.6051790467911 5.73958090468698 0 0
181.961256658164 29.1573822021003 -18.1785635187589 0 0
-129.273373526834 5.22025821183002 12.5977801685603 0 0
50.9839202430709 -14.871901237812 -27.4661220238734 0 0
186.239166126003 43.9135052048284 37.1330841173856 0 0
160.147689354197 -24.5912840576602 8.77050032738811 0 0
-149.39807917797 24.4807479609666 10.5762283644039 0 0
68.5333208163951 7.5371275739635 -17.9840488686009 0 0
-133.875054397376 -23.1365375355631 3.55928964851233 0 0
-218.302040862173 37.9060126734622 7.75794412177659 0 0
-195.282945608962 16.3533271547408 -26.9704536295058 0 0
-102.952891974359 -8.07011768024498 -16.6171920548604 0 0
194.602426948489 -2.05767895074692 23.7389874577947 0 0
101.901456603493 -19.9085466032645 -20.8843458157809 0 0
167.252064396101 -28.0226178997166 -5.71089348310413 0 0
36.476467444189 -25.1212932608148 -16.5450511976212 0 0
86.9463135798144 4.22751490564098 -3.28470640977996 0 0
142.060961652211 19.8571886520227 2.41473637442917 0 0
202.719267148504 14.5919837817793 -0.896669218031216 0 0
103.150283306147 -6.46145476011849 -27.1767610511553 0 0
149.336077925889 -17.8049981954662 -21.3602052468241 0 0
137.764763950186 5.44789273300531 -23.2537568211603 0 0
-158.000750937449 6.56663560994973 -13.2149891913637 0 0
123.784846761348 15.9447056639844 -6.70890054321156 0 0
37.9258482658358 -4.23507155405413 2.2230540988188 0 0
186.33160548675 1.6956640751297 12.2604275818005 0 0
188.840428922733 -19.0004433020443 41.6484334733121 0 0
-211.103070519459 -14.7426969687993 27.9340247639151 0 0
118.241553213053 -14.9102067373599 2.56526440615266 0 0
-155.371586149106 -22.0813172435797 17.4100067508549 0 0
-215.341282552153 16.7186004569009 -25.8268740435034 0 0
192.217678809684 -27.044828694346 -11.5867536868915 0 0
-17.82781124018 -26.3022544979809 -10.8794697291146 0 0
-193.331720057949 3.12147725697592 25.8352251756668 0 0
76.3801626922057 -15.827707174806 -26.5548609353319 0 0
25.9358620225805 -24.976524607448 -21.0481252905564 0 0
197.574536027715 -12.7683284132071 32.9860796425776 0 0
-183.786818012244 6.86435078706217 23.7246191080681 0 0
-82.8108943496929 1.54806306794732 -6.7842969850874 0 0
183.104672622193 -34.7200960227107 11.6731363433334 0 0
-169.290009478078 12.7327983448188 17.0544926225987 0 0
-204.096959191858 -26.117184353897 17.4328460508303 0 0
160.067508701647 13.4218787721012 -22.8458950169132 0 0
-18.8400917208788 -26.6039824451731 -21.6543731563386 0 0
-198.207461361588 38.0916909525968 11.8070221319329 0 0
1.32138812421163 0.556833037853133 -10.9038051171371 0 0
-153.253635800544 9.59938697368907 -6.22185631906214 0 0
-185.678815340427 28.252120041713 1.2774655434441 0 0
-127.724596435186 -16.3351956019912 17.1756911084229 0 0
-160.058878307255 -11.3109032711496 26.3517139023489 0 0
2.75513858129035 -22.9992620830433 -24.6216418644826 0 0
134.037096893618 -4.50732233460703 -24.6858491146722 0 0
195.593350237293 4.96754628508684 -8.29845527391381 0 0
-209.40274511501 4.82911201912615 -3.77149281084986 0 0
-216.412580847876 -1.1066336792363 23.125338206173 0 0
-177.593873673296 -21.9418508384242 0.279677056393391 0 0
184.109511231903 -14.1832452215243 -22.3635712458054 0 0
170.420820093705 0.0752213763944517 -18.9403122976202 0 0
146.464922762845 -4.12478569547815 -22.2831010210424 0 0
107.510965754166 8.37833039669197 -22.4099924592911 0 0
12.8596603690369 -20.0772658402337 -25.9730933498245 0 0
-92.4507525221231 -8.69459061839017 -18.3472715532262 0 0
-134.49271281994 -20.1282543182521 15.2466359245068 0 0
-78.8179264867699 -24.5959304176558 0.75395320804834 0 0
-217.134223761524 39.8491259834608 8.05013430535127 0 0
149.613802396767 -3.04092363991618 10.7018291397534 0 0
-191.797625749547 -0.506981879800479 18.1918528413772 0 0
-227.830571576193 26.4097426328434 -11.2018634552703 0 0
-136.512076871417 2.86424948018119 -7.70028310918876 0 0
-188.264351645958 -23.8457429043147 28.7400395482691 0 0
-49.5535677999432 -9.41830758057578 6.2468627557582 0 0
-151.727294076101 16.0591142977963 5.93034089263566 0 0
-211.873247511103 -12.9703537995962 26.966968967883 0 0
-189.674714856896 50.439254027118 -0.629917124871755 0 0
166.877978401139 39.4539345791448 25.3124026150956 0 0
-140.687175607307 -16.1071320611921 -7.4674726762154 0 0
74.5061038543148 -0.31071800062047 0.550793930540833 0 0
179.835143630083 -11.0097608683179 -22.6307161071885 0 0
-169.584779859336 -18.0563192748816 28.1774461039373 0 0
-192.747485785562 -17.2414118194758 32.6539685612481 0 0
186.201699813667 10.6283875241648 -21.3336071018258 0 0
-117.59288804654 -23.6947363224224 -0.754040380834861 0 0
-177.57887280747 -8.02702333175879 -10.2543940209044 0 0
75.39035175586 -19.2451845158773 -24.1170570825818 0 0
-206.406641256058 55.5889312631217 -1.58096082036645 0 0
184.707364583107 -21.5692296070517 42.4344212771699 0 0
-15.2501491412255 0.291495556723427 -16.4478909987069 0 0
156.856572544747 31.7161603617757 6.4369088643884 0 0
2.02989032969403 -27.1991579630478 -15.2188828328907 0 0
-201.207179150788 -11.0789778024598 35.6180316845604 0 0
-194.007436609415 55.4972684099611 -15.9658184522166 0 0
-22.9746431216848 -7.96239018124314 3.02884987330394 0 0
107.95200539788 -14.9509351350535 1.15018929603423 0 0
182.077730048162 48.071855781896 19.3809766828035 0 0
-150.91199859708 -19.5728718776701 19.4244191607147 0 0
-200.336091877625 8.88030182150045 8.96946404518313 0 0
184.643841626268 -2.0462557450412 19.0760466581586 0 0
150.137349722116 -5.36549191573134 -22.2267663158019 0 0
-16.7343042536013 -22.3466227103041 -24.9250967125492 0 0
-216.581046263438 53.8888286308356 -10.6364021794927 0 0
176.562334351818 48.2276546949414 18.2167549496071 0 0
201.559083176975 -13.8719216636409 24.879480169678 0 0
-174.353980017792 -25.9008493273896 3.78866490828032 0 0
202.115296290008 25.7162660672758 -14.9406767348228 0 0
-111.207869320305 -24.361059681557 -0.138003564347615 0 0
135.679888153609 -5.91028222167368 -24.6485854767706 0 0
155.013778620318 -22.8938036286659 -3.89722206560748 0 0
-212.443203502971 -15.2742308157758 1.546279530887 0 0
71.1231130020287 -20.6654897752233 -22.9120460502049 0 0
-177.363935986197 15.6393721966384 10.7405173699108 0 0
196.907150530112 10.580988918703 -13.3213355761109 0 0
164.536913817573 14.5012559901998 14.2706117273282 0 0
162.401463960828 -25.7833155448053 0.278835214210766 0 0
159.982087368923 34.5391524666787 11.2707466374067 0 0
-190.575957719851 -13.9749165797251 33.9980591043698 0 0
180.318571332345 34.1153387013579 -14.6355176401787 0 0
-213.03132941525 -21.9161517443431 14.7284131728552 0 0
157.659992631864 1.55341561531863 12.690081886388 0 0
183.179363132163 -28.7930688690486 -10.9122244477921 0 0
60.3503051571236 -7.99194849373917 -28.0984756441766 0 0
181.934610872073 -3.83435399734489 35.3682427671583 0 0
167.638619728891 -27.757601562133 -8.13179597594699 0 0
-46.455593520939 -23.3529068629172 -22.7866902256251 0 0
119.712920993314 12.1784171203765 -19.5305722985868 0 0
202.765506717703 -16.8633639406249 7.21822954417218 0 0
-20.9767757943638 0.285524429467228 -14.9145805262204 0 0
-200.669797916609 -24.1245287755001 3.95755186145233 0 0
30.7056045706799 -16.3997838431598 -27.2813847815834 0 0
-127.982828883079 6.91271506605293 7.8877278775994 0 0
-69.6306455115337 -26.2152704268053 -14.4193472669224 0 0
194.120236086417 -26.870955020111 -11.3335415909268 0 0
130.946384477723 -15.3250213378839 5.03001392707591 0 0
195.516730324007 -21.3740482868928 -14.2060522571748 0 0
148.225802624352 24.8870518937144 4.65778513655727 0 0
-189.266837548966 -23.73007519303 -1.90364167211055 0 0
-120.48086306779 -20.0483857552522 -8.87232818106104 0 0
165.018368826907 -6.20739280838809 -21.8347893491985 0 0
4.44551685614659 -22.1736568699023 -25.0711518444695 0 0
-161.612429727451 16.8311670565827 16.9767459194186 0 0
129.460565315603 -5.98949575676941 7.77568402116563 0 0
174.441687136376 -32.2771125280568 4.54672723885741 0 0
-204.7069946888 1.4387058454763 -12.7436340329328 0 0
195.483327739259 -31.1639762701254 18.7218088912178 0 0
20.5340108928321 -4.02423567408979 -26.8126429270144 0 0
47.5310599931442 2.48907054910388 -24.2722771892142 0 0
-184.410107331409 46.8060130854323 -6.33735375400971 0 0
-152.466368553657 -21.0343586902287 18.1702395192936 0 0
156.052381468635 16.8551456386519 -20.4512874143809 0 0
-211.713723508757 -18.8649739244304 16.377055379448 0 0
-215.683978097177 17.8239192258094 4.55509894344109 0 0
-194.703640556464 26.3795138503351 8.67906065405923 0 0
-145.184813242181 -0.327343536689396 -10.2333013349919 0 0
190.01478012774 6.894027341264 10.7609084923071 0 0
-143.177821455872 -20.1315533742773 -3.32300558431098 0 0
-173.890175759884 10.2390004347362 18.6953206243215 0 0
-77.460579389427 -3.82019673755345 4.72353271025275 0 0
160.293592780648 -6.63734506285383 -20.8602681809226 0 0
-121.897968601332 2.08155320171407 -6.66194723563341 0 0
-62.9348795782761 -13.2530780802732 -23.8858143540407 0 0
-104.401506052074 -23.7590693429059 -6.15700249903827 0 0
198.113741847348 42.119845331032 3.12984175726253 0 0
-217.09241644887 -7.2588582134049 22.7280664220131 0 0
203.564342824392 18.9652812302913 11.0033833676472 0 0
-196.224927840567 0.433312340043819 22.3350038045295 0 0
-107.543030261006 3.15043942704439 -1.51747617572851 0 0
192.907775048618 -28.8519088591223 28.7855920158717 0 0
47.3110202551875 4.5549198866669 -15.3547952737617 0 0
-155.974238262861 12.5973655490523 -5.288430778748 0 0
154.420860264805 -3.17540508521462 12.5241575829898 0 0
-228.697526023827 33.7811115579502 -11.8326964718366 0 0
-207.718196849716 0.0140600652429221 -5.32997782619874 0 0
187.192917470958 40.6577997264207 -7.10517199222799 0 0
-83.0463540533559 -16.216163514023 -20.8157725385307 0 0
-147.819113489536 12.7783757467727 4.86282305278192 0 0
28.9352795598514 -10.3445249120164 -28.0225108009604 0 0
-195.829031848194 0.0209976171230157 24.2933763948905 0 0
89.5671821973054 -8.43322009721741 2.18356396644196 0 0
130.403843205552 -17.136284291353 -22.3071736142631 0 0
199.260935159244 16.455339723434 -16.3815760020891 0 0
-46.5037508284079 -7.53584590237723 -23.7687178410627 0 0
-101.183704532234 -10.4886247147771 14.7092082444938 0 0
-65.3974632280139 -25.6459473236127 -4.17126368354794 0 0
-205.915572744512 -8.84333471714612 35.8087653317836 0 0
-117.2907833996 1.89224700017537 -6.72024704534826 0 0
-202.226036628511 -2.78913058986881 18.3530344250548 0 0
-66.7554159955836 0.389829280995162 -4.78369609638829 0 0
36.2013218040099 -3.83278788256132 2.25806973260543 0 0
176.14136600597 30.1484963595886 37.6489073752038 0 0
166.486712039079 -24.7792794028189 -17.8922519820181 0 0
21.2168540200599 -24.221872191976 -22.6726898336683 0 0
-120.396568557766 -21.6869220777876 -5.93029562471536 0 0
-2.00613389323287 -20.9801579423808 -5.29623427405009 0 0
-208.67948763037 -24.5990115350368 15.0936912663762 0 0
194.319424887481 23.2163177879978 -20.6312826265022 0 0
-182.567741585334 28.2531245494395 -3.03637595306175 0 0
22.9673641776423 -1.39518105655802 0.616908062898324 0 0
-74.935811790326 -22.4201112066918 3.90625531250063 0 0
-60.633075140798 -15.1790244916757 5.79204811023532 0 0
-51.2075488198809 -10.8187084135392 6.26633771461804 0 0
-189.597346489011 -20.20027209488 -2.76651410136014 0 0
-12.5557672644079 -26.9289391119632 -12.5769168532152 0 0
22.1807690350647 -20.2579115586029 -25.6940397105568 0 0
-101.468237847929 -23.8310927495399 -7.37416735783284 0 0
172.563060801416 28.8043892425452 -17.5030105623357 0 0
166.919249446413 -2.48899930655296 21.5298139774716 0 0
175.444699697535 -29.5273606564305 -8.12325511477147 0 0
66.7276011366323 -8.25905906509016 0.967447803821727 0 0
100.444005078835 -3.74230197055022 3.21315034890986 0 0
125.633458634017 11.8435922933284 -0.482228163751553 0 0
-117.347094998223 -21.8966377855625 11.323554735263 0 0
-189.614879997755 15.0870096342966 10.6156761222868 0 0
-135.795099901821 -8.31050324868968 19.794001513125 0 0
198.164921605494 12.6085665702571 -13.5214463859616 0 0
42.3127491241476 -21.613964481583 -7.17090777932118 0 0
-68.048915248136 -2.42401950476409 0.887960111553423 0 0
178.520972391928 -2.13097405373225 24.4245832584924 0 0
-136.093529898501 -16.180059618006 18.9958064282525 0 0
175.868510016074 -4.44095974051352 -21.9210784748009 0 0
191.776666618427 34.1454745547433 -12.5694152195129 0 0
153.939542971842 -21.2155988843361 12.3098362685379 0 0
139.259772394928 -2.04923781372046 8.11846729024967 0 0
148.811252927629 13.7050253447447 9.74505744525669 0 0
-4.75794696555053 0.677619427874775 -12.9226575371621 0 0
-9.60449805608239 -7.84300533375798 2.46490891927712 0 0
187.321546055385 -7.72146688583232 37.6334064078365 0 0
-138.370739686337 10.1416358489739 4.43618510728331 0 0
142.303387471527 -20.5023737877728 -11.7470803734943 0 0
-47.1833181778702 -3.42693948859517 2.35324128490192 0 0
185.886809411189 12.3236343341833 -23.7207559319967 0 0
-131.488820386847 7.2333348284867 11.9341240311706 0 0
-210.229897710785 -8.0353609856191 0.252831309936224 0 0
-209.041988315047 -25.4296164972968 11.6644365579519 0 0
-189.113417694714 -15.8338914333514 33.0954012305269 0 0
181.780251352966 23.6194027707415 36.6363596701636 0 0
-194.032074386165 -6.78798529779273 -14.4620778877367 0 0
171.05552821043 1.44317708342294 22.9716789455093 0 0
-64.084158466252 -19.4817823431036 4.09570953895362 0 0
-79.7821479113365 1.08723678195355 -2.95960291352236 0 0
-207.62846218326 54.6334274323654 -10.1752313455645 0 0
-189.579396455471 8.52360035511001 13.3800224180677 0 0
-223.764477871186 41.0338396208354 -23.9953698326102 0 0
-183.424949507058 -13.8496505470769 33.2543512838299 0 0
-27.2484925095447 -7.10343912293911 3.03976311512618 0 0
-80.3566352580243 -15.2659158275892 -21.379937465475 0 0
-62.5908818982361 0.140397220789575 -12.2195793080551 0 0
84.7544654386912 -17.1026157817263 -1.98513083663014 0 0
155.365004556624 10.3321122958239 12.543037036292 0 0
-113.112045630127 -4.30997046004496 13.2498408432976 0 0
-193.222471689886 32.5661276998515 7.01690826376596 0 0
-153.655359464191 9.30117011062415 -3.72932253346189 0 0
-192.579296006173 24.3040910656453 -30.3320832185492 0 0
179.101880715598 3.27508887010983 -20.9477854306326 0 0
-186.608723574852 25.4912160813496 3.84108735934758 0 0
-135.209642618183 -11.4653898138259 20.8323324288311 0 0
-200.478780196411 -5.50542572851936 -12.5002138776308 0 0
-211.929818001257 55.5498694601635 -8.6370104169951 0 0
-191.938232884464 11.6106037951853 11.8956180878713 0 0
-207.911387103343 48.5194587894905 -30.5093560739398 0 0
181.419989350052 -33.0673854309875 26.563295235579 0 0
165.21821786632 -1.20497849844217 -20.1420422798461 0 0
-136.838488443535 7.59274901187073 2.49991942852876 0 0
192.021582014021 -32.4140804670297 15.0335776422829 0 0
-180.608694326271 19.6520616266957 -13.6601168153024 0 0
-192.48014396494 -24.9902676121375 -0.517456397282168 0 0
160.634896488946 -10.136409554701 19.7838523455612 0 0
148.575909138248 16.3999108613274 9.89514602932969 0 0
-160.81026374378 -23.3713763968671 17.5160457921876 0 0
-213.003725321393 12.7124091177491 -5.32375901666269 0 0
201.436015404327 -12.2079763141728 7.53485869542385 0 0
195.431331754075 38.7603799112117 -6.02021165907855 0 0
-208.994448569547 -11.3716800938382 -3.58258600285047 0 0
85.5519054681963 1.51138924040093 -0.973931232330824 0 0
-182.010308812208 11.1607026276229 14.6365656652696 0 0
23.3793002963573 1.89725306160297 -11.9927522025935 0 0
-197.321893395089 -18.1734268917948 31.9973275225188 0 0
-223.972547648939 47.7153631009075 -14.9307033612996 0 0
193.950745389049 -20.4733716021817 -16.0507690537238 0 0
-204.261761356005 26.0751768916662 -34.9457703010455 0 0
186.683671050913 -5.75383523101089 -18.0973319120602 0 0
-179.629098368095 -27.0979197299822 25.8022890436534 0 0
-150.859307218854 24.6039006378825 10.6585689849806 0 0
120.261530696971 -17.6500234704857 -22.5042945571134 0 0
-200.938235522778 6.41653377577384 -18.8291277447707 0 0
136.862894547278 -6.64763047918 9.24116650058203 0 0
19.3782765443874 -6.04967489675951 -27.4627680035031 0 0
201.358375749545 45.7495229508917 16.7170164777185 0 0
51.9332045034809 -23.7984567648004 -19.3995374524674 0 0
176.528729525279 -10.4845384609409 -23.4632622461422 0 0
-136.17667235524 12.2573488306532 8.95200462466572 0 0
-16.9285021234508 -14.1673229757418 0.279246484643711 0 0
200.8878999128 47.1538911580331 19.7101527203358 0 0
121.024911552262 15.1151472715934 -14.9995720440072 0 0
-212.775940143092 9.66288597918632 -10.8991722083758 0 0
-61.2997797643209 -7.88958966162841 -22.3365307172451 0 0
157.82787133823 -24.2125941016477 14.7248969401158 0 0
60.6407385610932 0.808841256766342 -3.02593401901022 0 0
-213.287719745506 20.5359479290566 -30.4015285513442 0 0
130.66062609837 -7.35824878784202 -25.4424116324826 0 0
196.008174325436 -4.88448920213931 24.8018521563169 0 0
-42.1570818412283 -4.978990220314 3.72422799717894 0 0
52.3633211710528 -7.07284988790476 2.03801654342363 0 0
-206.59563052902 6.02829155858193 26.2984301569557 0 0
50.075365906045 -1.16173130316251 0.433231645963534 0 0
-39.8032551560015 -6.97400340223653 -23.9798175547896 0 0
-171.581894308372 -4.49919212107375 31.5363827297776 0 0
-15.4421142408995 -1.21958585987932 -6.41522754646121 0 0
-170.502870633164 -7.38733050287993 30.9995466646981 0 0
-194.174011013689 -25.4368767781861 1.44337251259239 0 0
-193.888546831954 -32.6491122376875 14.7145827803244 0 0
141.885205792336 -9.85580481758481 10.9638331685497 0 0
42.5844576135662 -18.2805371915548 -3.87217174266785 0 0
138.491819768599 -17.7364258595947 -21.0955786059487 0 0
-33.6118026603776 -23.0684344753033 -23.9795096249907 0 0
-208.371914983116 7.29536433016978 27.4317401955522 0 0
55.9744751981247 4.29381914399053 -22.9576313226065 0 0
-181.858180025004 -20.5804877234592 -1.17527839726184 0 0
-211.648868463325 17.9016713594058 -29.0551414191373 0 0
-184.229415582612 32.1833474053634 -15.191704907429 0 0
-196.842234318794 10.7138803120457 -22.8896495494949 0 0
-212.979940602761 18.7195443814704 5.81428241669367 0 0
-175.918679425405 22.9008631612004 4.55972782094078 0 0
60.9176145139203 -19.0042898194124 -25.121283705427 0 0
206.696631092793 23.9611837116486 8.14088964959838 0 0
-113.158888376421 -7.42485467881387 -14.958455959215 0 0
196.538502424729 -29.2010483247903 8.90254672602965 0 0
-123.534025017533 4.25856077881445 10.0353647968513 0 0
183.963324498021 6.01675897147584 -19.4924496111922 0 0
173.029390407865 45.616166135123 29.6723575177827 0 0
28.9150940121286 -16.3844470114138 -2.79329747923672 0 0
27.4243344133931 -12.3914776550056 -1.12534139724748 0 0
75.0894642774199 -5.28971743288018 2.1917530290102 0 0
-190.488632792992 35.9605100986086 -31.2273779648397 0 0
-133.971066641933 -12.9912449233176 -10.6745313904571 0 0
-96.4394185680503 -0.750964052854668 -11.71057405487 0 0
-9.06344747408918 -26.5732449578353 -21.4605108156672 0 0
143.442264942231 -7.65748357340027 10.9222581125587 0 0
-155.352869956023 -18.8359758139237 21.0027495585323 0 0
187.558405099931 5.26217134748564 -17.4136970321657 0 0
-208.597816969248 47.6963618262605 7.7894562880277 0 0
-91.5583302945839 -1.74484862717811 6.23757967836486 0 0
-159.047114088799 7.2457036520929 25.1672158902125 0 0
-203.524181779495 9.0056380867784 -20.5155869592875 0 0
172.655782401898 -3.73482622341341 31.8823756497 0 0
-188.239832081461 -25.7094457827151 -0.920208886302538 0 0
-13.4741477981191 -25.4351782756947 -9.83328832350197 0 0
189.513099064776 -31.2606573993222 6.42559822371044 0 0
187.973086988358 34.1540998897762 38.3268422106358 0 0
139.419430846349 8.75458673098504 -22.5912751905398 0 0
27.6926767209732 -21.4086515620433 -24.8392619192531 0 0
53.4853262205122 -3.43761689909034 1.51907975272427 0 0
145.111120219169 19.6928650935796 -15.2951754681403 0 0
-185.515286586797 46.3121111527337 -21.2004483918614 0 0
-162.211432240138 -24.5660590085933 14.3741166958147 0 0
-184.222991340412 12.2767525907609 12.6136987559416 0 0
191.606436699954 47.3261388706642 13.2375126748748 0 0
-98.2897266954701 -7.19013353485005 -16.9267552026551 0 0
-211.502307486565 -23.1077060446389 8.58803628821568 0 0
130.062481548628 -19.1983592412569 -2.88326805255707 0 0
-211.888271551124 -19.3216348976399 20.412586778458 0 0
188.178801467501 42.2326734811934 36.7623154867362 0 0
180.363775256278 46.888139530961 35.8919753643733 0 0
150.335117129518 26.331890345644 -1.92246295099344 0 0
162.988483411675 36.1920204383154 -4.81085787374631 0 0
-22.6213159434755 -0.717670602250742 -18.6009989838403 0 0
-192.180953817203 20.1736775452419 8.78032180184842 0 0
-115.440943918473 4.60976862486236 6.4417931386788 0 0
150.198148559026 26.3021521103731 4.90254348565037 0 0
-151.547422784962 -17.1007184937988 -4.6259446071889 0 0
-195.521046580672 49.2921323237616 -28.2715359868218 0 0
194.111242740601 32.9871193471306 -13.3579916769136 0 0
-129.570914380455 3.89603933135688 -4.8430857129864 0 0
-212.71634775044 3.19639368702735 23.1395654735541 0 0
-214.536286395083 -10.3908482996986 7.9763965720735 0 0
-200.296986195949 34.4230870057533 -35.9925299013266 0 0
106.069525337707 -2.47293572797178 3.29069753751033 0 0
182.85694025267 -35.6413962552107 21.0412965277422 0 0
166.709824868071 -4.58261015656733 -21.3597697530889 0 0
-102.975330672591 -0.133033581757644 -10.4458681545972 0 0
-36.0897532480342 -9.87667892160114 4.79328992447679 0 0
-219.056397701764 36.024643738331 -30.8749525958075 0 0
-199.828038653738 2.44770477754083 -15.6223828429647 0 0
-198.740814872532 47.9772303207111 7.71143678294418 0 0
197.936736936027 -6.66078204257205 22.4156925199263 0 0
174.128513528065 42.8658967623547 35.8134879410245 0 0
194.716812762439 43.6041485206652 33.1859835120913 0 0
-220.952126944581 15.4468125857853 -16.6835550145295 0 0
-208.402581067664 -4.94733121658443 6.64369516314485 0 0
18.3161157527332 -14.0464216233581 -27.7390082183598 0 0
-148.873853360957 -23.0488359583479 7.40663144427359 0 0
28.1663764857063 -25.3434294879109 -19.6111918530883 0 0
-190.931616557608 45.0353898480656 6.07365477056531 0 0
-208.669504293582 4.05319658264819 -9.76722276369832 0 0
-177.091715615379 -4.72017406755296 33.7727274560855 0 0
-194.212886521981 -16.9330631482976 -7.14075311333924 0 0
-189.089007562064 5.00991334884515 26.3498984105998 0 0
-203.524072767974 -2.45387082071027 7.95975248102515 0 0
-206.996742575391 9.86012899643172 1.04417234796191 0 0
151.630506844909 -20.4826621198651 7.05759920285513 0 0
187.003037988491 31.0638988829605 -16.5065380031793 0 0
-212.974999509163 30.6153386705183 11.2262575773805 0 0
198.868408852661 -19.2794405444059 -8.87005280516546 0 0
116.846169169939 -3.30748733517583 -26.1591966915545 0 0
7.48338046797081 -7.48451028243045 -27.5053830115124 0 0
204.005106089777 22.0740272520368 16.0278533642808 0 0
160.229211930357 27.2155636909803 -13.6352152796991 0 0
-187.693899972722 -33.2523201801033 10.7825019615522 0 0
13.9379957873041 -11.9240153803697 -0.821783940035136 0 0
-178.654177667748 -9.98187190987208 -8.60512083694573 0 0
56.3880114581975 -20.0141684419128 -24.5587149712937 0 0
154.344056126496 12.4044746234821 -22.1377223536639 0 0
-146.969363489949 9.42151976938235 -4.12558006185948 0 0
-143.902854534987 -22.1452483582767 1.11087912740987 0 0
194.897857901191 47.9033496146056 23.1615621487749 0 0
-199.397031246546 55.8355240422235 -19.5711926760224 0 0
198.600128929033 22.5904982765036 25.2417077309129 0 0
-183.491869428943 43.5960903644086 -10.0612302223429 0 0
-199.641885765668 18.3014438668152 -30.1013806925493 0 0
-139.321795292824 -22.2230391991814 12.4158975680307 0 0
107.916635854965 13.2953003725996 -14.6642069605068 0 0
96.7114382023634 11.3108515252659 -11.1969113703073 0 0
-213.264182900098 -7.43935971011497 10.6467936853326 0 0
200.911620138985 -11.6713797928066 22.5040790890015 0 0
137.18788717688 19.5380361351602 -11.3059215279465 0 0
-183.14823490075 18.500976410034 -15.7122296710641 0 0
199.36184023213 -10.9033264229469 26.7338986978905 0 0
157.447301721198 30.3548781817527 8.05348636772003 0 0
-208.236620483307 -14.9941553457141 30.7433520386477 0 0
-9.67545496794674 -4.34724062264688 -0.552431299285691 0 0
39.2038783472051 3.58255180859007 -15.027247391713 0 0
-89.1410778138109 -18.2265396953273 10.5406194513062 0 0
118.727308731014 14.7760229539045 -7.37453970022212 0 0
-97.166666558182 -20.9149890198598 10.218029184294 0 0
45.7980174973957 -18.4677735678423 -4.0124024863953 0 0
-110.789334960065 -24.5136182466613 2.47119154830301 0 0
170.575298799276 4.3374000833548 21.2380124775772 0 0
192.378492583789 -2.99413449904606 -11.4869336387502 0 0
-172.205318194539 -27.6418833724034 10.0141660322155 0 0
140.740343319518 -17.0301841111811 8.83699900403128 0 0
86.9668037278097 -18.8573393480921 -4.05059926045951 0 0
-170.105231253161 -15.554793677507 29.021351785471 0 0
155.346086364734 4.31240260397352 10.8669118434998 0 0
205.861126981616 36.6239271444482 18.1011459855995 0 0
-11.8822536908397 -16.7047529231154 -1.4658082924821 0 0
-101.405416692026 -13.5765648802245 15.3701313475863 0 0
129.650998293794 14.3368604625333 -0.878859017165295 0 0
174.344318279057 45.591150927195 28.1263747127132 0 0
-25.2118694808192 -10.7149926041615 2.5291807501676 0 0
183.493547233859 9.60665389960389 -22.3253350538637 0 0
-170.776279545749 9.17007580010962 24.6210109266274 0 0
204.192004620454 42.0719740777828 21.2659173935847 0 0
-206.162992351334 9.55326097806866 -20.5702463529896 0 0
196.002991260854 42.3279699974043 1.51116984071616 0 0
-136.265793281986 5.11731092100035 16.8688160773745 0 0
-167.949030200676 -25.8500863363461 16.5229488235911 0 0
175.310080026895 -28.0515440423654 -13.4060147962749 0 0
-154.620553515279 23.6704581627914 9.75197934911513 0 0
-124.419792985783 -6.06919813834384 -13.0815344444164 0 0
194.860267596669 23.4945920699669 31.4950522339944 0 0
-5.2460977192341 -3.76922780231189 0.943759385160637 0 0
-173.773686554661 -26.1437197770671 23.013642381083 0 0
192.10509505106 31.7451658081466 -14.9185803293062 0 0
199.160500117849 9.49563727066919 3.36569782634357 0 0
200.904240446086 -14.1751000854184 -1.38545286085796 0 0
-36.6784278090528 -11.564664207583 3.27312509032808 0 0
193.389956260158 14.5202558562706 -21.4110205646946 0 0
-215.189743825253 36.1619866371153 10.061265515543 0 0
156.821683586175 -15.3537182448258 19.2664151289363 0 0
118.244781061592 5.5113975626986 2.01551634996775 0 0
-159.894512440951 3.14066988270637 -12.954320163665 0 0
170.227766866139 -4.61712570241046 -22.432679660875 0 0
117.649055238332 -20.3754807413672 -11.5774132129791 0 0
-155.66641499031 18.3509411570249 6.83188919888021 0 0
163.903030826103 33.6048785968442 19.1692514683662 0 0
167.3205754165 28.5437836556557 27.1575843587294 0 0
-65.1768395650175 -1.74451800822098 -0.720556100603051 0 0
176.390441290603 35.6231194870869 37.6666984036149 0 0
-147.406803985759 -0.582904297430359 22.0681350354959 0 0
-184.425894914582 -26.9688627679323 -2.32320153931146 0 0
8.36879239549279 -22.2223410293356 -6.89185383018254 0 0
204.466295309534 -25.6260712745968 19.3266674839007 0 4
123.097288721349 -20.0347815737804 -16.7709840826796 0 0
-25.8442761637618 -18.5325151543458 -26.5600994037704 0 0
-132.215655327118 -10.120417098291 19.3826270836657 0 0
28.5576876103365 2.48733484182771 -20.5187106234275 0 0
159.495588487782 1.60508373596745 -20.9694014850957 0 0
-206.464598976216 34.4112207395275 12.8622679662204 0 0
195.066459034571 -1.31629934864143 17.4596836780486 0 0
-42.5746581965971 -7.31253461662285 4.22051620646021 0 0
-131.34176424086 8.23274101226832 5.44214753928986 0 0
-47.9414951583866 -9.31255311943897 6.0356415911614 0 0
177.288449290532 46.0371055919166 -1.13043992611634 0 0
43.9223916966508 3.47506355357898 -22.3804925807417 0 0
-189.506493230467 12.6817163473754 11.6006907294069 0 0
160.592759395716 9.12448369753742 13.6487516500968 0 0
-191.544146304393 -29.254977023319 22.8241362481159 0 0
124.431219413453 -8.56252611736034 7.17469063886721 0 0
150.979420713876 8.5748032293546 8.98200994066479 0 0
9.08075565513206 -26.7453229793917 -14.8086999502807 0 0
6.72237872475614 -25.8087645228346 -21.6723460571164 0 0
198.984893696856 42.3965929667351 5.05822313968856 0 0
196.509589109449 23.1550328860337 29.0038896598482 0 0
-189.246343533661 2.18092076016736 17.9703573204448 0 0
-198.396842826426 57.7853298529133 -10.5972003915384 0 0
