"x" "y" "z" "f" "a"
175.862320480408 31.8676258825324 10.3919019730379 0 0
182.402585656936 18.5887615557389 20.9847119101916 0 0
-65.9773840675983 -11.4825662685096 -3.16248519222809 0 0
144.601746623979 -20.8378066494193 16.0653392941192 0 0
-196.028223669786 -27.4814377666653 -18.6768315802269 0 0
-48.5633080036133 0.113028068406157 24.1367200638617 0 0
62.2836625512857 -12.6307743945761 23.117296128354 0 0
-87.0939383893122 5.70317513269731 -2.75403886812916 0 0
-71.434285582159 -9.29880427164097 -6.40841563444206 0 0
-52.645566267568 -10.7268281982171 -1.57479024963929 0 0
-143.989437899946 -9.61044378648567 9.71426687257162 0 0
-52.2168820565053 -2.74744882049756 -6.84267934830909 0 0
-195.407251197754 40.6287398963338 -7.12516575967372 0 0
-12.0448387748263 3.96435307533718 23.0988469062967 0 0
113.177935311992 17.8331880378866 6.59239488047774 0 0
-168.284300776848 12.4365239338903 -14.5885861754392 0 0
8.86337675990677 5.08199910787738 22.6989892099262 0 0
-205.348932267908 -29.2682547683969 -14.8020962188712 0 0
-10.9430375300996 7.54353511525984 7.39777585501189 0 0
188.428991156143 39.2927340168284 0.0430913608182288 0 0
121.878970771458 -21.0180821079683 0.776207409559515 0 0
-164.586080096874 17.226050888731 -16.1731455249902 0 0
-202.673062871118 3.80994522823943 -12.045545767441 0 0
40.7166627966903 -11.7212800470266 24.1723975701661 0 0
204.68972437844 -12.7375122492444 1.03598812726107 0 0
175.6827743486 23.7199370187689 -21.9334666966472 0 0
42.13505456449 5.5678281738586 -0.300009498654303 0 0
-209.399733586421 21.5324553260819 21.5280364603224 0 0
184.706331187322 23.987671290153 18.5808119794298 0 0
127.078425149389 -17.4310515596523 -6.96868975661816 0 0
-144.464744322476 -2.34060393741948 11.6086150599014 0 0
191.620321442242 -9.64407880534598 17.8850646593949 0 0
-227.457253004598 45.6905068920469 -4.400157702152 0 0
-178.897585682862 -32.6182728323989 -5.17184440515886 0 0
-179.500192276248 6.31570585852809 -16.8020053388023 0 0
176.065212228374 38.7410154950897 -8.35179906999888 0 0
-71.5339299052155 0.182464423885464 -6.03004440661701 0 0
118.047998773428 -11.4809153703632 20.7721410731989 0 0
118.853834290432 -3.63558874859493 -9.47670266772634 0 0
0.783313100985132 7.60852640729032 11.7979622111307 0 0
171.486072417054 19.2158461845521 18.3845039765067 0 0
135.817169133241 -0.658179080302897 -9.88628597190095 0 0
9.64581916004962 -5.42149372476795 -3.15793404197051 0 0
-207.218701288735 -6.77060491658685 -0.587916927981848 0 0
214.968413060691 35.2892615932804 -8.13401023483263 0 0
200.387440152462 -29.9241251534206 -7.19197890030402 0 0
213.680664214161 31.3930914586876 -18.0594760606416 0 0
24.766220128986 -1.21621120248625 25.5499480117781 0 0
206.141793784349 12.306236404051 -11.3088316664479 0 0
179.636942753215 40.4789722454802 -10.3493593107054 0 0
129.379043521189 13.6514236829515 -3.79597875426493 0 0
-222.942117474312 11.4590538530444 -13.2646301031539 0 0
-178.283689521766 18.9883108532032 7.60051954171701 0 0
95.9362186460425 -20.0361952903489 9.21637548859595 0 0
-99.9285829631709 -20.4865740345861 8.67175664768976 0 0
-199.226922498687 43.9683518810937 -9.81579380473523 0 0
-16.4061590989456 6.30690305050256 18.3717994228009 0 0
-46.9667414245856 -11.659613444995 -0.23458642256526 0 0
143.324237341883 12.6386859202511 -7.19182388577948 0 0
-20.9454075472495 3.00987883301867 -4.8437911898426 0 0
195.251499128559 -10.732379979847 15.9988562388023 0 0
199.470969432973 -30.0125602094142 -20.8923360164737 0 0
199.010519793707 -28.8619572055093 -26.530843350273 0 0
203.655647416205 6.26897318509666 17.2052519391486 0 0
-218.871726226083 47.6900629242784 -1.23263486667427 0 0
177.517728918475 -19.3962968683457 21.0729546158579 0 0
-179.251705949758 -33.1760630408643 -16.4138357098618 0 0
-95.3798155526113 -0.73185176148868 -7.9734750516976 0 0
178.702831760946 -1.88030746850424 -29.5923468214627 0 0
-206.915031688079 48.5188947611428 7.43671652722507 0 0
69.0884968212333 -10.1659295377913 -3.32442167749543 0 0
205.98757915736 3.26912822769971 5.27708838666185 0 0
181.891017267304 -28.9844640516885 -29.3405829009054 0 0
-199.281848105218 42.0185907255224 -12.3969366245435 0 0
209.959104599402 31.9173406537024 1.18969700576348 0 0
166.110556065462 -28.5463547030142 3.47438674882131 0 0
-171.755083577556 11.4924914026763 12.3111032360214 0 0
-58.1138923962262 5.9283045932466 15.7393254069665 0 0
-134.742745153247 -9.73586405168058 -18.1382637065425 0 0
-17.1789284231102 -0.210666011655073 -6.25021667137532 0 0
-38.4967487380242 -7.18539425223483 25.5395603190931 0 0
43.0262509432389 -16.9659417884139 6.70630597265346 0 0
36.9888521173707 4.57778895009223 23.1586257181009 0 0
-209.441020514016 3.9704577446178 7.97032251119634 0 0
-222.785122089176 15.8768530798862 16.9664251711045 0 0
178.349189132039 31.1794254251268 -17.684687951138 0 0
-208.020065211641 31.9969178283357 21.5684312251133 0 0
-195.903645844188 -15.4692257892495 11.040245355681 0 0
-42.9393997949811 -8.41326043543947 25.1191326728571 0 0
30.7755517016633 -12.3102585698997 24.2747119274529 0 0
24.2515571001918 5.00960267291844 -3.18045635775089 0 0
173.139455147191 -29.9306804087777 13.0056891467471 0 0
161.321474607935 13.772081333896 -13.013448423162 0 0
154.653831768303 25.2447588368933 -3.16628049311263 0 0
170.480892203217 -24.3891875684623 -24.5315081087038 0 0
198.316629547038 -19.894847429585 15.2501210571683 0 0
-120.958849296542 11.8142521331902 -1.51305786640927 0 0
21.8082169940178 -11.9416326390546 24.6876673304421 0 0
-146.349451049621 -1.09382357517164 -18.2206546948358 0 0
-221.587640493382 47.9558665877868 8.19546973836296 0 0
-120.465954671974 -10.9138788064246 -15.1000693452045 0 0
164.324517658514 -18.6936041933642 18.220635162474 0 0
139.261508364899 -21.854030816523 -2.97050088695684 0 0
77.8249552596314 8.94559721377686 1.23852541312383 0 0
-41.5409525342183 -1.93471682079802 -6.06735947091007 0 0
41.4191316955179 -17.7747775606902 8.60786047626866 0 0
30.2492882039135 3.88442140948601 -4.72752477065487 0 0
-109.930156586587 -19.3207580647601 7.90460318412786 0 0
-100.925649710433 -13.0991012449481 15.8757897706534 0 0
-208.321781353739 -17.0717984466649 8.90517822213861 0 0
-196.407715452764 9.80695863564953 11.382506767222 0 0
-194.269842505525 -16.7465096335739 -30.5071136365995 0 0
-68.6023544720748 9.79315659479202 8.73566232486239 0 0
-183.161615623161 -28.8580226298765 -18.9118114393427 0 0
164.244224947559 2.0320452679096 19.1930855683551 0 0
-212.759226104897 -16.3649727277186 -0.383713354733199 0 0
-167.212112152833 16.4151276185334 9.58681962917821 0 0
202.572119306648 -3.2109906714913 -12.4701417365355 0 0
-184.009204205777 -7.96763303078102 -30.7762014954298 0 0
198.966221968344 36.0241350913349 0.943304404898481 0 0
197.525972143873 35.3754483423495 2.71987520361117 0 0
204.285277483139 -9.86354355728662 -1.32164334696863 0 0
-12.1238641838813 -22.0390567376039 11.3551059342434 0 0
-202.793680394324 17.7692848950063 -16.4098889877935 0 0
-0.21779661604612 -14.6630508690315 23.7131193483639 0 0
3.98800793583796 3.20092668974203 24.0218143751011 0 0
-159.298392428528 1.96474571081301 10.0785370606969 0 0
111.824267465225 3.65587468699045 20.9651288663611 0 0
-95.9340757509054 2.48045158129607 -6.68337273591408 0 0
153.109187190715 -12.6812336773984 19.0488189524205 0 0
170.379907528355 11.6842274584039 20.4304527350571 0 0
-75.3495923759705 0.848347801391503 -5.65918078050851 0 0
190.6015198701 -12.6636532842806 -41.2220961620703 0 0
206.772783081703 38.6172014141936 -11.7747964319306 0 0
118.610595278004 18.4634074489818 5.71714863413005 0 0
-217.960633496476 11.8490303440702 16.3199586879198 0 0
-37.5661026228821 -17.1430528672353 21.1327231589673 0 0
169.099721543004 -29.7581739950761 8.23366882187062 0 0
178.163785466673 1.90646945607424 -18.916499477444 0 0
-188.966054365198 -7.50653142989826 12.7392269321851 0 0
205.911016684226 -24.2453621877206 2.46856351077946 0 0
201.717437763521 -8.26496175924243 6.99159324854593 0 0
183.136774938895 -33.1950448643639 -2.89923548639045 0 0
-163.610038126013 14.7526155758175 -22.65107620757 0 0
204.434960220203 -30.7425910367312 -20.0517875537142 0 0
-45.5312615201901 -22.5256231904228 15.6695215193341 0 0
42.8178995066966 -6.96376915076273 25.3369755363316 0 0
-230.379959507637 43.3840849234929 4.41321553148081 0 0
-25.4712409589058 -17.2038381463186 21.4953442938073 0 0
149.236829014976 23.9891148273703 -1.06541818276354 0 0
-27.731770494503 -12.7263362834841 2.40529648565616 0 0
-193.340649450049 23.5359274175322 10.5023240307415 0 0
62.6592883509872 1.68718221514491 23.7835768049458 0 0
133.992403734104 -8.66909792874641 20.2869756661303 0 0
52.6850787661063 -16.1629725337907 20.6249584025268 0 0
-139.618361169385 10.3043758623014 -12.1739759529419 0 0
-16.3331540688598 -11.785585364427 2.50749464679328 0 0
189.199459497706 -1.54549164785524 -23.5712373191057 0 0
196.923491517589 41.3963823187523 -16.5838078763223 0 0
200.334803706652 -2.76454739982247 11.4250601186204 0 0
29.3655408808716 -19.3734486737279 19.2518350131465 0 0
-224.553353287365 46.5229329607006 -2.90994481451008 0 0
174.985851747212 35.3341392614457 -13.4091326862683 0 0
199.959037418658 24.7666070969265 14.8265278387731 0 0
175.766295551997 23.2246167034374 -19.7820380937339 0 0
-151.043897267622 -17.7569836895195 3.64515135091511 0 0
-171.503026692856 4.0702564122589 -20.7840356666817 0 0
208.583097480831 15.7495411296535 -19.4583127538827 0 0
132.001182600882 -5.27709788107421 20.5187603691104 0 0
113.695291200911 1.71021580632619 -6.9805356590129 0 0
-201.221993728528 -30.7357718640982 -14.8680913510206 0 0
-34.1344618106507 4.68794259992204 20.3308691785125 0 0
-161.8458789926 18.0258599869367 3.77100918782656 0 0
181.656558559495 3.11791996391542 -19.0679518666159 0 0
-177.14653219781 3.07103772049364 -22.5466930865266 0 0
110.505629080611 -11.9565304277556 21.0096446406912 0 0
188.486770616985 -4.7510881610843 -37.5335638279203 0 0
141.558234890646 17.539382358773 14.9799289066691 0 0
140.682317870493 9.70529562443506 18.9143217530031 0 0
30.063683619457 -0.896330151599294 25.3642647627366 0 0
-101.335362000268 -17.2879851244272 12.7187472485253 0 0
180.530122012198 31.7017199287553 -26.5073041725132 0 0
116.744358995665 -0.472759828459556 21.2442469746345 0 0
-154.316367965172 -6.31324942992716 -20.8337684424191 0 0
198.540869756598 21.9205024926095 16.8461617171795 0 0
27.8542158577257 -16.9480395195904 7.56124820380941 0 0
135.154847349207 -6.66062250788744 -11.9847896102987 0 0
-219.207309114243 47.9119657052912 -11.8787829487396 0 0
-208.226586513921 16.6125604531272 18.8098977890854 0 0
-171.44109050151 -32.0585978511906 -17.2122374143821 0 0
146.938143946426 -24.6561618501663 7.1579333889188 0 0
-41.1103841232144 -8.12373484850399 -2.16294599414241 0 0
113.09050050728 -20.9728763739707 4.23538335039763 0 0
-210.199377694128 17.0125659850117 20.1103222844638 0 0
-211.19477395679 -15.2295613936688 -0.66448320435102 0 0
-53.8523488139854 9.03962958061503 9.96933235922361 0 0
-106.824847807585 3.45088406581082 -7.59298534575355 0 0
200.787098969074 -31.3714299205912 -28.138545394915 0 0
-20.9573922739267 -13.0417870771081 24.3840359035461 0 0
142.132239983386 20.3768354210325 -2.49772397693826 0 0
66.6850930494758 -11.2089752614409 23.5442914090134 0 0
-191.611368185851 -27.9553408549326 -21.1790868422831 0 0
73.1059477648744 -17.4600304508343 18.0959213560649 0 0
-28.4711494219748 -6.15542454505188 -3.01880729792067 0 0
150.330540549663 18.7096874624795 -6.88910186507851 0 0
-82.9994990330011 8.35727330095488 0.369338719815008 0 0
101.342402108079 8.41902347183383 -2.50530717772232 0 0
-188.864330667732 -29.8799121131795 0.57606151684205 0 0
-186.310717304054 -32.2035795996237 -7.85323018537657 0 0
205.502716390981 -10.7676077086424 -25.1117987678007 0 0
180.167630319919 14.4463954011934 21.5220429584113 0 0
48.5924403002744 9.30023091959306 6.90754464019261 0 0
156.693322348624 10.3931655211514 -10.5676833542801 0 0
45.725380664031 10.1235042264554 15.1091819109276 0 0
166.305332414229 6.32028170433556 19.9332059137155 0 0
-135.23544001578 5.53443014687136 -13.1614284329694 0 0
-112.970232809195 9.49414815040977 11.1366741478298 0 0
-207.690303926077 45.8291714732235 -14.8005037253761 0 0
47.693132221788 -5.82112348684519 25.2733869931968 0 0
117.126990120311 11.041102410572 -3.40465267748198 0 0
-34.1339805425885 -7.29536287769963 -2.31586834549256 0 0
-205.443552874418 -2.39106538980895 5.49391142935486 0 0
189.371082504234 29.4254164097915 -31.5649757203735 0 0
-213.309211841306 49.6925385574755 -9.36789322380837 0 0
174.883300176106 27.8944488653383 -17.3666902197767 0 0
175.56032975614 7.6403365102316 -15.796341345366 0 0
-82.0438177489196 -17.4140206346745 15.7853544424969 0 0
65.4445155043461 11.3008448417592 8.02683069552248 0 0
-96.3895636012113 3.65016285429182 17.3675515813371 0 0
-49.2605987945992 -6.52706740395087 25.1065692825837 0 0
-152.007809605495 -4.0330529208476 9.78877604569836 0 0
139.069271919704 -9.31396862656989 -13.0669149364654 0 0
175.813162873915 25.4372320527819 -20.1345777610802 0 0
-198.492253320858 -28.1430113856638 -15.5620010689967 0 0
-183.890264172852 2.03576480321635 -19.3918837143017 0 0
-10.4901873507629 -20.50822333087 19.0963576662976 0 0
-197.101274843214 -28.2983251193567 -15.9214564119655 0 0
149.1340282612 -14.0789614976681 -14.9844674733403 0 0
204.918748051303 -26.4876942794864 -29.8325997358936 0 0
164.566356878903 29.099171254922 -9.30702471135457 0 0
-208.529847142692 -15.2185790069297 3.03772423060206 0 0
-212.835897699114 17.3244655014781 20.5183279138728 0 0
-188.359213664133 26.8426626590168 3.39766314475874 0 0
-14.7225030704313 -10.6900509962695 1.66402745772677 0 0
56.7305908477228 -10.4107039762498 -1.70113495244953 0 0
-199.837928919659 -10.5301087934202 9.78606100068459 0 0
-168.54945574371 19.6684724502072 0.442880295079212 0 0
196.081327120328 17.2997725000984 -26.929906380678 0 0
1.07198027271377 -7.30880502715676 -1.17827700393224 0 0
-49.8724540971039 -5.71428280047015 -5.55405114360008 0 0
194.297793818631 -29.3774687286688 -37.02037538709 0 0
204.388494842866 -29.3459199146437 -28.2007256354465 0 0
-147.987948351305 -4.95745446229465 -18.8809048277446 0 0
-172.739664448492 -27.9243684339734 -23.0654720698245 0 0
-7.85113456945028 -5.20753765427353 26.2259092742825 0 0
61.2507823579294 11.4729689904763 10.5369549577856 0 0
99.6215310110469 -4.3180360931392 -9.02972670175038 0 0
144.262212241162 8.91972342084096 19.0766397782361 0 0
74.9824326064857 8.63380403283715 1.21363969650529 0 0
202.949634730258 38.252860145154 -11.0095154863012 0 0
185.094782169596 5.48225400262982 22.1051470899074 0 0
66.2705680572383 -1.17994858231051 -6.290707517258 0 0
-209.857377002365 45.4393827002607 13.5502923708101 0 0
-114.91247925649 -8.72921959063882 -13.8141981811431 0 0
73.1176272042184 -0.984540121790177 23.9588375645545 0 0
46.1946860620885 -18.2949393189856 9.66933576582728 0 0
-216.399204539995 32.4059144122574 -22.9578419802315 0 0
135.980047264282 18.5288848590456 -1.89293292376733 0 0
-87.2266174978615 -21.5758565817933 8.92421981157256 0 0
-15.0366732639562 -0.438319798095811 -5.981998952618 0 0
-87.2068527840496 -2.57660594198691 21.2774086800295 0 0
186.931785425755 -30.9367126603289 10.876529454603 0 0
183.519610486531 1.94735505038438 -20.0506525312482 0 0
-171.034011175041 -4.36554982086817 8.96510086568824 0 0
186.004658417525 10.0934018247957 -16.6144084755155 0 0
135.354503346879 20.9046892854693 8.3689629032442 0 0
38.9006789319688 4.5864044077183 -3.72091531730825 0 0
-233.94957564877 24.7999508111769 9.62524506829197 0 0
174.203929570971 -31.4873195100879 -1.48981776864812 0 0
-171.811018910114 -3.69974233604881 -28.0035257303829 0 0
-69.9841644772244 -5.71570972104329 -8.30936119667337 0 0
102.496574432705 6.15101615961762 20.7687889474162 0 0
201.264043050709 -30.6641625926383 -18.9588517062736 0 0
90.6334839797902 -7.79944281172451 23.0870407719533 0 0
153.132968124441 -23.7256463056917 -5.10945240717339 0 0
-210.499746916913 -15.9939513876165 -8.72901523974297 0 0
-183.075872887379 -18.054162092133 3.91134447456959 0 0
79.2167726942973 1.82033156887682 23.0653207975791 0 0
96.2973896246761 3.03277925726244 -5.20392805559161 0 0
190.09162818141 2.53389892787351 -15.4839204724421 0 0
-140.35991741721 12.1233079741157 -10.1463788645247 0 0
-208.509024789944 48.8371446142737 -9.90554878818476 0 0
-25.2030668383171 4.28103609735715 21.8074814069836 0 0
-148.358136632977 -10.8397699630716 -20.1390218902413 0 0
-27.0854816196179 7.49893410416943 12.9390688810938 0 0
27.2461213345859 -19.4998865176849 11.3855034906481 0 0
203.372876644202 11.9035379382537 -10.6868402955107 0 0
-165.293327851454 14.249314315538 11.8451244199974 0 0
34.8459869477115 -18.2855267493296 9.83792001255951 0 0
-149.823375049634 19.4619021274612 -17.747621821663 0 0
193.257037513129 -30.266852495859 10.0165390835462 0 0
169.744630883788 -26.9452845625566 -18.605246095953 0 0
-161.068276341316 20.4670570040648 -13.9452864214483 0 0
182.439509586947 -18.6229742005724 20.8421435767904 0 0
-224.973650196908 23.0800572993098 18.726006194948 0 0
-43.4490131896395 3.65938131042034 21.1885179321026 0 0
-12.545052660046 -20.3272193969294 19.2545864199372 0 0
198.074171052478 36.8494251161874 -1.42564505495426 0 0
-152.047444209864 -17.219228687542 -19.6404157256909 0 0
-121.458594583858 -12.7163284106648 -13.7292827975832 0 0
-120.622345375157 -14.050107197699 11.497482995732 0 0
201.741796159095 -3.34949056446442 6.71679998907852 0 0
191.302990230193 -33.2135475535036 -11.8368639456576 0 0
-50.5675547725898 -3.21144449241734 -6.43164450765663 0 0
188.292085926483 11.8829688100352 21.2674151774232 0 0
-166.795389558739 18.3782460327345 -17.353466153123 0 0
181.197661831014 -27.8637978546895 21.0760975691301 0 0
176.022593391021 31.8385256839183 -16.5119370726761 0 0
-197.335078251287 -8.57294105654791 11.4775521085956 0 0
-221.707243271719 6.6663136000257 5.69276747804803 0 0
112.581726908093 6.1748612674727 20.3074863827037 0 0
18.3909235800283 -16.4434986102459 22.377031380896 0 0
72.4328195913975 -13.9401934807155 21.9300608585746 0 0
45.9536334177224 4.20764042577766 -3.54604380272554 0 0
-185.380131411204 -0.0555599516178504 -23.1755687768122 0 0
11.2396517635199 -7.33279210315866 25.978925406099 0 0
162.937170465955 -27.2732645642903 8.46218008264744 0 0
-127.19881739253 3.01879104046354 14.4445622492733 0 0
-77.9204431621504 -19.0967269253004 2.09851805899399 0 0
-188.183194019437 15.1035652161538 -11.2113045715341 0 0
-214.77700991246 15.027979748343 19.4802861012821 0 0
193.004071907886 17.4641295524309 20.6854384091115 0 0
22.8860223071687 5.40089537583863 22.5803533584124 0 0
-210.737104187834 -15.8016032922637 0.972402984610656 0 0
-78.685352751574 9.96438833338339 3.60324869852281 0 0
-182.874285947113 -33.2709068665722 -6.45047509784618 0 0
180.708515174028 -11.4888591433138 -39.5049548433747 0 0
34.5190760944005 8.99844082552428 9.6391969669666 0 0
-10.5697876371213 -18.3412024733735 20.9647538356745 0 0
-166.719542695306 -23.6608998329577 -7.02658476061206 0 0
159.095408486927 -19.0532067474509 -16.9466773570562 0 0
91.2786123823991 -15.8118835774277 -1.4222231184636 0 0
31.3867871028495 8.85785263318604 17.2915803507215 0 0
-133.566970385423 0.944961285410526 -14.1358457009644 0 0
37.9949007774386 -1.08415046807855 25.1623389767657 0 0
-50.2230678652321 -21.6108417061595 7.73776989343223 0 0
54.842857692741 8.63281612547982 4.04202016725432 0 0
-155.729393233798 17.1924062011723 -20.5830599094052 0 0
206.241603957021 3.58827569739132 -2.16626998843941 0 0
-163.203999293256 16.2120529637301 -21.2981307993487 0 0
66.6542174442295 9.53356005904884 3.8868558561622 0 0
190.500528963793 40.9483952164781 -14.7858020230832 0 0
212.920424561306 13.594096354292 5.8028942409379 0 0
1.22739624962153 4.52091943312853 23.0764605265482 0 0
-174.002437921577 -19.1851323940071 2.71025149069078 0 0
-202.48222871069 -5.68752784197962 -10.3066860205087 0 0
66.5306402689509 1.61562188471609 23.7039634279243 0 0
-134.647038731494 -1.41450564797127 13.6852928330044 0 0
130.553411272693 19.3183162989606 1.80242628362255 0 0
-73.695756165876 5.12913570161508 -1.84694229769373 0 0
171.428626370065 34.4289431720052 1.25780605991332 0 0
208.408995717252 -19.3092583976999 -18.1379126028476 0 0
201.0468197253 -0.641307262961347 12.0396151802801 0 0
-204.004825774518 47.1838200159951 -10.0957828528173 0 0
204.681711348349 37.6540371550517 -9.80757742215188 0 0
17.5989895988187 -4.74849671269007 -3.79534342976971 0 0
128.017317691532 -7.33738605190068 20.756953192629 0 0
-180.13749121243 -31.3056442157561 -20.0379709869347 0 0
-203.036433606343 -24.2958192701456 7.93751551280295 0 0
44.8902757460083 9.81495930989382 10.0084830632273 0 0
216.265427208727 30.5623856208378 -1.61277565811043 0 0
-184.943518208481 -29.2257212026052 -18.9519106460516 0 0
71.9358146959505 12.2538172853048 8.57978960068324 0 0
69.5591023582569 5.30832212503033 22.1967356511342 0 0
147.593622588699 -22.9673602342178 13.6550159916512 0 0
58.2293999294672 -1.17439962328724 -6.58573722151589 0 0
-17.7229844744001 -10.8503565474584 1.78448217242874 0 0
89.3775824992476 5.31087009821632 21.6182935001033 0 0
79.9431457616242 -8.29456753809759 -5.78740502676867 0 0
-198.828453362151 -26.5661650926887 -19.3104971692228 0 0
-117.293731658758 -11.3955914644886 -13.6651383272221 0 0
185.494336402361 19.0043653946593 -22.8503170409215 0 0
167.481751622121 -28.6857773084863 -2.204454254369 0 0
9.47632602217071 -13.4054947111295 3.85968509943904 0 0
-87.8306842137672 1.50492657402786 19.6844081866012 0 0
199.806638836654 24.2093364510211 -30.971125758661 0 0
-113.738749064967 -10.6444639107206 15.0115540582927 0 0
-227.835462316296 20.4044911624352 15.5418759957214 0 0
195.391227582327 -19.7986933977844 18.004271340082 0 0
-184.635992852192 20.0863126281329 -7.54518031176763 0 0
210.514485336745 8.48993208963376 4.44018281765556 0 0
12.8734730792083 -13.3896461917081 24.1408922756296 0 0
7.73157018093526 -4.64966509731077 -3.75073968776663 0 0
133.939530584738 17.4141321875959 -2.46042638479315 0 0
-211.22581369238 -23.7887394216524 -15.3816616610329 0 0
203.748135826044 -5.88403324478346 -15.0085731395651 0 0
126.971809324435 8.56051028000588 -5.81172863973397 0 0
170.305483189529 19.4609770963437 -14.1453057695632 0 0
-57.9561396320053 -8.48303992596056 -4.31779999840297 0 0
-94.8982418792728 4.79729331661829 -4.74151205101263 0 0
117.373530358286 -16.8981143669522 -5.46708537670172 0 0
-109.813349213633 10.8182258301215 -0.650298099640596 0 0
73.688134899427 -2.23929545273806 -7.1782047052619 0 0
203.226665473766 15.7450621809938 -17.6503942260469 0 0
-176.937610758969 -26.5189070643712 4.20038770015915 0 0
-185.651369076055 -22.9275844386379 6.59905290484085 0 0
-61.6248483554245 1.61617399989932 21.9852387463911 0 0
-83.2313160750154 -13.3392415965638 -4.53286843061774 0 0
-200.194911476615 24.6234438980049 -18.5292450839285 0 0
152.073161384894 -24.888667226393 10.0636729173501 0 0
19.1528631710592 8.37556252788866 10.7276943818052 0 0
25.690121705051 2.82480955321952 24.1721646931432 0 0
-216.084668398724 49.8755856777448 7.0689860061826 0 0
-184.743468332798 -24.6044554614706 6.12311498292239 0 0
28.5201201378976 -14.0673374378491 3.70018802865329 0 0
73.4308784087808 9.78756534870247 3.24291367820047 0 0
-190.546651772969 13.9489445189296 -12.1505714036829 0 0
206.852470375734 33.3625390587843 -0.876343493554066 0 0
138.798389641883 -3.61079008601584 -11.3355184092269 0 0
180.662130554716 16.4762843282059 21.3818328020731 0 0
1.30102399299697 4.4992006158186 -2.98871762630721 0 0
156.82646409311 27.4069789231949 3.19851613970257 0 0
-204.96800305273 -25.9901263425818 -17.6595207472773 0 0
-174.515073603739 -28.7231864285158 1.49237648308184 0 0
41.6037272943298 9.29824069616358 17.4625229406496 0 0
-207.315965945386 -16.2848874873536 4.74614587088359 0 0
-148.034893706736 -2.82878309505919 -18.9619044577027 0 0
175.688283582503 -3.05244771926239 18.2391049558341 0 0
-212.728614727141 -23.4403147879706 3.86229422550495 0 0
52.9485712757947 10.7560041559761 14.653823565696 0 0
-171.687128888955 9.52478348612895 12.7156644574854 0 0
6.42212085057648 -15.0312803262353 5.36325782593208 0 0
57.07281565492 11.0092937559839 15.2081848560441 0 0
-228.764529817322 31.092964784669 16.1755695371844 0 0
-54.7102139063715 -17.7718611976928 3.58062600126904 0 0
-229.848974430186 43.4697582548462 -5.51047042678515 0 0
152.456950961649 -4.34675014449815 19.2780814763223 0 0
-194.413417231101 -18.6415004036918 12.2208398736275 0 0
13.8875300067902 4.92022912723878 -1.58143255024649 0 0
122.400071602861 7.03732764986289 -5.84356930029115 0 0
200.965481135697 37.0850865934442 -6.56568490347685 0 0
21.5507820589953 -4.12416060620988 25.951643560194 0 0
205.784612851008 36.6570194422234 -7.51647282493735 0 0
40.3887846079059 -19.7981794290695 13.3628968236506 0 0
-89.8875667850047 -16.6224524577573 15.1013873853274 0 0
-21.048216119107 -8.69789394204705 -0.313856082369945 0 0
148.750477405339 -14.697361375578 18.9852864060782 0 0
165.495593180481 -26.1160654747545 14.8710195394779 0 0
41.5533035838537 9.37946566327203 9.10557849589153 0 0
-206.926271878558 -27.6994054864819 -21.36602254585 0 0
-44.314658661257 -23.3356189641644 12.7284956104134 0 0
46.9986207083421 9.85421524031819 9.23806657150673 0 0
-199.199370162765 -6.78910831298491 -22.3794649530227 0 0
146.530129634305 3.16750864453154 -10.0672868294753 0 0
-103.757840022099 -15.2954573335663 -6.60986440271058 0 0
-100.289687312685 -9.20991267892334 18.2398135604893 0 0
-127.433175910842 -19.4878364942101 2.53338220747438 0 0
-188.482654410542 -31.4025165001435 -19.6425835492284 0 0
-55.6401219212222 -13.5731467148432 0.117519206005617 0 0
202.688166426824 3.98419757568508 15.7725040619789 0 0
-198.616132478268 -33.6915369676092 -13.0695594371743 0 0
-54.4469241428013 -10.0528139841628 -2.28371414124682 0 0
-149.852436423426 5.20863918597974 11.3368107017626 0 0
107.547727544754 8.65055212667566 19.7053731509581 0 0
177.019961515252 3.97178699639215 -17.5144235771564 0 0
-128.621029862331 4.72075619383229 13.9050051367251 0 0
177.937039755193 23.4164182428919 -26.4610821001237 0 0
182.312978329861 37.6873625873274 -19.1335721602244 0 0
196.558055334554 6.64843025577533 22.0264412201521 0 0
-54.4580569412525 -3.63681263038591 24.819494839793 0 0
-197.091389626833 24.9739087169915 -11.0344234127214 0 0
102.908271932267 10.476800346907 -1.25273459155134 0 0
175.408295886743 23.1986767603357 -24.8545473104547 0 0
-89.2742755309143 10.2384933417266 2.18596956826595 0 0
196.000259025817 -6.58565239575978 15.1021589829607 0 0
-196.200931527882 41.5713806531086 4.05641123953787 0 0
131.61446432813 -4.11212156819816 -10.6877588431236 0 0
-144.683981850547 -10.7367591216781 -19.6444498548148 0 0
-198.101838508677 -28.8649825098632 1.57029135130632 0 0
167.436668517908 -28.855536131831 0.941248942032056 0 0
-180.306723586429 1.07168473848935 -25.0226721262086 0 0
-129.111483489761 -3.08705077596078 14.4736819345865 0 0
-231.402202542555 13.0856559446343 0.186100940795035 0 0
10.9762228694518 6.52807586756417 20.8994900573393 0 0
202.629562763015 -4.06802469587415 -7.30266840806774 0 0
-87.8144119213628 -17.9332565846671 14.4795113554184 0 0
-211.953126015624 39.9884684346119 18.7341442626631 0 0
143.413325217408 7.17329005976462 -8.61770714053983 0 0
161.968084051348 -2.37227184729217 -14.7115296126774 0 0
-188.314342002503 -19.0245084465522 10.4962123172381 0 0
88.3069517129504 9.42885874639806 19.5162781999186 0 0
-95.7566074038586 9.47283601089072 -0.328886220340663 0 0
57.2146530537132 5.31090617213364 -1.86604210935108 0 0
-73.0108860384001 -22.2785296485724 10.3984514518831 0 0
185.135265064023 31.3146739943985 -29.5819033293208 0 0
-209.149813226038 21.1810285929894 -22.1826953634969 0 0
-116.855954245505 -2.27037261268498 -11.5174856506032 0 0
156.504117304835 27.3501318557626 0.978640151830559 0 0
114.885386273907 -13.4615641432279 -8.16150608085306 0 0
50.8782686542334 7.6851963781361 2.69957419397311 0 0
-174.604067554218 -12.6220405521772 5.79960791245787 0 0
-7.63929833592098 6.34127362075147 19.3774767308964 0 0
209.666559412012 13.3564449414534 -15.1374434043248 0 0
137.131108524394 15.8158871939574 16.0362001733225 0 0
-181.15380758185 -30.9221372765293 -18.207988046126 0 0
195.756421545119 -2.47448356970975 -16.8779186784116 0 0
9.29342184207131 7.16912368526072 5.58673649098627 0 0
-134.700760006918 13.9343336670437 2.80947839567335 0 0
172.233535304141 -18.8504833023515 -30.4404113508912 0 0
-67.6182058606478 5.35588581191576 16.7971744054989 0 0
175.670091270784 9.62146596799926 -15.412162865467 0 0
125.855459486079 10.5980934268141 -4.70655668152397 0 0
178.77561742364 -32.5804355403741 -12.559051342791 0 0
81.4109379583196 4.28369877542185 22.2256258767048 0 0
-213.318713695488 47.5551657582662 11.5794550310621 0 0
-132.709010823312 4.53827006577214 13.371191199404 0 0
-82.2269175267396 -17.8256750856964 0.00749232107641941 0 0
172.748257485972 32.8770799768987 6.65035181814564 0 0
114.871207644796 -0.894570950947195 -8.07897626425943 0 0
-1.94741754076588 -6.29231149835199 26.1934373039016 0 0
202.284776142059 7.21172266415227 18.9829439031649 0 0
158.64219536671 16.5853573870393 17.2353070303818 0 0
-1.44556897505406 -8.23125015172926 -0.352878378696403 0 0
49.8287764098258 10.2086281815879 9.72972347339062 0 0
28.907565639042 -15.6984243528597 5.53602415962317 0 0
-99.2583487122233 -20.8935733415211 4.09398498683559 0 0
-41.0578226708269 8.40119923537019 11.2511685344807 0 0
-180.866238118812 -10.1072057046053 -30.8469660951577 0 0
47.7734625349365 5.54814449380981 -1.04026636029807 0 0
146.17955867918 -16.4098718986968 -13.1633461572864 0 0
-146.595610351861 16.9192586086584 -14.3721547533461 0 0
94.1510169094696 -18.9515245043828 14.9965129518277 0 0
6.56973965667208 -21.4769534961883 17.0554169703962 0 0
-172.969129340304 -31.777786850606 -7.50057399475149 0 0
19.4962136140858 -0.936024925823568 -5.64640079049725 0 0
125.426474976785 15.7385651794129 -1.50749378293797 0 0
-67.3344506271249 -1.02185986579152 23.074707433255 0 0
-51.8049056891138 8.28614882756625 12.1022391914272 0 0
-211.442798679053 29.0428894466694 -23.7730952273775 0 0
163.571929616577 5.01758063545664 19.4464750504916 0 0
178.258536721891 -24.1705631407088 -32.3110640264438 0 0
-124.862770157742 13.4020499809206 2.76524828264456 0 0
68.1398378014187 7.06736688112097 0.216082827957254 0 0
197.83406041972 42.6909163682776 -16.8300336713933 0 0
170.816307682161 -16.1223781908335 19.1137359762371 0 0
189.446342502191 41.812162518022 -19.9013896114016 0 0
205.044863283662 -26.7088475842471 1.33536716601208 0 0
207.357207704727 -22.5713338128597 -25.4630666470468 0 0
167.244042231912 -20.1732020678014 -23.0552694366111 0 0
43.8843114757832 6.48501024465964 1.42586686563541 0 0
-185.243488236072 24.4015445767275 5.13870466890321 0 0
86.5233426699819 6.29771309284184 21.2936260322172 0 0
-175.657050563028 -21.0277059213317 1.88597261261337 0 0
-164.360973870466 16.5565405908938 8.82061741431466 0 0
188.62265713911 19.2830981830882 -23.6192558241516 0 0
203.551648790846 3.15687940344593 13.4171493344969 0 0
207.64149645312 -25.4677934784753 -17.0749294060956 0 0
11.7994168845876 3.61284139822841 23.7859156861753 0 0
-185.898492352755 -23.9477187270853 -23.6489869508225 0 0
159.381147393372 -15.1236087368316 -20.1007350304889 0 0
71.7906280660544 -18.975175934249 13.7226103338848 0 0
203.187073348908 0.594026440318252 8.70039576147683 0 0
-131.938097980352 -17.70008685938 -8.03772460353433 0 0
203.846291395595 5.23108134715743 15.8094498764712 0 0
195.199551040763 12.0126406525915 21.5741183206253 0 0
94.8113005226115 -9.48212307973956 22.572013363336 0 0
159.326267871777 -23.090347817256 -11.4139413344718 0 0
-147.085779990761 -19.5452227056792 -0.176530783073132 0 0
18.0418483379622 -10.1091937070394 0.895119604578555 0 0
-204.227444920149 10.3263432180237 -14.4442370595855 0 0
-67.5618305797693 -5.24077434418827 -8.08890018642935 0 0
-77.8737872334798 4.89387349712294 17.2342564912713 0 0
-43.3540037284747 8.85214411174586 8.93896501750376 0 0
-54.5261336627639 7.01648909651811 13.7893737735018 0 0
-57.3673440068427 -11.9387963808364 -1.27445949013444 0 0
14.4496899243976 -0.0770934514725373 25.3552575103898 0 0
197.725933168774 34.7641599816682 -30.9829203584375 0 0
-178.475799898765 -23.2073241435859 -23.7572851469569 0 0
3.29752709796408 -13.517534275132 3.99098103075433 0 0
199.027860263929 -2.11235595354449 -22.765138242266 0 0
-116.022178072757 -14.4684270723105 12.2431887778229 0 0
92.6530958275664 7.70362751686791 -1.98440265664364 0 0
-206.471786121785 -25.622745619926 4.23431317617689 0 0
-72.9731282421606 -1.31996764033871 22.6469713677242 0 0
32.0826547729905 -13.254493571377 2.85971592680188 0 0
161.501334459661 -20.0839821560733 -17.9631755858082 0 0
-225.008553977412 45.9075890590625 -10.9015566295904 0 0
196.316638873245 29.6163203060671 10.6575150964812 0 0
-145.838961715152 -14.9754222179844 -20.6431229782426 0 0
151.438988838613 -20.088640182658 -11.610692270078 0 0
194.805483147123 -10.9286338426679 -39.831398673091 0 0
-162.912790372406 7.47864418903436 -22.2954691139726 0 0
196.640216814762 -28.9467608415513 -30.2472821573169 0 0
192.677791273706 -13.2445612112351 -41.0679440954462 0 0
-192.323104383226 -21.2008837001043 -27.154775129905 0 0
23.4786800717214 8.50902450210437 9.95878740520458 0 0
-51.7401816892734 3.1689142655212 21.1752071006021 0 0
-172.27896808665 -27.7842181669229 -18.9932717248082 0 0
-26.7157792723328 5.56111838905566 0.995394180587271 0 0
-126.179553236148 3.30255881242313 -11.6323453521748 0 0
178.630009819058 39.5936725127377 -13.177308490138 0 0
168.462412815309 -23.7396704191651 -22.1608485548111 0 0
155.664514985365 -19.9273229303716 17.4484247606664 0 0
120.755942676363 -18.8001488721149 -3.47142162436127 0 0
-26.5274578385963 -7.11097169215592 -2.06145030656668 0 0
58.1996260249291 9.93936964573252 6.51815383769846 0 0
2.03428428084672 -5.69865353220566 26.1946770101126 0 0
28.7947198802132 -16.4006425200208 21.9464072196112 0 0
-197.319006676396 43.2269435279331 -8.07715002931556 0 0
213.461648347862 26.5191704837138 8.59651055838922 0 0
98.6513022100621 -18.5398439899089 15.9471451840802 0 0
-171.402419045359 -6.08357869696631 8.66612404399398 0 0
178.58757072322 19.9214811203944 -20.4511450651701 0 0
-200.243473256324 -5.4080249899446 8.03821048485773 0 0
-85.9731326265901 4.99835926818354 16.8043491764612 0 0
201.38449430392 -10.3127828670333 -34.5631268903359 0 0
-148.202635320958 -13.0575265610592 -21.3105308061712 0 0
120.212785738464 18.643795873006 9.76197961635861 0 0
200.967126494296 -30.5835820730491 -12.9538281974119 0 0
196.336483470376 -1.10717078951668 -10.6089637213524 0 0
-195.233814323412 9.32130938295286 -13.821402128216 0 0
-118.197948917349 -15.9893273128066 -8.61325030765719 0 0
17.8650181951643 0.685700694527186 -5.54755603038053 0 0
-109.348957317803 2.22581278131035 -8.42523871850574 0 0
-101.205703527567 3.01021458944541 17.2752689172171 0 0
206.68903369426 13.8119169101597 17.9275565509566 0 0
-42.8970637496144 -3.19782711340302 25.3820707231447 0 0
-21.0219148305884 -16.5784668621247 5.7577715883269 0 0
156.551562774474 17.3391045883248 16.6253840324604 0 0
-197.282440515253 -8.60526537623345 -30.2451272453843 0 0
-165.833320987384 -23.4235490924498 -9.8823608292326 0 0
215.183286501235 34.8322553637172 -10.469893516184 0 0
206.594172745128 11.8394487895032 17.6276003534496 0 0
-90.8964259067625 4.00254216414419 17.4786147730067 0 0
206.026693735352 20.6284249036722 15.763336110404 0 0
126.759012843661 3.72960041896986 20.3379760488661 0 0
-94.3963732588556 -16.9030557507175 -2.95638877261271 0 0
-97.1953548221276 -16.8006826426294 -3.60198627273106 0 0
179.035695445439 35.1224858225782 -23.5787339439521 0 0
157.030918398268 14.4149626531196 -12.1713630041944 0 0
112.13131990385 17.3067108423953 11.2934043573018 0 0
200.066342715184 -13.1148288317792 -37.0351182872393 0 0
171.301388056709 25.320625363437 -15.0538734676812 0 0
-167.183535210476 -21.794357113598 -18.666820632087 0 0
-212.08634813797 30.3231124473145 22.3294377281961 0 0
-165.328026464596 -22.3916697493539 -14.7605177690986 0 0
-90.7671131924453 6.19248667717123 -2.87849683981935 0 0
-202.014153927585 -5.90812985721061 -24.1261477652006 0 0
-188.842016989782 -3.73700016666207 -27.2609233783911 0 0
-37.4007702221786 -9.76314294941666 -0.490221803887277 0 0
-154.628176248398 -11.0925204112892 7.48539496912057 0 0
169.590180489734 31.9538823990041 -11.8345113746563 0 0
-210.949582762059 -17.5780941944384 8.29044822204915 0 0
-138.346837057412 -10.4507233521015 -19.2550391482994 0 0
170.586719858662 -29.9226071982309 -2.92362531036764 0 0
195.561578677765 -8.66256271134749 -38.4146362180033 0 0
-176.528046100395 11.817093267282 -12.4281518345535 0 0
17.7778476304466 -2.68139355850401 -4.90242457783196 0 0
-40.2327660246848 5.17486021615745 18.8164111130874 0 0
-1.24120855366721 -11.5560860469073 25.1887533997864 0 0
149.442084085176 6.05003302882927 -9.65016918563384 0 0
-66.4313515345155 -3.56058138767564 23.8554612308442 0 0
-233.364778512915 22.2434163921463 10.0306939834542 0 0
128.990482167012 16.5508509076794 -1.76783251117597 0 0
-52.0745266639778 -0.854634221922899 -6.24301028045573 0 0
-221.805690971382 12.4447842350483 -15.1397221658735 0 0
86.5537377854653 -18.592131001871 15.6525546023846 0 0
-130.168334534266 -19.4793899893796 0.49839880978016 0 0
-52.5167207466218 2.92774697157802 -2.92550638344817 0 0
-20.6207241556852 -14.9433124622969 23.2428099481228 0 0
177.280850000854 39.4515297861686 -7.31370928146549 0 0
196.500566217222 26.7758386118282 -31.9843860760043 0 0
188.333496312404 -30.2627199224225 -27.0096206031909 0 0
49.7256484021528 -9.22163389372568 -1.97904914704812 0 0
134.04974332114 -21.3292531659011 14.5204907885756 0 0
198.93069087663 -26.5727032421729 13.3925527857714 0 0
179.433875275989 20.2301782651173 -27.5062592485996 0 0
190.063529686617 -3.13444210773962 -27.7493379000548 0 0
-169.962151876389 9.37469109070542 -17.2395874413117 0 0
-80.9935235485435 -5.70719587128236 -8.74555420873243 0 0
-223.405214608254 41.4841519822355 -16.9771203874861 0 0
158.458224336612 -4.50276117336505 18.7811574892848 0 0
-63.8288125251789 -20.8797591997246 5.78381301662659 0 0
-95.4360613851088 8.20403124370316 12.4351143500373 0 0
211.004250022205 14.9259286799318 -15.6338979081583 0 0
143.037576442097 17.8672451264412 -4.59935243797762 0 0
-194.252121524308 33.4364957479807 -0.103846136486936 0 0
35.8398434409489 8.92473017771824 17.7992515747882 0 0
87.5008144802122 2.99683148463548 -4.58718621901097 0 0
-88.4060023762107 -13.2423971147944 -5.65517146260248 0 0
-211.838239438166 41.5436590366731 -19.8423473775288 0 0
191.764827858197 -31.7509723419338 -23.7531856712816 0 0
109.909033451414 5.06521721823909 20.7450582153005 0 0
163.937175596587 10.6193305931757 -11.9763809360024 0 0
-87.2926128102434 9.28011453339128 9.91862699964792 0 0
-88.9986325063037 -3.06303548086887 21.1931028196644 0 0
-194.027318919368 -6.54611798792311 12.5141138120339 0 0
190.502330635069 39.0610779994801 -2.650213721465 0 0
196.458665790844 -27.7247476455925 14.5114920105157 0 0
15.4655280733469 -13.6008476149657 23.9409953868648 0 0
-193.057971304106 -22.6851278266875 11.4187364486683 0 0
191.457538895929 36.4733120969458 3.94545131014214 0 0
-191.616585934584 27.3509609498066 -4.65884436128612 0 0
-136.461278993282 11.6481685015689 -7.73792803082904 0 0
160.238786727706 21.5039779194379 14.7975658309053 0 0
47.090697851779 -19.626235174021 13.5615368261283 0 0
132.508552389856 -22.1272955563311 0.469366409592758 0 0
-178.094161635803 -31.7944398074898 -20.7736433393007 0 0
-70.3842934904825 -7.66309046706281 23.1717798541574 0 0
-120.179716304149 12.6853979866914 4.49729252601155 0 0
-200.417295069338 -7.9183929212664 -31.0490649488152 0 0
-40.2034537946745 0.245989123824276 -5.83362993728653 0 0
14.9825861785163 3.41473284063986 -5.35886346249821 0 0
126.433363140492 6.09196430318431 -6.62157769180579 0 0
43.8454378068778 -3.95955438082366 -5.61356983356042 0 0
-223.329818736641 44.5307709179789 -14.2920359976356 0 0
63.1644696621154 -16.6934987274711 4.15682886346354 0 0
-189.341538210189 -20.2140340558915 -27.3150945585373 0 0
203.25697766474 2.22722407651453 -7.71138329075316 0 0
53.0309923300702 8.91410504942153 19.2472137295055 0 0
-213.550530595301 -18.9804425200888 5.46931109434812 0 0
-16.8545865620377 5.58521408525716 20.2060019703534 0 0
208.170061644572 -20.7463560125651 -15.0513870567534 0 0
-164.575068684574 -21.3181373116091 -16.899523049563 0 0
43.1959117294857 -16.9887832354667 20.5693293101306 0 0
197.593634647727 38.8166996338015 -10.0728754332388 0 0
-166.450432486126 10.0963496585555 -19.4013177144769 0 0
104.83674974528 -1.55026425526212 22.1240746910396 0 0
146.531064603267 8.23290013475447 -8.81285996239655 0 0
-183.979667320527 -23.352103695045 6.18270316536477 0 0
-22.043032452852 -18.4713003479384 7.03354765802251 0 0
3.38031546701543 -3.3837009426289 26.06903093139 0 0
-233.13800338332 18.9879563052223 8.31388668836313 0 0
138.151156909847 -18.6062773426293 17.4754000350354 0 0
-148.975964791447 -15.5421544392163 -21.5050451586436 0 0
-42.3950872148944 -22.5244078771589 9.88739625110333 0 0
99.3303727931107 2.38828564863644 21.9164053090209 0 0
-131.799997032519 -9.2484568345319 -16.9447205478046 0 0
-19.4305362473219 -5.67681584162656 -3.28921686339268 0 0
-66.4918081958517 -21.6957644142505 6.72206780489093 0 0
149.930982500601 -24.204442955334 11.5863571180526 0 0
-48.2069469995962 -2.4527383913927 24.9752377951532 0 0
-106.934225445868 9.79185974996986 -1.7721970390885 0 0
-44.5364023048105 -15.6016083732382 2.97942361052267 0 0
-188.747373945985 -18.0188899379336 -28.6369179032002 0 0
196.599631069162 -29.5646447626151 -37.124605054219 0 0
107.294397427064 1.83781289977523 -6.45341973416061 0 0
159.26162780387 -9.48820627507303 -19.0283125791186 0 0
-54.0980007443507 0.195385419613794 -6.13933003678499 0 0
-159.671548908443 -10.7566931305171 6.98033474234327 0 0
72.6395137401897 -4.36838927583689 -7.056789468716 0 0
144.933848116887 0.994173624494735 19.7382011400409 0 0
-0.73137152866802 -16.736069521453 6.78572667252368 0 0
171.280065814168 -10.1882986333416 -28.0935922764021 0 0
64.4778681459598 -4.2881177264595 -6.44050122010062 0 0
99.1753908860942 15.1202201723562 5.18997852986006 0 0
159.621640405821 19.3309585591362 -12.6492371562189 0 0
114.527607818994 -16.9030337780917 -4.82788651471625 0 0
-115.438418241415 -19.1216541930748 -2.08697529210361 0 0
-125.701068156342 12.9182631728586 0.685475832662079 0 0
62.1215216947399 -1.85882446511705 24.5452636119084 0 0
-205.345684333914 -14.7313552840006 -29.3928997159755 0 0
182.697841453785 32.5213188937226 10.9017079551957 0 0
62.9875363254411 -3.81123994651211 24.7280110760372 0 0
-55.6586744206602 -6.03911167680608 -6.2780231695665 0 0
139.004610507705 4.49971404459051 -8.71383650219199 0 0
94.4765257543082 -3.31586344804023 22.9119881721763 0 0
185.093162996897 -9.66714855133802 19.4343921764064 0 0
173.608245169846 -30.7849108684295 -19.3825984880201 0 0
-226.514672252174 31.3414188056327 -19.4122986453046 0 0
121.089833363185 3.95613157057967 -6.79748531379275 0 0
162.780070182739 -26.1054184956745 -7.87435375838187 0 0
162.421154863066 20.5227508981416 15.9039066173423 0 0
-111.787567492888 -0.946363072102818 -10.3629748067802 0 0
-25.4413778550604 -23.0687556318085 14.6838028591964 0 0
-136.924718769098 1.65400876611384 -15.0291688211726 0 0
31.9307202569281 9.02803171071364 10.9221538624381 0 0
-211.755966970739 -17.5885326949505 -17.904850495702 0 0
200.292977041399 35.9842419577959 -2.01259271544785 0 0
179.348117691404 -32.7536086334601 -20.0191125218228 0 0
-14.7401392417249 -5.82368748678728 -2.72852284117897 0 0
-211.610204479073 -26.2833576306799 -4.0238321135915 0 0
-177.489026729096 -2.93420081837679 10.9403819511581 0 0
-211.869744649095 -18.0148286570079 4.33443656664372 0 0
212.482031778728 32.3989241051163 -20.0385586790654 0 0
-121.957591611351 3.30690402090998 14.9053413814915 0 0
181.104292690598 40.9459082947962 -12.8051826148043 0 0
126.134326867393 3.22271661454132 -7.55650387828397 0 0
214.629370199538 29.6070274005654 4.46851345592692 0 0
183.34744463837 16.9523339209608 -19.5232912429105 0 0
86.5731032944395 -19.561933987247 10.613278443671 0 0
72.5044650618264 -14.8489047361225 0.410268427041011 0 0
-22.587320026393 -11.5249709858757 25.0085370515484 0 0
112.794261401786 -9.70021969266552 -9.80426300315744 0 0
193.931800579919 18.8706469227565 -23.2506207690179 0 0
-214.918697739591 -22.2151428735655 1.26256545973524 0 0
-180.746849550851 -33.3523763144663 -5.6168795194586 0 0
-110.772685311354 -8.53229535663416 -13.5348439564734 0 0
-204.4023284671 -7.13747784146207 4.89236001283858 0 0
-215.694333037472 -19.6309608397871 1.62940055640464 0 0
159.628918005908 -26.0057576724016 10.369975882807 0 0
130.018678902603 -7.9965408674812 -11.9208211772598 0 0
-204.804686413243 5.37843249598193 -11.3617830521278 0 0
53.4728901730906 -1.88105598711151 -6.64478061220165 0 0
-10.0570171905403 -11.8586009360595 2.56557690897205 0 0
198.745399114321 -30.0901914256792 2.91939860941486 0 0
-186.44551058745 -33.8462139191634 -16.391773939355 0 0
71.4636722748215 11.2336936774634 6.2226038709007 0 0
191.378300407513 12.6403505349405 -14.4854617674026 0 0
74.1014298826283 5.50351473620524 -2.68618748935163 0 0
-62.6601140081488 -0.891691118291181 23.4166138373594 0 0
89.2195046545876 13.0230893976029 15.9271165296835 0 0
-100.262302525871 -20.9673142987235 6.24093038058096 0 0
-213.934076937675 31.5600343630407 22.0614975473426 0 0
8.92759124846707 1.26400616086412 25.0725494807207 0 0
-197.268260721266 38.2143986005414 8.00858057916882 0 0
1.51044018278232 -9.41387680629857 0.675932996404471 0 0
192.869995594631 20.2671745019247 19.7289287851505 0 0
-11.0198458764415 7.02956501164639 16.0983526482772 0 0
-11.0884575943741 -22.8476511877635 13.7440640344968 0 0
-32.5253226986935 -11.6599087651925 24.5306567017431 0 0
-192.036417387666 1.67337151051243 -16.3335196263024 0 0
-220.147722033244 50.3377808327548 2.73304442347336 0 0
164.310774318674 -25.0001114343933 -12.5475653242586 0 0
-61.7379493709815 -13.6299486617999 -0.653868473737555 0 0
-180.084675267538 0.0112812397528717 -27.1712065732353 0 0
197.501480326278 27.2300916664482 13.529954403763 0 0
-205.946448376607 -18.4564011900659 -24.0410934314688 0 0
127.203301822774 18.4325896371456 1.55157783066406 0 0
-89.4623084074241 3.82438515568659 -4.67937983005697 0 0
132.522251553756 6.72309165618581 19.685390731494 0 0
-179.154181042641 -19.4024415719691 3.17431763611744 0 0
-72.0186163082933 -13.3155252952828 20.0852362836356 0 0
-222.091637482656 10.8950906683605 -10.4957520053109 0 0
56.951499230116 -19.0169927691284 11.1087502746807 0 0
88.1258957965775 5.13476956534838 -3.44895419910765 0 0
112.455714500545 -21.1813279187382 8.02558368095263 0 0
