"x" "y" "z" "f" "a"
201.221881513982 -13.1304247978257 -14.4351692713355 0 0
-243.492120396562 26.3002292651201 -21.2436298544517 0 0
-120.287979210223 14.5074757392612 -3.76869431664639 0 0
114.837486736513 -10.301253908887 4.67159079814075 0 0
-127.166851935049 -5.16903490640238 12.5170949120537 0 0
108.653714318937 3.91328540833392 -9.93337520395199 0 0
-223.769789896384 26.8645612237054 -24.6231643744455 0 0
31.7702104206527 12.0318233851324 -3.00295300947837 0 0
84.3417166831607 0.155404399147617 -7.77190236134168 0 0
-228.112162199705 -21.6103745703295 -3.51295394130575 0 0
-131.118404842722 17.2866457556763 -0.0871682030402398 0 0
-193.453977550666 12.0280876555176 6.03588413248383 0 0
87.3461537611414 -3.48628480248481 -4.81196755703032 0 0
-259.860157582317 0.92262686101376 2.09379863893986 0 0
211.173279170045 -42.8962067354355 -25.4135940470045 0 0
-233.338683982145 13.0156200002847 9.72110820159489 0 0
227.614734014804 -28.0906366053399 5.56530560483398 0 0
182.31995362137 -28.521332844179 11.4022013814567 0 0
-115.945326218597 13.1280957258196 -4.45828197327832 0 0
-172.922526646964 17.1845252560707 -2.34225683979081 0 0
-128.979954829958 16.7805749714651 -1.44747818068247 0 0
69.0229082067476 -1.14018549941622 -6.01820897240399 0 0
-93.1463060850089 4.34864050736174 -8.00624677077452 0 0
-193.310363314254 -15.0786285040551 -2.75736206849636 0 0
79.628795660584 18.7574220248533 15.3418383592544 0 0
47.1380730062341 0.98139313160493 22.6248373022502 0 0
-166.186606218056 14.7773870815354 -11.4637485338174 0 0
215.477901441907 13.2579894464428 3.21789295120161 0 0
-156.480360673896 0.0788801675721861 -13.3212461746778 0 0
-17.4214910767383 1.43073523262864 23.5194725465494 0 0
-53.3573794333831 14.9110275111942 1.89381497257774 0 0
-7.29415419448085 -4.81283239122588 5.87079905812998 0 0
44.7442293974632 -1.09045281935716 21.8472310364723 0 0
192.502128496763 -11.7079053972701 22.7733640929235 0 0
-38.586543878941 -3.66859260930184 -2.6758436276407 0 0
204.909161114538 -45.2578542107559 -24.9900108886448 0 0
-256.544484872369 -5.22351310195198 18.5263834612212 0 0
-256.074913107986 -36.4546133716073 19.5042173317512 0 0
115.656845950049 -8.10992992410567 16.103384297597 0 0
-91.5235803669417 -6.74304658417313 1.93185763837917 0 0
205.545183045506 -42.0519110672659 1.90178318032934 0 0
205.154464737421 -15.8780944292631 23.3389060399399 0 0
-23.81899481373 0.269122859273819 22.5180181368355 0 0
222.885383621285 18.8420937790786 -14.4848310863336 0 0
-193.490906154124 -25.8279985495423 -8.09681831295049 0 0
98.7474356065735 20.213557204094 5.03066882183248 0 0
-202.437459334725 14.0515169504067 4.62082715701552 0 0
11.5821457432939 15.192005671653 22.5775708989386 0 0
-243.601775434029 -31.4373527254399 -6.91588698780344 0 0
-279.258716198943 -20.7377940914462 -10.7390303454144 0 0
-204.242677529966 16.62282790067 -20.6855190832869 0 0
205.910390620402 -6.08435321964385 23.4410024323673 0 0
69.385058831913 5.52062828861961 22.1977748110171 0 0
50.1964602077323 12.9891972198699 22.1924842589296 0 0
-155.232310979337 16.5895694578744 0.703770507201556 0 0
-248.362042854298 -28.6910841221481 -16.3478396131321 0 0
205.354886632607 -2.95078464579799 -11.6770749642742 0 0
214.026993980124 -10.421853258082 21.262114370225 0 0
-126.383989887648 17.0071776052059 -0.60299575054788 0 0
21.6315285678091 -4.71428385633457 8.11690256124357 0 0
-110.652339830277 5.10275600919203 -9.70139583047749 0 0
199.621898406611 31.0171015156852 9.47601544136617 0 0
-99.0734027862028 -5.81614015217356 -1.1545014975272 0 0
200.122756109899 -22.6430915840773 19.8722447935129 0 0
-233.977341852829 -2.79267186459387 10.2075744544774 0 0
166.371975353887 -14.0149226446017 -5.77621756701858 0 0
50.3332971515732 -5.65013052241767 17.4161623359563 0 0
-209.029127259627 19.7277578486018 1.17403540059631 0 0
194.292480458125 -37.6188981138967 -24.2925055295929 0 0
195.840070744723 29.5520754989356 -30.6132554671495 0 0
-71.970246546434 3.99423980321195 -6.30950803449324 0 0
-93.7576831383941 -6.84952485241156 11.6468152534243 0 0
185.981730881217 -20.9106151569071 -9.8934616672447 0 0
-223.734210405632 -13.3789972882247 4.53853345628497 0 0
187.897283145567 -23.4292021761494 17.6829810134164 0 0
-131.989793347038 -8.19982537156936 5.68927552003943 0 0
-269.411703950658 -31.4615289111574 -16.0988689910653 0 0
171.914766715436 12.5821899882634 13.806215145478 0 0
88.166453134767 -1.52111249580129 -6.61928252410325 0 0
17.6199405618985 1.5648822251994 23.4870393265929 0 0
-267.782691027158 -14.5747979657757 23.0895522796572 0 0
133.352042683367 18.9232314833611 -2.05251614947808 0 0
95.8797008318525 -6.51276624645946 -1.30689614083468 0 0
-275.886654936062 -36.9781400259767 8.80764356633006 0 0
-66.9554096610343 -5.8124207334444 14.2043811972246 0 0
53.4794255113705 20.7952854608328 11.4472074935372 0 0
194.330882013095 -2.87654417846826 21.6641233108101 0 0
224.011504900299 -12.234002928311 1.40940883987288 0 0
122.472661825797 -9.83674281466186 14.158756311125 0 0
181.879411305317 14.5837651417903 -28.6014252832861 0 0
-251.489297627632 -4.00165401980006 14.7803090518571 0 0
195.401154103258 -19.9100941240454 -17.6001157075176 0 0
-162.95026044659 -1.10407442048003 11.5703673967784 0 0
-39.8980193645035 17.4339674675136 21.1390172765929 0 0
85.8384712106631 -8.04334419539176 7.59764607823214 0 0
41.2757484207313 3.31967259405408 -6.3348588843431 0 0
225.753768662808 -32.4482749064103 4.0663278369172 0 0
119.113804602804 19.3897480444423 1.35227491419004 0 0
-270.106448212927 -0.175026500035316 0.288654219637563 0 0
173.67408349637 -9.65502864820953 -8.51534348941863 0 0
86.9118925433174 1.76837747598214 21.0280180418642 0 0
218.450402728192 26.2651150914793 -11.204598852236 0 0
203.898281480807 10.5195539593226 -43.7596917655819 0 0
-243.300603465826 20.910486185856 5.50873686880885 0 0
-43.8137136119563 0.164528307175539 21.9746496217623 0 0
-267.93717425414 0.616292670137905 6.39056158894731 0 0
42.9393244193589 -5.49305875273242 17.2347960489922 0 0
-167.822582746304 3.65013562639699 12.502762124897 0 0
-139.961919936923 12.186161606417 14.0311252878771 0 0
163.720600342005 3.56033989554239 15.1216449285509 0 0
6.05714003453208 17.4835495810162 3.5793040142425 0 0
178.431001363939 20.4113297914996 16.1049488636934 0 0
-259.43568349005 0.156280916755634 12.3896041734689 0 0
194.495356133459 16.5180174561957 -41.893341637623 0 0
-192.91770334155 4.66898929937509 8.77284024329437 0 0
-188.424370079247 10.6470637662166 -19.9599665765887 0 0
164.03349014669 -5.75624134747359 -9.63149962832228 0 0
62.9987045230503 -5.46544527612224 3.36696913982177 0 0
173.065156636344 25.4099799784809 -6.22473394543338 0 0
-256.38839790726 -5.61763891878542 -7.6618087991 0 0
178.410635098143 -23.1927629339554 13.7376250743261 0 0
-111.741925067657 13.7493718071322 -3.33384371966945 0 0
-248.406371556856 -25.3901974053887 -16.6725522993694 0 0
211.932354991668 26.4872713059308 9.60242787819813 0 0
115.796650986472 -2.32512657749813 -7.10510808041661 0 0
183.800612756977 -36.0209290314471 -5.28273500027438 0 0
-120.525093015577 5.59688615750474 19.4880940460892 0 0
184.598405221335 29.417947606327 7.76244987577849 0 0
198.348499202213 -2.14098308486505 -23.87801800746 0 0
-218.176841389504 29.6723956040711 -8.35109231121225 0 0
-93.269112924231 11.2567337865197 21.367546344826 0 0
-184.899290171414 16.441043470139 0.980211098069933 0 0
110.895252887393 -5.53718693947462 18.1538912038189 0 0
51.8742310287926 3.13852895209478 22.8594848159874 0 0
203.401067342477 -2.48432072551879 -31.1836487110893 0 0
-72.4857529471298 6.39893031740202 23.8201637964124 0 0
-151.773614170892 -5.72058732253071 8.47166303227959 0 0
-173.360806217108 -14.9201290714056 -7.19847274674453 0 0
164.700042227081 -10.5797905010079 -7.13560104070251 0 0
16.231771215183 15.7814224437239 22.121316514573 0 0
37.4854969181119 7.39190962260374 -5.44388934215212 0 0
-74.6212347262969 3.73903293374925 -6.58116163877759 0 0
-277.10750140291 -18.4565758913932 17.8240044488642 0 0
175.309544085384 23.5845073787333 -15.7520686861336 0 0
107.956678753638 15.7599952240266 17.2198799910475 0 0
-256.970445180565 4.24318154994629 -19.7126804724466 0 0
-214.790115942479 25.8956190605699 -16.3042796373551 0 0
-247.772455844436 -34.4408813286028 14.142287704002 0 0
195.008092364353 -16.7504601569107 -16.3519617545036 0 0
-215.951756314059 8.59844538824894 -28.0167076996009 0 0
-134.15892953478 17.2498686377784 -0.283038901866648 0 0
-126.4137428575 -1.60149210663263 16.1306825404956 0 0
199.398979458043 -13.9744046522207 23.6827793125516 0 0
-32.5461039919125 -4.47336398987693 0.799529933351677 0 0
-248.86417616995 -3.21468314531451 -9.40061030349451 0 0
-53.8177526285241 -0.1176842114971 -6.29242843935657 0 0
132.730386473196 -3.22539413315371 17.9647927785007 0 0
80.3296463775704 17.9395130433374 -0.651589228164367 0 0
-273.366728165845 -30.6380062621085 18.8206209493479 0 0
-185.288438912052 -7.28658261944772 1.22282947337564 0 0
-69.5790457156858 4.37418102953223 23.6761515316259 0 0
207.840571531037 29.5248348032389 -14.7770104618315 0 0
197.361934354018 23.3912752375658 -36.7211995851881 0 0
209.949456529739 -45.9625203662122 -18.3994440188032 0 0
-196.637059406579 -13.0744917578365 -16.5856267709648 0 0
46.7321841530115 15.7085304949185 20.8846673557995 0 0
174.766299155449 13.4089583575112 -21.9372379670382 0 0
-95.626572478097 -5.7214615896188 -0.949226569819232 0 0
-73.4353574245391 11.0764745207706 23.0818538510842 0 0
185.839912197428 -26.4271101144388 -10.2415530266936 0 0
-13.4033926031306 -4.91561796044556 14.892203121022 0 0
183.445946019308 12.444173158356 -31.9654119903547 0 0
203.390412121534 -13.664794127817 24.3179518382017 0 0
-128.199108366681 -8.08898580650007 0.235562536617682 0 0
181.200708285588 24.0394868808292 16.5910341782622 0 0
-252.15693163278 -5.17354457410069 16.1973708946914 0 0
-153.340704182682 3.12816258920208 -13.8733821393112 0 0
-272.512852317212 -22.1540061404258 21.8913310343608 0 0
-93.3264563472584 18.9204751698241 9.26935114773225 0 0
-165.606788131046 8.90760157421227 11.6632076336536 0 0
198.26165806985 18.154640481739 -40.6958511758941 0 0
-167.373623739903 -0.683032720033076 -14.973777902408 0 0
222.090657642754 -29.8235418360867 -20.2393000085544 0 0
220.059599189872 -7.52833051263542 3.67730113571243 0 0
171.889228926251 7.15188535169448 -18.3183042903879 0 0
-244.176702380988 -34.6382569326324 -3.40647585801106 0 0
207.048767728134 -2.49734913533924 19.248275066409 0 0
210.159894645847 -20.0209622223387 -23.0211481707796 0 0
-110.30461937466 16.6955539087398 14.1951170732179 0 0
-219.020059897763 -19.3873886074623 -3.21801403165574 0 0
168.040828354582 9.93590134360779 -18.0081867724099 0 0
209.654208525961 2.2260619518117 -35.7817495136258 0 0
142.326143598757 -14.8420907772881 6.17207439206104 0 0
151.333479706165 2.29731939710186 -11.7611127136178 0 0
-51.4133117696351 13.2307018887396 0.539421302669551 0 0
117.33428744776 -9.04144248095796 -0.886086245939314 0 0
-6.81900827949219 -5.28508064123591 11.48242543749 0 0
179.168534500385 14.4738496242279 -25.2855345524326 0 0
194.653955701264 -22.1704823684321 -21.2818583274104 0 0
187.993077409079 0.0245481630436476 17.3292262567408 0 0
201.894831447403 4.01875538317866 15.424319436241 0 0
-43.810653696412 9.1009034890009 24.7446458845516 0 0
-42.2920916662808 1.77458329973038 23.3410827789218 0 0
164.261508891732 20.0172601542848 -13.9076750590704 0 0
-176.872796426405 1.13691423732483 -17.5030218840588 0 0
202.489623064792 -35.1816926090476 11.4839134814075 0 0
209.587062468037 20.442213743837 13.7092707316553 0 0
-63.0410032515387 4.47158364504952 -5.33436793289172 0 0
204.989787682116 31.0120778405817 -18.9820446533746 0 0
-195.120308210061 -5.52141799874735 -19.9534525439129 0 0
200.627889149584 27.3127650488828 17.1039068440392 0 0
119.759291359076 17.0269836076713 15.0744436712452 0 0
209.966030847364 26.758381524754 -26.6733947147185 0 0
-80.9262548973065 5.41568046744453 23.2086470738353 0 0
188.36432533005 12.289208929432 17.495874161809 0 0
-123.842724694224 9.86388351749224 -8.51865250964933 0 0
181.149783238178 27.5606585471433 11.3245878307338 0 0
-130.613599698625 17.5342316898694 3.85014020253923 0 0
-258.367904987854 19.9506683125509 -11.4742772114394 0 0
203.766485580888 -3.54054720308796 -16.5713589854441 0 0
97.2726748168214 20.4111777811163 7.78543519779184 0 0
-247.536528365602 18.5573468103657 5.03374546840012 0 0
207.517243672417 0.174206958219477 -18.0243349782309 0 0
-119.694690635073 -7.79638901345359 0.85029129930354 0 0
209.649924438819 6.17783897855094 -40.0524913631923 0 0
155.267689926013 -6.95556487986703 16.8980706880983 0 0
-224.912207800789 -3.48035121851115 -28.1695047973041 0 0
202.292370514182 29.1486298197938 11.4829407933785 0 0
-107.373424257917 5.60396132553525 -9.02395399547496 0 0
-257.257695245155 -42.8317070904437 11.6544808819167 0 0
180.717739886014 27.0335577476647 -11.9636044662692 0 0
218.226718043381 -40.3166416029373 -6.11997384738511 0 0
15.0130382941722 10.6985995814131 24.2188150222692 0 0
-2.77298463633771 -4.69266021878984 16.3390107179973 0 0
83.8746191159634 -7.03127271883525 3.97306695676808 0 0
-242.851366427621 -9.03074321677579 11.4381029663821 0 0
103.468797373244 -9.68955183645396 10.7918249613452 0 0
219.86145994246 19.3885778480183 -4.56947920351968 0 0
217.86567629484 -28.3085723392421 13.0013892534434 0 0
17.810058722139 20.7246521891701 15.6767403299539 0 0
-100.948657462559 17.6524257599683 14.1338594027005 0 0
-246.2153381905 -2.27924516959722 -10.1638259818598 0 0
-13.1655985353266 -5.00378721849451 6.34786455860467 0 0
-113.994189321306 1.0079270141317 19.2653180134704 0 0
-166.003929409749 -11.5518269545461 -6.03596710092059 0 0
67.1900364879852 -7.26328006423141 13.1598127096113 0 0
-55.7027150710141 -4.41950757657606 -1.26806451091397 0 0
-258.554819938907 18.3123538027354 -7.13090102504836 0 0
-5.27862089800673 -4.56985440220886 16.6181987941224 0 0
-61.5750497062152 14.3431526501302 22.3566359230576 0 0
132.979525653438 -5.49743783229238 -6.28449680983884 0 0
-47.1769876334323 14.0804776959253 23.0765571740203 0 0
192.403066417369 27.1534020693976 -32.6756406138671 0 0
70.2558121824277 -1.31106059806608 21.0086219647826 0 0
-26.5919974663836 6.10502566911624 -3.82072104465658 0 0
-26.9698734672019 -4.76246693407503 3.1564893915919 0 0
142.265322596982 13.8346076821706 15.5499068467744 0 0
122.146172053264 -4.98552020966337 18.0108045060738 0 0
63.6443294655806 -6.0195170120199 6.84214218692873 0 0
174.630443605497 21.7883689285932 -19.3458286892048 0 0
73.5149032482108 5.1647664222961 -7.74555714126375 0 0
221.55764995261 -38.5547843533281 -3.65172447982672 0 0
-46.3292403108148 14.4686502666566 1.69623325353946 0 0
184.357874459204 1.79309155710979 -24.5535840081342 0 0
-192.682992100623 -24.4123573602567 -9.75922576650483 0 0
-261.422726916676 -16.7641927762039 -19.9400278947919 0 0
196.326016231723 -3.07659291750697 -23.6950974841706 0 0
1.77998893024347 -3.15498607287447 19.5931658108115 0 0
125.204251456704 -10.8943857367607 12.5233356628896 0 0
220.177845566305 26.0739395508454 -17.6524569198181 0 0
187.817764660456 -39.5400935291047 3.1412738067469 0 0
44.4087532038171 -1.06532105986761 -5.62096339698021 0 0
152.43800358607 8.01478049470266 -13.8611194113329 0 0
103.100885852505 19.2036712816017 1.54028326644844 0 0
-162.113253543213 9.87594745152816 -14.9370286222881 0 0
207.038333963191 -40.0539124294994 4.50149624438617 0 0
217.391777217999 6.62762541583642 -11.1487715495305 0 0
56.4405607417424 12.5171487343592 22.0820281921616 0 0
161.29891428562 -9.17852442674072 16.6170062633413 0 0
31.1674028410773 5.09800543963154 24.0392908720139 0 0
172.904241357973 24.5532985553527 8.97166725216361 0 0
174.936196436496 7.45058786342555 -19.7726993855711 0 0
176.88515393175 -4.06491540970787 -13.5130126840238 0 0
-51.0659800349632 -6.06261460254184 5.1577605483608 0 0
-113.064870007151 -0.467743287177107 -8.43345495060098 0 0
-173.352223243572 -5.92184378550148 4.98321388159389 0 0
165.095323770018 8.67161590092532 13.3346276615223 0 0
195.918311640618 -11.490608892946 -16.4168439503299 0 0
-232.415528719116 -21.4179104540185 3.36213185320172 0 0
184.398573604561 -6.57592605435345 19.1616286880977 0 0
176.806889921903 26.7936852276937 6.59803270445937 0 0
-140.621598226348 13.8389261247944 -7.85339763966482 0 0
-248.717589878213 27.4102094750465 -9.91713934434286 0 0
199.651963614773 31.7377376276035 -13.3554965592399 0 0
-260.125031509153 -33.6908833810939 21.8744347010509 0 0
212.439647115369 24.3416879443246 -34.6259794202893 0 0
-72.6087760081099 17.8076096355546 18.5475551867772 0 0
88.4316199802748 -6.46030530319713 17.5894286389796 0 0
169.517003904811 -2.12000278986295 16.4001235625569 0 0
207.465101540873 -0.635118299527403 -23.9813675520736 0 0
31.3753350523062 18.4383407771095 19.2610079727868 0 0
214.245600526859 3.54380320659611 -3.83376632696254 0 0
12.4482604897759 -5.17499652554075 15.0275228693176 0 0
199.711736052026 -43.5866481183408 -1.40040156185356 0 0
148.974786198 -12.0716508686633 14.0450437723888 0 0
-47.2282490677053 20.5371327271858 11.0339797987221 0 0
162.034701264524 22.8989749028843 3.69890443254737 0 0
-269.04296462495 -40.9079709874934 12.0428294245971 0 0
-271.46183009706 -17.7600880044582 -17.2431781461499 0 0
56.022209360574 -6.58015472248331 12.8899642631644 0 0
-197.458972326658 -24.9259832020476 -7.22156516357136 0 0
211.486938805351 13.0893460143933 9.31831152859295 0 0
17.7915531269167 12.7115343026411 23.6209560591355 0 0
111.104625527286 12.1822747963288 19.0099049172838 0 0
-197.867659274368 9.24549282026966 7.26702702415777 0 0
-52.3206407743131 -1.50022453596958 20.225294914435 0 0
127.930200405581 -9.94186299055808 -1.48077805233342 0 0
-53.7652392825708 4.662172445266 -4.64963623126215 0 0
-9.09578070753981 20.9829524993837 10.894096944632 0 0
-137.389412527981 -5.68961605562509 10.4870934597771 0 0
-261.43470995873 -3.60989146531261 17.2203949089016 0 0
-251.449534841634 7.85352550043495 -15.3088696233687 0 0
187.899526107894 14.6222392614407 -38.9688296043064 0 0
189.680248091843 14.4678322267395 -40.5645595074295 0 0
196.422703181687 -6.96132017308184 -18.0672116082863 0 0
-187.440918799749 13.1775497630454 -17.7177782919576 0 0
18.395521842716 -2.63370709492639 -2.27711942271209 0 0
-230.093831637895 5.38266602347971 9.58237576372384 0 0
-168.625630917746 -9.71584245840963 -1.34383507229052 0 0
193.149583592135 -8.32885928605566 22.781917000396 0 0
183.412839999615 28.1082732335011 -11.809274179639 0 0
48.4378306003034 17.9956021672064 1.51856730594309 0 0
3.5678763751965 20.304982929231 17.2681671602322 0 0
175.044341673298 -4.17333009692229 17.1472683285671 0 0
-279.345868446816 -8.53734493731231 3.42660658615624 0 0
109.936254692005 -2.54293507104595 -6.7482794468668 0 0
-238.630092734417 18.484362526082 -28.4387800348634 0 0
215.135901014567 28.5227867324726 0.706453489231418 0 0
-91.1183448264309 0.702001993109602 20.8024487524325 0 0
-63.8743003065306 13.4763617994275 22.6424879735732 0 0
176.646881356682 23.7567639295171 -17.0069161332033 0 0
176.416623658339 12.6362139839368 -22.4823605122075 0 0
-158.602156949987 16.3406397822259 -7.18492167149262 0 0
-259.21480239373 14.6852893543422 -20.5855038403618 0 0
142.537324552632 -14.7898548253485 2.29835125000207 0 0
-201.101190570382 10.9234944630785 -23.3687192363481 0 0
-210.049068857188 4.7012818224352 7.64129859076446 0 0
-221.693355472556 -5.72295434553195 -26.1306488596229 0 0
-230.12499953248 -22.0121062806081 -5.03966248230706 0 0
41.1826269811334 20.7796998412242 13.3973759037599 0 0
-200.540157525634 4.37746534624349 -23.3250873182234 0 0
128.934433747948 -6.56344977582056 -5.13396049007317 0 0
-130.155842843902 11.790620931202 -7.98169084999005 0 0
207.988610005363 -46.3287417431979 -19.9606615180444 0 0
217.700866301471 4.20871639575427 -19.9300823244389 0 0
-105.260877036345 17.7512863260473 3.61642936387621 0 0
170.244836209538 15.463267986759 -19.9784020292221 0 0
-245.056973660623 -18.0880859613491 18.2785667308489 0 0
201.750164644283 -8.40597648482163 25.0657154981209 0 0
83.8768634967085 -6.0103262398522 17.9649356066755 0 0
-264.318011283263 2.22712763578886 1.69494505103029 0 0
88.1628472806977 3.1266944172991 -8.78478056609965 0 0
-146.272941776487 13.764223032726 -8.99318450422795 0 0
214.005070318448 28.6259177487896 -3.12684238464471 0 0
-85.2572190802241 8.75057104540717 -4.36757083540911 0 0
-48.6647376087886 -6.12972582717852 12.1350953570969 0 0
166.241323600829 17.9559953047541 -17.1117066162505 0 0
165.219585822276 -0.655565573632925 16.1188658748562 0 0
-81.7412554646598 5.6061752350419 -6.15312696743251 0 0
148.713087307043 -9.37168815855544 -5.07258623431176 0 0
-235.926318790639 25.4731825249016 1.0961452997304 0 0
69.2108896285146 9.49533460051076 22.0199128071401 0 0
-81.3323337739475 -4.58069873837514 -2.06970315576456 0 0
80.0800301318758 13.0141159088822 20.5588446323409 0 0
177.721070282155 27.1235536062109 -5.27114586339118 0 0
-243.386208033342 15.1922464023882 8.13196694942784 0 0
-19.4071585619372 8.16542604260726 -2.92139157630145 0 0
-25.9737215289548 -5.66257724314988 11.9341982410192 0 0
-212.855846429431 10.337832550072 6.45311714694763 0 0
-101.598293442394 18.4152051457931 10.5135123050642 0 0
-73.6820405168257 19.5880346573129 13.3762916040367 0 0
200.238102534058 29.2444372470242 12.5721123236314 0 0
-78.1317251808004 17.9002997593208 17.7374935782191 0 0
206.118648567301 -44.7222411687277 -8.628846215581 0 0
-59.6483288254515 6.90187506055707 24.3699182498654 0 0
-246.955087984831 -20.2797303150854 -16.3076925713597 0 0
-9.5662306461354 -4.4613721668604 16.6937638546307 0 0
-61.1399635417367 15.9215151547397 21.3076196685051 0 0
-259.284839594108 -43.7211525839205 -4.59098783414607 0 0
158.382995519042 -8.30904872262781 -7.3002994521475 0 0
-233.873139540032 -21.7093604260673 -7.9834413649609 0 0
-27.1526479640647 -2.55370169467677 -3.9780322989924 0 0
-275.551017360391 -24.9690967072582 19.2168056916275 0 0
-194.55370396562 14.0577555851779 4.8219218752606 0 0
-131.301656536583 8.95625479360613 -10.3853636711013 0 0
148.152418822077 16.2702055956911 13.7376755912898 0 0
208.255943456108 -46.0095567872269 -18.3838867320006 0 0
187.06753353537 16.815577287938 18.1681566943096 0 0
63.7755047538192 2.37493037485919 -7.01244188650889 0 0
-19.1474564087715 11.0850306081993 -1.09813294339353 0 0
-258.205761684751 11.9102565795352 -16.276622499734 0 0
-263.064033569844 -42.4960114509208 13.2160017813745 0 0
69.3630597659553 20.5490565032342 10.5644722745 0 0
98.9707316247951 -8.41288703130901 4.45482057739247 0 0
-19.9356850161924 -5.3227472727167 13.1648548071129 0 0
-225.717969747108 14.6143691330651 -29.498230800218 0 0
-235.017778259366 2.06526652748843 -17.7171750206793 0 0
50.3646538573239 -2.63361937324871 20.8649160637631 0 0
196.310550580863 -33.378780205927 -27.4350403264724 0 0
-200.055219415151 -18.4921745107292 -11.9654528353067 0 0
21.9460796676059 -5.32713221945613 12.6285169796967 0 0
80.8780384491398 -1.78614469367049 -5.95255866498789 0 0
-37.4566280486356 -0.572606687944792 -6.26077277969215 0 0
193.084693104913 7.39480100621135 17.2638845910668 0 0
-123.966685112767 6.07924381758763 19.0185730908403 0 0
14.610528202654 20.9712794343955 14.7859407536222 0 0
193.518011426076 -15.5818360859942 22.9236594188744 0 0
181.857547302869 -35.8232530902945 -1.35085477483742 0 0
5.46392185838728 -5.25734484646887 11.2002114531494 0 0
219.640032654127 26.1460562629295 -22.1281299394911 0 0
-93.0441653227747 -4.50071770263604 -2.90795594801376 0 0
221.929012169377 23.8645774550003 -14.6315780078268 0 0
214.413876283836 -31.9585116554666 9.74664618149789 0 0
55.2102619315977 -4.33069212549406 19.4394799766092 0 0
85.2355696060633 -8.2786817674469 13.6735023920129 0 0
-28.0710189442722 -1.95601450774918 20.2594745945631 0 0
174.404662712603 19.8719517925167 -21.612834131721 0 0
-119.699086522356 7.38523203316784 -9.71648939572569 0 0
-176.179884894922 14.1246688246751 -14.1152880152752 0 0
-142.910094298825 11.0970333600779 14.2472774374079 0 0
183.409074554236 26.5549999734256 -20.6594386697527 0 0
150.350065932864 4.62365886525859 -12.5463441043284 0 0
-168.566293998188 8.67670540252951 11.3248826993102 0 0
-254.972212783907 -1.48021416221565 14.0776146698474 0 0
91.816732010054 4.18865348786537 20.9870047753356 0 0
-271.307407933581 -29.2651306833935 -16.1624382953747 0 0
120.033211386446 14.2121656772864 -7.68727712445995 0 0
81.3054783228655 -5.68670881535764 18.2389230720497 0 0
-32.5205118275605 -5.06119065822407 3.55566883689704 0 0
-103.718484989638 -7.84340226367674 4.66868596307703 0 0
-268.644100610378 0.63176526232913 3.44023408274484 0 0
-107.423997991018 17.2646974620863 13.5348242844448 0 0
-118.73285547556 17.3090564984778 9.70203322763246 0 0
-13.1687993301322 5.86328225237597 -4.11716572532358 0 0
193.808585800379 -1.2868783342892 20.676720869258 0 0
-49.2045784474224 19.0460522130983 18.707812177966 0 0
35.7575423890209 -4.27298046194746 4.38745614047892 0 0
102.949020007107 -5.65468647482131 -3.79744160004298 0 0
-251.967300479752 -6.55207691715335 17.5043546841711 0 0
151.076665910167 -9.60420126199372 -5.26721647772906 0 0
96.5322395539483 14.2725019843912 19.0579685676628 0 0
205.357855772327 21.4750611474679 -37.0227351972786 0 0
-237.939806407181 -26.5849724771874 1.53716849568801 0 0
-87.9613679674233 -7.59998209245769 7.72635041659978 0 0
173.90157049521 16.1921556520109 -22.3197818492453 0 0
155.899125309125 1.69587734911445 -12.0867007944793 0 0
-254.972653677103 -22.9792439428947 -20.0338705922955 0 0
32.771113715839 -2.49237596098134 -3.30168479085029 0 0
-237.277231497523 -21.0396927483704 7.42563448927512 0 0
28.0469223243296 0.00430795346385764 22.5950004228258 0 0
164.538317162497 23.4992537503662 3.17946971170986 0 0
200.518566416963 -22.0021134141149 -25.0870364644366 0 0
-8.60498648554529 -5.28243354413059 11.3480864960318 0 0
148.063716396997 -6.5710922580648 16.8153325342388 0 0
-227.352912919318 4.77350833353952 9.19643431820114 0 0
223.20699515571 -23.2658390752809 14.0465141777953 0 0
192.24378540972 -32.7526932822904 13.2120382091743 0 0
-53.1807614946895 -3.78114604746909 -3.35854895009255 0 0
-29.0550539005677 7.58395586281557 25.0833348892877 0 0
-259.677712997089 1.69834715257404 -22.5169871825634 0 0
-73.4634248801419 -2.10851220562058 18.9130849305425 0 0
-259.108918478398 -9.12903827667655 -11.8412945783272 0 0
-122.538689849954 16.8708343067744 9.8249033029147 0 0
170.77911824523 14.5630857002058 14.3433781288936 0 0
203.444382033716 29.5959992149527 6.43065906221179 0 0
-264.928958101589 -32.5206738842768 -17.3442753577829 0 0
-239.128167534372 -22.6435804757173 -9.64617504483192 0 0
187.143591890041 7.58905123687894 -36.7782790152968 0 0
-50.1071031249564 -2.91063747029633 -4.92244793037461 0 0
-116.548417566782 -8.02413915702627 6.62279535247469 0 0
-249.372997216316 -32.8220643060982 -14.6727802618846 0 0
185.920788712449 -22.3585668342704 -9.4409727973173 0 0
-163.331431265155 4.93121280578267 13.2855043484349 0 0
-253.888883919455 -6.14255929215633 18.2806581372144 0 0
-192.9850060186 1.00007245146668 8.59749009187489 0 0
199.953014390217 14.4469128625572 -44.5070119419418 0 0
-50.9512307787911 19.8671685073192 9.00831428413087 0 0
-267.315369907583 -38.3795148702269 -11.4362801700418 0 0
-240.823343973112 -4.80762843215095 11.2176889936205 0 0
-54.1165156347892 12.474959541892 -0.0627637513411315 0 0
133.323358837459 16.7670860012652 -6.47866950807839 0 0
199.013879437452 29.5901200606549 11.7115044469312 0 0
147.570581647646 -16.1340765128794 4.25288253046856 0 0
-1.22436232270322 -4.3235254570719 4.33261082665561 0 0
209.762259827802 29.712451003569 -3.05382336968766 0 0
-200.26816856135 -21.1008435517006 -9.18084483718518 0 0
180.422871364171 17.1404969382196 16.7782180511443 0 0
-245.42922088763 -37.6277376891358 1.12950118649216 0 0
219.588811930114 -24.8986001838271 15.0998906204918 0 0
-282.953635977694 -16.8248363260835 4.56497469839172 0 0
-102.777107261721 17.6359963298214 13.7532276742101 0 0
-0.207580599704886 -5.22997416797147 12.6397022091124 0 0
-225.383736936974 -1.45006292208774 -29.1667356261728 0 0
-101.251902077635 15.359777386284 17.8658406829525 0 0
164.983089593662 -21.8602229469331 5.70184643146282 0 0
-227.176271113701 13.0694105515637 7.33198681134089 0 0
78.3918474806502 19.7027697542546 13.4215100269513 0 0
-260.761722770896 10.589496006359 -20.1929101591382 0 0
-251.220805449519 -2.79857268430161 12.8488978261842 0 0
-81.8111134445001 19.2862903767857 10.7630983500356 0 0
103.376882965154 -8.04969436903976 1.57431682996308 0 0
-276.587675174936 -5.98820333903839 -2.63044348623399 0 0
190.812992483804 12.0732594625195 17.6966048244826 0 0
199.771499987823 -27.6404698930951 17.5693968398982 0 0
-237.998344257551 23.3867870748038 3.296585733144 0 0
-45.7795404348893 17.8866369807533 5.32979887629536 0 0
-148.869667005465 16.6675183621861 -4.41378491988392 0 0
-211.843450131867 -10.2979079923482 -17.7888023822506 0 0
189.869856051566 -4.60656767479129 -20.0183062741108 0 0
219.20215057592 19.9232227116262 -31.3045862563994 0 0
27.114395850955 -2.53283354213299 -3.11459357677243 0 0
-70.6098741350639 -1.08427406755575 -5.75620672576678 0 0
-90.398091461546 18.4746546287448 14.0819378279844 0 0
-254.886095346062 11.1795372988829 -14.8574146838684 0 0
184.772551148914 27.5529670652671 -18.8932289671993 0 0
218.132726419558 9.69802653786725 -30.82854926114 0 0
183.256277236502 -18.7338099478509 18.4829705802959 0 0
-203.374934258161 -15.2076141240305 -14.56887552298 0 0
186.505274448731 -9.98447120837388 -15.1377161313403 0 0
-258.076143588167 -28.2992967010953 -19.600910832591 0 0
-255.704819335498 -10.9994408380241 -13.5204114340809 0 0
-14.0039977302376 21.1198984461227 12.0958428540404 0 0
-241.21846239435 -30.1138488818906 0.228149423460004 0 0
176.00229954846 24.3727891930196 -14.3749856538613 0 0
100.789759522944 -4.41625375539536 18.957286790291 0 0
-276.736915822241 -5.3723522524836 3.91950512742456 0 0
197.002110549883 -19.9646865969459 -18.3247279995771 0 0
16.4653586461368 8.48869508254712 -3.89702755501193 0 0
-6.90591677190172 0.373132316967217 22.7994289383168 0 0
178.422709691702 25.1095382306037 -15.8693319043468 0 0
-68.5199811908609 18.8839093096129 7.1697289098399 0 0
-27.9733228277642 21.0570259545848 14.5253312292206 0 0
188.974833802897 -40.4872486826833 3.55937804654475 0 0
138.693090900342 -12.5972559034495 11.885874595861 0 0
-249.592581585251 -16.5283432673053 -16.0484172751362 0 0
172.425503445921 17.8097879571299 -21.2853483289363 0 0
-88.2534648138718 17.7617279249739 16.4487755047675 0 0
-257.360162244938 -0.709355219902809 -3.27156497079923 0 0
190.816140430328 3.75467315682114 17.2423914941272 0 0
-238.773917423129 -24.3057473404343 7.21061306930057 0 0
-7.21404235896341 -5.12021320008263 13.3060917052228 0 0
201.319734394302 15.883010096946 17.349605491932 0 0
-267.546601144424 -38.7022526389182 3.03915107578728 0 0
100.966283628371 11.0122766266152 -8.29656543228888 0 0
-175.8042029356 -15.2221191070248 -9.60931577501427 0 0
62.2472611477285 15.1570791530368 -2.93628088573289 0 0
192.372339815314 30.6417259417374 -23.3231659269299 0 0
-199.680641227459 14.3288087217259 4.52656914477938 0 0
98.4873136860687 9.77278730647191 -8.62292735128731 0 0
177.756463030277 23.4855321037387 -19.6411607076885 0 0
-275.639042002163 -30.3648312005791 -12.1948342327326 0 0
155.191515058981 12.1164837854606 14.8270581231436 0 0
-50.809152241682 -6.49220525638406 7.82800540231585 0 0
162.417551707838 23.1867828933229 -1.31182922927526 0 0
-27.6117220737337 -0.491606535984949 21.7504183042652 0 0
202.653716946344 -11.7855652421277 24.7276834103918 0 0
149.531363352839 -16.5346257050227 3.55864845087626 0 0
-142.535857079581 -8.38292653126151 -1.05217686854786 0 0
45.9812570375449 5.01150413252013 -6.34960802339705 0 0
94.9429379194991 18.1003426657532 15.6213911112141 0 0
184.580748880266 12.1629512063607 16.6334769208764 0 0
208.356135607711 -38.6633017274886 -28.2036523369412 0 0
139.502825614639 13.8267503991116 -11.2998079962592 0 0
-117.094680748674 -7.57409763251406 0.5978217839353 0 0
199.122252177955 27.7415286690165 16.5282326761064 0 0
85.9544926377785 10.2792726099856 -7.65238167976432 0 0
25.7811743102937 -3.57103097521297 1.99119105574045 0 0
2.12827547129157 -5.19330201035679 8.86388484618368 0 0
72.7827551200028 -3.54524926659394 19.8804172238586 0 0
-236.084981045594 -3.8981861531004 -24.9301920294102 0 0
-98.5305563505021 -6.85796507020397 1.32583370977461 0 0
-7.22478984391008 -3.48784903040921 0.0280039150826856 0 0
191.571633587999 -23.1591203474546 -19.7446757586063 0 0
202.414503173797 -0.628371196254864 18.9333817354404 0 0
-248.3702851719 1.76875661489324 -30.5715894874052 0 0
185.549588546687 -39.4143458193559 -6.21558513617122 0 0
-178.842713013864 17.6350300611565 -7.0752945891811 0 0
-205.751120040097 -4.83416024991968 -22.706339024888 0 0
-162.925478147456 11.6757660388966 10.1232584568177 0 0
208.102257468854 -8.29992223877635 -8.83063758215722 0 0
-253.193630691365 -6.90205449934649 -10.3591721599585 0 0
201.152017482437 -46.1546721543332 -23.4386070760341 0 0
149.198038225505 13.8369378511425 14.9011822235423 0 0
-165.723712093856 17.150626579536 -4.42803210790849 0 0
74.4801729357711 11.6007716047352 -6.3332140059273 0 0
-208.730830951692 -0.732846157044935 -24.9129635607277 0 0
-196.942263712268 -24.0390723541397 -3.23148012035523 0 0
5.09488766420549 6.09329982823917 24.8383742265374 0 0
-185.354057444919 -7.90810336829096 -16.5452643545311 0 0
-195.188155596804 17.8307354062634 -14.6280620941283 0 0
143.07637997118 -10.4845424374425 14.8311490716929 0 0
-79.9720805744497 8.79955366596679 -3.78232522988162 0 0
-247.325857030729 28.2084670687865 -2.63363093992444 0 0
-69.7202798006338 -3.28381990819048 -4.08536748968919 0 0
210.910521018523 29.710558618637 -4.21570573974707 0 0
51.332306050672 14.837410555153 -2.34217812752027 0 0
184.212142663279 -36.0805759623865 2.84942304609127 0 0
187.633288441468 4.78106885540333 15.349437815703 0 0
-209.548268256677 24.3585979504322 -8.87655778574557 0 0
-214.227688533832 23.3423554741216 -0.834446592214603 0 0
-190.433519859986 -7.6527417665868 -17.882115054082 0 0
135.973399267451 7.95968246122358 17.7357037436932 0 0
-144.137474957298 17.0483125072377 -1.71623014463505 0 0
-210.306622163558 -10.5897287446674 -18.4231361581578 0 0
-275.24266102937 -17.6386383623008 -14.8832320536302 0 0
18.1395746868502 3.28340928489965 24.0607004720561 0 0
-151.017223813761 13.2409684033255 -10.5135549810006 0 0
96.9997064091912 2.68623685705047 20.5892268931269 0 0
60.4584427282462 6.33419852373311 -6.94637180527321 0 0
146.612000867058 20.7132231174061 1.14782710068122 0 0
-190.500896349292 18.847774065781 -8.86820271732717 0 0
30.5516042598315 -4.99571989773875 8.19173245180886 0 0
-171.113283081623 -13.3019448895733 -8.27601648274291 0 0
-232.146179461136 25.083927904822 -25.5785289006421 0 0
-124.62852252168 -7.26762431199179 8.77858707733876 0 0
-245.119978474402 18.587007198255 6.20337555929292 0 0
-132.711582185481 17.5238726378025 2.2541123588917 0 0
95.2892208888464 -7.74800431549891 3.00728488825804 0 0
-209.510839448208 -9.17314843253458 2.58161342445924 0 0
-235.397812605987 24.2362387795167 -25.9559276037912 0 0
225.930930152051 -29.4941170559674 7.36438906262984 0 0
154.53656757229 11.7325259064692 -14.5371262816013 0 0
20.9498255199242 -4.17980151528794 5.37968947655474 0 0
200.218665616134 -46.493184156393 -22.5290717940026 0 0
181.27561400705 27.9137391863133 9.51115401531739 0 0
-209.800697109216 24.2645209870755 -11.0040525310539 0 0
175.140526295338 23.8552696114314 12.2493335310137 0 0
207.541417745636 -0.6957154916682 -33.6289495514605 0 0
160.460496664701 -15.0285256053248 13.5515016107983 0 0
168.97370695801 -7.12654091917551 17.6023964578989 0 0
-216.320586976533 28.1176563760811 -7.73020321492487 0 0
-31.0321077650546 -5.24591850206374 14.4129246100451 0 0
-254.151178345712 23.4800395943439 -12.8131193894734 0 0
220.496446421704 25.7355607517623 -15.7989581053353 0 0
152.357507902552 6.16731940840761 -13.335244691041 0 0
-18.1139680435555 0.113591920270111 -6.05634497537728 0 0
-96.6926535937079 16.8390749292306 2.22665684654376 0 0
210.101145921939 10.5010279659271 -41.4850380276871 0 0
-261.714141378138 -14.0711327085953 -18.1887295119947 0 0
114.440835155512 6.20047725067283 -10.7556690107661 0 0
1.25817361472197 -2.36346838133129 -3.45756007484097 0 0
-17.0506214371354 16.5138554420786 22.1019712401302 0 0
-45.5245743137326 18.3708349657056 19.8841733471597 0 0
214.5860934044 -2.01377045814709 -1.29655702721289 0 0
-164.468010154242 15.1289376208513 3.82174520775209 0 0
-277.886039257164 -24.2491531381771 16.975244062165 0 0
-248.013511069569 -9.32798741432939 16.30784335734 0 0
195.805039243693 -36.584461943008 -26.014779957129 0 0
183.635982202547 -27.1108024096659 -7.58013136695393 0 0
211.298379925256 -39.5036293684736 1.64714470984775 0 0
-254.009900502379 24.3232923323907 -4.15920733185796 0 0
157.434973267884 21.5577057275807 -4.98092809271694 0 0
-125.611285664352 10.3266848684923 -8.48762363792565 0 0
3.41615654011277 -4.20183197867493 17.8969185093489 0 0
158.436946562934 8.61837566774056 14.8804210506207 0 0
171.674504688215 -19.7424717916323 13.3829529878087 0 0
-282.661915321994 -17.1250662226832 7.00660710627705 0 0
-256.18950913055 18.228988952393 0.400278258940684 0 0
-245.041815982653 -21.3931358288474 18.5503376018866 0 0
-214.69541755686 -8.24489305778184 -21.8845326600419 0 0
181.160935922789 28.6839267224149 4.1355693889521 0 0
-89.6395533898935 -6.10473911987956 0.487432096745012 0 0
13.3983697589367 10.4373218305897 -2.75122496136874 0 0
-179.727372875864 -13.8941945936674 -12.4915168580099 0 0
121.101144456562 -11.177942716805 4.58174797217523 0 0
-75.0498361290894 18.8252345759123 7.33197796312132 0 0
178.883097249215 -6.72856185040293 -12.7052046653181 0 0
197.818412310216 -8.5882081060587 24.3957557844216 0 0
-212.958486716484 2.95144032425084 -26.9506592841927 0 0
141.269505507956 6.89166060490479 -12.2978672060077 0 0
-242.033678749014 -16.8699533695385 -13.6819495432149 0 0
195.229016616607 -16.1315461755067 22.8005490340901 0 0
-259.153181979354 -25.5901857903871 -20.3658892094354 0 0
54.2996327281099 19.9692421880363 15.0868680820452 0 0
54.8183252524388 -1.32423334633901 -5.29698898752246 0 0
-230.672016682653 -14.6638691315911 -12.0890141743344 0 0
-165.037223685529 2.81424097942923 12.8160409383895 0 0
116.559938044434 2.67755734227097 -9.63994132740154 0 0
196.081917417027 31.825401109048 -13.1490323971326 0 0
33.7595841828771 16.8020374633985 0.996979335632658 0 0
-161.934269279038 2.30591309627744 13.2271729578341 0 0
213.813273009846 -17.0908067834144 -14.1602046255345 0 0
174.051699538757 -26.3676213083252 6.29858165442249 0 0
77.762105200175 20.5310463772836 7.45032047454677 0 0
180.543967955264 -30.7103554598817 7.25363525053332 0 0
-71.2445437696984 18.9672427198367 16.7811161983343 0 0
-243.994593683843 -25.0429987343796 -12.6047447344127 0 0
221.62500884511 -32.8879333469131 6.27635822830194 0 0
130.538661041718 -7.96081727360673 -4.02742035337346 0 0
-267.140005842394 -40.4102594506695 5.86204025839069 0 0
-195.592946618285 -6.5329404013852 3.18036769900585 0 0
-163.914879960167 16.0318693688561 1.31141201434404 0 0
-271.81453755468 -4.42110852619663 -8.2801923882583 0 0
46.1290388003454 -3.66015522308363 -1.47188114415496 0 0
128.496400136292 5.14987898738856 18.7887640536668 0 0
198.014049660741 31.2074708177311 -23.9207782688885 0 0
88.8974696163137 -8.022920659002 6.51877100268053 0 0
211.702624377912 1.78471386084698 -32.584728903209 0 0
-127.886561074109 3.71719903550484 18.4075791511679 0 0
-240.313936456019 26.9955347611929 -1.84549114743397 0 0
124.362304944148 -1.15205062304868 -8.12980276952599 0 0
-59.2624126575848 -3.29930795626888 -4.35803494240073 0 0
51.2179086352534 2.56709736177238 -6.58382042784657 0 0
179.169277911696 -29.6064733359054 -1.45746255525455 0 0
18.3360259149582 6.89555952947261 -4.63945673365998 0 0
106.559733658627 15.530077349254 -4.99984405803336 0 0
158.484765291411 11.186479377504 -15.556809440731 0 0
-182.769307613759 15.4338055879035 2.93535325300386 0 0
54.3012932523512 -5.15416914236494 4.62773869691653 0 0
7.89178341412544 17.7724286239938 20.7107595056438 0 0
-243.191610566315 27.2510556004021 -1.01980711034213 0 0
92.782233156708 -9.00007943870565 11.6984528080459 0 0
76.3651916808254 -4.69120849342077 -2.50534222108529 0 0
184.498467769408 -37.251920050545 1.88474739414856 0 0
-34.4956660390795 -0.561223166036615 -6.21989470839161 0 0
187.59589740962 -20.5571820606811 19.1416135764495 0 0
200.249421573902 31.0057681889639 -25.129216706059 0 0
-1.36944141532618 11.6114734436645 24.3588223324126 0 0
208.975112311039 -1.08901996301386 -31.461044407052 0 0
-282.418381409301 -25.5851172544756 3.98235305357901 0 0
175.997342217369 21.9937719175544 -20.7563637726076 0 0
198.159095347341 31.6103249923543 -6.23765271597802 0 0
-52.988597586418 19.9547528094612 9.33245877536066 0 0
-157.239973656133 -5.98162434605921 7.33402107458182 0 0
112.098413037561 13.6787583560115 -7.34920273123542 0 0
-250.650872895527 15.1424397252087 -27.0820233662689 0 0
-31.6866013493603 -5.44364251234442 5.60635694802915 0 0
115.465023426207 18.9431889063575 0.374276106021304 0 0
189.808828428649 -26.647750474464 -17.3769493265392 0 0
-157.033130561863 16.9091297861011 -1.3550831824199 0 0
178.425824727808 -13.8418940897173 -8.40483659116882 0 0
-18.1451267383096 12.4803729897671 24.1674845513929 0 0
-95.4776397410142 -7.46093157825013 9.76137217545639 0 0
63.8987322679806 -4.88589443268408 -0.996559643180912 0 0
180.556220729226 -27.3417808976976 -3.93316082606096 0 0
-82.036931875127 18.6404112602777 7.0248156996423 0 0
205.561252941597 -32.280889390519 -30.2240021256779 0 0
-143.209013399225 16.4715744129981 -4.03896029526774 0 0
198.983864127483 -46.2590893300206 -18.4223580367722 0 0
-259.768905600044 -44.7851856415879 5.13371066859073 0 0
-247.576026902644 -13.3779910413938 -14.5141289172859 0 0
-81.2492365594402 10.4959306932975 22.7112837875563 0 0
-9.87823444107405 0.790896646732559 -5.8582585790451 0 0
-239.480899252791 -27.1795763584662 4.96178333305433 0 0
-253.595469174075 8.27603152240385 -16.0958739265191 0 0
-108.257006718136 14.5376846633391 -2.15170619683128 0 0
146.888553449274 6.29988579339589 -12.6476854518944 0 0
-259.945923730693 -4.95709238573066 -7.56577027891318 0 0
213.831934680298 2.7859801459655 -6.26551728230072 0 0
200.615958145359 -24.6934573705718 18.9034464337033 0 0
-38.7078368634012 11.7100863992146 -0.394057179714548 0 0
-190.448532790309 8.55406547990742 -21.2601502633231 0 0
-49.8048774099598 8.45922606734946 -2.43354810945391 0 0
118.742040120516 11.777672661653 18.5745327744654 0 0
206.712211312782 28.2998743331426 12.4394542785377 0 0
211.178688940727 -38.0629854926911 2.57223711981509 0 0
-222.193616670448 -2.91883303391117 8.24726362947851 0 0
23.3678325029112 19.3211129923413 18.4257772190201 0 0
-19.4096203432511 -4.4833792880796 2.99310431737709 0 0
195.916854119699 31.8610496044014 -8.43025759426047 0 0
33.5626237094189 4.04519370045088 23.8101449047304 0 0
100.759553565661 16.1522351082904 -3.95754606515389 0 0
53.5966805198537 13.374878868952 21.8959556109887 0 0
-34.7637884971155 15.7593762590627 22.4393878715437 0 0
19.7731882037695 19.4800786402176 18.296559759051 0 0
-184.24107800678 14.7148596112252 4.37666403996548 0 0
-252.384790563734 -14.453347265123 -16.2877569369829 0 0
-140.890054794317 16.7947692992546 -2.49593838574604 0 0
-252.034606182879 -22.1161032927937 -19.4390331050835 0 0
-45.875132663336 -2.20125242488036 19.5437021994944 0 0
-152.214317408699 9.62856017259171 -13.3541641076261 0 0
219.913644229236 7.66237309021042 -19.4813921997028 0 0
-212.980269585333 -4.70543609065371 6.7043313073208 0 0
-22.6031731580912 -5.00892894159811 15.0157615181829 0 0
114.757373467131 17.6676289560403 14.5997683204243 0 0
-92.8858039071477 -7.68006242263689 7.32211705695204 0 0
-242.819003599971 26.705210065618 -17.1348094946327 0 0
-116.863441314713 17.813640254415 3.74052366321134 0 0
-259.375759554649 -10.7618497350412 -13.7456729097226 0 0
213.727163825771 -39.4307130395515 -25.9039952345702 0 0
144.727065350186 20.3528455780505 6.24421110420833 0 0
217.566116425368 12.2667765307266 -33.8659736338129 0 0
-46.3153902886051 11.9716002279406 23.9878942712477 0 0
-207.629223397796 -12.3679697493647 -15.7768367415161 0 0
207.314198832236 29.9256208096187 -16.764406726944 0 0
-131.439754261749 7.24027882056836 -11.284814160192 0 0
-19.0036816166868 7.21530695075163 25.1023262291244 0 0
-253.245267849276 11.7120227257425 -4.43769274741802 0 0
164.915849463519 -2.50011647083341 -11.539057913974 0 0
-184.102591119016 1.31878982542108 -19.088193295942 0 0
-266.963312518197 -41.5016791145472 -0.290031302498212 0 0
212.231084164437 -25.6131664470445 -28.2421865387177 0 0
79.0021273094329 15.9894648391194 18.7709303371511 0 0
-219.338644730022 -3.90387999200888 -26.9767914115591 0 0
-146.359792870242 15.5450178061087 -6.63549274417725 0 0
-82.5877267256696 -7.25507328585124 10.4582319208167 0 0
178.337262185789 -27.2751332382817 9.7601384753437 0 0
93.0030176231541 -5.85187064300139 -2.24905271277252 0 0
99.1097846410365 8.20041395894369 20.6135802040491 0 0
165.987446968135 10.7758523078722 13.9950316479747 0 0
-39.5270366758222 19.0487612437363 19.2832777439139 0 0
-259.022243938907 15.9266167546409 -19.3591957365516 0 0
19.27768936798 6.49246742645927 24.3952004808664 0 0
114.084580824041 15.7212034141981 -5.27002269691451 0 0
199.938885954251 31.4862049157256 5.61805134687983 0 0
194.156125851971 11.2579834199179 17.772425953425 0 0
195.48284780268 -2.96470060299613 -31.0762076555208 0 0
214.461329799008 -17.1631206205929 20.566098741736 0 0
-18.1441436290304 4.52196033422932 24.9339979139331 0 0
212.527716189255 23.8246518274565 -37.4576760740903 0 0
-226.559656091155 -19.4984359396725 -8.483500584826 0 0
16.2486172450728 0.282742201999253 -6.31044475256714 0 0
-267.172520231151 -1.92214592284227 13.2502615988233 0 0
213.315331304087 1.64630389278998 -29.5315078182241 0 0
-255.680272527094 6.36299250471553 -18.0056741717645 0 0
145.604477819433 10.2900979277013 -13.2055181340171 0 0
225.909656545192 -28.4192435180511 -11.6903408071147 0 0
-274.409353172216 -5.43619751933244 -6.56860281319668 0 0
198.428244291132 -18.2621248760955 -16.9273709966956 0 0
221.223994330229 23.8437381960594 -22.8203939655724 0 0
207.358764986445 -40.7849282493444 3.03446189138875 0 0
-141.071557326407 -7.5312716939643 -3.60823576489265 0 0
-249.202394898928 -23.5531561740705 22.4646731830995 0 0
-260.329364459389 -42.094957845354 13.7782588041622 0 0
-141.715342526952 1.64828607015255 15.9553280478834 0 0
140.046371390508 -0.0759540190918809 -9.70870256803909 0 0
-23.1027967571528 -3.56899674361081 -1.48645576649331 0 0
210.096221917042 -35.4435706287257 -28.7111943827343 0 0
