"x" "y" "z" "f" "a"
-33.2518652124865 5.00193162907582 -3.16870744597756 0 0
-92.4260191313936 -17.5221265891962 -1.69450201288716 0 0
72.9118619077504 -3.59877627223188 3.12919145758279 0 0
-190.163554467614 16.2714458224335 14.098642555864 0 0
12.4829949857008 -12.6830035124939 -6.35647735058792 0 0
120.954329984591 -11.8264584003068 6.03089512570736 0 0
-10.5608482855084 -1.38210952360675 3.29491117950973 0 0
111.752947954851 -14.7670414771387 -1.02158590482459 0 0
-200.062550483056 12.4095260965826 -12.1390311186236 0 0
-20.7879751152968 -14.3503652643525 -9.95131638580336 0 0
-193.021111876312 -27.3536780026137 13.0080749415958 0 0
176.178404378682 -19.5592031491755 -20.097438189346 0 0
-186.144382314046 21.7881962480741 15.5629461583414 0 0
185.295179589659 -11.2491633776782 0.134336036123202 0 0
-190.22686206115 -10.4233258779232 22.315712025033 0 0
186.910063040653 5.30029738686391 -6.13570786136429 0 0
-164.192002805851 -15.3562946549565 22.844795685707 0 0
78.2376824172771 -2.37626237978751 -21.2290866073756 0 0
-181.067179000616 -2.92103797662823 11.3626501044708 0 0
-184.209691709686 -32.2544897162109 8.63949664367644 0 0
54.6890488789561 10.359332641746 -13.4357702107399 0 0
-166.604939284559 -21.1547709215351 -7.72829281134966 0 0
-200.628221224651 31.0137009205686 -18.7935222380697 0 0
-190.507865433622 43.9176362250117 0.928631929962299 0 0
-198.125251060283 12.5218188060347 -13.4334184072103 0 0
169.873664504856 -7.62727052108829 21.5867559633389 0 0
6.41928986068654 -11.6625093170766 -16.8995796485926 0 0
158.971637376981 37.0632986296626 11.0813821892053 0 0
-77.3237487517792 -14.0501064016281 2.55705632718123 0 0
123.710965563596 15.2165215163354 -1.55983804575993 0 0
167.326174386518 38.209226304678 10.5208010435136 0 0
-52.4133169393532 -13.2802163983012 -14.2025449444563 0 0
-169.661410529631 -4.72193358500483 21.6307133673527 0 0
21.1809374970284 1.19764316729046 -20.6747917910624 0 0
-79.9294830602806 -15.7611647884595 -10.5428334953303 0 0
-130.513988664762 -20.3358436815128 5.71960168102875 0 0
-36.7126984341195 -12.973385412527 -3.67281379173884 0 0
-201.696934203647 41.7279965120048 6.6980352001153 0 0
69.0531686022168 -13.1413790048461 -5.18936349417043 0 0
-170.1965024795 -27.9512698108099 -6.68335351673258 0 0
159.620054277649 -20.4726140877943 -19.7089267674094 0 0
165.504920478963 -10.7193620306416 -19.8742256415959 0 0
181.825449735587 32.4956200660786 2.26735873408386 0 0
186.269119565764 13.7508373879113 12.246112479295 0 0
171.534537144721 36.5064873924949 26.4766860651604 0 0
-182.898336279622 7.89616363514476 10.9395121487718 0 0
-107.486524204329 2.3688088682644 7.0249473667284 0 0
-186.226334697517 23.283750330661 15.9088828169428 0 0
-117.9177245469 -13.958053602171 11.602701033491 0 0
154.993782931153 12.2301206660649 -17.9722120893582 0 0
96.9490304720816 6.31203365359416 -18.7491925230791 0 0
-8.11207507545569 -8.30375776709473 -0.59629748224521 0 0
146.43178243417 -21.8372995713545 10.7815290048491 0 0
-75.035063018285 5.18454751049168 -6.09051695329659 0 0
-191.237165646515 -8.61417463745649 19.8578695250554 0 0
-187.984621493227 43.9190675484283 -7.07872693357642 0 0
75.0847948199482 -11.6893564709531 -1.72969101295057 0 0
-23.5586044634267 -14.2684593699844 -8.75854749737881 0 0
-199.284595589938 39.1356459568802 -14.3318464856992 0 0
-34.177328892492 -12.9068485882972 -15.1449214151179 0 0
58.1309071944664 8.06944252703309 -17.1656272844683 0 0
-167.083792241492 8.83235779464524 10.5260512780924 0 0
194.723743787832 19.3740040150106 9.78619808100843 0 0
-190.683394987297 17.5400474906508 -18.3192798119072 0 0
172.29756301981 37.2574522181131 17.1680164811638 0 0
133.924927351716 -0.719483779481016 -17.584552534187 0 0
-12.796064799568 5.804314556698 -16.3875203357642 0 0
-5.6681818924873 8.18479718359472 -9.13825854168385 0 0
163.560688178006 8.9791956105427 -18.77339493244 0 0
-108.166598220203 -10.5386271369236 -12.5089374524569 0 0
92.5424848212308 -9.88956134715018 -19.1869685380315 0 0
-92.3140030853603 3.22629231307425 -9.74624229224644 0 0
109.070994307518 -2.87337799428483 4.13669699318212 0 0
-139.304576671704 6.14461130268615 1.16339643711675 0 0
-195.198605539684 27.660483806002 17.9264050659473 0 0
46.2231629117032 8.68179509373017 -6.30176766004343 0 0
187.928893834924 27.8611497202906 26.826717045205 0 0
-184.998625180577 32.6976376614359 -16.9189232618097 0 0
-111.033581026223 -1.03243152369492 9.77051870214086 0 0
-18.6599712530717 -14.3929920380789 -11.0003002271114 0 0
-26.9828596532537 2.52163398989186 0.654345057452435 0 0
108.203676484934 -11.4600384343495 3.15713271642534 0 0
191.040907167422 21.7995358192809 22.4881345551316 0 0
-151.729966809148 -11.2561843107304 -7.50080640286993 0 0
-179.504302087396 -31.7605312371905 10.5669558892569 0 0
159.892285632278 -26.4231100872306 24.5561044359292 0 0
133.342998657725 -12.8104510721961 8.24174174069229 0 0
-8.62305460111422 1.94309232600702 1.28384278889655 0 0
-36.3133742809377 -4.78317420109194 -19.7606510971005 0 0
106.801076444864 -3.30736179189282 -20.1940845681127 0 0
-173.578973777962 -25.1913820769186 19.2634845375978 0 0
-172.153569516445 -20.8227709976327 -8.61738930551771 0 0
21.6199310688191 -8.16073474374309 -1.01931503880625 0 0
-178.390020343041 -5.88754328108806 18.7986454425064 0 0
176.985496376461 7.92946507886352 9.78200914966023 0 0
-144.788945575435 -20.0953165849167 10.5899474642775 0 0
184.456360557267 -22.6019973194549 -9.53295373139554 0 0
152.931432859044 29.2323715107019 -2.0604150586191 0 0
164.907974858723 12.190790838206 -19.3662989216071 0 0
168.772878571196 -22.0038248881314 -21.2358781235402 0 0
160.247865243178 4.03874436747489 14.5530010679715 0 0
171.201235333122 7.72908451273804 12.7108550919056 0 0
-165.55562471358 -30.9562003681038 0.804840024940994 0 0
163.668982573343 -27.8786993603334 -2.35802762360264 0 0
-164.36465314218 -21.7514496137578 -7.47922825517207 0 0
57.7814306358487 -9.34353437326399 -19.5159819000096 0 0
-37.0098670895647 -11.2499179975464 -1.05044764133952 0 0
185.209847479445 -10.6640814892443 6.69273487933612 0 0
59.1690829666465 4.48073985701094 -19.6877761349678 0 0
182.151631558153 -14.1841765443894 -12.2324907956833 0 0
-58.761826446656 -14.5982637291905 -2.66375795034786 0 0
155.105634508048 11.5525404793549 10.5757847185117 0 0
-184.546695956358 20.4227283160029 -16.0861561555544 0 0
-197.996484966538 -23.6895241614238 7.31946930707008 0 0
-171.343066178373 -8.94592457745683 24.8612073534611 0 0
52.0804060854558 10.2658805991462 -9.07799760677417 0 0
57.484500708544 -5.73322697797733 1.44739340309117 0 0
166.328605212913 -15.8068430196579 32.6713084320988 0 0
-190.322834095704 22.0799051132299 -20.0410105090595 0 0
-120.526204962724 -0.0795647147243817 10.918191395951 0 0
-205.973410501629 16.8823023053794 -13.6365405018601 0 0
-66.8346421123644 -14.9978130604703 -11.5789107605622 0 0
-202.471017342505 42.7994025403106 0.566198107695065 0 0
-182.84554973562 -7.81001237427681 20.4405468294148 0 0
-197.966498003308 -17.5561796763731 -0.7698705491743 0 0
-157.596214660406 -21.0898402592103 -6.69885710338047 0 0
-80.281026114442 4.57014639332343 -8.99113704981985 0 0
139.680614283079 19.1227101483013 2.99748180308964 0 0
-164.331699513044 -11.0005434292808 -7.39356383967818 0 0
-178.969072881635 33.0859544385132 8.02642817015537 0 0
-198.612914338343 -18.3694147166728 17.3507318197294 0 0
20.9154396764834 6.58933098335241 -4.10800831755622 0 0
182.847935178826 -7.72100006818732 12.6787926802462 0 0
186.985744220991 -26.8865275486856 14.2446669748599 0 4
178.79269970161 -7.1417963943187 -12.5881108728949 0 0
116.938094263462 6.02952433699348 2.99130719212633 0 0
36.8784308588798 9.26588886523196 -14.1341342699119 0 0
88.2168491397135 5.11804037303824 1.40263933863447 0 0
153.052834566609 4.60978988889338 9.99589426040393 0 0
139.166163691984 21.3162132603588 -3.37671720853664 0 0
191.882410669364 12.056801046908 -2.84793422975518 0 0
59.4368681351084 0.487332980317015 2.71285470913316 0 0
-13.997077816333 -14.0016661540739 -13.1732840115488 0 0
51.6708496456439 -7.99185849623411 -0.186377699458361 0 0
-173.92461300808 -4.71726694639179 -8.69975055697649 0 0
-79.6202188804652 -1.11944353230721 -16.4322830702974 0 0
129.5351373383 -8.69103656582445 -18.4674430631524 0 0
143.904420557937 6.93290492218179 -16.6396903898623 0 0
-171.52617621336 12.579479962923 -4.57000988249935 0 0
-162.973456268224 -28.9685532342796 4.37792776342224 0 0
-126.017941739743 0.370708550645486 -8.30749279319276 0 0
-195.641134735806 -13.4819536589656 9.48123632733829 0 0
126.769000469295 0.297080910744497 5.28313612954971 0 0
-35.3363404361731 3.49295408450685 -0.610194012519719 0 0
-186.678774384787 -20.606653630636 -8.19187194046627 0 0
-183.941328822398 -17.3186045842069 23.4770936605205 0 0
-138.290738219197 -9.99582674698282 -9.02335844230162 0 0
142.696365330174 9.92272782375784 7.14536223246534 0 0
-154.019493653388 9.68159967127712 6.62464294361591 0 0
179.562529478835 -8.82619470903833 22.5436270524119 0 0
192.294907795191 27.9443843991545 0.554469008691981 0 0
-184.998232979852 0.97039380116594 -8.09015515366265 0 0
119.678886895563 14.4941169431377 -2.17915115816896 0 0
-179.565378273993 26.6984143613753 -12.5305780291435 0 0
77.6198012644153 11.2542435967284 -14.0860330716594 0 0
121.281991473772 -9.21441838517539 6.11695741332815 0 0
-197.1993054117 39.7953497334855 -14.3168269392046 0 0
-154.583536807273 5.8249301408132 -4.27294413322041 0 0
-163.388383982586 5.08747324978809 -4.99968980295043 0 0
34.9629617171298 -12.1860595552162 -5.08857071698391 0 0
113.430640649707 4.10131739652178 3.16061058290489 0 0
184.999329479873 -21.2025479646295 24.5117696153289 0 0
-48.0208241535644 -6.54212060466826 5.13355472467184 0 0
185.824571036104 3.41032529786701 -1.70739634777484 0 0
-146.0404814139 -9.25649625379879 18.3371727714208 0 0
-148.698600138037 7.03600608967266 3.13741671110948 0 0
4.85778821247173 2.62013733751992 0.64294035088607 0 0
-114.405139728527 4.78690063830405 1.44633225652311 0 0
-183.688275804684 -30.9930575300893 12.0618024108049 0 0
-145.791644808802 -6.85317720410432 17.7493400057509 0 0
190.319588634645 15.3317175723677 -10.6175356234011 0 0
-167.924730890694 12.9202388469788 7.85559845804283 0 0
-160.257193477534 10.4971854980688 8.9014961482326 0 0
77.048152145055 -11.8813417426283 -17.5263631197021 0 0
-51.3413707723505 -15.3706224549166 -8.04520687937245 0 0
-162.267503745987 -28.2892433592121 -4.28996935977478 0 0
-39.26588912494 -14.8377631449039 -7.91336129412899 0 0
159.745494106118 -15.1750688224611 29.2197876474788 0 0
96.8342175161757 11.9937950741101 -14.673318178908 0 0
-118.06593942597 -5.83103765535776 12.0073462709953 0 0
-175.113020530457 -32.9330128523161 8.25038251167682 0 0
73.0398723133438 11.2220365232678 -13.684743473818 0 0
-128.472669962224 -11.1163177460698 14.1251195028204 0 0
-135.296174196912 -12.8144090120335 15.0581984309924 0 0
99.3434300437979 -14.2543727248103 -2.57415685183787 0 0
-163.556089096248 1.16133018792249 -6.29900089063538 0 0
-181.540024958211 41.0689885602531 0.376497261311822 0 0
189.081464489516 9.90958438342619 5.32687555557992 0 0
52.1108998789737 -3.9927633224916 2.20609802650022 0 0
138.967194976563 -5.7299175803678 -17.0056580900462 0 0
189.975320740207 33.4760388184439 12.4289052749094 0 0
155.864340403171 -10.2422009215634 17.9227986797963 0 0
-122.56846877328 -9.55204832936186 -11.1108863475813 0 0
156.252726150822 -15.5529526025395 25.0784060532706 0 0
-188.493673967815 -16.3661510147611 -10.1199383228255 0 0
189.693174963288 20.9366368433662 24.0321566045845 0 0
168.227877209407 -31.8504036659415 9.12565063146586 0 0
134.412939066915 19.6866021580216 -4.97015035864194 0 0
-164.485346899201 -21.5007034834189 19.995506581653 0 0
138.891605111029 5.90118897767968 6.0338576829468 0 0
134.842412553971 19.5770931620341 -6.93176769135944 0 0
116.729637483066 13.0655137126866 -1.26090674076869 0 0
-192.56023252489 3.66522010998531 3.48495323858681 0 0
133.356186444019 11.8587814313188 -15.5828371353406 0 0
123.337434893218 -4.42603730550503 -18.9558853639517 0 0
153.381016074653 7.42040696130528 -17.0426948853585 0 0
-86.6001036726889 -17.0848687471421 -2.00142181225674 0 0
-194.534005113598 41.6833819215945 1.23245996908553 0 0
-191.596287270878 15.8211445784088 -17.3763639017251 0 0
-150.381779233397 -21.8472016208531 9.76947973750207 0 0
185.338714725763 -21.6752453163467 -8.10473525714482 0 0
-149.819829734692 0.890881933112637 -6.21096518053352 0 0
145.184187071357 -7.38482689158107 10.4022479760291 0 0
-109.277429531129 -5.19109718095733 10.6467176022973 0 0
-107.925686364955 2.88069104715842 -7.52883121387145 0 0
39.2335494748145 2.67749409031589 1.60490480557547 0 0
-133.905619412012 -14.454385680308 14.0135767462709 0 0
-82.4508820267425 -6.0222561747456 8.58079922516553 0 0
-130.810121246196 -11.4076720558592 14.5173308607866 0 0
165.826311378649 0.437643972203814 -16.1734044383874 0 0
155.22420223806 -4.54655814616803 13.0040474971888 0 0
186.401502879517 -27.8778068676068 11.6894796832072 0 0
182.583460424271 -16.8723359049489 26.8083097983498 0 0
147.022290059574 1.51542947663318 -16.1475893495378 0 0
-128.342690289265 5.88965625029995 3.28622993844066 0 0
-178.427566728615 -5.81094305502108 15.1567609779277 0 0
58.7029302849435 7.84283295862892 -4.08933859702353 0 0
161.293781751681 11.401615611014 15.30586534499 0 0
-153.895536858209 -11.5579077174736 -7.42189360933705 0 0
13.4023128094929 -5.98701942780256 -20.8155344033154 0 0
-200.570303184434 30.6939501536585 16.5386978319245 0 0
134.37178576081 -16.7327637394225 -13.3897570579243 0 0
-188.999323718386 20.5094467725266 16.2829203799216 0 0
-125.491546783637 -8.67177567063043 13.6351650839043 0 0
156.142462607563 -27.1573813965558 2.13846659395788 0 0
179.243207375819 -22.0050031652832 31.7869589675713 0 0
190.790070595699 19.5765301406382 -9.52599857151623 0 0
163.628044610164 10.9916003050038 -19.2410842346727 0 0
-66.235245298732 -2.62446080036104 -17.9183380963334 0 0
-96.4328772377163 -1.64881892655441 -14.5283960103687 0 0
-184.02238751651 34.2995610581903 -15.4910802342441 0 0
-189.205358966143 -22.0461153520119 21.4174202830801 0 0
-17.0488487379897 7.31935297646164 -7.56185918513312 0 0
-7.65827533133626 5.45883807941292 -3.41002257794298 0 0
-46.650558658125 2.75739186545923 -17.1101185815275 0 0
-170.79005670512 -30.3255483222685 13.0627981086061 0 0
175.604797061968 -28.5765747268091 16.1222320854337 0 0
-212.206009955739 18.9441068319537 -3.90740584232425 0 0
-187.979575310249 -6.86170955102634 -7.71913306079504 0 0
186.13170726063 6.09592928082249 -10.3661158556525 0 0
-14.5770478319065 7.78402054252178 -12.8072115461 0 0
96.5633010829541 -11.2373632265686 1.49804641449272 0 0
33.5415107832187 -9.3277141006737 -19.2913639492858 0 0
141.704822811239 -19.9257069846941 -4.05346923914559 0 0
60.828729201159 -13.5338671932105 -13.9997439206071 0 0
-136.116525815113 -17.7128671706331 -7.35126884286673 0 0
161.919388525137 -27.6597382728487 23.5912981809818 0 0
9.63963574901881 -13.5564132274083 -13.2690488602586 0 0
-191.771589833503 42.2057716273162 -11.9020712376809 0 0
108.674139766107 1.40844416767991 -19.6370592652955 0 0
191.807222212176 16.349009989064 -5.88250282378382 0 0
-145.22541702886 5.09572391588294 22.3043431806625 0 0
186.977178802799 21.2631462753273 -10.9110745950742 0 0
144.88074523793 23.3037013449369 -5.77101436015677 0 0
-140.786299944075 6.26724015940624 -0.0176137716230539 0 0
-44.718875345569 -3.71132934861172 4.87179738744953 0 0
176.382920148755 5.77878492598987 -18.239684877106 0 0
183.893772470969 -10.6253053982642 13.6795637283968 0 0
-68.5030528197155 -14.20248051088 -12.7295063732532 0 0
136.31218051017 19.5716594430059 -8.08407374298423 0 0
131.08730421281 -17.7154181738683 -0.0238354107248553 0 0
-36.3632516232526 4.43300790429647 -16.3624334481574 0 0
171.812718207613 -14.7997793495955 -21.0447443051717 0 0
64.1059138891904 4.71451192900916 -19.6353483494072 0 0
138.915110275208 -19.3042132082986 -1.6787626498826 0 0
-175.079700524678 2.01518640961012 -7.15879840446778 0 0
168.535160432949 -5.87390130602388 -18.0310100841046 0 0
-108.448484981358 -17.9220033202339 -6.46755474984608 0 0
167.696329120207 34.9524589339249 28.7065402084747 0 0
-201.665564250043 33.1555205452222 -17.6097274275126 0 0
149.792255271615 22.5156078310327 6.93730062078719 0 0
108.44020463121 5.14724314702071 -18.9070635203668 0 0
157.258633730301 5.11101413890316 12.272298401208 0 0
-60.0493264000828 -15.657993095854 -5.54337242944684 0 0
-207.082725793201 40.1972024603417 1.19506772839292 0 0
-209.669187387672 25.1846828265063 -13.0355554364229 0 0
169.051039843538 -30.9789221124169 16.5667269081973 0 0
-152.945824028745 -12.4095088264145 -7.5107132364765 0 0
-134.297134582377 0.281588902863123 -7.3210544876843 0 0
4.14797262733325 -3.48555920143095 2.67870548955109 0 0
162.585035276542 36.5782173072842 2.54541445621379 0 0
174.224805781933 6.44018652257355 9.97338820873909 0 0
-100.213008678776 -17.7603543849318 -6.51761737395821 0 0
185.877862859741 -20.0539946109982 21.2077118270811 0 0
-77.0156259511164 -7.80814409495623 -16.5086479421584 0 0
-166.168127546124 -18.2428936546954 -7.50189960974969 0 0
152.580214027798 4.36322703393909 -16.1049576394971 0 0
170.14454445728 9.6467581273643 -20.1359483778087 0 0
-188.176029775178 40.3913756800287 -13.5841688411999 0 0
-13.9742496069067 -6.16061859274005 0.982075364053827 0 0
-130.972381042682 4.88301219329597 -2.06790437375593 0 0
-177.88760689548 35.6541191139873 0.682647155499268 0 0
-57.2557833528946 2.45520131067661 -16.4329591977446 0 0
-194.227028051172 10.3684059554898 7.50727240656509 0 0
181.700048393158 -8.26563764874069 -9.15311538451002 0 0
-174.543566129298 -18.5102116325634 23.4159301667786 0 0
145.733836551466 -9.2955943551237 11.3481149599891 0 0
143.645028907164 2.85800570439015 7.16119571718589 0 0
113.395805842198 11.7032274555812 -15.7925739924823 0 0
50.0650514908674 -12.6460794466997 -15.838724192444 0 0
-182.345799118145 -32.5656908952483 8.60999709633538 0 0
-178.019137345539 -33.0478210369717 7.64901948481469 0 0
169.706963869299 -31.9370570411327 11.4387915332243 0 0
173.138357625872 5.03190181771694 10.3527198815561 0 0
-194.813692918603 42.719324202759 6.2988665417912 0 0
-146.238385828811 -21.9433333937136 7.75343740492969 0 0
184.97006249852 -15.1717201599009 -6.32425787906557 0 0
-133.409447238175 -21.0069211799355 -1.71500411335653 0 0
-116.562404157713 -2.41038365057077 -11.678764683046 0 0
96.1562374699829 -12.511527569009 -17.1324713760729 0 0
-191.307737757155 -8.54836650353701 3.12557080874302 0 0
-155.526442336513 -1.87381998173142 -6.56069816902986 0 0
159.456792216074 -30.5678272558297 15.2478364588198 0 0
-52.1403863187079 4.72041635405709 -2.56130559435436 0 0
129.607816487856 12.216591910313 -15.4347325568338 0 0
-99.7436931409378 -14.062352435537 -11.3148168415327 0 0
-189.774962573558 -29.2040703089705 -0.0489054171365976 0 0
-91.0474588659992 0.857815824659932 -13.7599391643037 0 0
155.119190658292 -21.1608609201975 -17.4572271267948 0 0
144.381133973668 -13.6627159536249 11.958188814057 0 0
-86.783667001335 -14.2032991024173 4.87511441117604 0 0
-39.0234185846697 -7.80197845044174 2.80726639291286 0 0
143.023741680448 0.420069251888469 -16.3473694890552 0 0
169.192447965397 17.0138583262044 29.4498350640229 0 0
127.392315259618 -1.29668130163314 5.66471000492696 0 0
-18.35943735381 -5.432894634839 -20.2591460239832 0 0
-196.425202021673 -25.1767582587349 2.28819531590446 0 0
-124.204857229142 -18.5100443866388 7.90144499469212 0 0
156.932846336439 23.3029718870013 -12.548539421284 0 0
-104.1301301169 -1.54568546732204 -13.3565891021857 0 0
-156.494030948894 -5.26645053312814 -7.09870276993957 0 0
-174.348903297919 -17.8166495702035 -8.11466492558238 0 0
-188.726840105932 22.1363462155642 16.1766860009184 0 0
-1.34981736924242 -11.95499021385 -16.4936054205227 0 0
-197.877790170393 -23.6308416689478 5.34448729553765 0 0
-183.761368900565 -11.9133304245195 10.9931240917759 0 0
100.112072030188 -15.4216843270515 -9.59248651090912 0 0
-178.30527713976 32.0208537864834 4.98970399916934 0 0
-49.455355946463 5.90360579600073 -12.0424836068862 0 0
115.527762799798 -13.243041526295 2.88982011695805 0 0
-188.478184868087 -5.56300651470563 -7.28539946683272 0 0
-184.52950537587 2.44739777056291 10.4689566206205 0 0
-153.619591239154 -24.6740399967928 3.642123655558 0 0
169.397210135312 32.7098655924466 30.6909850657215 0 0
174.308595763993 36.961099692677 18.1104427643613 0 0
-45.5080089978457 1.33208618503432 -18.1765656988795 0 0
193.025869362896 31.3483876390337 15.1952846059874 0 0
-38.7962958845407 -11.9624398966399 -16.0686144633967 0 0
182.553198886026 12.9601055442149 -19.7929591525985 0 0
85.6074739284812 -14.608146769182 -12.3093612128614 0 0
119.941945493031 -15.1500418012384 1.0106631946345 0 0
151.937444657561 3.0725333223082 9.71435405661208 0 0
-170.57483064558 9.54175032758967 -4.97910866857672 0 0
-139.767842270611 -20.8437835349385 -4.28578091982292 0 0
-90.2087480875004 4.64907690383789 -1.5687861862951 0 0
140.34792627853 -2.19017456632581 -16.5534647980671 0 0
146.388907564544 -11.7967508545948 -17.3890394275235 0 0
-171.817258347568 -9.81332740358002 -8.66871376806178 0 0
186.129299338925 -23.3289252472025 -2.33183451875783 0 0
-156.846232759275 -17.9101918960574 19.4583808490638 0 0
174.953676678477 32.4855014181707 -2.81342576027636 0 0
-193.983514051067 4.39964720865817 1.50811462084638 0 0
146.122738307632 14.9124522735869 -15.2811194571196 0 0
2.85083737129264 -0.774225404356571 -20.8929829460898 0 0
-160.61262965184 -0.455464237133814 -6.70728498393074 0 0
-4.80616566570183 8.42509417278552 -11.1428987600014 0 0
155.094237784035 -27.1681503284925 4.17020133223736 0 0
-191.15489250023 -28.5085970074327 -0.0231782940092187 0 0
-21.0325056035552 4.38443069925911 -2.22748105972539 0 0
-116.688212878226 -18.4455437751706 -5.73174016812197 0 0
-176.474723105383 -32.7228134863002 8.54956510902077 0 0
-187.435791976556 -5.09504717010954 -8.2768514469058 0 0
62.5430517603604 3.18514597639311 -20.3539899755397 0 0
-197.342882928507 -10.4951500015453 20.7599665983992 0 0
-148.809816057711 -7.10258304174941 -7.57007032400879 0 0
178.048997709783 -28.0128339801579 5.12500329365684 0 0
-1.82015034717448 0.577723048209766 2.62763343870254 0 0
-175.290124725742 16.3903495776831 7.46096971170928 0 0
-170.463517587946 -23.8431152985414 19.9510285914942 0 0
185.4885257055 3.14108403842244 -5.51433101943364 0 0
129.639034732344 13.6088160874998 -14.5036946913938 0 0
-163.381092090941 12.4515390004644 -0.0139541991444157 0 0
173.932236219735 -13.1726897899083 -19.4754992627911 0 0
70.3284671743887 -3.57022030565617 -21.4225070296095 0 0
-180.738226447978 28.0565466722901 8.53042186608966 0 0
182.550743199196 16.168982089341 -17.3942480460842 0 0
-36.314779057683 6.26840227159404 -13.4742433242843 0 0
194.096472291654 25.1871808410598 -1.61758323787049 0 0
-41.3627081568937 -8.86593410202342 2.17750849255224 0 0
167.417953728467 -24.2263329150502 -15.490144155586 0 0
-9.09642501186643 -2.62582457391016 3.18226885841659 0 0
71.8511866184188 -11.7783732588486 -17.5270103459827 0 0
-209.628151142169 13.5805134372602 -1.89761452807279 0 0
124.173015545644 -6.12033043617304 6.03971915736878 0 0
-142.968093170648 -19.2171692118783 -6.45687860297553 0 0
168.428892696427 29.7072866364339 31.2932650933328 0 0
-177.053195540712 33.1964083778912 -2.13986597024203 0 0
-155.073490993344 8.26745243967968 12.0200696270013 0 0
149.851062540823 23.1882837124422 -9.34396608416246 0 0
101.274834050177 -15.0267045623952 -4.85033182858596 0 0
-192.069569196835 -11.0242737657463 10.9344227834167 0 0
-163.024601192996 -26.0922253254165 12.2332713137424 0 0
183.308614313352 8.97194515285264 7.11788274784318 0 0
-195.944235629063 -10.9392719962927 13.8745627978191 0 0
148.922089771199 -20.8919057252746 13.8669307180777 0 0
-208.238298737813 37.6398728609277 6.25460804208421 0 0
-21.3810510799461 7.47255836036318 -8.68096137328166 0 0
95.4338910478475 5.01362761788085 -19.339273397552 0 0
-198.393348273256 15.6099883095805 13.9556386430579 0 0
-58.5986510871414 -4.20038897111032 -18.5117751609359 0 0
-26.8744055160088 1.82732004730563 -18.8643364521249 0 0
85.2690038543948 -0.0676755767789717 -20.840587649592 0 0
118.56403630526 7.43232212341961 2.6906741827488 0 0
-72.5516481489632 4.51933777812095 -2.23953067434361 0 0
57.166735278206 -4.87570754123713 -21.3267547862194 0 0
163.90807281603 29.7424789985965 21.0570794399071 0 0
146.285159359765 -6.29481122913788 10.1429700525187 0 0
-91.6197466056921 1.27239928082687 5.87015793031374 0 0
110.601063529883 1.63849782490667 -19.5068306502477 0 0
155.57274984096 6.62795973052218 -17.0064360408713 0 0
-208.07824263837 36.4330959385588 8.08466532715594 0 0
124.826249527416 9.96700738150566 2.73510178523135 0 0
-201.655823360886 39.9146089999145 10.0543988449956 0 0
177.54108723961 14.0993449389411 26.9021657982714 0 0
-169.278507298292 -6.02540592909181 23.4562036698422 0 0
-185.562842191686 -3.11384005752441 -8.55750594463159 0 0
-171.21368607299 -29.4268169892441 14.5535211467946 0 0
126.121690423979 16.8661195628588 -3.26066925633627 0 0
70.4453805427843 4.67293097469452 0.966270452148422 0 0
183.242032809542 34.7352527661545 13.3463718007032 0 0
114.06498647552 -16.3142388290565 -8.37765109742407 0 0
-54.0868708631323 -0.66911056044538 4.80909609969363 0 0
133.964448821143 3.79011122015014 -17.4243101149169 0 0
181.540206302344 -20.2988562458766 -14.0962061397359 0 0
62.3617142050516 9.43589562092481 -15.8195648755537 0 0
-132.457932053423 2.96573112212345 -4.99041698962885 0 0
91.4970389489053 -3.7970596451931 3.65683153451299 0 0
-190.961260408373 -27.8160485579843 14.1662300136112 0 0
177.828619075075 -10.8192293699142 28.3095545398725 0 0
69.2931866622162 -2.81820330410004 3.27353578809576 0 0
-51.4641917609507 -15.1145210687573 -5.93328269393499 0 0
-186.025298622737 43.9100555578503 -0.844785451303459 0 0
-140.106224694154 9.08426884033158 15.4984006070025 0 0
180.836436414216 -1.17804036790768 7.0372658700574 0 0
-165.348634873949 -2.46108126856934 19.3056185953522 0 0
144.510067502234 20.3310858936717 5.2201526026854 0 0
166.059762183273 34.0169905502646 28.1526563579037 0 0
-112.95654687321 4.17333113558783 -3.71090949020568 0 0
-105.055925040504 -12.1754741432223 10.5843248127273 0 0
140.39355348538 13.472114217976 7.00594701325173 0 0
137.238525577066 12.3241379836758 6.00488379539805 0 0
-50.9544446810912 5.67650738157864 -12.3505098634628 0 0
-176.727527813782 -1.58592546905346 12.8225467633253 0 0
-125.125904713036 -4.94239534553916 12.9634224799308 0 0
137.302028829831 9.7792619725415 -16.3437793099446 0 0
184.757795912367 -22.8854191964125 25.21408766556 0 0
-97.4467166836436 -4.27277100446548 8.99625346301809 0 0
122.392189834725 -7.80974974285252 6.11565606784531 0 0
69.4664919522804 -0.0637163966417502 -21.2942284673409 0 0
-28.1269117445539 7.25487125124483 -8.41276147214314 0 0
-158.222874317293 -17.2399475311191 -7.1482464083638 0 0
160.700674339597 -30.9431704036859 8.56146931413547 0 0
-116.377819646602 -9.52094330970787 12.423949853747 0 0
-107.739173007001 -15.8238910619044 -9.32904154016303 0 0
187.36269244607 8.23351669322352 -10.3108200645338 0 0
172.724580424453 17.2459134365435 30.9973553680803 0 0
-117.469084495507 -18.2137064511319 6.28534712807997 0 0
188.339967199505 20.5091922179793 25.5197909873345 0 0
172.215755428971 -28.523041938731 23.3899085571551 0 0
186.537976332973 -14.5165106691394 2.2465221336085 0 0
14.8054642779142 -1.73011348778485 2.72964719406694 0 0
168.11191751854 -8.20529942502544 28.8722738793265 0 0
114.477593598431 -14.0271862833499 1.33510190161778 0 0
92.6802984254123 -13.6525563412372 -2.58520844715939 0 0
-141.634792920961 9.46252915174924 18.7960843278194 0 0
158.340829662 -14.2361870238775 27.732500227629 0 0
38.8323080174467 -13.7031622424477 -12.2341080924128 0 0
128.373474848849 10.5490144988524 3.35417445660308 0 0
-147.858509857647 -9.01121849725878 18.7734195476898 0 0
-179.073440714937 29.4740980495181 3.56271750106328 0 0
183.440982495017 -11.8553740961988 -7.69436848326971 0 0
182.695648486324 -6.36497503360884 8.96269927118544 0 0
175.323436030422 0.100562390754618 9.08153873452769 0 0
124.64437495514 16.986864607863 -9.36694821560977 0 0
92.9536554675353 -2.55698617991161 3.60573735089366 0 0
-192.788637014899 42.7190493261675 -1.43676316687326 0 0
104.981989673282 -14.9043372102606 -3.10992102230039 0 0
-181.128119995824 23.978338691971 8.91339761042363 0 0
-126.287416278523 -20.3133409629154 -2.54575480715233 0 0
160.602622222491 19.4050735335457 16.6111378233551 0 0
-108.70817112746 -1.37774180741576 9.58874739635187 0 0
-205.011986240071 33.9340301051932 13.0640143731661 0 0
-200.504483123205 15.2496804695266 -16.5918287587407 0 0
150.268540374047 -13.7293645170992 -17.7933327161434 0 0
183.458085398411 -28.5318441283198 26.3239398474297 0 0
110.992743390122 -15.7843590500372 -12.0046235286844 0 0
-17.9726820395059 5.9273409200434 -15.860854205935 0 0
150.895831139035 5.68521034236877 9.07330961565739 0 0
185.899158942945 -21.7917733210695 22.2372705239346 0 0
-198.189520847005 -9.82892833141615 19.0562713119393 0 0
-45.8576769313676 -9.86574732467339 -17.405195799319 0 0
-151.566836869063 8.79430612950894 19.2280500501934 0 0
134.932230724883 -5.78906618454091 7.78968430388761 0 0
-155.923579458143 8.21000884845375 -1.57991478039686 0 0
-31.3031425781906 4.75976988198264 -16.3879913323596 0 0
-169.758063111275 16.016148965008 -1.44764124944628 0 0
-101.374860351251 1.08039376192527 7.23095556713444 0 0
-89.8771975736466 3.57689210300345 1.73865905921982 0 0
-151.152739692659 -24.120884504678 -0.732104042381956 0 0
-192.750149912621 -12.8174391388945 5.94796273148626 0 0
161.993569790346 -14.6857482763787 -20.1569312988649 0 0
-106.70891181057 -18.0669171409396 -6.13341610686624 0 0
-25.5518429222235 -12.2419358292988 -3.78758657917019 0 0
-196.737668544288 25.6525784059045 -20.3160199583837 0 0
164.793979532042 9.97988406803075 15.6071311670161 0 0
99.2151233573793 -3.43370320552757 -20.5133653449699 0 0
154.767429338626 -25.6916509417304 -0.900103681001843 0 0
-172.629535312106 -19.3119982117376 23.2615867177361 0 0
-165.536586081726 13.4999763619466 -0.376216322864667 0 0
-95.399682941651 4.75234120474749 -1.83577805032435 0 0
86.592838620781 -12.9071860438391 -16.4510045930386 0 0
160.197734309182 14.2571597040793 14.2944983441826 0 0
173.615917268992 -9.05019596530263 23.1335290469104 0 0
-20.7484319365555 7.4953639513398 -12.5456670092332 0 0
178.19671510518 14.0306662711869 16.0530973611177 0 0
106.721088913533 14.7715688050901 -8.93561664319797 0 0
-89.1284397094381 4.90753090910778 -2.94578062542705 0 0
133.078703634459 -17.9311014264364 1.38178438089566 0 0
191.038136049862 16.3300405610399 -8.55525678231946 0 0
-97.4145977799653 -16.6013746579359 -8.81416164514131 0 0
-16.8899797382344 7.31476482614584 -13.771784057744 0 0
-189.934916401058 1.06633496967237 5.80655179777292 0 0
-68.7622124524038 -1.69925769986884 6.06597595349866 0 0
160.31744818266 36.1708860276242 2.37295603793789 0 0
169.529031389436 -18.8720746786801 -23.0246845058917 0 0
14.71200556067 9.04789693624255 -11.1675957431249 0 0
176.701576544445 36.0444938782403 22.1938778650502 0 0
99.3642463139402 13.7011990304713 -11.7387963748797 0 0
66.6552130553314 -13.6818674661717 -6.96526952102605 0 0
160.87745063828 36.2429776510552 14.7614428990136 0 0
134.407410228042 -17.8848083251116 -9.76902535535091 0 0
11.5031702978022 -4.94878594492629 -21.0253067717167 0 0
-201.977021440668 -16.911015967092 11.8632592885515 0 0
165.671009433672 -17.03194957623 -22.3107288380422 0 0
128.64956360656 -16.2730248054469 3.22092348807891 0 0
95.6558218185721 5.97278019575187 1.3506781948523 0 0
120.89785277641 -16.5914423275806 -3.05154535328156 0 0
-175.077120696832 -5.44315072509499 20.2952681097781 0 0
180.398945119753 24.8710468242819 -9.56654734002757 0 0
-120.096215713045 -5.39861884266586 -11.7558550151068 0 0
-161.79280765849 -28.5789627743494 2.69755793604736 0 0
48.3170202575022 -9.65957360510984 -19.1447272218352 0 0
143.945041310053 8.34506087173414 -16.6938409164404 0 0
-38.4714351362995 -13.7186119098905 -13.7729413626506 0 0
88.7924002511626 -14.7698678825678 -11.8435458352211 0 0
-198.818954963451 10.1806732800217 1.11358387721883 0 0
155.562884301406 22.6737816267922 -12.6451359203991 0 0
158.048819635463 17.2547771623923 12.4978853271715 0 0
-170.903468882931 13.7117833978897 7.85087227669513 0 0
-191.31392307399 26.844945887372 -20.2783443882633 0 0
-162.600367053274 -29.2192888977622 -1.99860743852957 0 0
-187.579404430006 -12.6690065875713 10.9983059571135 0 0
-90.2294553503407 -0.94648212633518 -15.1153044854611 0 0
-122.173662969793 -20.253509152604 -0.0167895080759048 0 0
122.9110325319 16.0134278136374 -3.35253304202647 0 0
140.255573092001 -4.41844330376564 -16.5784438687389 0 0
43.4345771393994 -13.7520870427957 -9.62803399462985 0 0
-125.067044811569 -17.9220210898832 9.2754956811216 0 0
185.564455723422 3.68897947837671 1.94349694280835 0 0
169.220824362424 -7.65096574727015 22.709151861237 0 0
188.383060962869 25.5068784779461 26.5995663440256 0 0
177.919436376304 -7.15599313852653 16.5541186384599 0 0
-32.4267580874478 2.55562205688185 0.781934239199582 0 0
169.470885452445 -31.1205069987948 7.41395662026544 0 0
0.87778017740964 3.10722608658538 -19.2381050912714 0 0
48.3813965879539 -13.7089091192927 -8.97601142995594 0 0
-190.654546181905 -27.0648074270335 15.9706544774326 0 0
-43.7844640075509 -13.012121909693 -2.65264479114815 0 0
4.35174021960325 3.96681144919705 -1.09064566919632 0 0
182.074661694643 -0.352383474405547 5.90856941539404 0 0
-146.747072442518 7.75750768313681 5.48398298303608 0 0
-120.246238943679 -16.2918352972001 -8.46519522828872 0 0
140.142483144493 -15.1775571522405 -16.6049312833795 0 0
-176.496542129708 -28.7568495460645 15.7723098724271 0 0
-118.770167538162 2.51180467173744 -6.61837366239645 0 0
184.110477898573 32.6502241492644 28.5318432333128 0 0
-154.188208976866 -16.493472289884 -7.27222775653949 0 0
165.341416368032 -14.0178490457485 -21.0600291458027 0 0
20.938175905772 -13.5826433837699 -9.33531946725194 0 0
-199.101593836612 -19.5947949681704 15.645125310585 0 0
150.797763633495 -10.5253476074819 13.3842217648728 0 0
-190.075912983142 -16.2689868380428 23.5816931669409 0 0
-193.804086156435 -13.1332747866491 -8.29647454647497 0 0
-21.5391925929236 -13.8756364866013 -7.64209464293082 0 0
-191.568234647803 -12.1623868337432 6.11590014649343 0 0
-38.7023685879326 6.10628322714537 -13.3368155852724 0 0
-9.62938956535354 -13.8228442779948 -8.42497930570239 0 0
192.482819310975 15.6032526659167 11.0484293646701 0 0
-104.411927487136 -13.9181308893414 9.29068386785022 0 0
179.992903633922 8.45011642759114 8.90475449432728 0 0
15.3447714804056 6.77143325839211 -16.7747398473888 0 0
-122.335201455659 2.01421766760575 -6.98099047835538 0 0
72.9484025849491 11.4565132890833 -8.61039986745714 0 0
-180.922534601323 -19.8934441423691 22.5584124144787 0 0
66.2980010923655 -10.0364312384204 -19.0739949143892 0 0
-175.567981742952 19.6324913372666 -4.39612339752381 0 0
-9.71261807078575 -0.479012991359117 -20.4629295025019 0 0
174.928711826395 25.9477833649063 -10.7547068338836 0 0
54.3351106552696 -13.8917573649938 -9.6749046269395 0 0
182.047969244705 -5.7237117140409 -7.1392074085102 0 0
-193.295349396227 -10.871112577751 12.0318389662239 0 0
154.604711806618 21.2340400947542 -13.6804674383541 0 0
138.323836484384 19.7183801551549 -8.87466234488989 0 0
-19.2528185188823 -3.43692818042996 3.39689894623577 0 0
172.181461553843 15.982149735388 29.4689467843829 0 0
-143.769760189554 10.1564799042584 12.1916593716002 0 0
98.9941226158383 -9.43334612445923 -19.4307078020563 0 0
-86.6604970213943 -15.9574818363105 1.25078054855618 0 0
-76.2908599590038 -14.8359948097444 0.903930038424629 0 0
-61.1354708781875 -13.927378917935 -0.837101233301167 0 0
-161.370188346571 -23.4256791086891 15.2943522842919 0 0
168.6126795398 20.9809067667984 31.6408936452682 0 0
-102.33270053183 -16.2970566573274 5.62082173473759 0 0
168.669239213476 31.9466036243141 -5.40135079558785 0 0
-73.750895965249 0.545159470708172 4.84790226735763 0 0
148.072131578649 14.9221521245042 -15.717557795328 0 0
-198.297939015284 9.49430179775929 -6.65831906051471 0 0
139.063310168755 -15.5230332116794 9.80667204915746 0 0
-169.664810414869 -30.6237638021501 11.9215010916338 0 0
-163.946387769506 10.0156929173701 -2.88740853635479 0 0
-44.09530823734 -13.9867199567909 -13.1487656012703 0 0
-56.4416118368739 -14.2493733207177 -2.43343576725678 0 0
-138.384224898795 -1.57849602826802 17.0688980377626 0 0
189.261397899358 32.6352808563683 22.7263459936112 0 0
159.589380534028 -6.66959921661894 20.1165149132029 0 0
-134.161637818826 5.87648013841343 0.262853979097023 0 0
-39.9966334238133 -11.3698444923417 -0.749733435173376 0 0
-157.370376222842 3.09346407719516 18.5590537947262 0 0
-176.464814952158 -6.153082550812 20.8821079516456 0 0
138.270193914139 -19.2406999126356 -3.63716376220005 0 0
181.637562092446 -9.31768298547605 19.2401121014973 0 0
184.816382047103 -13.9548632052386 17.9136090104262 0 0
-121.51302313954 -19.057894092455 5.74902234231245 0 0
10.5920963819066 -13.0866369969504 -7.38257136896324 0 0
-158.360988762217 10.5124463627873 8.2676680845774 0 0
184.33935603118 5.05963492461762 5.81802796706668 0 0
-165.521643858915 3.26422919496913 13.8134870559124 0 0
-187.870242878212 -20.7158215542715 22.3832841608091 0 0
157.339228956971 32.8244566212118 -1.30297800610484 0 0
144.437260541917 -11.500117405494 11.5682391636315 0 0
187.469443497582 5.58972407159693 -3.71067876029742 0 0
84.3800721025267 7.33839168526808 -1.07947156264944 0 0
-158.377885302331 -10.3837071680743 -7.08949723086517 0 0
-63.4199770384831 -15.6709274770884 -9.88072471442604 0 0
-37.1977113867666 1.58586106265396 2.09383513479398 0 0
169.159462241057 15.0423532583974 26.6473548066516 0 0
25.5656839928026 -3.15236925236988 2.34954412690129 0 0
172.490845727812 -8.91577967552977 25.0601744319631 0 0
129.874518286243 17.9904552806113 -8.60054028828952 0 0
-186.785349718072 2.17430498423102 -7.44540045124139 0 0
-53.33187076663 -9.39661469985046 4.31842620991984 0 0
-199.301756603732 17.0870114374409 15.2802771625426 0 0
-5.40871530920217 -9.74152101729432 -18.5383816478468 0 0
81.4676820464344 -11.033913904257 -18.4179269678155 0 0
-46.6692847954582 2.60561001475407 1.08641027291295 0 0
136.254632497401 15.6709154805092 -13.1725620262946 0 0
-171.820927831922 -32.3608699815636 10.1942839808508 0 0
-196.53797436476 8.21439510294065 1.41665222728459 0 0
158.60904295124 -29.0933728217996 17.2755126160852 0 0
-160.783297761825 -7.66578773782807 -7.27158425407261 0 0
122.864113862882 -16.7379764345873 -10.5477081497695 0 0
-90.7784204707184 -4.54772601792002 8.70765852689432 0 0
-176.558571879334 7.98408364486329 10.6280588611805 0 0
-36.7248766148932 -6.42079749083457 3.48297530121507 0 0
-143.114281692621 6.94079132485776 3.86184327751423 0 0
-94.9581565597388 -17.7505709359589 -1.60460632778217 0 0
179.479357554904 36.0595352284776 19.8878142436606 0 0
-37.7164722369059 5.77541343746974 -4.88349080757338 0 0
-114.007768685324 -5.23698450834492 11.4314970736277 0 0
151.97368488528 2.55254256981423 -15.9973333060215 0 0
-142.649900800235 -17.0243158995734 15.0504134631531 0 0
-0.0932679804930455 -9.25638102236726 -18.9592666814037 0 0
134.492358859479 -15.7921728639839 -15.2035456154278 0 0
-177.690751134301 -6.87261031945815 21.4888265340168 0 0
155.231851311556 2.51369850617697 11.2266085646041 0 0
-85.3211645762619 -2.78231286967067 7.43705736550721 0 0
180.080427826009 20.0772626899983 -14.2436964536811 0 0
-28.7102956499463 6.38632629751118 -5.88164917517966 0 0
-159.1609838173 0.336408090154116 -6.31000138541546 0 0
138.553334462618 -17.1508236883381 -13.6980322689763 0 0
-142.689241426224 -15.4753791103543 16.0812663636529 0 0
-1.00166015727526 -7.3157563193541 -20.0799768396564 0 0
163.641448858536 18.4910615327399 24.3905919302644 0 0
176.215910960026 36.0133853137417 23.9136282343659 0 0
113.446868149795 15.0915104702121 -11.1419026876985 0 0
-200.16224808588 43.1195838934857 -0.744721446440393 0 0
180.537212963907 14.3800385812944 23.9951807679944 0 0
16.9662757088944 2.98826902250376 -19.7564561756291 0 0
171.167901677363 22.381312860531 -14.885566409677 0 0
-172.871294490875 19.1507219950191 0.0342216347879806 0 0
143.99825280338 -17.1400315168968 11.71820399822 0 0
174.05522112879 30.2085565444542 -6.2836493934568 0 0
-188.796143654989 30.2455390691415 16.5631746851432 0 0
-180.475520921682 -31.082789122587 11.6696241398962 0 0
-116.524194907678 -3.3308921774643 11.3973279925538 0 0
170.25374447469 29.6985830903862 32.1900742755098 0 0
49.4030479020682 -12.0934574198445 -4.58789632252219 0 0
89.4439813012518 -7.02330171709826 2.97601825703795 0 0
176.056322902612 34.3211422354351 0.835679922227492 0 0
-132.42011301996 -16.724949037247 -8.01433481159234 0 0
181.307654847559 8.72136205513507 -17.9849703360475 0 0
172.592415648086 -20.1025769977901 -22.3168560947442 0 0
121.599599464986 -6.97832820655246 -19.2217189648957 0 0
-167.959310163468 5.67224606147816 -5.47851752826551 0 0
173.394018937578 -11.5427582799715 30.8968253971393 0 0
71.6392606960096 -5.54222256254354 -21.0268319543522 0 0
-193.884370401187 17.8236327383528 16.3505670519068 0 0
-173.88813045547 -32.0168335082661 10.8832577223863 0 0
-93.8039621511378 -6.44679969407876 9.71357141525833 0 0
146.900521213777 -20.0998799530466 -11.4946164233387 0 0
110.235671701345 15.1614193581213 -9.15006379573126 0 0
149.398124075658 26.9161420463084 1.63230326878079 0 0
-41.2747050357216 6.43753358650371 -6.8769659259 0 0
-173.410767725252 10.1039192890675 -5.53448809552799 0 0
40.2156434253808 -9.7812683723516 -18.9794080391992 0 0
151.356245293409 27.917091277859 -2.40544615550698 0 0
177.81046231576 17.6569629585125 30.7639373105643 0 0
-189.516826913293 -7.28229495297466 -7.18435259417361 0 0
-96.8564178090855 4.01198998573979 -7.00910541857928 0 0
179.908590187766 -12.9507063164386 -14.6701951214193 0 0
174.003461020594 -16.6438447649923 33.1031224519717 0 0
56.185776187689 9.40099857185256 -15.5031676753659 0 0
184.167725108478 -12.2620588393929 16.9907963408893 0 0
-189.955798711264 17.7458959057525 15.433267046107 0 0
-147.971078669972 -12.8753530295458 18.508101033802 0 0
-210.454115347335 31.0305557495671 -10.9799145077297 0 0
-198.535898197177 40.9911795069802 -12.4385092369781 0 0
191.540788768572 19.6993369467809 19.992283874795 0 0
134.912890169671 16.466964775691 -12.1973513905317 0 0
-47.8574040742513 -0.303511963263102 4.29316754279065 0 0
148.692006492805 12.0484796737974 8.57614551616675 0 0
-161.274624028625 -4.53381596457199 -7.24973060099694 0 0
185.011348911621 22.9183742878032 29.5255317227582 0 0
-38.9332047344354 4.88903977229963 -3.04578892419517 0 0
70.8128572230011 -1.7655838261293 -21.4196405603567 0 0
138.44054140004 1.15793077831858 -17.0634244435086 0 0
-102.866277856464 -9.33679094461864 -13.4191882460881 0 0
-204.016889154824 12.7521199066289 -11.7845755078204 0 0
168.872318564114 -8.11516930764541 24.544392472795 0 0
-142.847123744687 7.31376951745738 7.88931261395247 0 0
-180.760958337357 -30.2135174697919 13.022097855544 0 0
-188.289998915347 -29.929932027339 2.20946192983051 0 0
-177.699013317728 31.4865841063744 1.56205864822807 0 0
-208.840263759915 36.4625937743806 -9.74845330323895 0 0
169.422953493923 35.2936293465121 -0.795144103202671 0 0
144.762915774393 18.0232402242081 -12.7639694957345 0 0
159.706944277101 -24.9581462985948 -10.3945904424679 0 0
119.98841593081 2.73155777798151 -18.738788650735 0 0
-178.25317203695 12.4543786447571 9.90392085139788 0 0
-13.1324766816265 7.6588437707393 -8.131509343055 0 0
182.062832534397 19.702718271535 30.2224311379662 0 0
14.6551139000313 -10.3438486732823 -2.83340700049275 0 0
-150.59624002407 6.98206984963774 21.0257292409027 0 0
172.715027927359 -0.640306848878939 11.3389095954797 0 0
19.369832203148 -13.5884399935051 -13.1856868252779 0 0
-177.382635874921 33.5088325490968 -6.10414418321389 0 0
-172.527321927884 9.26257478988158 10.2360223504367 0 0
144.59223831015 -1.24502573752229 -16.0584714731575 0 0
189.890209712625 11.7988357330833 7.99942948529747 0 0
101.922798199209 -11.6374388806353 1.94388893289042 0 0
150.536764852022 -5.68164381197772 -14.6588188521686 0 0
-34.2305514736916 -14.4309144185367 -11.9954042542758 0 0
-192.178210251648 -26.8457964137646 15.1158486013821 0 0
-104.391582324641 -16.3754087850363 -8.91495970848469 0 0
-201.732065746982 -19.1087691503848 5.49080066990144 0 0
178.534231225384 1.64489606408447 7.34087398223827 0 0
145.161520953481 10.5052593987234 -16.4008890741814 0 0
-92.6955884202362 1.76734108993396 -12.4024205636948 0 0
-78.6584697056476 -15.0796412088084 -11.4690622231463 0 0
183.572752193316 -24.6618426189906 -2.40243562856904 0 0
153.909595203368 13.7985320527641 -17.5514864430294 0 0
-141.354807286205 3.20829954874817 20.7375386123071 0 0
-183.037765937492 37.9781359093423 -11.8004531519447 0 0
-170.777385401615 -31.8091383480122 11.0972263895204 0 0
156.749589284144 -11.3582427984673 -17.4047589208878 0 0
-42.0615346779439 -4.19634347429628 -19.4440056892794 0 0
176.181742983094 -27.1481629920551 -0.0259545217109399 0 0
-179.839284824786 26.5459868705194 6.03423412824484 0 0
185.421200028728 32.2562620456474 6.38721448571107 0 0
46.2352868272542 -13.7369519105785 -9.32958755256617 0 0
-126.485582538682 -14.4229589526964 12.5115577292926 0 0
122.522718389709 -15.9868036352433 0.0817006578231648 0 0
54.7082913692967 -2.86312305398109 -21.5250033608485 0 0
-155.006508311174 -8.8258902909372 20.9509696673143 0 0
-18.3001708259208 4.69431259282886 -2.61265458509616 0 0
-106.060176475008 -1.84435335224225 -13.1525415321229 0 0
-153.368969831902 3.04013767825151 -5.68827269732595 0 0
17.866640667993 -7.43776848350424 -0.583165982738869 0 0
145.864973961036 -13.8680062168473 -17.6813952275581 0 0
123.549754588846 -8.94058668715407 -18.9385513471885 0 0
115.419137309141 8.48147610964949 1.8238228141125 0 0
-169.579738343716 -20.6987832629802 -8.11482100554818 0 0
-1.58254947210934 -9.59442846239829 -1.78997350720409 0 0
-161.153799796506 -25.0208723828489 -6.08364317443049 0 0
100.94648561886 -7.06455891858266 3.95361278606937 0 0
25.0316830270616 1.1330736071813 -20.7813692353718 0 0
-155.421983860126 1.71059846404287 -6.40607770410784 0 0
-79.1493768845299 3.82275175941787 -11.3131382987207 0 0
157.494739921086 36.6786731069385 8.28685403072627 0 0
-37.0524701397007 1.1979367773344 -18.7003569249979 0 0
-86.8943582863988 -16.0747959394634 -9.6500413418726 0 0
96.2375985127998 3.39695226612058 2.46685064913965 0 0
162.510178062391 25.323037385169 19.8298914805334 0 0
-210.384338576897 37.8809954944545 -2.78484285152733 0 0
-58.8503541777507 4.29569980841587 -1.8495686236835 0 0
-154.436509915055 0.438487784577119 20.0863003532859 0 0
-165.546925626169 -4.56521068990727 21.8688137502633 0 0
