"x" "y" "z" "f" "a"
-54.1345645997883 18.1364445979419 3.00416474420831 0 0
-93.0574575621145 -3.76736145657262 8.30470503617696 0 0
-217.183595608343 -19.6139449541702 -13.9153058170442 0 0
177.854538765546 33.2434112149357 -24.7765521038531 0 0
-145.211329545154 -13.7494878292653 -20.9545342309242 0 0
-193.520471669795 24.5245001465664 -21.1458629176056 0 0
-183.867391064637 6.47847590041397 13.0796911428174 0 0
-5.36003816472453 4.00665046204428 -2.42322338976218 0 0
176.090254717002 19.1142536411152 -31.5375797064929 0 0
-196.074777604361 8.31091933009001 -24.4970972264802 0 0
-73.9026067681534 3.6151612925634 -5.98161174723154 0 0
-152.585500956136 16.3156039308079 -22.3825694192449 0 0
-65.4846087415184 -1.2481641583019 -1.22104800296284 0 0
-9.69920564218775 18.7214369911138 8.90094416495281 0 0
170.418755487872 -37.8989592198954 -0.386435341078299 0 0
139.621310533886 21.1020242523689 1.90022021231539 0 0
-186.534996592329 27.082322771163 -20.0329452691108 0 0
170.281987477075 25.0120916172164 23.125665485979 0 0
-110.144081891727 14.136597826729 -11.4758155328892 0 0
-197.1120146718 26.3563190518513 5.30324906985062 0 0
-196.95866224888 6.51670841464599 -22.676596808965 0 0
-33.7362441044232 20.650495012678 13.3705600838537 0 0
128.872226056676 8.80227872392481 -8.63568798540585 0 0
-169.198916787045 2.68241048627898 -19.1560767621507 0 0
-203.251069621504 -43.0042203243306 -1.02037238895564 0 0
-184.342658968414 -3.65390802425908 12.8867227986509 0 0
-219.34799397641 -25.6105828363077 -11.8173470071986 0 0
146.084690277715 18.3629235774081 -9.16733000692781 0 0
190.891894351326 -10.5831037108279 -13.1835019287401 0 0
191.73830521774 30.0582928097094 15.4151315787436 0 0
-177.925577605022 13.0326931383481 12.8335896363966 0 0
197.664538527622 -39.4856453777478 -22.3164468543545 0 0
169.524237087284 -29.3646061491504 -25.5992632442898 0 0
-199.289838717516 -1.989703172285 -1.53833119080054 0 0
-67.5183268638147 18.740192745641 1.61112009780725 0 0
-202.366422344672 -3.86705478950639 -1.43225415273245 0 0
190.660527684145 28.1997559260565 -30.8860750617948 0 0
151.191180790543 -15.9748767736636 16.7253247189438 0 0
7.63560323162496 -5.3448561351271 3.45016455570682 0 0
190.360295859643 -8.57200730437448 18.3273744031756 0 0
-173.928985140844 -11.5563441821144 -8.95269778784859 0 0
-180.813786374749 -22.4268224933204 -0.562621015051402 0 0
-29.8804670791837 16.9231308425781 4.50223853147605 0 0
-97.9241236669799 6.60374058725798 -9.99932508530649 0 0
-206.82112551337 -41.0760283178461 -9.73184699076966 0 0
-71.7922179841155 -4.2326656682218 8.07283227374569 0 0
77.5481022184228 -10.7882610335923 18.5421802330365 0 0
-208.332812696892 -3.8086532996076 2.25382644329572 0 0
-122.053425531772 22.4218957615332 -1.40023968240972 0 0
141.036351506872 8.15168810983345 -9.70072821913078 0 0
-149.030379734329 18.7910681262995 -19.5741864394438 0 0
-214.019790878953 -35.4834723695583 -11.4251743267974 0 0
-144.414480446524 0.938701996026685 -20.9815503360048 0 0
-80.0129079327525 3.15715109984789 -6.59979973956748 0 0
198.965045897855 36.5388838494929 -11.8863551599082 0 0
-222.046119364315 -24.7085171733722 -8.41217693525597 0 0
166.290542478069 -17.1796453153747 -14.8485901109773 0 0
166.510115182172 -38.7595824812626 -6.79787449467908 0 0
-172.613627366341 8.69615271694261 -27.9975192427471 0 0
-158.616506916537 8.87670274432134 -24.9719632495158 0 0
206.680079572548 -19.2415044894576 -6.16683480438072 0 0
-77.596201668554 8.7099650967 -7.58379617440858 0 0
64.2596361119904 -11.5444477338075 17.2488495771509 0 0
175.677421563037 -4.39181097776634 22.5106627488387 0 0
200.004582265751 -36.7004067981493 -5.70842985289538 0 0
183.750716112084 -41.8495214060485 -12.9582401954342 0 0
190.39950259518 -36.9301138326401 1.71233824333669 0 0
89.9795813753246 10.2567346090488 -4.1259039521745 0 0
-195.838470374708 -32.0433846479385 -16.3270592442196 0 0
166.179331746658 -11.355210555695 -12.0454629173827 0 0
65.6878495882151 4.30345346201307 22.513585352182 0 0
-77.769332798595 -3.38199723698311 11.0880461588636 0 0
141.325750585593 20.9004534794575 -0.456388767546864 0 0
-181.822218966531 0.544045450731384 12.3811892708064 0 0
110.077505310971 9.36365695971293 -6.7848906487124 0 0
-219.631148683613 -37.901007598805 2.49294067736298 0 0
-118.120295701103 -4.13904079590267 -2.72519373037655 0 0
-185.13248173247 -27.3955835260367 9.2189050410159 0 0
-200.946294013075 -8.91594576716103 20.2638377100986 0 0
164.668644527104 -5.55892863938956 20.8972736873649 0 0
147.202689070447 5.63120518273845 -9.94259035495151 0 0
-134.072103393096 11.6287625857657 -17.8606805220067 0 0
103.422799907171 4.23737150872983 22.2376986691284 0 0
-222.998321758189 -31.4008565337059 -1.86183371466965 0 0
30.2557598460848 8.12322967890659 22.213523374458 0 0
-216.050267531383 -15.7784851008409 19.3105160163363 0 0
145.427651739614 11.9723799860677 -11.0294188960177 0 0
-195.822868158374 -41.2011235269919 -8.53761483307951 0 0
-157.249794654244 26.867669143865 2.95401455490141 0 0
-38.059713353728 3.10047659622212 21.8331712124706 0 0
-2.11374564590365 -6.14149197404517 16.337580633092 0 0
-210.525158486654 -42.9583143285403 7.94540466106686 0 0
-206.238616330209 -4.46152164233244 -0.265042259403641 0 0
-54.5518834752909 18.714229504318 16.6477971431174 0 0
95.9673763197175 13.3989574923985 18.1783303196911 0 0
-168.118568027205 -14.8637629598806 -1.04807849384061 0 0
-77.842259256651 17.1951088493646 15.9192469270244 0 0
-182.732454943275 12.2653634807584 -27.7908097164705 0 0
-221.0145403119 -35.8987128259243 -0.0490034989717715 0 0
185.366105560288 -0.39472211465933 17.391016876551 0 0
-186.003763250033 26.6361457616385 8.74623687616921 0 0
-166.213039027934 -0.0731523568814251 -18.3301277557784 0 0
-162.428456350884 -13.7764677773598 -8.04260477114762 0 0
79.6205257088343 16.3394873177334 3.18292161271829 0 0
104.631989101663 0.488760533191314 -5.93980787627625 0 0
197.836762682418 -37.6136901867878 -8.36676798891976 0 0
-38.4358673869493 19.6171219334881 16.0658207107846 0 0
-177.002732744328 1.79521094483227 -14.2037707337421 0 0
70.5617064794743 -3.64669978473261 -1.97910420016228 0 0
121.592557351117 3.52162286851964 -7.42338884125795 0 0
195.129172837816 -39.1544623152058 -16.161658341102 0 0
-98.6802120089093 9.84635550748535 -11.1923617794351 0 0
150.719321277778 19.7054248913951 16.4546039273087 0 0
183.556741239227 3.27943881839404 -14.6191408021292 0 0
168.158471207327 -38.2741459354451 -13.6179947206397 0 0
156.305322967734 23.8398634290237 12.4866996035333 0 0
169.516889068663 33.3125279352238 -0.96857215628748 0 0
36.0567460681626 -7.14353910872086 19.3689581455008 0 0
153.439458930706 -19.5754827344678 13.9304638335463 0 0
-194.225200186959 22.404277807759 10.2753171737945 0 0
-110.822580500409 -4.00771414072191 3.4193080184939 0 0
162.182269286624 11.9392576730524 25.8894466241258 0 0
-180.288279702713 17.3935573620336 12.8620004088732 0 0
-102.651346531994 10.3336004443685 15.2769050251714 0 0
144.570108231615 6.4896930240108 21.6066244737832 0 0
-19.8831592165721 12.3088654649147 21.2478040874589 0 0
-174.008049246321 28.5290348437788 -20.4775348355501 0 0
188.946126826727 -21.2534976368592 22.5812644287913 0 0
104.823244004901 13.6688308777917 -3.54006108706682 0 0
12.2748173432833 5.82995392329798 -1.08936067962854 0 0
-195.616051766584 20.7745314124958 10.1681274029175 0 0
100.334534007736 17.5498894147875 2.05015970464895 0 0
133.222626503245 15.764617568658 17.280707357954 0 0
167.303183880021 30.3936169063319 -22.4760610725236 0 0
-2.499820372816 8.07037544785688 -0.421976264735182 0 0
194.285682201216 7.89836285613273 11.2803690504432 0 0
188.877115751356 36.9251212174724 -10.8774299116394 0 0
203.842543623444 -13.7386446210022 -6.69206530585535 0 0
71.3334856622751 15.3668349046584 2.59410643938064 0 0
-143.830105220465 20.1105931816469 -15.399409210488 0 0
198.72830779628 25.4777458607113 -21.3772472028545 0 0
158.224008481362 -15.3528837167644 -11.7392771330061 0 0
191.245994908949 7.2972132182787 -15.6342926237787 0 0
-168.647238725802 0.0856634240019075 -16.7445578044195 0 0
-50.8924258484505 20.7271720003424 7.89386714868542 0 0
120.120439621057 -14.6375842741954 16.4022407564191 0 0
196.882656582368 -36.7936400468596 -6.95570009671504 0 0
161.80586200739 -10.4928416904913 -12.2811885732705 0 0
181.452538496387 -33.2601340307963 9.17193824848623 0 0
-81.4470541894921 9.6202256070195 18.4033022190331 0 0
-87.3401151418297 18.92477698594 13.3124041501795 0 0
169.543904324997 24.0359923985084 24.1989810862059 0 0
-218.100561774428 -6.36009973025932 4.03304420991506 0 0
164.789145817587 -0.0705571078622694 20.7111531770458 0 0
107.684019970335 -12.4558632266733 18.0305933939345 0 0
171.384864068634 -32.6827566788696 7.37539632362815 0 0
-205.961672085576 -9.97239710198707 20.7283934891798 0 0
-97.8352444099868 3.5477903923192 -8.37577061245094 0 0
-160.344681259034 10.2452845228391 -25.5145542643359 0 0
14.7660512456271 0.681595563434219 -2.87649234042644 0 0
165.627825252744 -13.0659744016675 -14.0031931152186 0 0
65.2241075060993 -4.74441034624791 -0.711346740578599 0 0
-198.266180821226 11.9306912535756 -6.65207734917211 0 0
-207.923275475449 -7.59789106737497 -7.5345809921568 0 0
-111.620276737813 21.355870363929 5.9812327365671 0 0
194.679107055843 24.7045168020681 -26.8302010064666 0 0
192.04125106702 -34.686483509627 4.7039832433961 0 0
165.518233570942 -4.99854158601346 -12.9202101850234 0 0
134.233629628256 19.5199474068182 -0.708690974479269 0 0
152.149597507885 -24.5258869224219 -2.93839476084054 0 0
166.952253951781 -12.5126347366824 21.0174974000605 0 0
-154.374132388445 3.82342830911006 -23.5394595745838 0 0
-166.478830514867 -14.7266674962685 -5.94662920228332 0 0
-158.289120170028 8.25491535250936 9.60480115369958 0 0
-196.850140488376 9.47860332292936 0.97454733170189 0 0
-36.5436483036352 10.4922113790112 -0.937589146450344 0 0
-217.130385344823 -26.8699001305124 19.8850111388088 0 0
-85.076407885145 18.6391414108278 13.9290606311114 0 0
168.243776302326 8.50646538606198 -23.0308640110463 0 0
201.953039123583 -9.72480905319881 0.915948340485459 0 0
79.6254490318435 7.58108510658029 -4.08748408183692 0 0
35.4192626440207 -0.165498302378583 -2.91910294082077 0 0
-125.178593566752 13.7384189003028 11.6425847445032 0 0
46.2660478345131 7.59896972961644 -1.38208554089486 0 0
168.34985852877 -14.6567716067259 21.1306952596172 0 0
25.3225898981086 -7.93189851050617 17.8533011717706 0 0
-3.82461264857389 -5.46642971219712 17.4448416898916 0 0
197.586280475291 -7.29542946877985 10.4738976437015 0 0
-202.99317900521 -45.4064046961757 5.01261683833751 0 0
-148.743761273057 -4.13296726790227 -22.950517448886 0 0
-196.734496725571 -38.027692650441 18.0308146957021 0 0
-166.939567057912 1.27384879177747 -20.8864401614175 0 0
206.596677871134 -19.6073828592955 0.346032660967477 0 0
54.1649015249694 16.5805078090029 11.2039647113059 0 0
-83.7296385855175 18.1211389288554 -2.41967816704095 0 0
-76.7979910211346 17.2639985358422 -1.82267571149877 0 0
-169.133873842336 29.6220574383219 -19.3725848530641 0 0
183.106881194218 35.1997899528322 -30.614268893054 0 0
89.2076061820187 -9.4357756350458 2.22678820088256 0 0
-155.554422045818 16.198212187954 -23.2155233727136 0 0
-90.2849889992248 -4.16626766230542 6.27305578252031 0 0
176.014518003924 22.7707839154158 -32.5079372183676 0 0
-202.949767367023 18.0649188952386 -19.2250454274306 0 0
190.084029848294 -14.4480779498917 -27.5777024502447 0 0
155.126537228006 18.0092389179934 20.7422570806048 0 0
176.402027221083 -26.6496784179735 -32.2818882242779 0 0
85.8998694213983 -7.15817584036815 20.4004078558753 0 0
-132.181611620796 23.1494293527925 -0.297213919390466 0 0
179.584321686855 -40.643894851396 -29.3468281546271 0 0
192.693119504192 -39.7612309120969 -11.4790833092638 0 0
192.232172352162 36.746268223174 -9.95908679694564 0 0
169.932778254521 -28.5879017249125 11.4662597063416 0 0
-201.872423005641 -8.64152307804073 -10.6004703342811 0 0
-96.9933333723557 0.782846117620385 -6.83620762967134 0 0
-172.084082183886 27.8259480877911 -21.4814340110183 0 0
-194.181900312972 -35.0228904174184 19.3239798282423 0 0
194.864918110959 -27.3603808631592 14.5140602171742 0 0
153.206928834504 -24.7989882388674 4.06797766235668 0 0
176.507792920334 -7.42087063405754 -18.1750411995953 0 0
8.88023764642827 -1.41065251779257 21.4378546192265 0 0
26.0664776564345 -4.16710240111335 20.7279440827641 0 0
-186.08455457743 25.1917781828984 10.4314209928076 0 0
-142.186875998981 12.1172975610677 -19.843874462826 0 0
-73.9447652281068 -0.580663217953029 -2.72010974621885 0 0
-153.574981488064 8.16996993899767 9.47599181916257 0 0
-171.247319203633 35.3922153777054 -7.88209921273067 0 0
132.537968543601 19.3117103255768 11.8983106634791 0 0
189.642798677997 -24.5818220144118 -33.5444656830212 0 0
201.500632394969 20.771706518913 -3.79168492599841 0 0
33.9714070974907 -1.27889109730199 21.9972637733981 0 0
35.1446821559136 14.6046030200148 4.59153280275379 0 0
195.938578881077 -12.4835192337803 -14.6894369789997 0 0
-187.71642588557 14.8675949776072 15.2085820051602 0 0
164.663798732787 18.5657603129181 -24.9732173421971 0 0
152.347995197188 -24.7415178116542 -0.657654492193479 0 0
78.6142994468922 12.6894665995828 18.5208707958421 0 0
98.3447943562483 14.4704674842523 17.1647880954719 0 0
156.046007863956 -16.8963326512874 -10.7748671678227 0 0
-157.3732122337 1.60001162056438 10.1844404860696 0 0
172.466761414283 26.2742815565688 -32.106600784015 0 0
-178.719658387539 14.7898790436776 -28.7624311806005 0 0
138.168321153575 -1.95329012053739 21.0544809323236 0 0
65.8278572473877 15.9126874654343 13.9993270568138 0 0
-50.0030660388111 11.7749356524147 20.7177904861375 0 0
192.743934199849 36.837273730877 -12.1991422730105 0 0
181.588822828991 10.3331225018881 -27.92091178029 0 0
6.6487915451153 -2.05285524120141 -0.735553084769974 0 0
183.708063883102 -35.497455730874 6.41648258422072 0 0
192.375673700102 -39.8506635531224 -29.0264426617521 0 0
148.456247626822 7.42423481985808 -10.5239378847556 0 0
187.322387016346 -39.4606373392886 -1.54497983042654 0 0
-95.1853328461183 -2.61636256951289 11.4556722497639 0 0
188.718163707051 -32.0531494567851 9.90962554121488 0 0
174.608274821714 -6.47146754836792 -18.0200902382167 0 0
202.290133944293 -36.5933421036551 -10.3602045975654 0 0
-116.591446621541 11.2613214648603 -13.415103394824 0 0
-186.02108368653 18.1428507450423 -26.4123446818267 0 0
92.1082453439701 -13.8336745662954 8.63761885961141 0 0
159.423013523843 12.9526955930442 -14.4771998361329 0 0
162.652484183291 -32.4252437200755 -2.78748731210907 0 0
171.149437477277 -9.86803046785371 -17.2435472936256 0 0
-38.9841016774155 20.7306397221949 14.0197837500328 0 0
-103.487402869505 21.9140397472096 4.90762379954156 0 0
-193.139302994182 31.3796837949704 -7.07575080738982 0 0
-191.491257064277 25.2300272368252 -20.7970932903047 0 0
81.5684967120135 15.6534142849166 1.31619884737217 0 0
179.466694162145 33.44782863672 -25.9153681768719 0 0
-192.792581064561 -36.7649334624511 -11.9781300839483 0 0
192.064937009984 -8.60067403712837 -10.3586326452616 0 0
181.528022549711 37.824568101865 -6.72851820895686 0 0
185.004064148116 6.46808671357732 -16.231843193612 0 0
52.154439731689 8.40348619855943 21.9276051366065 0 0
-92.7013984652435 11.6453057961323 -9.20601552235252 0 0
62.4084357509419 -7.83695326376048 3.33809998550174 0 0
-174.422458398597 20.8961566460697 -26.5810905680269 0 0
-153.621181122485 9.68811732718259 -23.446702113153 0 0
94.5590286005022 15.3994509843682 15.9496903004552 0 0
190.736045491371 -0.432566637291214 14.3462257522268 0 0
194.511019171783 28.8019623755891 15.1531163771346 0 0
171.063136614062 3.4595945902326 23.4233726255892 0 0
180.043018014694 10.1820619435875 -26.3760552533685 0 0
177.49358778719 -42.9215556586288 -10.1812789781728 0 0
196.495700878408 9.6147534299911 7.06509596584034 0 0
-71.4187911930143 12.5678354949466 18.8174114229478 0 0
3.50268574489041 -2.39463683069957 20.7740613654821 0 0
-52.108435334522 1.96287457541683 -4.27920242852661 0 0
-164.53454771944 30.9877289237384 -10.4152094555838 0 0
-163.090385738009 8.82361166956935 -26.2818703340317 0 0
-126.625134836179 11.6230750492943 11.9595807368964 0 0
-197.542995681278 2.44675203772098 9.40286093876487 0 0
25.2838297287575 17.0745318728058 12.578924892292 0 0
-223.978608258304 -20.4164074288151 10.2778916555775 0 0
-31.9306133103502 -5.18763017972939 11.3227529978168 0 0
156.079385222784 -25.7795208636509 -4.9500739010195 0 0
197.965845924402 19.4021167295342 -19.7646509176703 0 0
144.963577529113 -21.8800370000989 3.37183833389195 0 0
132.347117867156 17.2631766616013 15.515478370066 0 0
-140.059852833707 4.71500891708305 10.089226015947 0 0
-61.7737410219842 5.4756594645311 -5.82179631139377 0 0
205.436320407339 -23.0558727616031 -17.7582451601915 0 0
-197.082697510157 6.77125735313832 5.0086444526125 0 0
26.2005026297289 -1.85876528085345 21.7286055554588 0 0
-123.136207453409 20.586470533062 6.66543235250484 0 0
126.970955141734 9.58570187712455 20.8703971176512 0 0
180.678308824214 -5.93030810182511 21.7047200339412 0 0
164.811281915567 -6.64886232217917 -12.5862755812264 0 0
204.844248388958 -35.9858746152986 -9.8702355866741 0 0
169.417288970622 -0.366921791811135 21.4614828888727 0 0
71.026275837925 -10.7154700873782 18.3687367165781 0 0
-206.697921019529 -5.76703725286251 -3.00941661897142 0 0
184.188518207135 27.709619229154 -33.27877219092 0 0
-6.19076709744414 -1.5356430433767 -0.612070190673308 0 0
-2.66271779538516 15.8852514145714 18.0870255362331 0 0
100.510049849415 13.0511543387263 18.5884457566385 0 0
190.076319873614 -19.2676516176111 24.9101604148715 0 0
180.648687258052 27.323687378919 26.1299287286468 0 0
-69.8988482367591 17.7959564233031 16.3076755667836 0 0
185.852386117784 -31.6873496412999 11.3168229493837 0 0
-99.7049297083486 -3.39054513594405 8.94862646906923 0 0
-159.831120817969 29.1466905367484 -6.28241543795392 0 0
108.136603047936 9.04557878299912 -6.64362444714472 0 0
163.011044780514 20.2855587435169 -19.6585028602698 0 0
22.6123741082216 -7.28193200418743 6.07882749671871 0 0
-195.518350893534 13.5952725881035 -26.3191511213819 0 0
-132.07049103277 1.92973256568396 10.3748779542402 0 0
152.41206226718 -17.6314206891099 15.5958040834087 0 0
167.328813996513 35.5969612226861 -11.3761477702304 0 0
78.2897237088204 14.4658667741507 16.6527760286226 0 0
153.304697555145 -22.9205647793184 -6.16628999764232 0 0
-197.584371190583 9.24931951033958 -25.3760638013918 0 0
-206.415857965419 19.4903190278555 -5.93458903719209 0 0
35.0454307204204 4.97067052859652 22.7699101153614 0 0
-168.233610608005 11.2264171359269 11.0500216641297 0 0
169.667650093696 -17.005962574511 -23.6298717117924 0 0
-154.540040765575 -16.3884279464377 -13.5110621874429 0 0
-114.90854441873 13.4659180151103 -12.2609766140694 0 0
139.651280903734 -13.9962411579938 17.1552477911877 0 0
-216.648169609363 -39.1153185144079 -4.42248783865873 0 0
69.4434979278427 -1.62013519975463 -3.06502651689315 0 0
-183.611990622754 -24.8993900477069 5.35876890213852 0 0
-89.4316240026526 -1.68930663806977 13.2924214863935 0 0
179.797221315415 -22.9877449237494 20.7151714098043 0 0
-158.838993748235 -5.58103406843971 6.29873095598331 0 0
-177.37012969126 -17.3569339328044 5.86794820127478 0 0
105.365073279369 -15.1407087829391 7.70239008099448 0 0
200.395567007223 -9.6964709904605 7.0676399712115 0 0
121.444121329073 -17.1200610606187 7.90273435485825 0 0
178.051289971992 35.9655528519599 -1.9767277533162 0 0
107.478617896856 1.61748372769352 -6.39497541645808 0 0
1.2693605658447 -4.46890109768543 19.2443499590322 0 0
105.567705821907 17.1282358735358 0.240398504393911 0 0
200.018016341959 35.2578689949549 -11.1583365700284 0 0
192.41393214869 -8.11560738401325 16.8525035499791 0 0
-170.29512065371 7.45874664116841 -27.6109292326752 0 0
171.084224926026 -41.7911757663357 -11.5605856249305 0 0
-105.987091441138 -3.828076133858 -0.69525949296167 0 0
-8.88852821900558 16.767273737069 18.1672579011453 0 0
-185.986275103553 -33.3066721841298 4.21862418758227 0 0
158.553858056567 -28.8694092180345 -1.29986776608578 0 0
197.078411707921 8.39725677410964 2.92164887252071 0 0
-186.776020446182 -38.07694230509 2.98347454928264 0 0
-174.240801505599 -13.0251957315935 -8.09986728080489 0 0
131.842695827759 -12.6888814275644 17.8882351532588 0 0
-99.2179608959704 5.15767029316358 -9.3235112945018 0 0
193.239697896275 -39.4793504820438 -8.54621363492178 0 0
-39.3849550562776 5.60536143317636 22.3792293937594 0 0
32.4743423955461 -9.19268320014448 17.0070174476856 0 0
195.138847729141 19.4242287207989 17.1854303901594 0 0
-38.1244996890684 12.9470973540451 20.7258076748809 0 0
73.8394055030518 -13.5258701711044 13.445217707716 0 0
-159.515586201982 19.5029939336019 8.47264166955851 0 0
66.3373013126984 -4.65532893950937 21.1375264952431 0 0
177.448185347024 -13.3220024834868 -20.8187955844038 0 0
-93.5741913132835 -2.44848781798327 -2.11724474494436 0 0
201.89960772492 -19.7873074623555 -21.5872171958353 0 0
198.461386292894 -20.1483625161478 -27.0267160048248 0 0
-220.567333115338 -12.5706302572739 -6.30785274560583 0 0
-198.213677986041 -16.96034230176 -18.1752171183947 0 0
157.070566849996 -21.5618991034112 -9.5896864699926 0 0
-3.81949647360788 6.27051926789204 23.1149396170536 0 0
-81.4931250732879 21.767676111696 8.72481303407718 0 0
193.250124924874 -16.8069942714794 22.8601803866592 0 0
-127.314742982215 12.2908234374777 -15.9571350404283 0 0
-212.516630000301 -3.47400967779158 9.40592203847177 0 0
42.6253199270739 15.9898810703737 6.93370815995926 0 0
-113.156719613929 12.1928187040716 -12.8922749033887 0 0
136.593935653585 -4.08606616741889 20.8295601871513 0 0
175.171117384719 36.3255798446368 -17.2778780224554 0 0
-198.414630723158 -12.4621222836228 -16.2932211336561 0 0
128.765731651564 -18.0636869448272 9.48327106895694 0 0
-222.44102954754 -19.1801292149295 -7.52872485698882 0 0
-164.26930812359 28.3009441242644 -17.9590223492508 0 0
200.871732863464 -37.0455450020751 -8.58738651859058 0 0
38.790957906446 15.0399371469213 16.2387930673345 0 0
188.026647916656 -22.5112858616798 -33.5176064540254 0 0
151.17241744249 -1.08913538107845 -9.2324336400843 0 0
131.937691877967 4.57484494165127 -8.30496747714503 0 0
100.898809272472 16.7209235412733 0.0269440873906659 0 0
-219.798909874927 -28.9836874484573 -10.023378367764 0 0
-50.7444883382374 0.887656345610663 19.5468751734835 0 0
172.400793744947 24.5252152246334 26.8325599821201 0 0
-184.489986070693 12.4227844115348 -13.9028581294557 0 0
130.207120724806 19.839230797876 9.36468258916545 0 0
166.797620560621 -11.7460765748346 -13.9250612336467 0 0
197.383395404209 10.7561659334751 5.47007144251604 0 0
-53.4568467916857 21.3432529745127 10.7230338100568 0 0
-137.769651104801 -5.8236927905497 -3.29492605868627 0 0
69.2247907080176 -11.8566060471651 8.9079180056365 0 0
-223.964924543541 -23.2505418140804 -4.75975214947981 0 0
125.216265799361 -14.8655694368296 1.78193343602213 0 0
142.203874148858 18.1817206494011 15.8542262280901 0 0
-216.815987353734 -36.0577428658304 -8.35275709265216 0 0
-194.699625261444 -32.1054406758847 21.3459565558561 0 0
151.696248674071 -3.10961001211094 -9.05868887809403 0 0
115.035878206138 16.1487716425285 -2.05693332706111 0 0
114.133041964693 13.3160202779278 -4.70800651604951 0 0
159.323337737934 -24.9756801210649 10.0738374963501 0 0
200.762639379357 31.6350311354033 -14.4799470619028 0 0
-131.909362312603 -0.47294117248447 -15.1201171520838 0 0
-185.05908303123 28.1361846574482 -18.9618448609662 0 0
-175.968877045756 -17.7305104748276 3.96372069526894 0 0
-195.07728098364 -11.4394404464861 20.1907008977615 0 0
-109.107138309858 3.58003952361423 13.805746953829 0 0
-189.797609634945 -27.0797688760812 -14.6095816922491 0 0
182.889543033204 -13.006047387518 -19.4342467837622 0 0
-175.961726528236 -18.6805037529074 -3.00758250774671 0 0
-183.284325256164 2.67337970950986 12.8597372995694 0 0
163.40269874077 3.96966504722874 22.5227707835634 0 0
199.231110140563 -36.7357542804628 -7.17088587994693 0 0
-198.612783728911 -6.13471031565863 17.2525267308415 0 0
-140.96381672314 8.08664400526555 10.1516442517653 0 0
96.4869937667611 16.6604072109129 0.568957980075159 0 0
79.7480084479501 -13.1770116215316 9.51194370215266 0 0
160.373846230329 -20.3787629287624 -11.4247978390538 0 0
-208.201563820391 -29.6250368016756 23.4364427101692 0 0
94.4648834346386 2.66625642624435 22.2569356569982 0 0
-222.080496374299 -32.5364710883653 10.6074293504798 0 0
148.011955166017 1.69457485189768 20.7653415615671 0 0
-171.95926713973 -16.8483291909368 -2.81521964439421 0 0
185.414431485885 37.000390040803 -28.4010944647503 0 0
198.68013502182 36.9479364020523 -13.6807369402672 0 0
155.163952666581 12.5073919237176 -13.7778053607963 0 0
-101.726444309231 7.90875063711794 15.520470526094 0 0
-219.154927714603 -34.8042957835118 -6.47783459880932 0 0
-218.237607381857 -33.227668721472 15.7521707819777 0 0
180.321081186261 -21.1873651627769 -33.1506794799093 0 0
154.602935212659 -17.3116597182112 -10.0455539018034 0 0
124.631973930907 13.4783971398364 18.6941214779848 0 0
-205.109017656055 -30.514842161986 -18.0275222176655 0 0
193.041509709151 -40.0641359545786 -27.0280154576233 0 0
-191.92807629703 -9.74717975237347 17.6701656057554 0 0
41.1663718230191 0.626572007842021 -3.08360082637885 0 0
-180.031048324756 -21.1107851170184 4.32878249107413 0 0
-181.669648262832 34.3619012246484 -1.37680903762994 0 0
-104.918269720456 12.0264013373101 -11.1754130567569 0 0
73.0620288526397 2.26368450671048 -4.55036601120944 0 0
-123.307319618803 20.8780941284414 -8.56633005638678 0 0
-196.048336759142 -28.128602495375 23.2794013699882 0 0
55.6531483105742 -5.21945299841861 0.777425728606869 0 0
132.177452408261 19.163172554956 -0.670061329775449 0 0
157.025918777632 -9.13041347776628 19.2780109342378 0 0
-81.5763380595234 2.10531924655205 -6.22774265335513 0 0
116.041871709062 18.2880432275503 11.9778744404043 0 0
159.077365293264 -10.8602848810078 -11.6486998663199 0 0
-219.170210337936 -27.678149061782 -11.3812557060542 0 0
181.604250811958 31.5887635618027 10.6823423045228 0 0
167.860453550969 30.001552202986 -25.5426412824221 0 0
132.690501060434 6.43553473069753 21.5394459593953 0 0
-15.1683967555772 18.7480562691128 7.9784675238133 0 0
55.6015622552542 -10.4563825669212 17.7619547588129 0 0
195.171416532084 13.1669114606916 -19.8500778381055 0 0
176.225639907665 5.32493483446007 -20.5433978172311 0 0
42.8034817340971 -9.27250670288684 18.0533380900586 0 0
-196.137565243032 9.81913201705025 -25.3192858454346 0 0
-11.5577105707639 16.5158561373254 5.35058835911504 0 0
191.471804188952 33.8646970528588 -29.3109669694017 0 0
-45.024639271522 13.6130233347269 0.10172563917946 0 0
-168.901785458798 23.4676368629923 -24.2314478635564 0 0
27.9032705348625 9.66738803738633 21.6378326418967 0 0
170.498814673912 27.9120759287424 14.2655245974807 0 0
89.7149075902612 -12.7558185491878 6.95279786423807 0 0
182.733703958292 12.5541557613876 -28.8304584339778 0 0
10.0219379269232 -6.75930587197888 6.50303507447729 0 0
-151.635405098141 22.3868425520085 -16.1831089167916 0 0
-89.8462558372347 22.0686542545587 7.53212980388307 0 0
146.236121956255 21.0101600336234 -4.93631208835811 0 0
-219.750791402582 -13.7482073616515 14.1883145366929 0 0
195.032637874162 37.3100742134524 -11.790730456145 0 0
-157.880050815184 3.68120433257463 10.2932209883007 0 0
-222.331115554732 -14.0716510290359 -4.26706781404495 0 0
-216.216534051267 -21.975348687069 -14.9250617045099 0 0
183.870442471256 21.3874868663005 -32.4493668293642 0 0
179.615178914861 26.3470005929263 27.6632304824667 0 0
-225.189967475188 -18.9505279179802 2.23726416341736 0 0
-19.9964365269364 -1.96767429138375 19.9350218248302 0 0
-163.266784261428 6.1365378007405 10.7080781673475 0 0
-205.006944295541 -20.6116166605454 24.7792269287265 0 0
122.316637923166 -0.33123673558701 21.77375273072 0 0
53.8527108318838 -6.5784533869851 2.46667191149022 0 0
204.081239194717 -13.2581440376788 -3.19520952299636 0 0
179.670302126563 38.5446378046933 -13.0103602198243 0 0
-141.143379182906 13.4140433763717 -19.6657805378203 0 0
153.693445547635 -25.4334080590777 0.933403165120074 0 0
187.14930330529 6.34066479501662 -14.4690333308656 0 0
73.1678821057306 -9.12626204175296 19.3843172561891 0 0
195.541225928129 16.829182607189 15.1609217704687 0 0
-196.297332552325 -13.4020489109705 -15.6613056094278 0 0
-201.955798888652 6.3707198004973 -13.1298216291284 0 0
-191.445644221104 -15.0388394460102 19.5552349261193 0 0
-142.378681617012 20.0244796034018 7.09706224906154 0 0
170.836884633095 31.0445372466427 -27.2888916629704 0 0
-18.5554954502498 -5.79116568560021 12.3715184910232 0 0
131.11026819596 9.80965052411267 -8.79604724464523 0 0
-90.5593267673827 15.9848910242365 14.8869564362028 0 0
-183.655552011972 -11.500745123216 12.2186768859698 0 0
-180.026462327239 -16.4036327663053 -6.69480312275389 0 0
-211.837840532077 -37.0753720050042 -11.5950380904342 0 0
148.900509858187 -5.1129436766421 -8.49186070259036 0 0
-148.29142418318 -8.82568883071543 -4.27965678021968 0 0
-3.55106089737157 -5.50238913832643 5.20788898026399 0 0
-52.4889055669986 20.7957953715991 13.8378735580794 0 0
196.810635553564 5.45724352796066 1.10108496709641 0 0
-193.41539034515 27.6863568029798 6.53274511210775 0 0
200.064652027233 17.3076145823644 -9.27239291019098 0 0
178.323624787167 -42.3841087958291 -18.284679057066 0 0
-204.932347503099 -43.0484656320132 -7.23477880347972 0 0
-124.993030355553 22.3497986786578 1.68762775319179 0 0
-160.088621150886 -4.0064843819184 7.83379170702376 0 0
-10.846579247367 2.20458418194905 -2.97892059343766 0 0
147.431075612373 4.01526692461586 -9.68269058824275 0 0
-179.909987649897 13.585492505903 13.4492789320862 0 0
170.289922599624 35.3775211647957 -14.2543399215392 0 0
79.8301468312439 -10.759631586768 5.07588728208281 0 0
-11.7207962195246 10.9043604560083 0.804973171498423 0 0
-224.097634826321 -15.9390384351969 -0.467737468578108 0 0
207.598200382836 -32.5131879841847 -6.7104003803081 0 0
-174.668252139146 -14.7080158153089 6.01309054962166 0 0
-204.438696719502 -36.9984111834387 -14.3456856397381 0 0
192.221486093364 4.4465593793914 -6.87556377256133 0 0
-209.988346932385 -6.73155666592677 -4.717983554877 0 0
-174.206435822781 33.9309490970297 5.04154923128772 0 0
-222.407019037909 -13.2550538419921 7.99916746897847 0 0
-199.289974883221 12.9760742504789 -5.2779402895684 0 0
72.7670448622558 13.9154120817237 0.277711597777061 0 0
-198.54306087962 -43.830925724964 -5.0978922070507 0 0
-199.783367284063 27.7896282271673 -5.48942436746513 0 0
151.645948468526 9.66612586093846 -11.8125769040371 0 0
-190.28652952295 -18.8940093560953 -13.5866443062064 0 0
-141.762666957473 14.7410081341983 -19.7803938410597 0 0
-64.2545822195376 21.4475886023386 11.760434483333 0 0
136.688176328367 9.64282174944073 -9.29396593758608 0 0
-214.038211857442 -32.401407290982 -13.4988123054409 0 0
160.214438935986 -30.5474307369106 -4.69349082559063 0 0
-137.388952352753 11.4720458993752 -18.5850078361287 0 0
-192.211924977344 5.75357310673904 12.4182973210894 0 0
-69.7895618825926 -3.20455024423347 1.99260032877144 0 0
-108.52799187652 12.3171835954087 -11.4907917175175 0 0
165.306941891765 33.2243217536049 -7.71666415244004 0 0
143.507572665803 11.5350573775347 20.921872731353 0 0
194.49228870897 4.70109708907889 9.11545348578139 0 0
201.08843737868 29.2112646695275 -14.1010340483605 0 0
-144.737849616141 19.063762420082 -17.0709292991872 0 0
52.2743317897639 -5.77255536511983 20.665504067718 0 0
66.6771319149174 -2.0771285786363 21.7823855974197 0 0
-55.0480129673302 8.70695406421229 -3.88889367598431 0 0
24.3781235328866 16.1360233395423 7.03955595580349 0 0
169.150040935084 -14.3042756172745 -17.6979373327577 0 0
75.0371055302859 17.1035800120398 7.76634462840996 0 0
175.918103313487 38.0181841958368 -7.68621275091754 0 0
-124.837992454614 11.660947219209 12.1358839563609 0 0
-202.061912394203 7.781788762135 -24.4107587176576 0 0
173.380978996846 -40.7662695806206 -2.78590409721763 0 0
-167.090343774723 5.02151399565608 -26.2475990501528 0 0
-191.998081829272 6.4158193025414 -20.4499805340211 0 0
-166.381314747207 23.7798919645616 -23.5088204968659 0 0
187.058242792902 -34.9931899465534 5.87427953465856 0 0
-201.033479235092 -35.6627574922076 -15.5499164963364 0 0
-154.691762867572 -10.5103842224807 -19.9614867928745 0 0
46.4523413539199 -6.20682960323423 2.49328980978028 0 0
-192.133464999359 -23.5957162676206 -16.4894893437766 0 0
127.424584357574 16.4699117132094 15.9420767057513 0 0
-115.644849222445 0.234027802020363 -9.45735185615488 0 0
170.376517519392 -22.8820628732939 -26.656145426364 0 0
-184.722430770039 35.0057300133145 -7.32173616302023 0 0
-67.2768841333997 3.40069414488805 19.1519642574371 0 0
179.282602759497 23.3098055390551 -33.060123328251 0 0
-173.235067144841 -17.5397412180521 -0.672375197302958 0 0
166.623655676259 -20.2149395570543 18.9180663761687 0 0
183.904997667446 -8.57813091100002 21.8348875504735 0 0
-72.9720279505299 6.90996211008306 19.5732104718388 0 0
-188.697923869273 23.0256838805848 10.7147872029794 0 0
-186.161632643872 -31.2440471144407 1.59902604308674 0 0
152.385919780398 0.45831816546294 -9.76374683735477 0 0
-24.7710379628835 7.00892345515959 -2.20165162340098 0 0
77.0821847082454 12.6462693652558 -1.43959314076821 0 0
89.9349954534741 -1.1315496752305 21.9002756672702 0 0
28.0386530332524 14.8075776032537 4.90566436276919 0 0
-1.98260217581836 -0.797824858474594 21.4076257851093 0 0
-172.372757873533 3.05133266875536 -17.2170498894161 0 0
178.561603892696 -39.4560886166093 -30.9521424794506 0 0
35.7487780484424 16.4308842718057 13.1852469647722 0 0
205.651777195402 -20.5063413655686 -14.1501284836936 0 0
-206.307820145097 -10.5120646173134 -15.2577088170825 0 0
131.53683948637 16.3460931039904 -5.54294916737259 0 0
171.551079892205 -19.8827015186879 -27.490541933037 0 0
-187.980150713193 -26.066953884657 -7.82298651260283 0 0
179.998799693968 7.90430106047021 -21.4427102330777 0 0
181.45809356052 -13.7306253238903 25.2257010367641 0 0
198.521994292092 -5.35725630662651 3.01805209698529 0 0
-198.529135318791 25.9106294770019 -15.2683691198202 0 0
180.130546796346 15.8408522662711 -30.55946049957 0 0
-192.529974340758 2.70486810950125 -5.80197460833255 0 0
162.582777800312 13.8735791526972 -17.5676040248666 0 0
-196.718591557558 -4.5206312518213 15.7910593275975 0 0
-197.323821055318 -22.4101923405095 -18.6936126177783 0 0
-156.285595263308 15.1981414388993 9.2581260622421 0 0
174.47879352548 34.501474095966 0.240300118604378 0 0
-165.274369962921 0.939165461722484 -21.2339938320311 0 0
31.7822768004561 -6.31140604570638 3.35783763201035 0 0
193.394987214161 -38.3122948476891 -6.05340341581097 0 0
-175.765381870515 -10.741979851142 -9.21106103220377 0 0
159.334671377086 -26.8247825339988 -7.24502107913049 0 0
29.7018086496244 12.8232257312118 2.63368474125401 0 0
4.68170746305084 -6.1957223621456 5.52765737029506 0 0
-71.4362784994812 17.5016579156066 -0.523853069398133 0 0
-187.488069289469 -34.6863571783884 -5.2724043085057 0 0
158.35037522078 18.2561699139404 22.747165494334 0 0
168.812316503243 -31.500703585091 7.20085443877265 0 0
-16.9750392512628 -5.95037293316039 9.86473529203472 0 0
126.958026402965 -1.30638417153612 -6.76035152652255 0 0
-215.254954860494 -12.542208980211 -12.6443292459697 0 0
185.412670707594 -17.4382378963505 26.2240936931623 0 0
-73.884606413539 21.7849163643551 7.59435195383679 0 0
16.4867703342654 1.94341426872358 22.7742027181981 0 0
-185.476867610516 21.4341731747403 -24.8656337730402 0 0
-133.06902985517 9.70364475184598 -17.0648348246491 0 0
151.90264549605 6.82497360959085 21.6206356395693 0 0
16.4287690660031 8.03157937358786 -0.171132582836445 0 0
-78.15697682039 3.31152930644126 -6.39428382833962 0 0
51.4636183819467 6.69629640422249 -2.0474013644424 0 0
193.606736266528 -11.8259232295768 19.2319481280768 0 0
164.447182026917 -33.3006330221759 -9.42760169482895 0 0
-196.041683371071 25.1527814920376 -19.5862663616873 0 0
-53.7388985339362 16.3354130458614 1.15236627560339 0 0
-198.596128132634 14.0558922779239 -2.738382840665 0 0
132.330005317521 -18.0359595037297 11.3522399927952 0 0
175.099773378964 38.2257370722303 -9.27031572040047 0 0
-94.4907214573821 9.72176331059254 -9.94539672484227 0 0
-210.789770460189 -42.9425114492683 6.24897254699699 0 0
146.437055037113 7.44614909669417 -10.2553129638803 0 0
60.2873631319849 16.4413328228531 12.068606389068 0 0
164.18092701081 26.4031174155418 -21.8853918281479 0 0
182.783800566645 -38.3553238008172 1.9063111408322 0 0
-153.737222970501 16.9570511390543 8.83745314062311 0 0
-151.55918882431 6.59713144385908 9.44619324857605 0 0
72.2929132697514 16.5397618146619 12.4342667498679 0 0
-181.05972461255 -10.8993438390377 -9.20712563119168 0 0
-36.1824153219474 6.20617568074079 -3.31956712484584 0 0
-123.6559695435 -5.01176645230457 1.58754664086954 0 0
138.113833994703 -13.4056097504254 -4.76870841802435 0 0
138.881135635533 20.9464124846917 8.41417327639607 0 0
-5.69556410721156 -5.96834578741369 6.66115673671295 0 0
-143.53559620618 -1.32668809669618 8.67611934213186 0 0
64.928527140317 4.16191357402807 -3.5797400483407 0 0
204.996158671895 -30.4844822420641 5.58670456931448 0 0
194.041495518405 35.8451953830536 -25.7107002522657 0 0
190.865489921611 22.3165806309395 22.7560742021141 0 0
4.7195121568928 -7.17501311368369 9.25333941601523 0 0
-23.9967984255247 11.0733572341483 0.368476807214882 0 0
7.78432878197405 5.58172226657835 -1.20247396537089 0 0
-193.563053979111 6.38587867557093 -21.4314940059959 0 0
67.8516282943427 0.394931324870827 22.1321025557321 0 0
-178.592611628687 9.54508345275997 -28.0912273186832 0 0
-178.658509401414 36.781313181085 -6.71019919339283 0 0
-126.381593460887 8.03807537888037 -15.1611156923229 0 0
-123.226886293355 12.9869952291605 -13.7590748873381 0 0
-39.8920449179047 17.8233533669333 4.35624197050079 0 0
188.802726466895 32.6390752596751 6.27473306601155 0 0
-68.1426888569338 20.6357773620802 4.49206200432743 0 0
-187.617749109701 9.00264810657497 -7.43463595341518 0 0
30.5238209622754 2.4580520345127 22.7318286436337 0 0
180.045444611889 -42.3930521304965 -15.2864883365502 0 0
-39.6197754783005 1.29692152659996 20.8270619730328 0 0
-36.4190549228229 14.3868093609424 20.0210073752193 0 0
-15.4996591951662 -3.71052130227185 3.02024356223153 0 0
195.632580934722 38.2328284638059 -18.6725403627298 0 0
146.034537536858 10.1932958300812 -10.5451683775408 0 0
-202.022882180799 21.2811705044448 -17.6425382941193 0 0
174.908210612135 31.1801516381732 9.1365457737107 0 0
138.960866545966 19.3316459689555 -4.33044131982138 0 0
140.595112182284 -0.181861432527835 21.1549439147163 0 0
184.568849481115 11.1269781289815 -27.6541725959371 0 0
93.1239615964135 3.21420267404235 -6.04934411004816 0 0
60.2409054727705 0.429602416581402 -3.78787986560253 0 0
-167.149663532008 6.64036496316597 11.2887982461228 0 0
-185.077563062999 -15.6854824231617 -9.17029647404494 0 0
-218.895611673695 -23.6731119440809 -12.539941614283 0 0
-214.369036367743 -5.34935175415398 11.0822838758416 0 0
-132.112205055857 -4.94001952016668 -1.71664122790476 0 0
123.631368214566 1.46020657001335 21.8579276856728 0 0
21.9711570028173 -5.63522791027632 19.703969976123 0 0
200.443964333073 -21.3380368463104 17.4545254396944 0 0
140.593847737861 -7.4195116525168 -7.1778858382461 0 0
-117.315039765602 -2.8473368868877 9.21998673734578 0 0
155.070141669829 -13.80959064349 -10.1393530560845 0 0
183.290506252591 -15.8320715113239 -30.1240329688887 0 0
-196.148401004462 -0.885283232577348 -3.52509722658169 0 0
134.766442076645 -18.6955307957011 3.74561060936656 0 0
160.855120723697 28.3209265892748 -0.930349340621758 0 0
194.503877922777 27.334974935852 17.3598762592261 0 0
-189.447092245986 3.11999878761045 -8.78675525692557 0 0
195.475446989988 -0.787733905787379 7.47380161007349 0 0
-68.5368457580905 21.6976569735634 7.61646255283893 0 0
154.586324895268 0.984683644801472 -10.2434842231086 0 0
193.390190088167 30.154035468899 13.6741171421229 0 0
197.976097268421 -4.94732786100374 -5.17780988383641 0 0
-129.330565196708 10.9118689241142 -16.8389656651602 0 0
175.500075603639 -39.5950384613704 -0.140378014776083 0 0
165.233051140253 27.9410937608021 -21.6526136475207 0 0
197.011123223989 -29.3638902961328 11.5879370322929 0 0
-98.0840360805414 19.7738758342549 -3.24509689236791 0 0
204.790042064343 -20.9308796315049 -17.2904139689146 0 0
172.301788598706 32.7812636254006 2.7513900847883 0 0
164.16400777592 18.9457442657361 26.5452530227526 0 0
25.9110840382864 7.05514793235135 22.6034606962779 0 0
51.1909989425288 -11.5719069384485 13.582302462534 0 0
-108.918647341302 21.7765190788197 -1.35370993948997 0 0
-153.135316824338 -9.46180905448496 -21.1048103786982 0 0
134.615848628477 13.9462806007311 -8.04022608639665 0 0
-166.025498406185 30.0415039861278 -17.7698980882424 0 0
-205.160449007918 -43.402898340351 10.486466615688 0 0
-99.4248731079422 11.9211827176509 -10.3133077873867 0 0
-150.867467057633 8.06788967871962 -22.617391342821 0 0
47.7469725472631 14.1228359081152 3.21346403988382 0 0
-106.221516853801 21.6657036890622 -0.839709671623902 0 0
-201.097526972246 -41.5438029821948 -9.82299973789076 0 0
-116.65331023886 18.7125340062047 -9.94835089691488 0 0
161.063018488514 -30.9454130144882 -2.83168554223421 0 0
166.193734593892 -31.4013705288905 -12.966460002494 0 0
126.675316364993 -17.3351117474266 5.56187043869894 0 0
-150.097407303057 20.5099411546406 -17.9937237222624 0 0
-216.396660718145 -17.2132192151592 -13.9373276633448 0 0
-177.174172466203 -19.705623179534 1.83837732943832 0 0
-119.035471738317 11.9853351014292 -13.2499114626457 0 0
181.292283008468 28.3269736038719 23.6693829269921 0 0
-171.932513873163 3.16906669929113 -20.8330520916321 0 0
-36.8630195867101 1.86729517295489 -4.07037225758175 0 0
180.878467991747 -41.4381519137038 -19.8133180899801 0 0
-135.254243098514 -8.77822243962986 -11.8285914182216 0 0
92.2099974780467 -13.9567214560639 16.2062258420924 0 0
-165.670675682293 -13.9663127303702 -2.25430843174742 0 0
-33.2178987757217 14.1002015774363 1.69527086612835 0 0
-220.412568761703 -9.58098906143637 -1.82092339506603 0 0
161.727797945229 -30.9849677697265 -0.309512945095267 0 0
165.89945206094 -23.1992418041151 -13.9903095439859 0 0
-136.077016442214 -7.80526262628218 -9.08086912714514 0 0
112.474549935425 -3.19501113613065 -5.13272735534256 0 0
55.4821643106436 8.72423105077216 21.7408285776058 0 0
-177.417725752197 30.1411763496863 -18.3934929713725 0 0
-121.762121024463 -1.3602222297782 10.4737228079866 0 0
-131.349721441967 22.6958670981759 -6.09475871185591 0 0
193.927538522578 8.68853888437499 -17.8200595291672 0 0
-175.990177944236 -3.7967926091259 -12.2550238767476 0 0
-107.350668457562 16.5125536484368 -9.82558843671237 0 0
-83.384699999561 1.126734963205 16.1152278216828 0 0
153.578150774447 -12.4044800776763 -9.61627861715856 0 0
141.520180834777 -12.5942721849275 18.0256879778364 0 0
-79.8977672241951 18.2124822436231 14.8821556223338 0 0
174.636979182905 -2.22839401295068 22.3747642729028 0 0
-180.85712196312 14.0839837171386 -28.3641241959504 0 0
187.52684272528 5.19830053031435 17.9586628662742 0 0
168.420309147939 30.8976442176436 -23.6938768989896 0 0
-178.095899462225 1.7907760561167 11.9100160442664 0 0
-132.350898526711 23.2694698738501 -2.0043619276831 0 0
-132.419280612316 -6.15038576784611 -10.5961997645027 0 0
191.6062330381 -7.17074295259891 -8.93999974665307 0 0
-213.7338829773 -36.014465651421 17.0122810282732 0 0
192.04887552555 -40.1478305214287 -17.4116651708339 0 0
-148.019058985934 4.19174010844932 9.5671249492414 0 0
-199.654383520322 20.1439961770832 -20.7980683068829 0 0
189.158103609988 2.0440793899692 15.6259530014619 0 0
171.122561437795 -32.2277268061779 -25.113769749724 0 0
-187.016418149369 -38.2913990102125 4.7883160086072 0 0
83.4514240923023 8.17599703435073 -4.24420707604943 0 0
-136.691271657943 15.3996887107558 -17.5230730038642 0 0
166.933680232532 -2.65665827554568 -13.957764706689 0 0
-33.605286065495 15.1831896451585 19.5279335781538 0 0
-194.739280488859 18.9353072057562 10.423137167892 0 0
157.344199272814 20.5619677475773 -15.1510168314642 0 0
174.642564290738 5.51923249956004 24.5009481455039 0 0
175.074928891688 -20.3456934852096 21.9463911341238 0 0
187.73153994691 -5.35943990751364 17.4880025651444 0 0
-189.638273684488 30.7514297286896 -13.4842008823803 0 0
-150.920699867598 -12.6927574882112 -6.68526634467519 0 0
-63.8726856201014 0.715020569319211 -3.70638526680313 0 0
74.5879145173076 13.1587506509164 -0.685440346680046 0 0
-162.39498807456 19.9963984504782 -23.8085640298627 0 0
-146.980021047111 2.06716987168307 9.45286262206261 0 0
185.268284593168 -19.7296840291012 24.3461223562115 0 0
146.727924993298 1.62121345085512 20.4830845527938 0 0
132.970581405926 18.3196074375709 -3.0988363787982 0 0
177.953367117088 15.1941184310704 -30.0215338270299 0 0
9.21302635414812 17.9858543660524 12.448621842795 0 0
182.607162251993 30.6730764190236 14.7238435349774 0 0
162.76104028349 18.0917659526756 -19.1294140724663 0 0
117.483576095578 11.5960117152909 -6.45495234807919 0 0
199.455292436544 31.7383026599593 0.392126759455552 0 0
-176.526648053058 4.70352272304279 -23.7086304109919 0 0
-92.3429066344652 -3.8623841351891 1.33109301381269 0 0
196.235828966508 -16.2520933889333 20.742683062275 0 0
73.9571450913216 3.90763680614147 22.4032255084371 0 0
174.309501517743 31.4336591318574 -29.0380055693809 0 0
197.132722827022 -10.4328178450324 -10.4453172985523 0 0
-178.614745192473 -7.08575661908768 -10.4461561120641 0 0
196.325912206891 -31.9428070727914 7.90304507953098 0 0
-97.1650464381041 4.85215060864205 15.63481417051 0 0
194.503230536412 -34.5460049692922 3.6588648679882 0 0
195.851986801174 14.3059052998877 13.0141312660699 0 0
-107.903192545507 2.75225795505432 -9.42635005252213 0 0
184.880740421912 -41.5864956503253 -11.0338573325008 0 0
82.9447573108374 16.2290533758135 13.9742741055537 0 0
151.228617549226 15.8976419706238 -13.1432022395307 0 0
-130.095034680819 21.1967610741884 5.46769563922985 0 0
201.116194163628 21.2087361372843 2.44585726197802 0 0
150.871723466911 -1.04276252737166 20.7559229778179 0 0
25.684732820232 3.0483701982402 -2.19914389384408 0 0
40.968177323565 5.09355311967083 22.7088653322236 0 0
186.842495895569 32.2143167434306 8.80733677754347 0 0
0.400801215936274 18.0529776064022 9.39404922467161 0 0
163.212851446087 28.8757545893814 2.99741438132352 0 0
179.533640809838 33.8674953041298 -29.0287384610001 0 0
-154.039744441605 -14.698739928551 -17.9675025575917 0 0
-160.574640139166 -2.88409036549145 -17.179186605417 0 0
-201.910781028682 -2.2466980087731 4.46147036169707 0 0
-22.668021992019 18.0319201886139 6.47093163989872 0 0
-60.5242474766515 18.1860922456182 16.7466338173741 0 0
167.350936715874 3.204928063565 22.8178962537177 0 0
177.046483280808 -39.4192533222582 -30.7590725230683 0 0
-143.303407149812 23.408389430407 -9.79615988650326 0 0
