"x" "y" "z" "f" "a"
94.3062110526483 -21.0259456388962 8.29051249553844 0 0
-206.646192466445 21.5464416681609 -11.0110105386844 0 0
47.757920736388 -17.0619044475652 17.3890423293459 0 0
198.681620928471 -33.2463547606234 -0.762073749600099 0 0
74.4762530163359 -18.6340472696944 5.1053641230195 0 0
-191.49953799391 -18.2745047122347 7.70078692844285 0 0
-150.097504001133 5.12710341923932 -12.9686072610579 0 0
198.54113238084 27.9679711713501 -34.2847237966936 0 0
-48.2057610666616 -2.73336284686114 -6.78214947286338 0 0
185.799709624203 11.6269247220402 -34.3790992581406 0 0
-210.301584533543 23.7841672677465 25.2610762354323 0 0
30.8190149676303 7.97378629496798 8.01579015505808 0 0
-151.592626683272 -1.66221692898174 10.8240424391637 0 0
129.209774154326 -25.4644007427413 3.64697777758808 0 0
-195.495687909443 14.1743015380249 11.2007003741832 0 0
202.914477373755 31.6933220674423 -1.5632788995845 0 0
164.531758346032 36.6563523262433 -15.7597529401056 0 0
147.447335218086 -27.2620800338731 6.40857144238383 0 0
117.307869663635 -11.6560518626812 -6.09441788239426 0 0
-162.251700247145 -13.5765513700449 7.07277261673439 0 0
-210.583433079881 12.2795218503576 21.7842314803359 0 0
-222.17730654701 -24.4445879257863 -19.0693256090949 0 0
188.353613160485 -35.3382457805769 3.70944754388501 0 0
74.7308383345566 -0.608933851848407 27.6610220855988 0 0
162.444001234734 -2.98040005575808 24.8703677051685 0 0
-233.023022435024 43.8451082067208 1.47353364286416 0 0
191.19968401879 -12.8593990426955 25.3436150010837 0 0
-222.285608002254 0.880803625822142 9.58972313597978 0 0
162.820354333755 24.9372989796957 -18.5770103089492 0 0
-166.170131847995 3.19943974504305 -19.3705248496631 0 0
-96.7150471211866 -12.8568068196706 -11.1826616752356 0 0
188.27885876968 31.3310492876861 -36.4716168193037 0 0
-147.170990338337 4.38182029230254 -12.1824797728698 0 0
-230.249836289752 43.6603698512836 13.825023439456 0 0
201.59111846222 -26.5319923142639 7.65857523434508 0 0
126.556363394134 17.7195739317526 18.9871076723179 0 0
-178.908125269419 -4.21230997477899 -23.229688679453 0 0
185.007819410969 -35.7091065632517 5.6343600815659 0 0
-153.418268079241 -6.21071728153651 -17.8246127605061 0 0
-32.3368362352806 -10.4293294565962 -6.04865846964773 0 0
-61.2095549152102 -20.3294685839365 9.01929922154324 0 0
-147.845192981915 2.54908150315375 -13.6502342337927 0 0
20.9964964024411 -1.23730099841643 24.1547637633012 0 0
-214.240335280204 13.0429193895142 -15.4969918719905 0 0
-181.931229404692 5.17907142149196 -18.1871337606561 0 0
-160.669743663623 -4.77373719732334 -19.4804870711849 0 0
166.257217412119 -35.8262930117262 -3.59361960286889 0 0
-131.724822187341 -0.689956788322601 11.9847213703369 0 0
-47.4954502511657 -10.1779768969942 -7.81822875346606 0 0
102.713827397181 13.572086136821 4.28658990999533 0 0
-139.044754798473 -26.9870720151861 -11.7121384293244 0 0
-139.045272930229 -15.4039752067629 -16.5984370602471 0 0
136.026236712172 20.8070357777847 15.5331056775236 0 0
-212.473735099246 14.0815456189918 -15.2124213176526 0 0
-30.9442115796374 -10.7145226286247 21.9501274293394 0 0
207.541387719604 21.3343589723751 -4.23758805370394 0 0
182.704471793143 11.8082573207259 -27.7618723476929 0 0
7.466957484155 -17.5064135542181 7.19061051246038 0 0
-149.332663927877 -19.9740593479976 -18.9676647113402 0 0
-219.739512574597 -19.2465052491956 -26.5070352682378 0 0
-199.515192128003 25.5670616925989 6.26113996573401 0 0
-202.658441147049 -1.35402738443627 13.77180602256 0 0
125.537026264775 15.1502574200344 21.8201168658974 0 0
-155.626336299894 9.79759667449632 -13.6516925128442 0 0
131.753412407938 21.3142382999963 6.58348038329771 0 0
186.637868540877 30.5635131152583 -37.7524222414463 0 0
-133.378746074112 -21.6719422240939 4.27716418804727 0 0
194.791746455988 9.98340193170985 15.5177698052304 0 0
161.522767196468 31.2096794075187 -1.21718222801027 0 0
-220.619192118757 33.0309048257037 -18.7059593910861 0 0
-234.218294826077 4.17521404808338 3.12947205921137 0 0
196.745906532316 -37.387029524875 -11.4754176351915 0 0
144.098284222345 11.2242378922356 -9.59532144836436 0 0
197.235151260451 -33.0704685490662 0.987153860126903 0 0
179.556664715255 -39.7018120139249 -4.10903933812573 0 0
-53.3069578912576 -17.4818285287878 -1.12170334243433 0 0
-227.622666915593 31.6059965164063 25.8348622764061 0 0
206.233743286557 30.6066642520571 -5.67877362426605 0 0
-87.1396214282714 -22.2217917237279 3.6252661464222 0 0
69.7630920989143 5.49276508213815 24.942045351314 0 0
91.2031536508699 -20.793950942375 9.43252497264951 0 0
166.939337229845 -34.3953014609391 -15.6106251372181 0 0
182.861458871835 16.8521529369413 -38.1080026266767 0 0
-147.022289143547 -5.9762561018258 11.5234189669078 0 0
177.320271296321 11.9330948979621 -25.0785384030055 0 0
122.136112546128 -21.4360811754818 15.6161363566122 0 0
197.736610681672 -9.18077415640954 -3.97105526866758 0 0
121.643807879682 19.4832023899326 11.8808211496456 0 0
5.88931294594819 -0.0899248404018464 -4.17414017465016 0 0
54.4455752913441 4.09363296768293 0.192579240215038 0 0
-170.41129362544 18.584251805788 -13.8684589393255 0 0
128.012475280292 -2.4162598278858 -8.13392249075346 0 0
-0.657057232345235 7.20886601154309 13.8568923035773 0 0
99.9112038372254 -5.70204640048644 -5.52126336202016 0 0
-180.999048277364 -14.6778835176176 7.05159316472829 0 0
-204.205643908502 -22.698751516746 -28.1931846090474 0 0
147.541994295557 19.1369601910463 -9.93727595619603 0 0
103.438286654751 -20.4308022431852 0.296610289668804 0 0
-83.3049909375421 -0.759353428383366 16.6105222179422 0 0
171.667089942073 -15.0522805012835 -23.1542441282635 0 0
141.368887380278 -26.3411186380776 7.16184506852678 0 0
189.547544376203 25.920473801069 -38.887117659665 0 0
-171.988087373999 -8.42638761539778 -23.0265338274786 0 0
184.661544332275 -32.7645506501536 -27.136075428971 0 0
78.2156168264949 4.15589796446458 26.3545943200871 0 0
-78.0551313497253 -0.63480488309983 16.9372451252404 0 0
-163.697540815973 -18.6383471453184 5.1130540498939 0 0
-172.983880793592 9.94045812306755 6.20267437546186 0 0
126.767128785446 4.64795188454645 26.7956363546094 0 0
157.525409394537 22.0675559233202 15.8792667333244 0 0
-151.882795103801 9.63517862320186 -9.93780994248962 0 0
-215.111241164943 -14.7744229510521 -13.4970317330716 0 0
110.350398716086 5.20291103603644 -6.23878755674736 0 0
-184.088722156891 -8.39030470321124 -25.7278017905074 0 0
-217.84064789355 -8.22752505849765 4.42244965348261 0 0
-237.850458286079 28.7556777427768 -12.2340602077208 0 0
-201.820839833817 -9.28828039675979 -23.0650128649762 0 0
-158.399137396843 -10.1644420470347 8.87959884954716 0 0
192.538115132414 -29.0571591922021 12.3952487127919 0 0
-104.490179975635 -9.96093989462394 -11.7701463056381 0 0
-194.024610666773 -37.9670543679792 -15.2444395048091 0 0
-203.091292142201 -5.66330158295543 13.6367952728833 0 0
197.525100219902 -22.9428434435026 19.5234687710735 0 0
-21.9609173795925 -16.8187638472771 17.3213769061929 0 0
-49.3372028032238 -4.40258613738217 -7.78372344494948 0 0
79.1060704881438 7.04876183456313 24.8699674029645 0 0
-146.877937233708 -25.1105074008974 0.224378645976512 0 0
192.702517656398 32.0348862695313 -33.0187527342646 0 0
-13.5547779214082 -16.4393258918508 17.9270306004967 0 0
110.003971832902 -8.68522308839781 -6.04334741049912 0 0
-224.537819940738 44.0140185274471 -4.50536071055576 0 0
196.77361130283 2.40858606991093 -4.87071415133544 0 0
-223.250536640698 -21.7225311903939 -2.92495116204836 0 0
168.806841013769 23.3536996243443 16.4826198128109 0 0
-11.1462169490533 6.4809777252633 5.0576734783599 0 0
194.61486934917 14.3954733253497 -33.1991185224403 0 0
-92.0965071199639 -23.6492012614612 0.0370180581602963 0 0
-41.3420652931274 3.11806538010177 -1.99031723922616 0 0
-105.711166882841 -21.6372372116599 4.75543250149343 0 0
189.27621498995 22.4539119241916 18.0367655534031 0 0
-240.663531913375 17.2764824305172 14.8505981126464 0 0
-197.295206321864 -14.9334830766382 11.5966416170641 0 0
49.9017771817745 -7.60462016682137 25.7941168577061 0 0
155.394272170491 -29.3799340809674 2.92404086018355 0 0
-40.2166327431683 6.39360936255887 11.5188269993325 0 0
-228.454802507029 27.3163719143353 -18.5695672172601 0 0
207.099186326796 30.8170195013591 -12.1747395625132 0 0
4.91727348086584 2.67593780577597 20.9113437883026 0 0
-228.852855444822 44.7650934859644 9.79209841507304 0 0
-42.8947424834376 -17.0883606771258 0.504219706578784 0 0
-180.371973712074 12.451504905024 5.89775717446966 0 0
200.464813490533 -12.7746937315053 3.98871359738746 0 0
197.761584452562 -35.5579973778575 -4.827023657195 0 0
182.195740741593 -37.7840949371854 -22.9576188434779 0 0
193.840782504498 -26.5661032944719 18.197871545282 0 0
-154.998576862598 7.18479492107033 -14.3112221456516 0 0
183.326958097893 -0.0261593680249493 19.6793497778574 0 0
169.50445731953 27.4336185502858 -29.4969748599821 0 0
-109.356348850109 3.67652598130982 10.6473944130642 0 0
124.091556114176 -10.5257847320143 -6.88313289502447 0 0
-221.645076804068 22.3801197086763 27.8993246250016 0 0
168.723247812591 38.3648681264837 -12.5939135338893 0 0
200.241968299289 34.875403102805 -17.5089040171348 0 0
154.150841090729 5.00156645390808 -11.5193027456587 0 0
-122.109262534972 5.56623315456392 -1.49871840200447 0 0
164.437378694772 33.5401540193383 -7.8708025547466 0 0
-216.3879785153 -6.97904674518622 9.61768335522793 0 0
143.288981624193 13.6791438524899 22.6239697568143 0 0
-214.719708968992 21.6837951874207 26.9771357141826 0 0
-174.995288060788 1.55074565147318 11.0820916423212 0 0
-134.232937264902 -2.99722180293844 12.1287019833806 0 0
-188.012729288965 -39.3326536262202 -8.20810299215744 0 0
166.369797052345 13.5631662988156 -22.8293807428342 0 0
-148.801217942743 -3.40492130474942 11.3949519792787 0 0
98.1419079673597 3.58936962778802 27.6127885448308 0 0
-210.674499253088 -23.1956944112431 -27.5476219875417 0 0
-116.237062012839 0.129775108047591 -8.62117677758786 0 0
-148.891619412004 6.29344031277628 -11.4653392043059 0 0
141.126436073521 -2.69130398708906 26.6134545493994 0 0
-205.371725082896 3.05539499818985 13.7998331890524 0 0
111.150219229378 7.81222263518456 -4.4507392392229 0 0
-210.363963945365 -37.3323470821053 -3.51537090241866 0 0
180.060652203892 -7.59290282793935 -16.7877227700732 0 0
-69.3654162688059 -21.3148831025029 5.72730026240626 0 0
-193.131724120397 10.8936393959829 -10.8837580283208 0 0
-215.51487730199 -26.5530294465253 5.76699101439384 0 0
158.81849106482 0.163316378841368 23.2634528373517 0 0
-213.800315528284 -30.6373269450306 2.31324736415876 0 0
-182.904404406568 -20.1848270567686 5.42470273562337 0 0
-123.966950249679 -10.1002840817505 -13.8036976981453 0 0
162.998381087413 -7.63563216335183 26.4184907018953 0 0
-208.395630652794 -12.1827777377714 -23.3690130344863 0 0
87.5520339606334 -12.4300944418449 -4.72034340327985 0 0
-4.00794525810214 -14.5650027048006 2.03488139705393 0 0
-101.8195373319 5.57709042957706 1.20804675452781 0 0
-122.963774187294 -8.42386326237431 -13.169986610575 0 0
-229.376939559286 25.3627938473611 26.3274337387334 0 0
-226.911740486602 2.20814810816941 8.21592894078293 0 0
184.057854589028 -14.92851051817 30.2343111771874 0 0
195.20515641722 32.1987276643237 -32.7719156962752 0 0
-124.712540403422 5.38188192250128 -3.08554608879132 0 0
182.943072900028 -17.0117674903378 31.1603764646449 0 0
116.818666272268 -3.17043025803111 28.4315933713586 0 0
205.958299750524 31.5177191328908 -7.45401911840302 0 0
-132.383599336986 -8.27709312937551 12.7881552320558 0 0
-144.623973645839 6.98128465901353 -6.56469260668453 0 0
-103.964173110181 -10.1073307432508 16.1086192383006 0 0
-135.01683245854 -6.39458165613698 -13.9709812362906 0 0
-63.6727605664989 -6.47500052326633 -9.29252198154913 0 0
-146.959245519304 -20.944623682009 4.66947872580293 0 0
198.80240878816 -12.5327715639931 -4.97770592411953 0 0
97.0733660459015 15.311507927786 10.8838693182297 0 0
-8.39283182667216 -2.38178115474156 -5.37355025780775 0 0
-167.518353093067 17.4641294147555 -15.511205713266 0 0
121.57212234022 18.9022076204797 6.72097309174972 0 0
8.8473345114602 -5.78266549157811 24.3609453100321 0 0
163.344066717196 -15.7492065922152 27.4566302401987 0 0
172.448639219428 15.0694380086291 -32.7867489773207 0 0
-50.4923701412047 -12.5028508285944 -6.4557474456656 0 0
-232.310722175735 42.9728642027737 13.4021174314514 0 0
89.572126985433 -14.177629130492 -4.18662255869127 0 0
-197.331784590837 7.27688285125932 -12.1419238041965 0 0
-138.773255434394 -13.7404438308824 -16.4719313818577 0 0
82.0453239445992 -19.4857414876681 14.7485386149385 0 0
-180.988704382168 -27.2926078757891 2.64024674614073 0 0
181.751841647416 -37.5803257500831 -21.0795155237497 0 0
-202.341576884275 -38.5965220262024 -8.31219378634322 0 0
143.547846323733 -22.9850496699107 16.2400561626728 0 0
-77.3324894836096 1.73596798325624 -5.52597919258713 0 0
151.568866944813 5.10000630855605 -10.7079381280575 0 0
-209.183754911261 -12.9078167292024 -21.6403360745278 0 0
125.839208678697 18.1495331961852 2.28795078508223 0 0
-2.16343059776961 -6.54693362564383 -5.63126959656609 0 0
-171.490453578073 11.0760180165794 -19.3616390533596 0 0
188.027334255651 23.4057955528669 -39.0864073413739 0 0
166.884609634881 -15.3267719454221 -20.9507347841115 0 0
-210.864862230239 -5.63537274692573 -8.85375925754209 0 0
207.938963730077 22.4305913963261 -8.32600714991713 0 0
131.692560997919 19.7046667776575 16.6603812840992 0 0
154.407361134944 15.9130729256725 -13.9571676097467 0 0
79.2451422504853 -15.3894926649568 -1.23686075440023 0 0
-218.106361264908 -8.62016166833411 1.87480080632726 0 0
-215.106317761403 -10.5868023883704 -5.87994695390541 0 0
182.370729718095 38.2686736671868 -3.88118667532238 0 0
202.288551452506 -25.1865343633452 4.09560605653327 0 0
174.456590603169 -19.7089090993053 30.7806183512391 0 0
139.45438363956 -13.5158013599957 -7.93859649061712 0 0
58.7702906014807 -18.3368190256411 14.6783583211832 0 0
-174.127656992642 -22.8078545094344 -26.5524608979828 0 0
-197.468800311454 -29.6111572425025 -25.5684487402623 0 0
-137.357274194933 4.37386879679606 7.79424185253442 0 0
-129.409165619035 4.59540669821673 -5.32254050677819 0 0
-198.64598059506 -31.274957563616 -23.8032117619963 0 0
-145.432768306295 -16.0541503677653 7.56420787038117 0 0
145.916084454829 3.60896673342867 24.6643664275683 0 0
55.2977943855146 9.78084243655652 16.4696486125132 0 0
-194.351207039552 -11.7939432717044 11.3925952600421 0 0
166.143892390683 -7.68195578024811 -13.8262931164634 0 0
-177.846795309107 0.493567564219998 -21.676712954131 0 0
172.064557784975 40.0706737134609 -13.8911846831719 0 0
205.748418424712 28.5137971497787 -23.8304030864954 0 0
-219.678624989594 4.93835281256765 -6.56922639443736 0 0
-230.162373587056 37.5653001443395 21.7019796634703 0 0
-103.981505503778 5.62152349948014 1.25554782614291 0 0
134.766678455531 4.06961699747942 -8.57440889485292 0 0
202.591861051833 30.0601383222413 -29.4682320782704 0 0
116.091897924405 -20.5984784665449 16.5419804510276 0 0
-97.007707339017 -6.40536928742918 17.163882597329 0 0
131.944678445926 21.4295851835983 11.2711680089078 0 0
64.4831517110458 9.35021378298586 20.5326697701139 0 0
-225.812429274006 19.228789632768 26.7451944137582 0 0
-191.793225484856 -8.24058592293821 11.0276026674521 0 0
-49.8916318124071 -19.8372358797142 10.7831960828378 0 0
-105.987837601665 -18.4308094285119 -11.057583493399 0 0
-166.633264858268 11.7722386527708 -2.20960264690762 0 0
86.3509769035616 6.13868409818336 25.8603322922621 0 0
72.653188886143 -7.21427455174614 -4.40168065765921 0 0
199.616824058439 -32.849961947617 -1.66005599727359 0 0
122.307434598358 18.9147282336049 15.1738619629363 0 0
-170.958992894211 -23.0036905696371 -25.6885582817865 0 0
5.35043183367023 3.68239580817313 0.331925637401303 0 0
-163.744052853716 12.7873660881751 -3.3262198929056 0 0
-211.306052984983 5.77786336143068 16.6226018437551 0 0
-166.986934719459 -25.4736121019651 1.64883737826544 0 0
-44.6156625148393 6.49628235427066 10.0236519392072 0 0
128.277665458168 -0.616407535604011 27.5726625382682 0 0
-124.928643082673 -21.2249474019158 -12.516885155526 0 0
-158.232838774218 13.2646850825207 -4.08262158784393 0 0
153.200365159279 -28.6735155869234 4.23014835077098 0 0
-221.714541279608 -0.0207412236132575 7.21468503090353 0 0
-212.161654844841 44.9973798997944 10.6735509126011 0 0
-225.241136694491 -23.2627532642551 -6.12322381069953 0 0
153.410679270562 22.9079940347911 14.4639188575488 0 0
137.104483825792 -25.3288563230961 9.64444909845956 0 0
143.231644063048 -9.97536966955721 -9.02298445211186 0 0
-120.800121854458 -3.61220124368114 13.6741786495337 0 0
-72.9947107063855 -20.1508183406778 9.26850458821841 0 0
180.699220284776 -3.41421666737916 -15.0893338869234 0 0
173.61685963558 14.6632100303433 22.0925017268102 0 0
195.776775805971 0.999813785588467 -4.36566339997575 0 0
172.700273525601 -30.513680036384 14.5135317809902 0 0
-226.408079665448 -21.6958894971174 -8.60324006944218 0 0
-6.012894437195 -15.4795563711575 19.2267198460518 0 0
177.743887507848 3.52339665058667 -18.1373990237118 0 0
-185.492971657815 9.46679724854966 10.2312549592206 0 0
-15.1605437905223 -12.1213187395907 21.8259480507757 0 0
-200.837568834082 -16.0985596977524 12.364532540329 0 0
74.7915750914079 12.3175322459931 11.2315063842346 0 0
-199.420293668345 -6.98526984267085 -20.3568268857389 0 0
68.5000335740826 0.859817873051446 -3.51911354082445 0 0
178.248815338952 9.37728023872327 22.2465725277277 0 0
178.600071399629 32.5780953570362 -34.6951895138376 0 0
-203.885473849996 17.4855018550471 15.4583987719953 0 0
-52.0697539389643 -18.7189538891125 13.3142153750868 0 0
-242.895660646414 22.9813062991889 -5.37679050649865 0 0
-62.9006576642826 6.39982184758194 7.52963093303742 0 0
125.020366193083 5.20155421938812 -7.47121424057981 0 0
198.397745492975 35.3158903001114 -17.1511005159026 0 0
35.966232884906 7.5580843952522 18.3563526619209 0 0
-4.9164852124951 -0.822174854281516 22.6210996660508 0 0
113.096594414096 17.2692993359974 7.35463621219252 0 0
-223.075109353517 26.894015540542 27.7959878857953 0 0
189.831128292781 10.3239437946946 -29.5170869006778 0 0
-205.638225718975 18.9633750428437 17.9814218914189 0 0
-223.651745050253 44.8968162210917 14.4242727977158 0 0
-88.9814672390322 -23.4992972494854 -0.340633833721246 0 0
-190.191694310797 -27.6562804285394 -26.946643695696 0 0
142.88769405207 8.73379065045125 24.2606211500584 0 0
158.712725661948 9.49988480187915 -14.3754788166113 0 0
-176.08278477354 -28.9916900481018 0.00031108539559086 0 0
-38.4069575593809 -11.8325922112552 21.1025784929627 0 0
2.26508670601316 -13.1353791336552 21.5197784295947 0 0
-142.587251995143 -24.6997822939645 -14.4343157014002 0 0
-164.02687965769 -6.61626785658523 -20.8573214469595 0 0
-214.130496011062 4.21986986630787 16.8901465600101 0 0
-187.304744498537 -10.6457521853577 9.19220403442517 0 0
165.160516736676 -32.2160457486969 -16.139652428838 0 0
144.52982717323 24.5000412605812 3.86436787616612 0 0
203.342538400509 21.2529883832422 8.30860702527251 0 0
-199.287530610258 -38.6765533528112 -10.999634316346 0 0
174.421410942457 38.7311677425818 -23.3990788287219 0 0
163.601107388616 20.196796392457 -21.5062939712851 0 0
-229.100134497751 43.3764345199722 15.3716049975441 0 0
-137.148209582787 -20.1507104494791 -15.2110642176493 0 0
-136.842216436945 -13.3924356101347 -16.0555909179165 0 0
163.636881078751 32.7194575170466 -4.772993644191 0 0
161.594207199704 -13.9439006533213 -13.0752506971032 0 0
-154.663874018252 -18.9004037595201 -20.0064734505374 0 0
170.657324577591 -36.2516753511352 -22.283573259821 0 0
162.904673409353 -18.0839011696789 26.4856066461146 0 0
31.0261525785606 -8.19322522011301 -3.62089847188719 0 0
-123.288373300179 -15.4750654124322 -13.8949335240534 0 0
78.9887657228043 -19.8928056948846 10.544052754643 0 0
-169.520997897932 19.1471242372555 -11.0844189317875 0 0
-231.960394308649 34.2142960498277 22.7798438954132 0 0
-120.173976559429 -26.2176151184909 -2.59568608870033 0 0
-34.329639483282 -19.6891564607628 10.6890287503313 0 0
-199.785829071073 -29.4064056322572 -25.3464118130946 0 0
128.209209545619 18.8538218784459 2.19508554707659 0 0
21.552495298029 -14.7327715740116 20.4987882674829 0 0
130.63178141541 3.88279030070663 -8.1444913245006 0 0
-148.315764496985 -28.5217436381645 -8.94649213800136 0 0
185.670804033897 -28.995971906914 15.8119977132519 0 0
3.86329804268085 7.12228148744086 14.7048454094987 0 0
99.7568861813576 -21.4800068384418 10.4939098541856 0 0
188.370200058552 30.057100828502 8.88967358599517 0 0
-94.3720292480698 4.93450320899833 9.18878531860307 0 0
-3.58331333432903 2.56446796772625 -2.09184641823533 0 0
-160.977115614833 -8.18373024251312 9.52898150791962 0 0
-143.307481162123 2.89920179538772 9.76445380721887 0 0
-9.91652917194459 5.91331850679837 3.43288278927404 0 0
198.019832984619 32.2078275691341 -30.7978803779416 0 0
165.816146912589 22.9918626602535 16.1837141711999 0 0
173.846096214328 40.6354965165547 -14.9976667051898 0 0
-81.1252103284423 -21.2553208267131 6.28151048213749 0 0
191.276064127666 32.1534301785894 -35.1538550830907 0 0
193.835127845445 -4.65323057287674 14.1419655926357 0 0
136.783599284378 -1.44119310279049 -8.93610351586121 0 0
-65.8190918539956 -11.7790997945498 -9.43915515857387 0 0
189.553593333827 32.1151211297742 -35.0922308607658 0 0
23.4143205357593 -6.04545364456543 24.9713480847517 0 0
-114.629453792418 5.17507593343676 6.42949557258589 0 0
176.157279962253 27.7580486768748 -37.3131912749747 0 0
174.511472532683 4.43923115457578 -19.0072877077172 0 0
-216.863175934077 12.7495888610337 24.4968208673051 0 0
32.3804481279057 6.34903370082161 19.8374254083014 0 0
126.071261582451 -10.0703572866894 27.4409448512116 0 0
-218.137313237419 -16.0391026332148 4.57799520645984 0 0
-233.156475641038 43.8034798037705 7.24099784026391 0 0
152.914238939458 26.9572598879447 -1.38556933172596 0 0
141.303326690126 5.87977652021419 -9.24726913299268 0 0
148.395831752128 -23.0903126977522 17.0098486989689 0 0
-46.2454266302405 -2.52574849656497 -6.57556355777322 0 0
-230.730172441541 44.2581761702212 1.4105436610856 0 0
151.605738145333 -6.70691602599866 26.2990966017424 0 0
71.1234712217822 -10.2811677849066 -4.3684172811697 0 0
-205.92450560836 -16.250993348178 -17.2754627828923 0 0
189.525308526471 -4.43798770800662 19.8654042428899 0 0
128.798285056206 16.4788917970157 20.7858587841078 0 0
-94.3566448264526 -10.5485912350428 -11.0529237028094 0 0
127.057689642543 -18.6619603700901 -4.0172619699949 0 0
-154.656840359458 -13.1883380556066 8.02123359550453 0 0
190.170416720138 -34.9354573775429 3.72342060286455 0 0
174.564798448556 10.6251202137193 23.9886137126959 0 0
-153.212849492686 9.30112242027976 -2.3923825882342 0 0
175.038962725561 39.6113219060696 -6.05149767746897 0 0
189.604015382402 2.26698582155899 13.8557174889021 0 0
176.17542210139 -20.7768875385502 -26.50710804429 0 0
154.968846201986 2.22517815941067 -11.4135902680029 0 0
-18.8991532585772 -7.3148377591176 -6.58449154465608 0 0
-88.8971710732404 3.61677115447257 -3.08363247828892 0 0
-158.499263175925 9.40640869887379 -1.78353981003035 0 0
-213.7788946701 29.3897420310954 26.1754127832498 0 0
-175.80599009913 18.1317931710054 -10.5127096396125 0 0
-31.6220936478724 6.79107865333193 10.4606974712863 0 0
176.017133842736 30.5914649527866 -37.1285109941671 0 0
-232.125936748028 18.9611317252268 24.2832725699023 0 0
-212.814226032753 -12.567990290195 -9.14310765738857 0 0
-221.709317866468 5.19160602351828 -5.11731525395733 0 0
145.792062450475 -4.92078102634216 26.5541954923173 0 0
160.662734706719 -2.79913270863368 24.616863990142 0 0
-179.600246357661 16.1352945401551 -9.17045280234086 0 0
96.0390070253331 8.53264669999408 -0.595388856795802 0 0
180.480288072777 -39.2809119757317 -0.32592330240603 0 0
184.211504389808 18.0678949563269 22.1400999891387 0 0
6.16682983241177 4.89317543260808 2.02590752781589 0 0
-115.446394183631 -6.61221113610233 14.9370662006715 0 0
-141.453478144144 -26.1972402806405 -12.8273369566594 0 0
-98.6332029299376 4.07575363847089 11.0529204673857 0 0
202.402119115225 -28.1684889677217 -3.10010367019976 0 0
-204.352470711058 -12.1079336204024 -19.9472655436706 0 0
-5.14101893381126 1.71424533279611 -3.15262853632333 0 0
13.7982262535712 7.64915099820726 8.18467742765058 0 0
-194.102635987415 20.5691892912201 -1.21672115275104 0 0
-50.9684341476101 -8.36372064188316 21.572847493288 0 0
-243.260380958431 17.8297734582786 8.32656983141893 0 0
-87.5032677844695 -7.63614497313656 18.4582500333042 0 0
-201.011245292668 5.05890681770353 13.6894556981341 0 0
20.0079426985886 1.61282808424765 22.8227958612751 0 0
-213.177614497506 40.0071123061607 19.637244431751 0 0
136.435381753379 21.7816265335848 2.6605934230078 0 0
-178.582932885031 -23.0030508131202 4.11723959603982 0 0
193.286192633194 31.6219300481445 3.05985254405635 0 0
-172.210021192409 19.0373394180102 -11.7425331975545 0 0
-68.4180888254935 0.166197978170605 17.2384307742302 0 0
2.85088083883676 -17.5545958204319 6.96685251453916 0 0
197.193742127155 -6.18828448091896 4.8940298706492 0 0
-196.570163716502 -36.6433923108434 1.0220449022855 0 0
168.471502032888 -3.88322517576184 -15.4133729322859 0 0
-185.207374806233 9.73428183919988 -13.2023145193181 0 0
175.43937234718 -0.703933141734546 -17.0615878997643 0 0
-231.839563454346 37.0839637723243 -13.3953160903129 0 0
9.3408212018449 3.50815106801374 20.5400710801706 0 0
183.966486849981 11.4501194307849 -26.0213302623233 0 0
137.320471796927 -24.5342675028547 -1.67403948877259 0 0
26.2579102426815 -14.8537736435542 2.83102133939888 0 0
191.662690195868 -26.4070774602792 19.7182661294332 0 0
-214.185867016573 -3.01057510331761 13.3521960607411 0 0
-200.662519017481 -33.056280270322 -19.8497807721895 0 0
-197.451263367345 -39.000216613479 -11.487153454716 0 0
-131.602284334422 -25.5221242096826 -11.9127096349792 0 0
155.390061065729 -9.86236801066221 -10.8299558675482 0 0
19.0376621266967 -5.22471070844925 -5.26051503786412 0 0
17.7845894742478 -17.2104842952956 17.2371495826718 0 0
124.108531546565 -18.4312676940794 -3.88799451592865 0 0
167.445165001801 31.0528792340933 -22.8108071800908 0 0
-213.322856000144 11.1331569359358 22.3005162480888 0 0
-176.995120433498 -18.0292009192944 -26.4214534155135 0 0
171.792150198454 -16.7128481815462 -24.3973275132046 0 0
202.401621696547 -22.0576268884969 7.8525869566758 0 0
194.540127436584 28.3082119893709 9.22491390333266 0 0
194.194273448241 5.75457357501456 -9.37424709812197 0 0
75.1475529661755 3.42410118871492 -2.62690952277342 0 0
-179.61076391916 -22.2490863959046 -27.0597925806079 0 0
-175.887934754978 -21.1485607288791 4.50515106010481 0 0
153.83207730838 -27.4900254607482 9.79793806038137 0 0
129.682820952214 16.8444333751497 -2.07958334314335 0 0
-136.308046032221 -1.50209423208515 11.7513418120576 0 0
-71.8551441287379 -2.32502899398748 18.5031697919458 0 0
201.919979390565 -30.7488979240176 -2.86089396941331 0 0
185.615909184571 33.6974444441077 3.26851090489831 0 0
-215.209692375898 45.3143647127161 12.329138565685 0 0
-29.5224052682681 -6.67373424312833 -7.57152240418729 0 0
-200.518458852579 -39.0242855448896 -4.76495013698167 0 0
171.711815868422 11.3944525173567 -23.9608380531406 0 0
161.878951072742 19.1439552413736 18.9788445092701 0 0
137.470904843096 7.73871741989733 -8.56076710744258 0 0
188.406904319227 -28.0243408488487 -25.2562605714524 0 0
122.078044686783 13.8243039233229 -1.80651166272492 0 0
178.354794712782 -24.3983496475853 -27.4677464254919 0 0
195.810818541308 -33.8597201109885 -19.5471824317369 0 0
192.71304634462 30.7999369268674 -35.6915537403846 0 0
-188.351332454738 -33.3888950551142 -22.3972482177951 0 0
158.887107197726 -22.5511576088628 -12.3269094211687 0 0
-210.112827955619 39.5591019584918 18.0576717759678 0 0
154.037249815135 24.5871672120096 -10.0723291407848 0 0
-214.166460415589 34.4802249939441 24.3047335934987 0 0
-167.769818709156 17.2700656510803 -6.06966994277978 0 0
-94.0151891415552 -22.560122270177 3.01886268139829 0 0
-178.89396753297 -19.8421370723492 -26.8764420041037 0 0
-189.930227277665 -17.2024915915261 7.65036551766354 0 0
-102.420010875821 5.79217301540212 3.11640279545769 0 0
176.857797358819 -23.8554884174695 27.2785666872755 0 0
-150.869023441939 7.90155521256685 -11.150144842678 0 0
191.780563868006 9.8177791179867 -23.2516812770682 0 0
178.409415025895 6.27314209951454 -19.405803655816 0 0
201.297811085201 33.6137556725402 -23.8265450523185 0 0
27.0916528044237 -1.69387223915022 -4.28116017186071 0 0
186.503729941981 8.871898293313 -20.3421644056239 0 0
162.208641511223 27.9926163881274 -16.878152433883 0 0
191.372941640838 -13.5980171980909 -20.3720796282598 0 0
-52.0196129164538 -2.35048325489183 20.4280585653296 0 0
-153.791774414394 -28.7627135360894 -9.75975911716014 0 0
183.209098616811 19.5536291664463 20.8517408862647 0 0
190.580735854888 29.480994399683 9.19974407481165 0 0
-186.103664825118 -38.0197705314718 -12.8990290343688 0 0
186.492500193463 -35.9143316043887 -25.3644597542323 0 0
-230.035098480221 32.8268683733779 24.3642748059777 0 0
188.20687833836 34.9298387496268 -29.9650949099302 0 0
184.5456179843 40.2389528882836 -9.62633986652084 0 0
21.5539879490847 -14.5372895818231 2.54820937625832 0 0
112.88869593235 16.4896440032313 18.1702372568522 0 0
186.090674803665 19.8090636251756 20.5284111076946 0 0
200.913651362277 -26.4077906903803 -9.8044017588517 0 0
62.4098062657231 -18.895809348194 12.1067120261502 0 0
-217.425894032103 38.7609695159607 22.2713516808392 0 0
92.1139966578866 -20.259659085952 5.00910446141862 0 0
-161.053216441774 -13.2758711429631 -21.12168142418 0 0
160.918848526964 -28.004372561204 12.66853270287 0 0
165.519698515816 -6.41840740255777 26.9868257580126 0 0
85.4933412617196 -5.28311938607824 -4.72999820836981 0 0
178.819970264929 20.0575638556406 20.7547066003967 0 0
138.356261371662 0.250278413653377 26.3546842747681 0 0
-230.774664175458 5.39456143756265 -1.8330676320558 0 0
-115.128925395596 -17.3873678516682 10.3214296156411 0 0
169.478547677369 27.0814492011021 -31.7607793580947 0 0
-153.78810007652 -21.0887218201852 -19.6909377126289 0 0
181.577454643643 -6.57718225800467 25.8560412128588 0 0
-231.538163475091 7.27578073380896 17.1344538935612 0 0
-174.270169356929 14.2200921356994 -1.37625092574434 0 0
188.45609349938 -38.0564188325669 -20.1010140605594 0 0
-22.0979013909672 1.24778461418776 -2.99409097114806 0 0
-222.783280223785 41.8547505786401 -0.401790598440445 0 0
64.1624044869746 -10.2312030728128 25.2356714052346 0 0
-184.607578050823 -18.168736766269 6.24861666244869 0 0
198.567070681268 5.15997542676356 2.6115486845327 0 0
-240.472750175645 33.4534673407161 -6.44901555265344 0 0
-132.460573665941 3.04043863536473 9.86760282480675 0 0
-225.558323581486 2.11723283367003 13.9488854897215 0 0
-218.269042088074 3.15539982368847 -6.49718822265503 0 0
-204.978367764268 40.0037896410841 -2.00493395298056 0 0
185.018575564465 8.89362245742968 -20.9686950634202 0 0
-221.32076294564 39.0073711440676 22.5419011235179 0 0
150.723420847603 22.4859808421551 -9.76035894185364 0 0
-57.1111858972469 -6.14802576417769 21.2483037253192 0 0
-183.959972533526 -12.6619455153853 -27.1420540984351 0 0
180.067787705452 12.4776365685127 23.0588290872999 0 0
86.6455136766761 -14.5249241735734 -3.42853953288426 0 0
-172.719884258552 -9.83809940083333 -23.6512857666266 0 0
-228.44117288898 4.61790703568212 -0.161932912971143 0 0
168.447110450008 28.0016844895357 11.3203624625971 0 0
39.3670306056683 -4.78903197732947 -4.48080585792107 0 0
-211.128182271096 7.25875397300808 17.5334094875432 0 0
-204.371485830386 38.9681717608607 11.0168954723882 0 0
-58.4376543652489 -20.6720546674259 3.68167314162387 0 0
-196.222198385249 -27.0260422362102 -27.1843562513407 0 0
138.951668498524 9.73627502587828 -8.59443629286635 0 0
192.166997742703 31.4658083984673 -35.2469695156971 0 0
-145.464664253404 1.30632408398671 10.3042714557469 0 0
9.77183121436452 6.44107228267789 4.71662300377564 0 0
75.7424857035049 6.35118379421035 25.006572621932 0 0
125.611198947481 20.1659151541535 8.2453387897406 0 0
168.331422426958 11.908663494027 -22.1275856709935 0 0
-102.138086489362 -5.32902318258444 -10.1873884418936 0 0
197.699779681526 -27.6703555946572 13.035469604289 0 0
195.656652270147 25.8425821135105 11.6855710249946 0 0
127.960614123729 17.8473671533461 0.444869644475977 0 0
159.879336780446 -31.2173107158407 -1.60170056253205 0 0
-206.957008746483 -17.26769744779 -15.9842420305699 0 0
-234.939826631464 12.0904710455312 -11.6124782921513 0 0
43.0708320195625 3.29667872408294 23.6224986709827 0 0
-197.122297097074 -10.5990010415411 -27.5772069122857 0 0
-61.667810154186 4.34220356841754 13.8739799109116 0 0
155.945159991164 27.0065549053998 -8.64776555132767 0 0
-127.648848911135 -0.767969838978654 -10.820248110995 0 0
-219.490578356494 -13.6667745224659 -27.737737333335 0 0
165.390398647801 30.3024936767648 6.87039370269057 0 0
-191.917070040393 9.13590388960404 -12.0276588799096 0 0
-188.949248744095 -39.9369811996978 -10.5790194231541 0 0
42.7797722696486 -8.7043879844503 25.0522314262865 0 0
-29.3424119632181 -11.9236441597036 -3.53822852135251 0 0
-109.939010193917 -15.3815002097053 -11.692293123538 0 0
161.405416068329 -14.9441596107543 26.791996325407 0 0
-121.888746649793 -21.1346789669996 5.17847937947918 0 0
-215.92022721328 20.0183495300715 26.9718440761773 0 0
183.939147266679 -5.93303569386406 24.6554959152776 0 0
174.348254696945 -14.1587129580324 -22.6229357830404 0 0
121.010331075202 -15.7157803269759 23.6165200655499 0 0
-192.141326219038 -13.8214132285747 9.60841661983447 0 0
-193.070942609184 6.67539903050772 12.2661658034663 0 0
-177.615061889222 -33.7700367503623 -19.5800763021354 0 0
186.323702516681 -18.5716997237569 -24.967468168637 0 0
-90.7465990293433 -23.6522188826081 -5.07121424679625 0 0
-92.4623052402912 -16.2130789950984 14.1943255356583 0 0
-83.0618882469578 -12.482179773395 17.7192215446856 0 0
-205.274062661299 23.0672614895866 18.3941301825436 0 0
61.1809732706217 -8.35759155301247 -4.62686056422898 0 0
-198.955025475264 12.8093171858562 -10.1830019297802 0 0
-207.210361364514 -14.5177445393625 -19.280500345697 0 0
185.965855210962 11.6706120954791 20.416854386538 0 0
157.346150180132 -26.3657780171358 14.1322709591744 0 0
180.512582524702 32.5187968961278 -34.3799986026862 0 0
190.219796004219 31.7217274538071 -35.8590848344206 0 0
112.474979732119 -5.27403449590781 -6.55809088375799 0 0
175.059549332941 -10.7162105984433 -18.8831974538589 0 0
-196.082175646777 19.0489002435529 -5.2816401424302 0 0
-191.952277938336 -18.0443098718486 -29.2715916798314 0 0
56.2217116396324 -6.82607121197946 26.3184797597032 0 0
-212.181597366218 45.1804047156365 -1.28296982635078 0 0
156.052434741051 13.978614917304 -14.5370736948443 0 0
-144.667826063256 -0.965879335399141 10.9976284250773 0 0
-174.806872113066 16.1339739263838 -5.05608695836554 0 0
197.801914405385 10.26538799819 12.7873190100972 0 0
84.7941624274332 -4.25774309401056 28.305091779175 0 0
-224.861152258433 -18.7549347470894 -21.1360149033965 0 0
-222.884319545084 39.8759721800329 21.7505871984271 0 0
181.057392266474 31.321697893943 -36.9684785477859 0 0
-143.954235063795 -26.4336729395357 -13.0541237389837 0 0
-128.035152049389 -27.3527496926699 -10.4237141169309 0 0
199.537326339016 -13.1397072748191 -3.03871658079198 0 0
166.538470794372 -34.8528931453774 -8.50989168985672 0 0
197.631968506885 -10.6318764292377 -6.22337258148873 0 0
134.893960804774 8.2057254204288 25.2473547461175 0 0
10.7258113819554 -1.52832765052761 23.7080353145508 0 0
-168.318796562223 19.058305388564 -9.13581151181471 0 0
-76.4246247614661 -22.1820629893842 0.662482873275738 0 0
-228.020485170433 37.833342434546 22.3873176662347 0 0
-192.181437287766 -36.2761264546591 -17.4382393159092 0 0
194.495314142702 33.6021331092243 -31.150228708146 0 0
-186.20940657548 -13.1671203931587 8.21376328574321 0 0
-223.591895867831 1.79293344376924 8.35775244463742 0 0
-240.367189111237 26.1578447429079 17.3732915396413 0 0
-39.8235636897908 -12.8855646947489 -3.89585797143201 0 0
141.019936043701 4.25257901823195 25.2958094725473 0 0
180.473270616643 4.24649898596128 -17.2212629705313 0 0
-221.614086165749 17.175712191343 -18.9763714451101 0 0
186.848511050662 13.3152013283467 -36.225895385714 0 0
149.443345833442 24.0382792074502 -6.01090596394757 0 0
144.200541843649 -0.120891868091783 -9.77054169075761 0 0
132.835390756312 -3.50005394057249 -8.48835395388284 0 0
-116.897141691975 3.56537174310646 -5.25563468843673 0 0
-174.55430767706 4.67256089708329 -20.5631834844038 0 0
-21.7262824615653 -2.10262215663119 -4.89704251893278 0 0
112.189281643801 10.1061164216779 -2.32906631001523 0 0
146.621587641757 -11.7439016121789 -9.25939244110645 0 0
162.613311454252 -18.0547169650087 -18.5907037652258 0 0
167.887749852061 33.6286663557656 -21.3057363035202 0 0
193.412158087376 15.0259386424252 19.0674160853654 0 0
189.870528041633 8.73699091400618 17.0983059600088 0 0
-26.0273167522349 6.89766532673813 9.32566049617638 0 0
-75.325542958188 -19.5263163243597 10.6096591612722 0 0
-193.468814335713 3.98781073811871 12.581553308275 0 0
164.339334801904 35.5836041256189 -17.6231663374402 0 0
39.4768828296585 4.33908177464883 1.27682561214833 0 0
173.409524265015 12.5340248917709 23.4896090932629 0 0
-186.531981895399 -37.2781806075155 -6.68028321835473 0 0
34.6003797555858 4.536514565048 22.0660613442589 0 0
-37.6629486501508 -3.67938319796869 -6.73901647139958 0 0
-197.553218646957 -6.21597106909414 -19.833319090293 0 0
202.179157443137 34.1878837143986 -15.2984804672672 0 0
204.022698418856 33.7169913072858 -11.0075374543828 0 0
63.9878910645201 6.33850249611884 1.51210466576544 0 0
68.2649578676458 4.01300753218793 -1.28723359024087 0 0
-212.687277956194 -10.5785069951192 12.4445223965465 0 0
149.84993323357 -5.66329502312197 26.0598240598828 0 0
-164.677445227926 10.48149333323 -1.58870051557488 0 0
-76.3818089170799 -9.82028314644207 -10.3729032939493 0 0
-175.737663201563 17.0523222948544 -14.4557080125467 0 0
-141.037116423851 2.85590090522032 -11.0681218398681 0 0
173.812153223942 -32.2131011012495 11.9765579138498 0 0
-116.9694060191 -11.7979646514241 13.6776862987292 0 0
-217.191044982511 27.0592666767422 -19.4887577502158 0 0
186.464828111927 32.2861387399542 -34.4684181246764 0 0
170.124278625096 24.9698736189379 15.0828027713827 0 0
173.543605535331 12.6439723147197 -31.4747593897686 0 0
152.232851660121 1.55813424898288 23.675569054441 0 0
-93.1440641472216 -2.83218798933341 -8.96643449451977 0 0
6.65977793192191 2.17828673212594 21.424012070261 0 0
-237.285901390117 33.2165453017019 -11.1056966942906 0 0
-205.129837103551 -24.5191600278211 -27.4911377495373 0 0
-156.870085898695 -1.81712991127262 -17.5984849557475 0 0
-63.4803816482634 4.91067148803364 0.232774963932898 0 0
6.25438995580451 6.86696061819508 5.58866582857085 0 0
-168.109305478222 3.21802653758317 10.13709264745 0 0
-80.5783628841966 -21.1864643826329 -5.30192554284945 0 0
-195.577583777595 21.7694164218529 0.243761923113022 0 0
-206.34564940111 40.745874924594 -4.00982743013382 0 0
-213.189603995998 9.36343225753327 20.8405863055409 0 0
-188.536726356848 -7.85697542323964 10.4309858838539 0 0
-236.309197087295 29.6083486507748 21.3161874513408 0 0
120.957756837742 17.7348108915155 4.23103236785954 0 0
-230.627636995151 9.00626875658014 -10.037367800982 0 0
-239.105495093326 18.896737218925 -10.4193393915684 0 0
160.293974557377 -18.2205975483209 25.3414587501514 0 0
-163.453621804576 5.25001913901745 -18.3608523776765 0 0
66.8386122210436 -4.29046537375494 -3.94547882757234 0 0
179.783164870455 31.859379293167 -35.0931101763443 0 0
126.731213052278 -19.5196493671131 19.4245586500737 0 0
-144.956981621295 2.43637442653758 -12.7066223032986 0 0
-222.753692169909 -14.0613034300026 -25.5653258576982 0 0
-29.5383586532552 -18.6143396845976 5.4845611119167 0 0
-215.611523835551 -14.7269141828695 -26.7670249644586 0 0
-114.488100036337 2.52282639780799 11.6524216224865 0 0
106.819412813944 13.5282297828065 3.08745398259423 0 0
159.055272230073 -8.92216127409548 -11.7325050562444 0 0
-236.910269766088 37.3898826470464 16.5658702716877 0 0
-125.211717608813 -5.09551398516245 -12.4369406380335 0 0
-189.053294122526 -21.4704428758978 5.96953762970365 0 0
65.7899593748989 -6.8187120549071 26.8389322367506 0 0
186.287144818089 -8.81670770115744 -20.6084326472232 0 0
188.481599157499 -4.44744758228381 -8.06625837864799 0 0
156.73592357217 28.700612519227 3.98475082228035 0 0
155.925762524403 -24.1584776503302 17.5016831079769 0 0
-121.119709156622 -8.5363347704377 14.158915774182 0 0
177.997210494933 -39.5266871158509 -1.93043999513226 0 0
-226.011352308365 -24.5394568796191 -10.0428266536266 0 0
-203.696000111544 27.3942485740435 -1.26803622184883 0 0
-26.1160291340349 -17.4318367186826 3.75454996471527 0 0
103.472235262881 -12.7867335035105 25.3886279571111 0 0
173.41946735228 35.0888950191383 -26.5759618779351 0 0
-216.950281126915 -6.01245912232171 -2.39750426202884 0 0
-57.4867039168107 0.947065145725094 17.518702064291 0 0
178.233406945125 -2.32581293318487 -16.2399759496466 0 0
194.188555301375 3.52703962458956 -8.51497685321542 0 0
-40.0814966722028 -8.59623817847736 22.1611036964565 0 0
-207.106266024578 24.7339179766495 -12.1997013683165 0 0
-24.2093633210191 1.70677444909206 -2.78908787027926 0 0
113.175407925258 4.28105453973831 -6.66303900224416 0 0
-202.013459001003 8.36271698940704 -12.047250541977 0 0
-91.5923440230707 -1.27508609066698 -8.11567486293405 0 0
67.11604368346 -14.9238374997532 21.5543151758891 0 0
206.047041109802 29.5584339512973 -2.00597177481185 0 0
-41.185296820045 -9.63515526810309 -7.56257274288605 0 0
161.466088382541 33.8325244153815 -14.5592589986793 0 0
-219.619802224071 18.9821736202251 -19.3910462530466 0 0
199.716202655848 -13.7459569970021 12.0120333728686 0 0
-158.647508406759 7.8661777646867 2.28174022241973 0 0
-126.664952558132 -23.4567501122534 1.55309344526613 0 0
34.6419455347237 4.73007274680463 1.91493848308069 0 0
-235.776554915577 40.4846050021872 13.9897970363846 0 0
165.987347600214 -12.822172911319 -16.7219334484613 0 0
-141.199610304196 -22.3490983283014 3.5125761668913 0 0
172.145583454127 4.7694461758459 -18.9611818719687 0 0
-206.884938369007 42.7712815698872 6.72909290950878 0 0
93.3200226124297 -20.9310878278909 10.805620362817 0 0
192.688391301598 -3.15069135440101 -4.84696617658764 0 0
193.343633143107 -24.3126537846101 22.0126244307482 0 0
200.176596268659 -14.4508284747979 -2.1930856831934 0 0
186.74619532724 -21.276262865445 -24.9361754111755 0 0
189.155612373786 -7.10628683934892 -11.7314148734599 0 0
-209.541373091716 16.3352726105728 -13.4804451458953 0 0
207.915984693606 29.3203266574823 -13.7276092350296 0 0
197.227933635551 -31.8731371759242 2.95668679350498 0 0
203.46390372082 10.50172533164 -2.20234654968973 0 0
59.6355258061845 -6.47142566469826 -4.33161977026408 0 0
-216.767654182713 -11.0054650861838 -3.94182845075469 0 0
-167.816368983492 -4.230581388393 -21.0027856704846 0 0
202.743691004408 23.3155309232042 8.8611541992926 0 0
-122.152720237206 -13.9322603351142 -13.8983506843721 0 0
-216.976316413983 -8.42984163099139 7.66178617750329 0 0
-193.271360516334 -8.11176099837411 -26.0837717911471 0 0
174.578211337759 11.4624337557399 -29.7710546020269 0 0
-200.449817169645 34.5051661508128 7.46608071386513 0 0
202.510518384781 -23.2057691966354 3.07292457979744 0 0
163.533428198541 -30.3301129743592 -11.9216661471613 0 0
198.161423840552 25.911902682861 10.5311079146254 0 0
191.587278488633 -6.01239724525697 19.2881290042297 0 0
-152.999791147694 -25.5235663712361 0.0882034572447171 0 0
194.174625897997 -15.7926750505145 -17.9682807223947 0 0
-236.085123528333 37.1947786021186 -9.60630967597435 0 0
-184.837378733622 -34.0350034040083 -2.09572190459014 0 0
200.97037936133 -27.9124836619924 7.43805303233134 0 0
-93.4087334692949 4.10762142599231 11.1469006743822 0 0
114.16281272762 18.0585812624044 9.57798871799582 0 0
-15.2806420694481 -18.2522184553225 6.71073338681347 0 0
113.690206560563 -3.47818310810027 28.5273691410993 0 0
-209.331244574635 26.8245770124826 -16.8734697033738 0 0
184.990536598062 -37.4775809911277 -18.8644438532052 0 0
202.157069658107 -23.1991426846939 -3.64966832682678 0 0
180.307337376968 9.27916089946394 21.2881774420374 0 0
195.477801098813 -23.6192260006956 21.1121098375174 0 0
-192.832519037566 -20.112320428674 7.40256121837606 0 0
157.844822218217 -29.0001487543204 7.61555922348697 0 0
195.128314551852 24.5952646463956 13.5197233839258 0 0
143.12701891896 6.64690269910375 -9.5404047032339 0 0
176.994451383257 -38.7295569024587 -4.48078227435886 0 0
189.826149175791 8.47603567741378 -16.4004022031217 0 0
-240.015976805001 38.6174616066292 3.66710199959532 0 0
174.543254417781 -22.7503476324971 28.4700271313316 0 0
182.882551062042 14.5303137582748 -37.0603324208287 0 0
-49.050408181638 -18.5385715127622 13.7582692059071 0 0
149.816549052087 -27.3725110631402 7.24303264703631 0 0
200.854620081717 -18.4178846971729 -5.93059492472824 0 0
-167.562225691954 -21.063527056167 -24.0427688986494 0 0
57.3432333229791 -9.80657573255293 25.1903324398992 0 0
-233.91483819245 35.5652352756362 -12.9161384658362 0 0
196.991488950224 -5.5010904363723 2.4960600037552 0 0
-62.5942198407874 -0.911331617574709 -6.82805699636009 0 0
-204.722164805599 25.1840319123183 17.5028826694758 0 0
181.184284466996 -27.7662125758113 -27.7064445171753 0 0
60.886134364539 4.97043992602672 0.357342430725829 0 0
-91.8917681938055 -22.7088632330169 -7.81518691529761 0 0
-110.876958597373 4.65671675346321 8.36459543598232 0 0
183.669857716619 4.31605588202683 -15.066505390478 0 0
-210.060809939624 44.1944865576013 -1.71850831782366 0 0
-134.132437575965 0.150193619505443 -11.2382019048426 0 0
138.752332895156 -13.9488617313297 25.6150961634638 0 0
-53.3326894034149 -0.396667280827626 -6.3798058555321 0 0
-196.781941766734 -3.65811416350137 -17.7775326175617 0 0
-130.737599575839 -24.8710982199765 -0.380323824759535 0 0
-32.4859173254056 2.71564993592564 -2.25604819175137 0 0
13.4449034318748 -15.3929033102042 3.7089546953378 0 0
162.814104930214 -17.0441963718515 -17.1751907954731 0 0
-208.750432266936 43.454123248132 9.69561123238721 0 0
179.940742117453 -18.7511957895127 31.3757664743288 0 0
105.29912904053 -4.3147797072494 -5.96913285421966 0 0
165.85694039491 -15.1017000575054 -20.1257630696451 0 0
197.051939992651 16.3467454976932 17.2983134048886 0 0
62.1150398748754 10.8061146509723 12.0731589389412 0 0
-85.7916044523588 1.20048447779183 -5.95397210183629 0 0
-193.737266631897 1.56331211835581 12.7844779031409 0 0
-83.2101141136346 1.08955914866925 15.4246269955616 0 0
163.445809532214 4.75185448388316 -14.1010836045065 0 0
98.8123209769525 13.7292565216986 5.48396697029647 0 0
107.572625043877 -8.90059000587029 -5.85406242171477 0 0
117.782018675385 14.9318847111556 1.21891422762693 0 0
-193.554124362343 -28.9318864815274 4.46595425384524 0 0
