"x" "y" "z" "f" "a"
-171.409351921216 -20.4855751102656 21.9153620000275 0 0
189.728927372452 -9.4292015829445 6.33340539306223 0 0
171.716867652931 -24.8440894748926 -11.2352730054004 0 0
63.321537860137 -1.28876991459704 -20.2593703221606 0 0
10.9663374541995 7.10557261299392 -14.1828211732915 0 0
183.187565727417 36.2646154400469 29.5918468024953 0 0
-155.874353620005 7.85397281971232 -0.625917744809789 0 0
37.4041741052812 -12.3510264883783 -13.7240253915575 0 0
191.868054428372 -18.3917144071332 18.1010382901613 0 0
-156.980806901566 -12.8957779365665 22.3688581605271 0 0
-187.604062336781 38.1454495462693 8.41406807901696 0 0
67.316084668549 -8.95359451233068 -17.3849017926635 0 0
141.061702652677 -16.6273429695759 -8.03357281252915 0 0
53.1749155191188 -12.9386401219799 -3.53928048108569 0 0
18.4054658445999 -1.26482459813437 5.32566913756366 0 0
-211.292912955419 15.1690124571961 -15.7421113725138 0 0
-60.6445959482413 -16.2955109412094 -4.36635168578646 0 0
51.1268213283996 4.07653379151867 0.702328975612056 0 0
104.170683356849 -13.2789221907598 -10.8368834418533 0 0
-167.925955813548 3.4348126605748 -7.16185214308197 0 0
-142.468776136243 7.58872203478776 4.56694733695172 0 0
-13.2741661542956 -8.67507077926945 1.8278635327871 0 0
-209.39415162819 30.6566806570694 -18.5461494582076 0 0
180.024831838198 23.2275144573121 -15.2386423632976 0 0
15.667869865778 -10.4127969897548 -0.394288615743875 0 0
-19.8137642350133 -8.39908201008937 2.33518927244241 0 0
-180.149785629023 3.30905813177788 11.2011945287078 0 0
133.188871312448 14.3971128815803 -12.1414750927633 0 0
182.304570719048 6.22753730284845 9.67531513979543 0 0
-200.151775521243 30.6906200710632 -21.8736946013529 0 0
-112.790534716568 2.41353876846901 8.9923274138409 0 0
-95.1170648631643 -16.0678868686779 6.69501899798195 0 0
-47.8131478970486 -7.17227916066097 6.04263423352887 0 0
69.223267384433 -12.2707410482348 -12.5574052320851 0 0
81.3126559393079 -13.6565858557016 -7.09908095543476 0 0
170.807209100827 38.2842560256711 7.41225984470158 0 0
-151.107520782368 13.8067664610967 6.82238872209477 0 0
-190.459663654155 -15.9985232823916 -9.57242651774376 0 0
-181.151621792284 24.9164726897008 -9.55049088273506 0 0
-58.5682686417788 5.42732866392895 -8.10904450648121 0 0
-82.9849891873807 -1.11178040862495 8.26126486260794 0 0
-60.6063231775534 1.44801373837826 4.40971092983356 0 0
-144.126962810831 -21.745409559525 7.8734726923086 0 0
79.3661248666111 7.24889373191218 -1.42028750232049 0 0
48.0817560380199 3.96475490818979 -19.2259239819707 0 0
-147.869787978728 12.8165657916409 7.4543751050493 0 0
193.050447916094 -20.4377300287093 13.2898753451557 0 0
174.16862936783 28.9608372754273 34.7431053746347 0 0
-213.657482935071 10.5530672422427 0.466791085777591 0 0
139.623796199447 -16.5784157666855 -0.237300486546868 0 0
11.0066948037049 -0.408620402823041 -20.4707281084427 0 0
-33.3546287611022 -14.3240686019522 -14.7395118733301 0 0
100.26369500571 -8.27860814916911 5.3205278127318 0 0
42.404450899714 -10.6446145403072 -16.4070508115691 0 0
176.805711373359 -7.19954965048776 21.1452777752912 0 0
-182.577333437836 10.2558066910032 10.8653119975582 0 0
-192.667111959661 28.7134503667971 -21.6558122826363 0 0
-179.176849182133 -31.0440176414336 4.23040693630834 0 0
-190.70289358286 -1.26786547354168 -10.4196485354058 0 0
113.953865750383 -13.4572234169254 -11.1193348205027 0 0
-187.522601534547 -7.10088117420195 5.52412290189122 0 0
89.0497456289571 -13.7720998114498 -7.58521986769343 0 0
-55.5435861654224 4.88359194393267 -1.69264683775036 0 0
174.517959301805 10.6802955298195 16.16450847602 0 0
-176.679534179665 -28.5812760613566 14.8394407817517 0 0
28.7688463287569 -1.32386755960363 5.07792653213494 0 0
-187.963582965173 35.2466238317941 11.8584425791822 0 0
-22.2589642091862 -4.4028899726186 -19.9654710046936 0 0
-68.2428579621235 -16.36588716907 -2.71071034611172 0 0
-114.92028775872 0.0622503534280559 -8.5122274697618 0 0
101.412717604511 -14.1560625073828 -6.71214226740784 0 0
109.289575281127 -12.199339773895 3.04213365438562 0 0
28.9923965426557 -3.55445909729257 -20.7333950991576 0 0
18.3494129360208 2.72275940183146 3.07398059428945 0 0
-201.377642578372 -18.3692052222663 18.9604033802203 0 0
172.405543386137 -11.5887135381973 -26.9876757617947 0 0
-191.753632546078 0.397626501114885 -10.4821947703932 0 0
54.8949111120738 -10.1724770706532 1.19216424340263 0 0
-181.700827865014 19.4188911878857 -11.7641744295316 0 0
191.722339655452 -25.8320412942791 19.1000546528405 0 0
95.4831350265613 -4.17338040459033 5.32528678125763 0 0
-179.064937679776 -28.8659723019678 1.19899643593692 0 0
-111.808166401668 -4.93908567898621 12.4070365933709 0 0
-132.402137152973 5.75221335770274 11.1999603086729 0 0
136.279656323783 13.1434760229941 -13.4553948417259 0 0
-193.711604764848 43.4820369563948 -0.404142957362094 0 0
105.534831689662 -13.8113826385276 -9.24022688805566 0 0
159.439997186323 -9.43876512023961 -22.9294232072512 0 0
-211.613513049315 38.2544340918631 -7.03224159952961 0 0
-106.720482885322 -2.89577904392363 10.9951687800031 0 0
88.3699044887289 -0.871426822137406 -19.6623904683962 0 0
111.282463979633 -13.2397401823834 -11.3854515605601 0 0
142.794490786756 5.3177640426997 7.70036033764527 0 0
155.305981837464 17.6041870981076 11.5493186208101 0 0
-172.50828518531 -21.9919497356559 -5.94339839560584 0 0
165.467399013496 -2.96467948047516 -21.3555205809334 0 0
8.54260277114439 -3.94273474656425 4.35422924292713 0 0
192.014858323585 10.5418511439694 7.72854702044974 0 0
-207.165227462311 39.4050283240032 -3.67438345226731 0 0
184.973933436137 36.1504927739137 17.9649437254774 0 0
161.206642477059 22.1946821302547 -13.3117935481937 0 0
22.6799993778464 -7.02817497170428 2.43376836382933 0 0
32.7803443874523 6.23388070171648 -17.755638153713 0 0
-212.072600590903 14.5058187429142 9.57823207775801 0 0
146.743945645579 -17.804229747655 7.74120452837573 0 0
-185.196076329158 30.5117489105808 12.2638043359772 0 0
167.177053375994 34.0060082387401 26.8719989199996 0 0
-172.189754300402 5.2452981446368 11.5983062127171 0 0
172.319561182874 21.2131045779271 33.5542576677631 0 0
79.0512498580289 -10.4101889987353 -15.5923474519806 0 0
157.580289826104 17.9977214414438 -14.8390362453757 0 0
-199.654144337978 43.1362923040203 -9.20140737379605 0 0
31.0513333325476 -7.77841292189426 2.11046459182323 0 0
-125.116083976349 -8.65188708519208 15.0799555874657 0 0
-57.7126193773425 -15.930113103241 -11.5478382724211 0 0
-184.013854650966 37.889773279158 -5.08196853386756 0 0
-6.83042245092099 -8.32250937775746 -19.7498018494915 0 0
-158.415414021615 -25.267595134528 2.70877326322908 0 0
-107.318176299639 -8.96713906894716 12.623915569704 0 0
119.262611436799 -14.6158556412395 -0.60604727987747 0 0
189.963511116425 36.2816937201844 22.5090560359811 0 0
-174.368488806376 -23.8548961054115 -5.97137551755137 0 0
177.326581076356 1.71894916550944 8.0460876847393 0 0
-203.913567543924 37.4778967942774 -17.085044493936 0 0
177.33847122176 -1.90205953999865 12.318155394338 0 0
138.614906298706 3.34059521308801 -16.5377779595413 0 0
-49.3212523958799 -15.303407403048 -3.82364136598585 0 0
-81.7700783096961 2.91672243693321 -10.5624299895329 0 0
-163.032436745713 11.8794135377501 6.36982100234011 0 0
79.3397742446966 12.0325042585068 -10.6676568541221 0 0
-18.1484699449199 5.87723049737124 -9.56325085184039 0 0
83.6040898901169 5.91130267927041 -17.866618419078 0 0
166.453387029505 16.2085446434143 -17.7924384302822 0 0
-190.800797903073 42.7152084655997 -7.48576340892167 0 0
-214.405401499804 11.7885917941952 1.74896685607553 0 0
-206.959505178221 27.2082983080947 16.1285111388215 0 0
179.35460036085 -30.1371277833882 6.25382806964084 0 0
-164.315577491938 3.67015211669941 16.9161564545794 0 0
21.0277947116188 -13.7313310502578 -7.28610670459443 0 0
157.588916020038 0.982133689983842 -17.0690825312595 0 0
-82.0186942031299 -17.312489889088 -3.19226091228658 0 0
126.007978373806 1.88751386252739 -17.3727464808323 0 0
-105.787809168364 1.27920146402577 8.97147632733092 0 0
-208.518018011193 25.1841085224087 -20.4505329603445 0 0
-26.6515594102029 0.455352413245916 5.47059823839397 0 0
-24.1436618810197 -15.1000464193399 -12.2723224791366 0 0
-13.1765833778551 -10.2616989213056 0.222585128158844 0 0
160.056607344557 32.8671835789108 7.05776132455542 0 0
184.241639385845 -6.96481658949793 18.9594236950887 0 0
42.2708990059083 -12.5975250438233 -3.08410123378518 0 0
146.20193379133 8.81252526407173 8.86429289538197 0 0
-68.078538215817 -1.22884899214851 7.1940770282146 0 0
-16.6227901241167 -11.3512318530071 -18.1491956187393 0 0
74.662325875894 11.1792415478571 -8.17835906252808 0 0
-172.846888886555 -28.4786458414015 13.9759004419084 0 0
191.526347580009 34.1282444182127 8.88916911377791 0 0
-52.8886738423555 0.926113101749449 -16.8550227492551 0 0
171.968533911338 -23.5267069320444 -15.4055857991846 0 0
-188.014434995712 -6.81084949292204 -10.3601687560536 0 0
-196.985283802445 -8.17714942090698 15.1466225607465 0 0
78.4162227546407 11.6032856440052 -12.65364921202 0 0
105.117804218197 -3.52875072209712 -19.0055725238866 0 0
-194.455241547445 -12.3029422695342 3.60823697565712 0 0
17.0127580973977 6.39831233176289 -17.0762755689968 0 0
175.638360578185 28.334728395661 -9.92088119197036 0 0
-119.837597896883 -12.1883404098246 14.0208646934318 0 0
-174.562500178053 -5.05044870656999 -9.66156690495866 0 0
20.3002120209413 -12.5378090628321 -3.34068956041906 0 0
145.799170989072 -15.6951090513573 10.5733214524648 0 0
-206.894309909227 8.33253280210081 -11.0446540551106 0 0
-173.822560793715 16.3790909663215 -4.05636404963917 0 0
-188.56377518122 20.0410573355326 -19.445414844 0 0
157.041978126728 -0.804564565287034 -18.1280488788374 0 0
184.665773563838 -29.5777514661359 12.9815786138873 0 0
-184.339360328958 -10.4492863912985 12.8270852939507 0 0
170.591705788048 -4.75957021465288 18.343464840284 0 0
47.5796824636168 -0.398799501404312 4.63707276537256 0 0
173.484994052302 -18.5599898903307 32.7777347750245 0 0
55.0394548245181 -13.1832910630658 -4.29935051828312 0 0
-143.250430471477 -22.0582066218514 5.7008075786455 0 0
-170.164597431711 3.56349765962998 -7.48782505123588 0 0
17.3507500439862 -12.4807944886372 -3.32781478566419 0 0
-185.825186599943 22.8435766986112 14.3906582613494 0 0
-196.122654649718 4.87099258019079 3.33724721828742 0 0
66.9231007041855 -7.38748745692876 3.87605108197611 0 0
-109.986103216269 -14.934139134161 -8.75235640549097 0 0
168.55068626245 38.7685953535336 18.4443246115936 0 0
-182.554426323841 8.67329389533993 -10.6885180359159 0 0
155.720573734928 -5.86232273306662 12.1509968666531 0 0
71.0144087861298 -5.52389968900936 4.85427413102654 0 0
-112.827810197796 -16.3883741581999 9.9893432520166 0 0
-76.8431260958569 4.06622478643477 1.86531704289298 0 0
65.5251829634421 -12.407371625036 -1.29363322322651 0 0
139.259748080203 17.5319559554035 -9.08816708060965 0 0
-175.962677274012 10.128399507606 9.13767177327277 0 0
61.7763543440815 -3.33961721181077 -20.2867715367108 0 0
9.59664811595041 -12.3193835595341 -16.2487220720798 0 0
13.8573463483189 -13.5836175633138 -6.04793241357308 0 0
-166.601994874452 1.18744096050751 16.7814389046562 0 0
-7.96865488429995 -6.19546669597399 3.56455109496116 0 0
-127.764127820804 -4.33748775834886 14.786705613195 0 0
-152.493097289446 -3.36326787327122 -6.85775267427481 0 0
167.605779667643 0.0289528830352163 15.3761719313209 0 0
-77.7054306913406 1.94037058473859 -12.4934948901719 0 0
-34.5452956218269 -10.8538780778592 1.06364440101368 0 0
-215.665738921911 18.6699831809606 -12.3817363099273 0 0
158.647795670192 -16.000561912497 -21.8039940833096 0 0
-157.693368105125 5.44916734040719 17.9113775783587 0 0
-203.880812625765 -7.96110743411142 16.0946510063696 0 0
-195.394736153807 12.0059689058528 -18.8466054095279 0 0
161.268831342653 -24.3704538859504 25.5785503307823 0 0
-183.336405463861 25.2899773531009 -15.2002194530329 0 0
-60.4060131458439 3.67108135425523 -12.4219125510217 0 0
160.929230901505 -14.724489114551 27.0485361987127 0 0
-181.149457006098 -30.8782266112315 10.0569704866097 0 0
-165.666529794406 -18.6706834251549 -5.81486695369122 0 0
172.821474859379 18.3706974922238 -18.9483389313032 0 0
-64.2878872873203 -2.54166490070187 7.51211168763285 0 0
187.706866502476 20.5467264043327 -14.7803328209049 0 0
45.8785085927274 0.695816557763152 -20.285960476049 0 0
-151.287609885162 4.65002669807752 18.8720787437165 0 0
-33.2694241253483 5.61865148857405 -9.75597763611783 0 0
81.1090135905969 5.50374472549499 1.14168665275115 0 0
-99.247300354967 3.16796810545803 -7.58331768031859 0 0
-2.92709933664777 3.14829002298476 2.57960595931478 0 0
-161.514169067731 -0.81465398515204 -8.0662052606887 0 0
-52.3186049481016 -12.5451290729304 1.16744392830647 0 0
42.7854937366433 -12.6990045309016 -12.3093019714876 0 0
-129.22839114377 5.46146716095837 -0.602992444496861 0 0
22.281553883069 -11.8937733158679 -2.220738008417 0 0
-98.5189308422484 -12.4548553034478 -11.5252392150402 0 0
-149.70210248934 13.1922212127777 6.92206414216713 0 0
-43.534979386059 1.82408169732412 3.94468984344067 0 0
173.532308941879 15.0775135013587 28.7188154776582 0 0
174.514454320656 -13.906306352289 -27.1598667702189 0 0
159.596734361648 -21.9708773187639 -12.0817361117526 0 0
-160.649214643539 -15.067754570198 -6.04222391938628 0 0
-182.652416742938 -13.4693594653162 -12.9334801256609 0 0
152.631109998563 2.47728779230934 9.80358563188105 0 0
39.1892786598222 1.34490207729037 4.05353748258645 0 0
-103.651681744518 -11.7018170801423 11.2311859462204 0 0
160.427667857041 32.5610746130854 13.8995949310267 0 0
-138.348096282161 7.98432572182908 7.41384246541998 0 0
138.322867940201 -3.28723075136118 -17.8782559274885 0 0
-205.659024236834 26.7265642106136 16.7721166133146 0 0
-203.648465408703 37.7431232521519 12.2442334390922 0 0
-195.602400134605 43.2648948539027 2.44080192866156 0 0
180.075147441021 8.37690548211627 11.8666535653384 0 0
-180.938769535467 2.28681642520905 -9.34118251816876 0 0
127.833665101861 3.00197381401686 -16.9839137060934 0 0
7.66248548819229 4.67846378798429 -3.53224268926957 0 0
164.278892946208 -21.512210170385 -18.3886581859979 0 0
-193.428280124151 34.1418909547465 -19.689367754758 0 0
186.888469610926 -13.6150319570893 24.3465501869109 0 0
-81.1566372287918 -8.97506495220609 -15.0297580898479 0 0
101.272986782429 -14.3040777013422 -4.43171120419304 0 0
-111.514877449096 -18.7995946737783 -2.84098990426275 0 0
-196.172827176006 7.88393290516097 -14.9739575594966 0 0
169.727447611209 28.9200087303516 -8.74527761352358 0 0
178.052709275551 11.897365766361 -20.2000502944746 0 0
-48.071023922809 1.84018058436774 3.7655550491964 0 0
183.708808837732 30.5868976459104 33.6561589211908 0 0
104.030703681537 -8.07881362453482 -17.4210100076539 0 0
134.486723682116 1.4992445194465 -17.0326803739447 0 0
129.27187451806 10.3396389347086 -14.7018606770127 0 0
189.084971125561 27.3756100042251 -7.73756376251362 0 0
9.39308950487453 -13.9534860522144 -12.3532330372875 0 0
-101.395175700503 2.13139607778369 7.72860733669831 0 0
-76.884383961052 -17.0814536125716 -3.4965470247139 0 0
127.335973694349 17.099638736849 -5.78666769669557 0 0
160.621465303712 1.67806457960587 13.5753784669262 0 0
34.0800171417593 6.48638709313502 -5.73076726363175 0 0
-116.579281819616 3.97638394612055 7.40658671080149 0 0
-154.77326435782 -22.7593656753558 -1.11708582059684 0 0
-185.490879457974 15.3674003355242 -14.1705499550625 0 0
100.707644137659 2.06764943029407 4.57031591070952 0 0
-202.25432638818 11.972177704374 11.3049834634658 0 0
-147.389101436413 5.21592075100075 18.2551204158121 0 0
-180.541765798266 -23.2737794517944 20.5241397390076 0 0
178.249879316095 -6.26686316242903 19.9464760313689 0 0
-169.565245858892 -19.8372212957456 22.0065121494177 0 0
179.701073277433 -3.20290768261447 11.4048334759526 0 0
185.709248505201 -11.7313293910782 -17.6215808760372 0 0
149.87306258477 -16.9509006912569 -13.7747566490644 0 0
130.304041022199 -13.2464032737517 6.1032099423412 0 0
-200.072541004126 12.2658640769923 11.0722437560237 0 0
172.477929717509 -5.66056373448836 -24.0228388523721 0 0
158.414077856835 27.3725635299307 11.7107328615755 0 0
-31.1566165931432 -10.8322906326374 -18.04966067084 0 0
45.6625713401722 -2.93925779292951 4.95658945889034 0 0
-199.042378336123 4.23748341064912 -8.19435628350888 0 0
160.58208820245 14.4225427505712 -16.8991132300996 0 0
-179.966824639896 -26.8108560873519 -2.97992067052063 0 0
-156.342046732175 6.9028193433576 17.4963233686769 0 0
-48.4284168769659 -0.812609890857042 -18.1520299786239 0 0
-185.214332990515 -8.91411394928821 -11.7412226785566 0 0
-23.4905692249678 -10.4431733684048 0.52146010236535 0 0
5.27825059473204 6.10902998452448 -7.8181958802145 0 0
178.508759616158 -0.983799020337753 -18.0742442693055 0 0
-195.153046615958 13.3945650142043 -19.8723118309182 0 0
101.68317674467 3.7396026498765 3.90814250307311 0 0
156.882150942697 19.7618253554288 11.7564189138983 0 0
-17.1048148911113 -13.9685582265426 -4.82865444381742 0 0
101.881447319996 11.1449825051428 -3.07268839819185 0 0
143.750625619495 -8.30575497171623 10.1372926489034 0 0
-203.908608192918 -20.8907090028698 6.00027576707464 0 0
-212.823548494951 37.9969703075471 -1.90474187237848 0 0
124.981227153071 2.75502249042096 5.46355007947326 0 0
-181.093747372304 -6.47775868092003 -10.6894614055244 0 0
-204.806757763479 7.74074626697122 -11.7310247345772 0 0
-1.97618891707715 2.55540117546855 3.88528309534603 0 0
131.150226237371 9.17379961384359 -15.1330816121284 0 0
108.086707902544 13.9675406084625 -10.8441205297674 0 0
-195.206596796855 -11.5026606219548 8.99859017409916 0 0
167.399829529391 24.165836451691 -14.1007419021168 0 0
-179.503290466963 8.12021700542615 10.3670236326542 0 0
-89.8029083247867 4.44323982205615 2.56109434068209 0 0
-198.950600452297 7.51425285722364 -14.3238357762485 0 0
179.25020355552 3.44472241717386 -15.0287154265208 0 0
-187.517376260918 27.0972125789113 -18.9834030657824 0 0
-110.862309502107 4.31992770329673 5.92948635823636 0 0
-165.661142439139 -25.8378811765124 -1.92874263706926 0 0
-103.51409361165 -17.1289917893394 -6.69985629848204 0 0
-166.517173006482 -24.2005336685123 -3.24814384516072 0 0
-177.368534664468 -11.0694883277423 -11.1492741407904 0 0
136.737163424604 -10.8652023510486 -16.3968655999077 0 0
-60.1665388251182 -7.72829442157362 -17.3091761207338 0 0
134.017183527482 -11.8290258835876 8.51443017142792 0 0
-173.798953004224 13.1257368766246 6.95425468702286 0 0
164.549838966199 -28.0233456956829 15.6110283524233 0 0
178.991977635381 15.1624547693626 -21.3803581858754 0 0
-95.6168635637016 3.56543254218074 -7.49067983375708 0 0
170.562188308276 -28.5715101567998 0.29057595197639 0 0
-141.022185571767 6.41542713712997 2.77184694708235 0 0
-195.367859266185 28.8313102223159 -22.2417212186207 0 0
-84.0106092977673 -7.42245226379563 10.1822014745116 0 0
-204.880140685279 -15.820065656481 10.0112413401244 0 0
120.000414100227 -13.2560320417097 3.22573514202901 0 0
-156.070036682159 -24.4111260921759 6.65419969962763 0 0
158.570477916372 -16.2887471052299 24.8301339269472 0 0
-35.9847604894476 4.20932702328551 -0.865649148627333 0 0
-201.154354085131 13.1253239820109 13.1116389348762 0 0
-15.5497890186001 0.441568864356641 5.47104591975992 0 0
-210.831013787756 39.4735210830772 3.04416730712759 0 0
-167.228790629999 -11.9634876813133 25.2108053202858 0 0
-103.041876972963 -18.4586455289273 1.70592377355516 0 0
-18.5840687077777 2.64365935821254 3.44542542540157 0 0
181.804762027193 -12.3099739665175 28.2596616590747 0 0
-204.498585505045 39.250149933275 -14.7038028237872 0 0
2.43414420367565 3.41652300491893 1.0008401275631 0 0
97.8176007245097 -5.58390277608831 -18.7276317930878 0 0
142.69248081235 -4.15180235522526 -18.1191306676676 0 0
-19.9714773926525 5.76390460470322 -11.8345045359259 0 0
-201.658466479745 -4.70573367298978 20.6665536743445 0 0
-99.3105789090113 -15.6679224941762 -8.91346882598433 0 0
180.176999502466 28.6255440722311 -8.45651190083244 0 0
-175.404237108218 -5.81380214023654 27.3644093063176 0 0
-106.955914509932 -18.7639071342999 1.56937623400593 0 0
-3.30593309987269 4.34557163544786 -2.1428017276999 0 0
-168.882397978732 -28.4999770898495 11.1557356308103 0 0
181.309724122775 35.6927959846412 31.2527082989986 0 0
54.9112736149542 -12.3094955236974 -12.7792058925809 0 0
-110.184749780698 -17.9758420638596 6.60281631430039 0 0
172.29318662337 14.6512419821854 23.1211617556528 0 0
130.848178488163 -14.7885202251111 -10.1756525317458 0 0
191.10984447068 -12.7222470664011 -5.54297037258253 0 0
158.044037116447 29.0344541826646 0.862017380266747 0 0
181.640867610996 -14.1235827784827 29.4821140582097 0 0
-78.8612710831902 -2.76192804838561 8.67050998043901 0 0
152.145024314005 21.1061349538533 -9.57900172089028 0 0
-199.632835426648 -5.39171362763721 21.1383655644151 0 0
149.916519981292 2.62470576901098 9.18296218703724 0 0
175.954496552068 -1.81335506087171 8.88682035196535 0 0
-52.0198934053463 -16.4188608085969 -7.98263314186459 0 0
-62.8729707094267 -8.58284324967229 -16.8865385617263 0 0
-109.8780007182 -16.0273571695769 9.81232923552428 0 0
156.111357600193 27.3200967540262 1.97657269691452 0 0
-162.851466105317 8.10595888555963 -4.77958525830905 0 0
-21.9109217351962 5.61256861131755 -6.66652683447098 0 0
179.718651394921 37.1806515522597 19.7217315270119 0 0
103.583676217328 -9.90290311123391 -15.9656502881836 0 0
20.1016042298347 7.46418861549194 -10.5412650178057 0 0
-38.8409073636634 -14.3018125533661 -14.7949397804568 0 0
-112.405246067636 -14.5461555446172 -8.79056206315318 0 0
-112.380451697231 -16.7696466296255 -6.69822379087308 0 0
153.357329667848 10.6242402109169 10.5939826868234 0 0
170.768928631699 10.8541112778539 17.8102730947788 0 0
-202.331697547136 -6.00315199478247 17.2185517663584 0 0
59.8085280773237 -5.53649830473522 -19.7667046264245 0 0
-44.6408507653552 -11.0280216345968 -17.2344917639241 0 0
-198.817880434426 22.858983230816 -23.0879574727243 0 0
-172.688911083896 -31.6620682630745 6.27795245124697 0 0
160.813335333874 -24.5978980530463 -4.29152481778008 0 0
-120.451452377433 -11.9045768457159 -9.20117998688621 0 0
118.34180086792 -9.52920529270244 6.72719866694031 0 0
27.2255766508184 1.57438029529104 -20.1645353222012 0 0
104.844849833609 5.70662968717613 -17.0768116679819 0 0
28.4454894528528 7.10142902740868 -16.6635326379879 0 0
62.2705554092042 -13.4470134492116 -6.17292167108378 0 0
-170.503669433104 -3.79495831748726 -8.78323463497719 0 0
51.0462721411286 -4.08752769413849 -20.3917587075813 0 0
-66.2872092109152 4.90009178553689 -1.04499135448549 0 0
186.442357264856 7.34581957172002 -11.5450832357029 0 0
-182.334797722572 -20.9693965857826 -8.71261072799857 0 0
191.522259311093 34.4517204011652 26.374368699051 0 0
-123.248566802685 5.72290377021241 0.614444088057302 0 0
-183.226101657951 32.6465654348684 7.58997848256957 0 0
20.7139862917811 -6.1784518972015 2.91105602540423 0 0
-10.723678449998 5.1502261309513 -4.63946032052001 0 0
-91.5838823731079 5.3311880562669 -2.79497797504235 0 0
-154.564612013552 -16.4118745932761 -5.44389315268191 0 0
-130.784829178911 -7.48765739988344 -8.5851957156145 0 0
-106.930914348421 -13.6834216743352 -9.86426246051077 0 0
-185.761883950375 8.61021757543827 -12.259766725389 0 0
43.5417365151447 8.47560974676803 -15.4284919456776 0 0
-186.198625907144 -20.9829036680666 22.5326221486097 0 0
154.951252234117 -4.05280675948692 -19.5882536124179 0 0
140.196707443865 19.7039385566709 -0.0661371667426828 0 0
-179.8809061802 -3.03288513395535 22.0276023864786 0 0
189.304855233225 -30.0268089407451 16.1886710029357 0 0
185.422551198602 13.6768928475002 -17.7405988097027 0 0
-162.005964094461 -13.1782794917292 -6.43522627291496 0 0
110.46485473277 -14.5251342755156 -2.25050372602213 0 0
158.78534732665 2.82183820249217 -15.189251941798 0 0
68.6630023219261 -10.7485494197355 1.5084844625866 0 0
142.176371643225 -1.6213229873009 -17.4122864208479 0 0
-198.424354600868 42.0499796144359 8.41926605987333 0 0
-79.2526529518061 -7.50219694970366 9.70530788566637 0 0
182.184527057468 -4.42156967256796 17.7719103911283 0 0
192.411699147027 15.0080951896113 16.2467532226426 0 0
189.120651028421 36.0564841042376 25.1223549389082 0 0
-198.603728575632 -8.73895608280604 12.6927520963292 0 0
191.106806467094 -14.1277571835263 -7.11502680288856 0 0
-63.6097524098032 -10.4286679234651 -16.2056755998483 0 0
190.850857774567 13.5683598455119 -9.14852239011971 0 0
180.413503485095 13.5078611992864 18.6383352522152 0 0
188.339898931868 -10.8064068432805 16.5800963750796 0 0
185.257589631992 19.3291722644464 -17.5280322511082 0 0
152.424964361467 -20.5529236316983 6.79772545615527 0 0
-113.51528569203 -13.2728450104715 12.2752794520813 0 0
-127.957789231499 6.0159913168107 4.05182132485897 0 0
-112.833258127771 -19.2692288598277 -0.357218245660055 0 0
31.6694276627876 3.2860632269785 1.32876286479012 0 0
76.8027023993261 -1.63425583144502 -20.0003952453413 0 0
147.845947850082 22.6033035577097 0.496986292743518 0 0
84.0526226653324 6.39104884364712 0.17667094531072 0 0
85.0368953938522 4.85262873337166 2.11819893338534 0 0
167.614800683299 17.6127808009132 29.1209562877232 0 0
-160.486081762239 -18.1041931008993 20.2887438263905 0 0
168.886585024638 -20.7487783413349 32.3289734383213 0 0
157.690391290486 2.28580500331781 -16.4133455624933 0 0
191.851900810648 -26.884145321612 16.9919429728739 0 0
138.492829357072 -3.51838987806078 7.87897771587268 0 0
168.441260801347 2.4329295985441 -19.3326420042351 0 0
-186.809953903024 18.4479408836853 -17.8299192427792 0 0
-141.727907008611 -16.8338580498417 -5.29537385177525 0 0
170.102161063014 -29.4700842480094 3.4305039272314 0 0
129.088698281598 7.94490145727212 4.74967665039827 0 0
152.254750869196 10.5988250922472 -15.9018261549746 0 0
125.354516180204 -7.4168478002479 7.16026349899287 0 0
188.477701171928 13.0307335153683 -14.5157535395135 0 0
-218.427057837298 27.6347919021145 1.32733645086745 0 0
161.070720720667 -7.8637933382883 21.2766405258987 0 0
152.151677625694 1.15747603833964 -16.7652773282034 0 0
-166.68511070725 -10.0164901200333 25.7360417419145 0 0
-52.2643674653115 5.5845544087802 -7.40011849309285 0 0
-15.9222112566808 -14.7964191747547 -7.44854577693235 0 0
-56.3717472803354 4.90151251435961 -10.0414780003596 0 0
65.3147201686901 -4.93907207783584 -19.8226902201606 0 0
170.864602802898 29.7428863381851 -7.80631056015532 0 0
-102.637774748603 -0.306767530890508 -10.7252004008217 0 0
-206.986586674023 38.1131644809335 10.2036505966223 0 0
155.913793071634 12.7507128286192 11.9355244685783 0 0
-199.590342770765 -25.3124407744048 2.71025149096845 0 0
191.576887196729 -14.8356739105773 -5.23438825063269 0 0
112.617030221143 -6.98277882880676 6.30166114842842 0 0
-139.807086464675 -9.35083863199722 -7.29209080884521 0 0
58.8535033734091 -10.9838987572568 -15.2469509120857 0 0
159.153582407228 -22.4562818353552 -10.143557381441 0 0
174.988793730621 -20.5139074808349 32.9448658185532 0 0
-194.144327938067 1.23533997140227 2.24435874686629 0 0
195.367951583252 33.0672081830627 21.4747018052909 0 0
134.04264997695 -0.712228430162056 -17.5063487421675 0 0
-194.85421629106 15.7475478505781 -21.0457226018337 0 0
-183.721236569009 -7.03219392818202 12.1891931117963 0 0
-217.187167523437 17.5999594541288 3.19537320338793 0 0
6.44701997048043 -5.0903044437817 -20.5984916164407 0 0
117.4401336388 -13.4127997409442 2.41523454031089 0 0
4.30673092160412 6.80518888617048 -12.6754621619743 0 0
-178.855371093709 14.9750248903272 8.14494132925956 0 0
137.324214084334 -9.83860658088631 9.28237432621119 0 0
-30.8507852061096 4.70381231786992 -2.43204614569628 0 0
-132.074535268714 2.07160138205626 14.2988838746543 0 0
-154.521316258217 0.282325093414984 -7.49897574440693 0 0
-131.270616176393 -5.77277214789159 15.6526034370715 0 0
187.930465890161 -30.0583986759048 21.5121973943908 0 0
132.925752351392 -8.24796685883307 -17.5456485340408 0 0
171.48651944083 -28.2349282464865 20.849241435891 0 0
135.581036402535 -7.5650670653991 -17.8354023937298 0 0
130.546376173476 -14.5662136551012 3.64672340622663 0 0
141.258612606334 -17.0851915062707 -2.72637562822126 0 0
-166.716195538193 -2.10183883334878 24.0740671864942 0 0
6.26021952586623 -4.62453957252364 3.96092534202662 0 0
-162.26983217742 -25.8246500905044 0.129757799699213 0 0
151.833687813693 -19.4130166442434 -9.21110529657847 0 0
72.6711679037901 -0.0558265027918632 4.46401653540957 0 0
-218.182551096245 26.5471768363579 3.02612711736935 0 0
150.246626349548 8.36425396638481 -15.9667952278359 0 0
-187.997899115752 -21.2791944435883 -5.38201972481747 0 0
-213.242479883289 24.5552876883259 12.0020400576643 0 0
-4.71667491140906 6.20394050824975 -9.29112622628424 0 0
192.616649669936 -24.8628512836729 12.9147658329171 0 0
35.3150855629359 3.4060763235464 -19.5126913932732 0 0
183.800424331585 1.98557366883516 -10.9196767794679 0 0
-170.521746342835 -22.6822637014513 -5.29008576001834 0 0
107.443345972946 -1.78319946003591 5.27188366156241 0 0
85.6330744279848 -8.60748261030675 -17.293274047121 0 0
-122.025510425068 -2.06649535107615 -8.98064007623156 0 0
189.723926811366 -8.5811878688327 -5.47150400597923 0 0
-37.8977163374215 -15.8455335952575 -10.2847820630056 0 0
60.9345169310877 5.64808166070078 -18.4007617004554 0 0
-89.3194257737471 -16.8490796986888 2.70828685639445 0 0
119.896806075954 -7.03575551533115 -17.7816896603386 0 0
60.337112768864 -3.51245414213665 5.00476030704572 0 0
-163.958264526116 -24.3451267217864 14.9587175534173 0 0
-174.174040684455 14.9057976010467 5.62664350014428 0 0
22.7145118735173 -9.08340559650786 0.993237245779465 0 0
21.7905318673374 -12.1109274142036 -15.6962943974919 0 0
51.8124942889229 -5.58901923414836 -19.9757193689446 0 0
-97.5563615868583 3.30432317722316 5.40323428477941 0 0
76.6615668944763 11.7581622441864 -10.2736032267784 0 0
-8.0289607986749 -1.77508391669827 -20.3456293739485 0 0
177.218511530724 -20.6615442724847 -22.0295217153024 0 0
-58.711656715516 0.435220689562999 5.44046741441606 0 0
177.087644457803 0.382061433834137 7.67799014188659 0 0
-193.403076512931 -0.988608388005113 2.70478066821875 0 0
185.546467446406 -27.9659032458489 28.1505010932183 0 0
-215.75714726594 32.8889405569545 4.12274366594698 0 0
-43.8934825823746 4.96107579500229 -11.4661180682176 0 0
-212.945350423741 10.6211933333693 3.13959371312744 0 0
-75.8747867312476 -7.57599914726365 9.1371135913823 0 0
191.502545133294 -12.1607586916741 -0.548369863142881 0 0
27.6491932510361 -9.59365989637324 -18.4461376122933 0 0
101.189134206101 1.06227811960584 -18.8506233927601 0 0
-154.940842625236 -1.6202598287849 21.5060316368274 0 0
146.688086059088 3.02609103208137 -14.8201215176426 0 0
169.645910331586 -31.2514291526397 12.5722067506528 0 0
128.104385974417 9.65632237574662 4.06340407021125 0 0
186.940316575013 26.8021683510521 32.1120182134783 0 0
-155.84906347779 11.5987946124772 15.1008481868771 0 0
-49.7889312778882 -12.4559510933197 0.92302350812624 0 0
13.8810571309313 -5.44741121808235 -20.5823757394772 0 0
88.5912163226309 12.2295841205932 -12.527550159299 0 0
82.2597211334407 -10.8698780667951 -14.9681032801463 0 0
70.1185991257731 5.87390454928738 -18.185796648832 0 0
19.2831301404875 -1.86427113733191 -20.7026635252999 0 0
167.554381086819 36.5697369550284 3.71012455737505 0 0
-92.5843532469757 -13.8636343867514 8.21919181619159 0 0
153.359128092239 -19.5467412150909 -11.0349421000136 0 0
71.7959456531228 -13.3784214336185 -8.26230945371527 0 0
-187.851862288426 -8.18157379163355 6.44325583371958 0 0
165.308367028553 36.1344302078025 5.41415764758338 0 0
-66.1493119194649 1.37274320540711 4.75000177864441 0 0
-142.822615428082 10.6211480476529 8.23503785811554 0 0
168.966466159727 -28.1365718119839 20.9931349434556 0 0
-164.59430358274 8.20572166720007 11.0816878124364 0 0
176.391752372159 -1.22143393460218 10.8095456360372 0 0
188.880374569385 12.6869609978979 14.644578649032 0 0
159.508359322237 -22.0759527556812 25.2220492050869 0 0
173.827685307687 31.5650456512022 34.328682872523 0 0
53.8257361221508 7.19182855186068 -4.31365890869482 0 0
-29.1770448335895 -12.476572378766 -1.42293879702018 0 0
198.235534522748 27.1972052035643 12.6026398475983 0 0
163.480912427873 -2.11691345649032 -20.4186720063739 0 0
72.1288789573362 10.543833354123 -7.15413881196569 0 0
177.744526955889 37.1427318384276 20.5807809916195 0 0
-99.0427685240011 2.42167105125066 6.70744546030838 0 0
21.0758411285003 1.41020176434153 -20.171320290024 0 0
193.593998105125 18.3272786540361 19.7258486228934 0 0
-197.921073549029 38.0096933258397 13.1934009365979 0 0
175.037258231185 37.9261267087837 11.7450023379506 0 0
-25.9246054406946 5.17764950431483 -13.6640621994197 0 0
97.0731841153432 -10.0380166004258 -15.8669542305935 0 0
-66.3344783281688 -12.6422970884942 -14.8511182284347 0 0
-133.582690876775 6.6033458174997 7.63484749655722 0 0
-12.1220427016039 -7.1985512053991 -19.9382949743875 0 0
162.176784547544 35.9016526451792 7.64382277232448 0 0
-187.0314594059 41.0059747091626 -4.71758895218008 0 0
-92.363629810133 -5.81747147053131 -14.1647353051536 0 0
83.4902509452831 0.605853279016064 -19.558544901306 0 0
-88.7672791623001 -17.6048506450757 -1.73030702127798 0 0
-79.8197706938243 5.34442348046583 -2.19199768978118 0 0
187.251318105921 28.4022607736443 31.9327420756731 0 0
-42.2431699135151 -7.5811355052642 4.96864109482968 0 0
-198.187680341091 42.5419009848097 -4.57877363471013 0 0
123.520914104141 14.4369857991375 -0.831689048539248 0 0
-76.6769524500587 0.190872451112753 6.67457462295271 0 0
-65.2167407535709 -8.86014629353068 7.12904029016263 0 0
172.273350493468 20.9725651185106 -16.9317578265345 0 0
-97.8225514264937 -18.1354643797201 -3.83749335074189 0 0
191.454445362085 -12.5261487619005 3.06809617955675 0 0
-0.645382934102551 -0.618320165401322 5.79341092479788 0 0
35.6153216099241 -9.93665879495557 -17.7043449276203 0 0
-161.641925259231 -8.42831715789301 -7.55933610048781 0 0
122.081233674122 -13.6690096380062 -11.4957118202937 0 0
-183.540961807661 -19.7408780773835 -9.77302838766673 0 0
-19.5561223976729 4.67960920605467 -2.68152311703248 0 0
-196.995430973404 30.0783435260801 -22.0520817124658 0 0
16.5197476479386 6.30537706499632 -7.26025726867223 0 0
60.637287984981 -7.45786950514898 3.5534322559015 0 0
-162.315023859019 -22.851136378609 16.1747504018332 0 0
-21.8122217497286 -7.74548022379049 2.93001012027784 0 0
155.394352052757 8.78765573352195 -16.2147497209984 0 0
163.111143380098 -22.0981345228691 -16.0490050163014 0 0
156.484159842648 27.8549134836042 6.74847657108202 0 0
-202.120957587886 -8.60707230206155 14.6219191349556 0 0
-184.925448634769 -12.2329948090931 13.6757441615646 0 0
191.012237214628 -17.9098266583587 20.2415370777559 0 0
-60.4736202875579 -3.7893025953251 -17.7105577737331 0 0
-32.7378876224689 -10.0760086422014 1.7144885108506 0 0
156.03552880868 -2.73011186741683 -19.0513783957136 0 0
20.6741639915292 -10.9833311329419 -0.986001623806742 0 0
-158.985239163086 -10.45064225602 -6.51536859098839 0 0
185.639046416937 -30.4656791246066 18.2311642674275 0 0
-24.5450915266333 -1.66257964217042 -19.8018376061374 0 0
-38.5969318507174 3.83047528152461 -15.1169949487409 0 0
-104.550664167671 -3.13910097711331 10.8692883136754 0 0
151.285183461751 -1.07321329120305 -17.5385926886263 0 0
172.741048199303 -20.7328440307746 -22.8272107975866 0 0
-34.9311367322889 3.14287241755113 1.82089867835668 0 0
135.002300168301 -11.4877646466466 -15.7630226345983 0 0
138.750097956216 8.25633612161927 -15.4782931717059 0 0
-165.438725612078 -7.90424714367316 -9.05586109323601 0 0
-69.8397884537088 2.4772320938477 3.55730252103022 0 0
166.39303507602 20.0309719820163 29.5983351930396 0 0
-195.142994295539 -10.3803072573121 -2.48033738380458 0 0
-20.6836335630954 2.4537854039601 3.6740888788384 0 0
74.08029085138 -12.4535721661371 -12.0411100049884 0 0
164.086117135742 -24.8978202442882 -7.99405962994083 0 0
115.106874396794 9.68021267013238 -15.0065193249855 0 0
170.045953069358 -12.3152752695076 30.0798675689742 0 0
-41.9974601310447 4.97425512998381 -2.9395814804034 0 0
-61.7636438905182 -15.7291885164381 -2.37514543957383 0 0
-69.9228199747462 -13.6852875208822 3.18513577134808 0 0
-216.786442746067 29.0688029315297 -10.4348621479515 0 0
149.95261540223 0.820149889556313 -16.8083783190535 0 0
191.162128048598 33.2896352736789 5.56791776075597 0 0
82.5069127509183 3.03931175262322 3.54422171448902 0 0
-172.728953209778 -5.163172611631 26.9694851312496 0 0
186.358433156917 36.8621576933883 23.0980475204902 0 0
-149.370417723239 -20.3835169284606 -3.09357069964908 0 0
-100.811006570419 -8.73200135413254 11.823416914692 0 0
-158.681414657056 -24.5582063080733 10.0328199718558 0 0
46.1661790886127 -8.28657287851482 -18.6329084392598 0 0
189.602990976905 -20.4355320511456 24.0712522588441 0 0
-155.607054959886 -22.2508854235565 12.9774211291439 0 0
165.967755087248 -16.4701254248308 30.981035039465 0 0
-185.913327707567 -26.5305249512432 -2.08216159587488 0 0
76.4876585654917 9.4184001747421 -15.7373337078681 0 0
175.223089406461 -27.2800586810069 -3.76361014489603 0 0
-154.685430081133 -22.8383928103355 11.1238162671587 0 0
-70.9357389942342 -16.4481770511303 -9.83020589321424 0 0
121.574419729593 -12.4354619307459 -13.6198335250015 0 0
81.7740903338 -13.7178909136847 -4.55327855713761 0 0
184.838423603033 2.20697170350442 6.17889111663903 0 0
-191.258239770103 21.8926300616914 -21.3890579245764 0 0
-87.8065284060196 -16.2278471651157 4.04216006153681 0 0
-98.2397570761725 -3.78808569083721 10.4947446505612 0 0
174.61859945027 -27.8558067814713 29.8434891869164 0 0
-143.330832065862 -12.6964652668912 18.1538704694545 0 0
-138.614022955484 3.77931128105322 15.5559073116851 0 0
192.716279476892 34.4918878573468 24.2718481549668 0 0
25.7367021254662 -5.31137162686678 3.49128105728475 0 0
16.7607902050322 -13.6826008268017 -12.1753628919993 0 0
16.2961405306782 -3.2388195604078 4.82042845691196 0 0
-14.4632500845539 -9.56465897632576 1.02230509107961 0 0
89.900698502444 -2.59391162169029 5.03542915597978 0 0
-29.7334219999476 -9.94335056890705 1.57947335703389 0 0
1.9374481229808 6.186579193844 -8.34771331927697 0 0
-37.3730500972995 -4.00631142993064 6.70925536465207 0 0
-9.95578544748865 -9.84617883806648 0.549361724895218 0 0
-197.091884883985 7.70167996715016 5.69411630262025 0 0
-57.2938394366522 -13.5797054207097 0.589994997726296 0 0
183.667619531895 7.69884802028665 10.5837918590227 0 0
14.3130694876489 -9.19607375421839 -19.2597237348686 0 0
-138.938921227162 6.34618178138841 2.95296643817627 0 0
67.3470820882003 1.52190264325422 -19.8171131421568 0 0
-194.626782320323 -10.6761801385123 12.3703913554148 0 0
-175.690243908074 -15.4694059986578 -9.79356426093586 0 0
-139.34716689673 9.49406476187528 11.8226696137609 0 0
-118.242390787935 5.17909889833468 5.0833887724183 0 0
-198.059245386016 29.7919484050479 17.6032393343375 0 0
-124.97934037721 -17.863094827685 10.322961840137 0 0
-115.159051363278 -12.1972182872295 13.0590023390876 0 0
-134.942102283198 -18.3750106120462 -4.0937593188779 0 0
188.280189332638 23.2200644701846 -12.6343179255066 0 0
-181.396074715624 23.4907635031641 4.72324999373362 0 0
32.7351414242494 7.76512127874129 -15.9197241766282 0 0
-184.419098641847 27.0572936384241 12.4410949382885 0 0
-27.1310584278756 5.75642087641382 -9.07403255034617 0 0
159.019453032959 26.3814489036279 14.460490086508 0 0
-198.524614980464 42.7523373306823 3.00577889290027 0 0
-60.4185851576285 -0.839068845136294 6.40978214805194 0 0
-9.90984754404 -4.62404617253249 -20.3262992613344 0 0
162.839252649765 -25.756530800235 24.5886159277936 0 0
-111.602684313959 -12.5011137012895 12.29988741961 0 0
55.4749134057628 1.63566731978175 3.74658196604421 0 0
190.24647355784 -16.1652333670463 20.5825955797708 0 0
-15.55400361138 5.91198366922351 -9.09494745346535 0 0
59.6500316976649 5.35488945778742 -0.468061420885268 0 0
-166.276667098263 0.952347592412078 19.4751042741549 0 0
-181.093886384895 -11.8656000953369 -12.4521412496537 0 0
-187.632749761457 -29.8718645133868 2.07884885697824 0 0
-15.2667109406179 -4.65701862461422 5.28592125796139 0 0
-126.200448956546 -19.4460707432284 -1.99001088762055 0 0
-70.1955454146259 4.43074314230516 -9.50686796960647 0 0
174.765232306925 -28.7409786728145 27.5090683187597 0 0
27.7841790820774 -6.9069631079156 -20.1204392619999 0 0
-104.854041999357 5.03444236366398 2.63587107361366 0 0
38.9195073257146 -11.4148997935664 -15.4906275892983 0 0
163.349712107643 30.7149323933964 22.2209624025207 0 0
181.707006623601 -19.7666892200379 -20.7716560911898 0 0
186.997699445836 -22.9948273541172 -8.62185646091994 0 0
164.155091578179 16.1357321012811 25.343153010828 0 0
176.705569854612 9.38502918419917 -19.388214540862 0 0
169.955116975635 -17.4668960433864 -26.8265027474687 0 0
165.850666451188 -25.0521433197709 -8.9607363496911 0 0
120.195131908289 15.7091622288482 -4.82482182490894 0 0
-191.584453244594 -22.3016751583115 -5.01178737339506 0 0
-162.695866475723 -26.6961877089064 1.79445575195029 0 0
-193.64018427028 -6.58855934995548 -5.90692068039526 0 0
-172.992521050241 7.47858918319707 -7.9818426693694 0 0
175.919540742556 10.0459267911278 15.11985642779 0 0
-107.549083505591 3.80238165962349 -5.57614331400551 0 0
-156.539802981968 -24.2841377449073 0.813213591514794 0 0
-109.9289026587 -13.9483373867404 11.3564937789242 0 0
-199.750505670689 -20.0967609301757 -1.09129050463204 0 0
-109.888871585362 -6.4857594030894 12.5800244207447 0 0
34.7353314867418 -0.62638516872739 4.91408595633823 0 0
-190.414251948168 -18.7746263403568 23.8166857745786 0 0
12.4314184246491 -10.5814857033042 -18.2188213817583 0 0
83.0897631720994 8.95661223919895 -3.12251334660605 0 0
-105.167236949953 -18.682166165012 0.453087808294436 0 0
62.118999450408 9.08585288939568 -15.622515768129 0 0
121.81583489459 11.3857380380208 2.12375037452918 0 0
-141.372125240365 -19.9354086847608 11.0060129730967 0 0
67.0849965094516 10.328141361416 -14.1664199775472 0 0
178.699324454749 -28.2499341885201 30.576883968818 0 0
-71.3602542254729 -16.8602889157393 -3.98189781403967 0 0
73.6046328712031 -12.8087418734516 -1.55677673470186 0 0
-189.272451388685 39.3541400576485 8.5106095561599 0 0
-10.4469216430611 -14.8689629202534 -9.90393350932925 0 0
146.560129507426 11.2072985140549 -15.0920304428036 0 0
91.9205733417097 9.60297211063502 -15.5452195514307 0 0
20.6767578971335 4.03894418332885 -19.1514368173699 0 0
4.74271978582281 3.44062433337168 0.60236238098936 0 0
193.467578041766 21.2773467074219 23.0640584656899 0 0
130.752014788885 -12.8247993684073 -13.9121822348077 0 0
-164.566479187091 -20.049521789537 -4.98827889911825 0 0
-191.469317480987 -28.0060569723863 10.240304670813 0 0
-160.077957974077 -19.5202800474936 19.0203523968152 0 0
176.760386492649 24.199813081695 -14.2617605423116 0 0
-157.89447611166 -24.9793391049666 5.64234488677241 0 0
158.75242832763 20.8245542154019 -13.4018573019637 0 0
8.14730140559855 6.77950911673809 -15.278492077823 0 0
191.16876173906 11.0906151606952 9.92117144402976 0 0
166.307410049687 -29.063035362931 4.97959129432488 0 0
-125.709618072088 5.4283802648505 5.95623891402935 0 0
194.318043927922 32.3531214898114 5.11056247264254 0 0
178.750845426348 -19.3829939558974 32.2242967978312 0 0
147.841672446205 9.31379486696545 -15.3668186526819 0 0
189.555836453274 7.78750812797955 -5.45429679356302 0 0
-60.3459437811019 -15.9433744731391 -11.4545808145621 0 0
88.129399233261 -8.07636026640336 -17.6204448655355 0 0
157.902018878476 -19.0463997512061 -17.5053465484332 0 0
99.1373063640737 11.1394140545623 -3.54060719294653 0 0
-16.9940983629085 5.89395133029177 -11.7411955466307 0 0
195.709409364425 33.5878547581097 13.5476715218982 0 0
-25.8991968208092 1.98253466534084 4.30180013582977 0 0
171.802013780971 4.09376969412819 15.2956626812893 0 0
97.9913536962911 -12.9860443067229 0.668158561981799 0 0
-63.1235484397216 0.270109713551352 -16.2127523506025 0 0
-201.704149643081 17.8304059948531 17.2114210303422 0 0
-175.097029398895 -22.2356398216267 21.2514328694713 0 0
141.980907898926 -15.1760602536721 -12.5069078640627 0 0
-75.0378165473908 2.53094059439461 4.01279557938929 0 0
61.2530676746433 -10.6831117043516 1.0511339882712 0 0
154.755963138661 -21.3723995186111 -6.16055699212189 0 0
161.043827421294 25.0599292998846 22.1198725178818 0 0
-202.206415852983 5.46919481332143 -7.4784479919879 0 0
182.055026906021 36.9403636401956 28.2155725123895 0 0
153.136142611563 -20.8360538343228 8.91546149042457 0 0
-12.3232948520454 0.228881231180257 -19.9206055937407 0 0
-169.520789341809 -21.4615357842189 20.7736527089727 0 0
-45.0448256175453 -6.73996574548788 -18.4605882907428 0 0
186.796921395754 33.2197399232026 31.7139452393961 0 0
132.949247709998 -0.612948337388049 6.72454730734657 0 0
-212.202972582944 37.7096770803167 4.36672541571713 0 0
-40.3768891905945 -0.809965242314077 -18.8143480448036 0 0
175.105228931644 38.1570360040949 13.9416715286667 0 0
-185.808629370159 -30.1265552820033 7.0035124775899 0 0
115.164439555817 -4.43695756194725 5.83680177448909 0 0
5.27307857614117 4.73895218596636 -3.61592116602173 0 0
-102.57492490909 -16.3573670473302 7.93988645792082 0 0
162.5739989801 -26.859136324866 3.9066837373326 0 0
-105.89761200918 -8.01156399036056 -12.1095560420924 0 0
156.794455593322 27.8859409924877 -1.85356162992519 0 0
173.315648582682 24.0145418672574 -14.5783143350959 0 0
-74.1801661708149 -4.84570916479335 -16.4047551450254 0 0
-77.3720287979144 -8.31624322964519 -15.627580298773 0 0
-122.810753068903 -0.170227299969679 -7.78902548048237 0 0
181.062172855262 -6.88084739791007 -19.9822842044159 0 0
160.328061357944 -24.3640775620212 24.1008341801504 0 0
142.990612981682 -17.0397454856202 2.68387411093607 0 0
167.689750393198 4.62533327829535 15.9672578727151 0 0
-150.373000348054 15.8012529380715 10.7545598153612 0 0
-153.199599652704 15.6189741907859 8.18081637274249 0 0
-82.3522544032706 -16.9471532094633 -0.51952340461795 0 0
-182.359543523946 35.5547079651221 3.52429372808777 0 0
-19.8931245621768 5.79180582599016 -8.07700569593094 0 0
-191.430498355279 16.3805163939818 -20.3886176915432 0 0
-165.98789466063 7.67636439469016 11.1305537219093 0 0
115.061644260695 -11.515612965855 -14.4622467939499 0 0
191.22931254692 16.7407853185384 -11.5689602067537 0 0
-114.026419643721 -18.3266310570918 -4.06686519315276 0 0
29.4636313709726 6.93081785496029 -7.20143388205231 0 0
-191.075189956623 -19.317824221141 -7.05115298347343 0 0
169.891783890812 31.6364905843911 -5.22733443640496 0 0
184.271241863241 -23.9832515299649 29.8752203480376 0 0
169.926682786866 -21.6372437016703 -20.1463588365262 0 0
91.9170929034647 -0.826794636790359 4.96691923195936 0 0
-35.011108384882 -15.2486033791176 -12.6345358172574 0 0
-184.745254735683 27.8596065650306 -16.7456639558633 0 0
5.64629813724457 4.11461908270193 -1.75541006153569 0 0
137.220101730031 1.58502062097486 -16.8660923273379 0 0
83.0700158101348 -0.623515762149579 4.68947670872095 0 0
-196.115737001821 3.5531797764412 2.04728553021733 0 0
