"x" "y" "z" "f" "a"
-127.199905686456 5.62306453206531 -9.35512837466621 0 0
66.3883200486118 12.1606284677502 -15.5028296561897 0 0
-63.5838949154269 -8.24830069920864 -15.3108196126118 0 0
-195.722395626068 -25.7401632995105 19.0306306974311 0 0
81.7030012654722 7.17629355788224 -20.0777532441667 0 0
194.202265826708 8.09350147000963 22.7773100295576 0 0
37.1591564632327 0.446798256545864 -23.1894837758854 0 0
-0.0634762797004097 11.289437663399 -14.4729826551672 0 0
178.937540484111 -28.0128872617369 -10.9006668782211 0 0
-146.934439323921 -18.3724418992042 14.1163960492451 0 0
202.8362220817 18.1792713857037 30.9202704267746 0 0
-167.980402497564 5.48002527269925 -10.5715100124771 0 0
155.617105328497 -4.89087332175105 8.40651723178606 0 0
163.228017906804 26.4287151674003 7.43784619802348 0 0
16.3265160792763 8.47618456399746 -2.97079825263412 0 0
-28.1611678348554 -6.77689810644807 -0.63411627038363 0 0
-13.4259637143864 -9.45540709709077 -17.7205219810072 0 0
86.2129685921791 2.57258492948416 -22.7590510906189 0 0
-4.89329414752093 -10.2022408079046 -17.1316876872586 0 0
147.454896690154 -15.3622374215836 -17.9772801727277 0 0
-69.7168786137967 9.59825621143028 -0.708798390106376 0 0
-103.143993181982 -9.42938911418339 11.9469436151684 0 0
168.685302566265 0.118635546024088 11.4646094061698 0 0
188.598590564026 -8.31791985413089 16.7186122389699 0 0
161.569497230945 3.26593278767155 9.00719592792935 0 0
199.668795924328 4.72673095744198 -9.44521956828952 0 0
150.739245743236 21.8089828923896 2.06300238384821 0 0
-113.995798481795 9.34077591877187 -6.13246366971821 0 0
200.192609025917 28.6800025940506 24.6029578377771 0 0
123.056574530158 -3.74148215137959 -23.0746659299665 0 0
79.8712828172666 3.75734889678419 -22.2431077841896 0 0
-169.434785206156 -27.7622972509115 -4.26042820397286 0 0
148.048190009851 -21.0874866114868 -3.4949913753682 0 0
-191.865212423807 -12.7723876964601 22.8024815854036 0 0
-176.506987010328 -10.368594812661 -12.225010815672 0 0
156.121316174894 -13.7507027629338 12.037397622796 0 0
-165.429512374372 8.22902795249163 -10.3605105491306 0 0
158.795907997643 -23.2582127833031 -5.66190917196244 0 0
-178.033491200575 -19.1649769803955 -11.2966914039368 0 0
-197.829145623687 -13.6055811323284 22.9280419121412 0 0
-106.098009830567 10.1459019020353 2.0038233022529 0 0
-120.07283934476 2.69277947282027 -11.4604171789486 0 0
-160.263504438041 -24.2770593872805 4.96442276980742 0 0
45.5909850638347 -9.57637140685327 -18.2397172951777 0 0
-129.012618364521 -7.35701407571786 -9.54476298384253 0 0
178.544919799383 -6.4472291985601 -21.7033240510032 0 0
-74.269467456415 10.4396465483865 -9.6795674922009 0 0
177.512681926572 1.03046943855944 -18.7998052002224 0 0
-140.165148857551 6.19938366705039 -8.56982649220597 0 0
-178.04950615217 -29.6629386028039 8.42822702598942 0 0
184.3809285619 34.3153953304162 20.0244017639973 0 0
176.483740249396 -2.40076694131083 -19.2947266655765 0 0
-142.79582300937 -18.3154281177542 8.72829268947381 0 0
148.594836914773 10.0098544846686 -16.2053746879161 0 0
148.34103679324 -3.81089209074822 6.77545138315757 0 0
-138.379720184147 -4.22459418997258 16.0484171584373 0 0
203.452776666884 26.5835452235868 6.86258786690382 0 0
-149.808813320416 9.84653241684844 18.8708132332031 0 0
-103.015376012377 -10.8552817555422 10.423340663281 0 0
170.156154407379 -7.40474305896014 -20.6292365283643 0 0
-185.517520344865 29.7549464710461 -2.17630347021056 0 0
-104.133717374995 -6.66744223929895 -12.10650859515 0 0
18.8491468336346 -5.69592602985488 -0.355630989267984 0 0
-122.063705769313 -11.2038548781054 15.0946018271906 0 0
-6.7791495029925 4.21579813107125 -21.1189524236333 0 0
201.100512872226 -14.0539792043806 -1.1954177871877 0 0
173.502446588203 -31.2777381595705 20.515236576215 0 0
199.099664827586 -9.31755078336594 3.31470606734257 0 0
142.178296523596 -6.60000908332449 6.76263612734082 0 0
-10.5701326159036 -0.183906250691156 -21.8147012404344 0 0
153.954978295752 18.2458329769684 8.29819193735588 0 0
-1.19223341202836 8.02353287732553 -1.49260728178321 0 0
189.638806954345 -7.34758225236505 12.6086197687364 0 0
-116.505814815382 10.9703298636469 3.00547916039824 0 0
-44.8886694765529 3.74800656426785 5.34399504648351 0 0
-52.2574863924378 -5.58588751629272 -18.0368626211575 0 0
54.9492390197085 -11.8930009473476 -11.4053372940922 0 0
187.639386740224 0.196022309351715 9.47820763391949 0 0
181.620916436704 -33.3311289195899 19.747743192508 0 0
202.10104023508 4.2984598207518 -2.67892960285755 0 0
-143.091064160653 -11.1623801479385 17.4624073234312 0 0
141.944705050327 -14.0350041833236 -18.9214382987741 0 0
-16.2371571435173 6.52641247672964 1.20366124790714 0 0
-189.456720808741 35.0011105940215 -4.48913234243831 0 0
-147.526430278715 13.9764879182013 4.54200791254987 0 0
-201.751260361885 -23.9011905557564 -3.30141765204362 0 0
172.893464040273 17.2823549409686 20.7719571184204 0 0
50.0848513501812 3.74295184910802 -22.5066924295687 0 0
37.1750873633116 0.956394646469243 3.7797508866227 0 0
194.074280610297 15.9936006096724 36.7394955234358 0 0
-21.4598409495279 -12.6183378527656 -11.1181699446 0 0
-165.545558531872 2.48220063982439 18.5244751537798 0 0
7.30845014615438 12.2349311244618 -10.23747060255 0 0
150.176011146561 13.8690401129167 -13.7784648812771 0 0
124.621002136479 -16.979104729341 -8.96271419866991 0 0
-120.134904393541 -9.59222112860538 -9.14583050511767 0 0
95.2402046485642 10.7974800433992 -2.35428384915643 0 0
185.377324080871 -10.4758498288071 24.2764765864298 0 0
179.28751132036 -33.6953852929532 1.65482831117547 0 0
-64.4824957510082 10.2861612923205 -11.1092395591708 0 0
200.892646125352 10.5526810952742 -13.9740012520545 0 0
-180.107410113873 -28.0622641356756 12.0080791269823 0 0
155.808571716965 -17.2960541759265 -17.2217334092711 0 0
-92.9871589170293 -6.1839560923546 -13.7559766422856 0 0
198.870017802438 -14.3892409178348 16.5189015305059 0 0
166.857017330707 -29.4325873193392 3.72955430103201 0 0
-39.5052421462366 11.3570918280869 -6.55672847515379 0 0
169.008969889582 30.4359936643765 4.77369962666332 0 0
-97.5340119121292 10.6230872247246 -1.42072462843947 0 0
144.730531916657 -20.5947638780066 7.06243373903179 0 0
-133.511631137419 -13.890409326828 15.875686745925 0 0
186.455772450151 25.0444725660128 -10.3689706215542 0 0
164.405539066693 -24.6773023949832 -8.5101735228524 0 0
-5.89025905538418 10.7454199290534 -4.71360810019965 0 0
-215.83612903409 14.8984191159602 -17.6789856220131 0 0
168.507131136661 10.8132506073151 13.3940050194019 0 0
-167.397825837149 -25.1603716497357 -7.09004961884052 0 0
-146.414563162017 -3.86293676831225 -8.816527016722 0 0
-1.45361325375 -5.64260949584128 -20.7704804588429 0 0
-201.188845070256 0.340680431068173 -5.25120854336163 0 0
173.194658072659 10.7256432750647 -17.5819956703076 0 0
-194.162057394527 -29.2396582552338 -2.75171867008662 0 0
139.003808857691 -4.71380150797411 5.84613565600336 0 0
-136.214425526123 12.3383326453854 1.8793923309576 0 0
-189.155744482259 23.455216396307 -15.1089790537989 0 0
85.1596812690323 0.798382187408317 -23.4819874552847 0 0
151.640372051637 3.21092977452309 -18.7897985919997 0 0
160.81957929681 24.4779801271932 9.24577484483468 0 0
-199.536552262737 31.5213831815335 17.1422739091118 0 0
-132.86446632005 4.85102102559331 13.2129421116717 0 0
141.996261015951 8.1811362831518 4.99814961958089 0 0
137.763621640974 -13.4929891248605 -19.3228063964009 0 0
-64.4230816891947 -11.1305001454711 0.721145351198589 0 0
-196.65989531869 11.5457806939123 16.8451294407317 0 0
195.824601857833 -32.2312224013495 10.79169926811 0 0
-195.372355316884 -11.9827403897667 -2.48077951554278 0 0
-154.988708070819 15.0621337849963 3.18034754600936 0 0
-58.161538117073 -2.93920915750462 -18.7945450119584 0 0
166.823988957649 24.881772524866 -8.13648877390322 0 0
187.539136464058 26.3385211058318 37.2979777593599 0 0
-23.2639406826906 9.07777125537331 -1.65164637674483 0 0
165.25934688449 -27.4910881573376 0.756755134381708 0 0
-80.3635657678389 -14.6872632887432 -1.03707292794723 0 0
194.912085796355 -4.20122596154763 -10.0716682452454 0 0
181.060317954134 -11.1023916889048 26.80793595378 0 0
-194.572861791147 -17.3351471788744 -9.90447340643949 0 0
186.204640191541 9.43995805367473 20.7218799010545 0 0
-144.915201399812 -18.1028572256814 13.1972838128954 0 0
-162.905660892952 -21.9100536379613 -6.95836093349052 0 0
-169.801979992643 -14.7599534976531 21.677019857846 0 0
159.7567357073 17.1115578710873 11.1108426053848 0 0
125.491474636051 0.790943451601028 -21.8091814238332 0 0
-146.038305888179 -17.891902246261 -2.68297745610247 0 0
195.079850404834 -17.3886366067944 -17.8667396594078 0 0
163.786759931384 -12.7583717743315 14.4629150519722 0 0
170.124460511686 -4.49421739924833 -19.2707959046483 0 0
198.786889054158 -27.515905427424 23.7930705795331 0 0
-181.819637701463 -3.1860211888811 14.5078525846333 0 0
-209.496582330472 39.6292044788343 -5.20739158932417 0 0
39.1885865676056 10.127749931033 -17.6695574133973 0 0
9.60454643668672 6.17683168252226 -0.0931237924288738 0 0
117.407906831062 -13.46128313844 -17.3013150558105 0 0
154.580226526494 2.63051606657643 7.06189238661935 0 0
-72.6650799023734 -12.8807025655477 -9.82195228939211 0 0
176.866600013971 15.1765899968454 30.9386216339824 0 0
168.976502503258 -32.040617106711 15.1523360347185 0 0
-201.334714735272 -12.6673798882531 21.1971668181246 0 0
151.461839647033 -6.69484240699532 -21.24944860175 0 0
161.415502373043 -20.490232576115 15.1754706881827 0 0
124.262345556179 -5.8763512487742 -22.9283133541462 0 0
-149.589663552545 -20.674725670303 2.2355529444852 0 0
-180.024236102691 -1.45870703212706 -13.3463719280305 0 0
191.686019168925 30.7044814227581 23.6933688836748 0 0
186.660704778714 -21.357609699843 33.604104237263 0 0
-149.874162099444 12.4935942083863 18.9348655799796 0 0
122.064590033324 4.97969358133572 -20.0477397892247 0 0
180.308681696236 16.2324516215166 -17.4587923702314 0 0
-188.998136557436 -17.6983233880329 -11.8957078850778 0 0
99.6882820099272 -6.91433624906231 -22.878429893008 0 0
188.219336299535 6.29821358824739 -19.2031774619436 0 0
-221.085914732428 17.591612814399 11.1891174794009 0 0
185.531392770812 -3.58160786670337 12.5997006026484 0 0
171.908286069891 -4.1395259519022 14.2303121394812 0 0
110.030926987913 -14.2422850286286 -14.3570220083446 0 0
-161.268910317604 -24.7827996650249 0.224955326459523 0 0
200.587414239179 -13.5514562874137 2.63747163204136 0 0
-209.643862460791 35.2922056036174 4.23618880103399 0 0
11.840569252831 12.1813137234183 -9.00910542524949 0 0
-105.667053774735 -5.81342809878038 10.9478084631 0 0
83.7160195817463 -8.35183861962582 -21.4527212498693 0 0
-115.817940466515 11.5142789968758 0.00496737622162077 0 0
76.79157697743 -0.308679918231497 2.56133812639647 0 0
203.808679271841 26.1936850105295 9.13636246235523 0 0
-135.055315856739 -0.665564578565152 14.865998812619 0 0
-19.7477519503688 -10.0883324727991 -16.7322881711803 0 0
160.772122114842 -16.5670560117219 -19.7182335005348 0 0
106.886339641197 16.2820523697882 -10.089264764295 0 0
-184.293074778834 -29.2495151695321 -5.56694148175217 0 0
-89.8442184845012 -1.2293799361332 8.57386905707836 0 0
-73.7176386107378 10.8858569879418 -7.23968213691674 0 0
186.457194699677 -13.0974650902575 -22.6222876919105 0 0
-84.0825365399464 8.03533738749056 2.7746970332807 0 0
-143.28541574241 0.687845423035672 16.9689292320773 0 0
176.146603704847 -19.4926980497989 -24.3453702043643 0 0
104.775013860183 11.0867495426463 -16.7213365854413 0 0
113.596098975214 2.79008193370985 -21.7258505233305 0 0
-119.574701792437 -8.11601823049302 13.4061545524437 0 0
201.707251910523 -20.803140465922 1.45674298898168 0 0
166.70410611571 -1.97199397958009 10.9280105832045 0 0
-181.422047460909 21.3255852652544 -8.92482486855508 0 0
-56.7399089886939 -9.48974757499373 -14.9081359503682 0 0
7.39572804905392 10.8766102549096 -15.3976879910423 0 0
-108.527112425792 -4.81255691084589 -12.3991757708674 0 0
-156.206701488435 14.9890063853011 1.39945811264327 0 0
74.6240735515338 0.463912693092428 -23.7192943681288 0 0
-190.786520180096 -30.4126672904572 3.84294334657219 0 0
-105.396824411339 11.0465173299969 -1.61346351138384 0 0
130.941946406027 -12.396978714243 7.1240923288147 0 0
-187.956302223338 -23.3908998503179 18.4585803207125 0 0
108.641546893624 15.8930315203079 -11.3992921703218 0 0
101.227787027986 -3.06383565598212 -23.83221488693 0 0
103.535053829522 -13.9577647917446 -13.9816811070761 0 0
-193.048792860546 12.6049520586047 15.9197841489122 0 0
-192.519771029136 -26.6638858774896 16.6949327741601 0 0
-109.725081147849 -11.778137596715 11.2971711086427 0 0
-178.227952473997 -21.9476550308415 19.344395980847 0 0
-164.859326025973 -4.50382779193902 -10.0997605391123 0 0
183.58207992937 -11.5939489784443 -22.8115369764092 0 0
140.143776266072 9.95701112427057 4.45248989307804 0 0
85.4733245855766 11.5961019571277 -4.36644437953852 0 0
-176.581991434309 -18.3301740747095 21.5376711709364 0 0
-156.818150555678 -20.5427379661242 12.2310298465278 0 0
82.2938581196748 -8.63736529647154 3.01591348409049 0 0
91.6782166733532 -13.1833444362686 0.227596837240519 0 0
-99.7210812039009 3.22482720918743 -13.9813117413601 0 0
195.90404238253 -33.9847849770868 18.1838801503042 0 0
200.568339947974 -22.1578410144998 -8.16726649738878 0 0
179.464057406506 -5.76182679488787 16.9931218075392 0 0
170.936222687965 9.75305937236474 -17.2499315976698 0 0
-172.625751239995 -2.61357591889742 -12.4730787903779 0 0
-149.24730661346 -11.9229136578386 -7.8081376050558 0 0
134.119216800522 -19.4714194755251 1.72655276094759 0 0
-159.384983418112 14.4859315651741 -3.76727723959404 0 0
-146.558739575879 10.3774128803368 18.4300213897362 0 0
91.0691839241059 -9.87341839613223 -20.1861714337553 0 0
195.424940973096 -31.9980392987929 27.8447977399492 0 0
-182.47191326225 -0.734435944938766 11.3047247166548 0 0
-193.64711107282 18.8103878594942 18.6280890311269 0 0
138.415636777121 -1.03843039315704 -21.2945148701939 0 0
146.013353030748 -12.3005118281243 9.21650898696322 0 0
138.672000476973 -20.3954104678667 2.68053661273738 0 0
-214.849447489765 1.2316084071778 2.74377111238746 0 0
7.79260219193971 1.4109440421707 5.18376013146469 0 0
-139.412771064943 -2.69546640661852 -9.27658484311673 0 0
-79.7886385100113 -4.33460325906579 8.68904699749991 0 0
158.376140227328 0.170053510683977 7.66579444076765 0 0
195.301233232437 -19.9380220738106 27.707128614359 0 0
192.957885012184 33.342764513453 9.17007188361652 0 0
31.4021250306331 -3.08232052168589 5.14343112270717 0 0
-200.925397691642 25.2226069928817 -21.5713017954188 0 0
-192.558580904311 36.1368022049126 -9.74861233173829 0 0
-63.7427783722831 -7.25528899343253 6.82560463212406 0 0
-167.4990140273 -20.1832177972326 18.4083118015027 0 0
-206.63207304204 0.290861396992814 -5.01179307108395 0 0
-58.4921864864456 10.8832777121846 -10.0429156698957 0 0
162.437154180255 9.72943238269724 12.1070642153008 0 0
200.680722752266 17.9965420457021 33.0584777364247 0 0
-136.250065451735 6.43250445320629 -8.44838079232585 0 0
176.522286307179 -4.70913395507999 -20.4934405010491 0 0
139.001310448278 2.90629915608815 4.66954582503332 0 0
-83.9369551056366 -0.261133081535198 7.91411995423537 0 0
188.937769111931 35.0489632458989 11.1209484201531 0 0
14.2232279288449 -3.27423267964735 4.07774704094993 0 0
104.564093996074 -2.94450849575982 3.68460771350976 0 0
150.572769071022 -0.290472643256992 -19.7265425152119 0 0
-13.3470988128242 -3.45484611072781 3.09284278928247 0 0
-96.7671803606691 -9.39494225574064 10.232908320334 0 0
-130.782027863299 -16.2484839308125 10.5425637902215 0 0
-183.313486237726 -30.2940300215867 9.69220362087584 0 0
-153.381003050469 -21.5876020627105 1.25433240396316 0 0
-43.3481076109895 -4.53704425022804 4.24687984542394 0 0
157.490228502871 13.2380276511846 -14.5899651939304 0 0
-42.7010174232752 -11.5848672276262 -4.18654224225896 0 0
143.417813841481 12.8275435535794 -14.4385563579808 0 0
201.203368553222 9.13284545681394 25.9150616994856 0 0
-183.934778047161 10.6541314063468 11.7470025130029 0 0
158.977209289405 24.4225689303791 5.91310860315417 0 0
195.334338281874 -14.6951850017498 -16.733353243208 0 0
39.9324998633259 -11.4983889701985 -12.3448513160298 0 0
171.198291507484 11.9032936019217 16.4847519558056 0 0
168.302504389802 29.5401988663457 8.03756706942089 0 0
132.584747131178 0.162646000577018 4.25837944181442 0 0
-43.7959132030837 11.6331268349874 -9.33658083451242 0 0
-44.8575406199156 11.5635098858808 -7.38679076515872 0 0
84.1371555670558 -10.0829482775938 -19.3740903045794 0 0
197.114301547965 21.9429682067005 -9.27968833361595 0 0
66.6708278248768 -10.8870217567516 -16.6448982208362 0 0
45.8408065277014 -4.76793689708367 3.20192526543881 0 0
78.927231754181 -13.3338325913995 -8.17221560053946 0 0
195.636781155755 -6.13548719734555 6.87099956496592 0 0
171.297059887209 -30.1007853094266 -1.0925849255357 0 0
-107.498885605853 -3.89468434068764 10.8166808973395 0 0
201.223575936776 13.515109380778 30.8822809485685 0 0
162.267710703087 -2.29712592176577 -18.392319491197 0 0
-199.899418629073 -24.9868365578674 -5.14295816423047 0 0
-192.123476827198 32.4034140071543 -13.7491430717705 0 0
-19.1623411722787 -5.20114836531129 -20.2893902947914 0 0
-175.428364342335 -26.4989401922487 13.662041702964 0 0
94.7738978653227 3.36039084523071 0.948358675710403 0 0
156.219374473668 3.81548691534229 7.60388617485267 0 0
-102.755956223973 8.27265957144312 4.71184675105906 0 0
162.348720540579 -7.01289603248544 -20.4767353469593 0 0
42.1466849006655 0.0987774690847448 -23.3709954024708 0 0
148.655296580402 0.740934930771984 6.01598433403983 0 0
-4.77021912510427 2.77048721463781 -21.6740923191182 0 0
-189.410383640002 -17.8573782285947 21.9335091552036 0 0
112.20165290257 -9.67367292519417 5.69303571163384 0 0
179.004876500685 34.7696249899255 7.26526484162231 0 0
-151.7809053057 -20.2818411639422 9.15887204832931 0 0
-162.634105434087 -1.33274394251542 -8.80546989655785 0 0
-165.308483711094 -21.5284585518821 -8.6231362433532 0 0
-90.9329634410907 -14.3793249816058 3.06773081148659 0 0
174.616529483307 9.49617854391891 -17.6851565754659 0 0
168.468248610526 -30.5882550737481 3.60291001456134 0 0
208.055953822537 19.3773170962264 22.6337264730797 0 0
-140.510210815013 -13.9037076832217 17.2134579100801 0 0
-73.7965763923584 -6.78747923495222 8.71160109457057 0 0
-205.64741217474 23.7683173020196 -21.7534380031078 0 0
-87.8721326733958 6.80686509276359 4.63377309152598 0 0
97.7489396159971 12.9302172068511 -15.1716091609534 0 0
-0.729790090253299 10.0450472440338 -3.82435504884245 0 0
-139.660131333056 -18.2182483746389 0.113714945066855 0 0
-172.152298478408 -28.1930073241433 11.3343941662459 0 0
157.947484827173 -24.8884878332398 2.38423845751996 0 0
153.397583438872 10.2594016198378 -16.0279110090084 0 0
-193.692573992414 -29.9713503914126 4.64004487569705 0 0
-186.888037811908 25.4790107617779 -10.9478441656706 0 0
184.314928997292 -35.9688886958566 6.79726166268257 0 0
179.270458711514 -17.1952448091359 -25.7548890528637 0 0
-168.993837488629 -24.9554659817446 14.3895699580818 0 0
-20.1947745533304 5.52743280767145 -20.0518945806554 0 0
-211.962486810476 32.6080508792758 13.4674546405354 0 0
-69.7128535377646 10.141215833355 -11.0146791689012 0 0
-150.254221362331 16.2616256988705 18.1298597847259 0 0
-217.773610086165 32.7900878905247 -2.45842400712401 0 0
-193.319199076826 -30.6777661603352 2.47815951148534 0 0
-188.100546991223 6.9934378876828 -14.3768464510267 0 0
-145.2428550158 13.838263361791 5.9202868329348 0 0
2.62606232491694 10.7208033043869 -15.6589049454142 0 0
140.544006047393 13.3197319663164 -14.1043922564103 0 0
140.999808205853 14.5966460859763 -13.3793879592234 0 0
15.0548442695826 11.5865403526228 -6.9135035389774 0 0
176.337475348021 -34.3098140726963 4.85386140563599 0 0
-183.909476373508 21.2742402036323 -10.9600174809131 0 0
69.2753576114743 10.3709326061956 -17.561105113352 0 0
148.556030996935 -8.31463748260822 -21.392971826234 0 0
-0.0231238915305799 1.4383368913814 -22.0706899356497 0 0
178.74013541386 -1.26685134530572 -19.1522400618887 0 0
194.8563353323 1.11777905724914 7.81548351394672 0 0
43.383292523436 10.5270961400674 -5.50506872128976 0 0
-74.8362467095513 9.71169157945937 -11.5827426563676 0 0
-8.71434940549876 -6.03065566881486 -20.301101432723 0 0
-200.79211503506 0.077336097629122 -0.950959879728 0 0
61.9507193430275 -3.98062072259725 -23.4335382958087 0 0
41.7517973176389 11.1924138975497 -16.220299097994 0 0
76.3041589884089 -11.8569720458408 -1.84325455406184 0 0
24.2403850025445 9.87473103317738 -17.5678521646539 0 0
83.7289773990855 -13.516798636117 -4.50913190791613 0 0
160.299100604371 -24.1629732816972 -4.80565433088404 0 0
158.140871306951 3.68519546385719 8.15202485987899 0 0
83.7436572712175 -0.76486525339198 -23.9287957297444 0 0
166.314186402433 13.0580327870836 13.4682338693229 0 0
-165.780130601286 -3.11563112477035 22.2747809073679 0 0
129.878800472303 11.0975703632824 2.31697762816968 0 0
1.09069750850255 11.2740337594235 -5.92669365104201 0 0
176.235865654552 12.9127721457218 29.5958450126407 0 0
-89.7272005271397 8.7299909011544 2.21886015785934 0 0
10.4514399885444 -9.28321452333435 -5.02741173959078 0 0
-3.97314733585093 1.80155011541616 5.19385355528037 0 0
-195.531437738496 10.615636509183 15.550432244503 0 0
176.871895450225 20.0933861951326 31.8127642682982 0 0
-34.7913798990796 10.4622673316661 -14.2620714244084 0 0
-38.4513730648426 -3.49650185370471 -19.9240464151528 0 0
110.839582798089 15.1817722104021 -12.713441106454 0 0
167.300391599737 -14.021254179839 18.1596218652725 0 0
-76.3977963599234 9.17667321092509 0.0886652267616764 0 0
-104.4922299025 -2.40397231770438 -13.6311842270417 0 0
197.73120462695 -27.8090277573354 -1.15630475537521 0 0
-33.8561415840754 -8.9048469200238 -17.1643064696921 0 0
183.218702390567 -22.4647963571609 34.005889462779 0 0
6.73241929199278 12.0755133175158 -12.4025401230404 0 0
153.863407097594 -11.2474587241819 -21.2850931365672 0 0
-23.9618617360507 -10.2528853849762 -4.68575622589372 0 0
-87.8676283809793 -0.469664112499658 8.14315345215046 0 0
175.234339371607 25.5936359327734 -9.40592338403965 0 0
-118.508693777501 -2.18229653913881 12.4310855456831 0 0
-42.2029848954018 0.674414039593789 6.10917959910365 0 0
188.256966050835 9.25236900664281 21.4640006955572 0 0
-208.798032352657 36.3822898962019 11.0404673918915 0 0
80.8267278639606 -13.1890376060253 -10.9695691825956 0 0
192.255435558494 3.25353732787225 -15.2796106677108 0 0
-197.299259552199 4.48334743955219 -15.559225819029 0 0
193.501232093495 -4.43446528008499 6.88897013376507 0 0
208.486949089096 12.4828075846766 6.04227841826863 0 0
-212.566752657034 34.1720681414224 9.18286584923464 0 0
-184.544370015808 -2.80744646623268 -13.8614840028585 0 0
-125.061612320733 4.5996833360089 10.9117630608152 0 0
94.7985487133703 1.62300391255303 -23.0232575974852 0 0
5.51101804451255 -8.99292603279141 -18.6105503790362 0 0
2.88529972509966 3.58109665955303 4.39089593657334 0 0
93.2351699118745 15.6295581008714 -9.69364060288651 0 0
-194.490610356171 38.9569102669695 -3.10795989836945 0 0
-95.214072383048 -9.17352701403103 -11.380490461798 0 0
-154.228725760062 17.1576861168659 14.7314436977748 0 0
-62.1712204335709 1.5874025782096 -18.9525281503932 0 0
-119.059338580622 8.89546380419992 -6.37628671776493 0 0
-185.591964456757 8.606712530769 -13.9515768525262 0 0
-158.328104762262 -21.4504755526643 11.3229275848282 0 0
-183.622782416334 13.8236454578369 -13.0944124908238 0 0
210.434490941903 22.5978391005557 5.79117559997769 0 0
30.8513256821143 11.3270163328663 -15.5930878362153 0 0
-31.5729035790984 6.64608886487591 -18.6564455099709 0 0
167.240326231349 -27.475631543128 17.5699024298419 0 0
207.638673389905 25.2416695608839 7.8289885683096 0 0
-217.010389386295 32.9205183516583 -0.37980713089844 0 0
-142.14906788451 10.8017233767157 15.7706613137617 0 0
85.0919526954493 4.7815192704295 -21.5565462060049 0 0
-185.392706906014 -28.4204602287108 12.8930710594168 0 0
81.8449729642045 -12.5998313266886 -1.76164470974545 0 0
-173.681564706216 1.86447607761356 15.0349586405635 0 0
187.43081039614 -11.050989138508 25.4058135908003 0 0
-13.7093704820066 -11.094373074245 -6.92117826349169 0 0
-224.343898492268 21.122327640548 0.19386876572917 0 0
174.730990658154 2.5741690509848 -15.8794342955479 0 0
-31.8170599565039 8.25160941813566 -17.1575731378227 0 0
-198.730047687938 0.325672243014798 -1.06228745601125 0 0
-47.2888219883702 0.237037293940495 6.14126699452067 0 0
142.898960011138 20.0705984102974 -7.39394201077861 0 0
-158.426117450112 -19.1395650275815 15.9303657451731 0 0
179.333723401503 12.0742438892387 32.3446613350591 0 0
-8.76936419800992 -8.13227931171552 -18.8701627520919 0 0
124.492518921157 4.42687948325453 2.9428177363695 0 0
-222.710624021692 22.2100769454595 7.30706790222525 0 0
-73.2963546127713 -14.0813902240418 -7.36734662705738 0 0
175.329803997344 -1.61674065012915 14.9453423757794 0 0
-121.906243497176 11.5554736488982 2.44613333166519 0 0
143.045339826242 -18.021694474001 -11.8610580682773 0 0
-85.3824788189062 10.8186583540393 -4.49564215940855 0 0
-179.844753074853 -24.3443497771317 -7.82393023787487 0 0
-171.336574837219 -17.7351337343386 20.2917216884697 0 0
187.66207869423 26.0566371297971 -8.00543335074152 0 0
172.341763324789 18.4132527998067 19.4083537135778 0 0
-170.54708994024 -20.7872996693111 -9.84822412138072 0 0
150.701584290321 15.3805446373065 7.59023054055497 0 0
-108.291198358684 5.77421248944708 7.48403810208455 0 0
-128.390642931063 -10.8239339978227 15.5850874108268 0 0
1.85914971638088 -10.743982898636 -16.4326996150599 0 0
35.45264717573 10.2292053872364 -17.4432641400154 0 0
-210.50034473198 35.1873317451471 -1.12787082332951 0 0
210.428923048343 24.0346456304691 9.12159134536989 0 0
-175.591500822337 11.4326009833469 -10.2141467260662 0 0
37.2192584803106 12.193846697778 -13.933552499433 0 0
-203.574667495026 5.40586181290141 10.0427501450257 0 0
-179.69600758145 -0.506107672667193 13.8873398651335 0 0
-161.243230446829 1.8369330640455 -11.1365055646088 0 0
-211.653782436616 15.2339624939381 -20.4490445209309 0 0
163.625457030568 26.4641961345709 9.81542049369403 0 0
-200.018079088438 38.7090701252655 8.69546692453721 0 0
-89.8543094692095 -3.34474100495577 -15.5716181628226 0 0
149.54502942458 22.1222309172337 -4.82891196158582 0 0
81.1555606670644 4.93259603257763 -21.5522045752955 0 0
-199.423793391734 -27.8422810898754 -2.76337764695307 0 0
79.1819381511063 -12.1530355929852 -14.8242047659298 0 0
-175.128173091305 14.437285715634 9.84044024825547 0 0
169.057389648226 -27.862799819357 -4.92361803732823 0 0
205.166312883009 12.1226457368763 22.8343827559127 0 0
-205.336866173034 17.4307597813456 -22.5312115142981 0 0
110.997092117321 -15.825896878948 0.880021420336298 0 0
41.7901057564431 -1.88221837825832 -23.3234367628126 0 0
141.495198599249 -20.4876008408929 -0.738369179371345 0 0
130.216390057534 2.41295812182047 -20.8132059669396 0 0
5.62519469446875 2.76715520284805 4.77743894325672 0 0
-190.619250948272 -2.65773229661107 7.17938695880455 0 0
180.790787345323 9.5459001856202 25.0981867804035 0 0
-95.8362993508834 7.90320534219597 4.19823357670339 0 0
164.041901313576 18.3977680481084 12.6141345501867 0 0
-144.306287954566 -17.0617279615986 16.4775939134091 0 0
-91.7527901665788 -1.15657226766031 -15.7878160203801 0 0
-86.5811006862224 7.68858466477163 3.46123726034092 0 0
-133.923573563896 0.0599229552151898 14.5709349475292 0 0
174.739567828937 21.4233942575138 25.0631413882247 0 0
199.174916198024 28.3951433704907 3.86404884661104 0 0
-183.623925090566 27.1434672807691 -3.92302223482697 0 0
-209.502306224689 0.120562030912381 -1.65762754432213 0 0
191.022640131835 8.97718406863878 -20.1510992528847 0 0
-171.01162323952 -31.257674707691 0.0688718107340558 0 0
205.1151706101 9.42461546235211 -2.9799293445308 0 0
-145.36444170233 6.48697847345944 17.315500416297 0 0
23.6649879508169 -1.30509635785898 5.30257725847083 0 0
-191.549117363289 7.19425829042466 11.5851261071452 0 0
156.127525005696 -8.60422848177898 9.86532078903368 0 0
201.610436410514 -16.226579063034 -2.06979663934373 0 0
-188.667187962569 -10.4640790100019 8.00120948259798 0 0
18.1047014294869 -8.75639390311632 -4.28960709316847 0 0
-180.761329284492 -25.9332481177244 15.1791074699178 0 0
-190.422215012072 29.0256591845955 9.39292877443116 0 0
-111.950124129038 11.2874769815203 -1.69442356937067 0 0
-219.174589450155 4.29339196354132 4.14540139086567 0 0
193.133216277827 21.5138683884303 37.4238100575418 0 0
173.655454170359 1.55045684412108 14.6525642308817 0 0
-9.72107344053758 -2.49514907871391 4.57286763344066 0 0
-170.234934610357 -30.6364226417573 1.38867325740252 0 0
173.822731392636 8.96768149431869 16.4532476570409 0 0
-196.995677416058 -29.1487532681885 2.79357297443436 0 0
7.68142654337063 4.70405510113284 2.08621964282155 0 0
-172.963104473239 0.544282117376542 17.9683363503397 0 0
47.4205821080864 5.98265631168538 -1.70526583719585 0 0
-146.595746793243 13.3452823375389 -2.04000131372932 0 0
-210.768509452185 35.5888470404862 3.32318305946033 0 0
46.9835790811204 8.75718062588932 -3.86586147775492 0 0
-178.723938857905 22.9034696830297 -4.33776643683362 0 0
196.495654240683 17.3126405151971 35.931775023363 0 0
177.707034402449 35.4367003669403 14.0258943421972 0 0
133.555501320006 -5.31572939402147 5.51041775160537 0 0
76.3249255079629 2.12226341796136 1.02565845458349 0 0
-115.124686630644 0.778857197075818 11.0466718297449 0 0
-213.378410056989 5.64786583141911 -15.3708660497787 0 0
47.4499667101715 -11.2780516131283 -13.8566262016285 0 0
-155.128036497745 -15.5984544762551 -6.91154994547877 0 0
184.700083585685 -7.07099899765981 -20.0517952086805 0 0
-0.720694280269216 -6.09723705588012 -1.21855728223832 0 0
170.250401790524 -31.069959017784 2.35983093851999 0 0
-186.173540667241 10.7931403363197 12.3804462455725 0 0
-195.494756447488 20.0403014589389 19.5823029555883 0 0
-179.848620041456 -20.6846336611703 20.1244794677437 0 0
153.050226184236 -21.2322807690458 -6.83359367545249 0 0
-131.297435079346 -17.6033773085458 4.2126812542367 0 0
-143.905912643253 7.74738154545847 17.1929416690665 0 0
-3.32116709229814 -7.1755169214501 -19.8536775916781 0 0
-96.9316386819294 -9.39508735956484 11.5884556964727 0 0
189.280463325018 -33.0977120975996 4.28803520823781 0 0
181.867749065636 11.2890707221979 33.6679639181182 0 0
201.449179400567 -27.0813947376931 15.9383529165268 0 0
-43.5222152886289 4.14249405908273 5.094238062042 0 0
-138.22896338269 2.48835777779326 -9.64280338887095 0 0
72.1931110225434 -10.4454209006783 -0.614549867457663 0 0
-167.658836556524 16.5742984885805 7.68787923315514 0 0
-168.466757325946 -4.99970452947678 -11.7738939903794 0 0
117.952608089977 16.2824694522447 -11.3826056316692 0 0
162.148242511152 -27.5052894078383 5.4663973741634 0 0
-68.3354265741355 -10.0585689437928 -13.207188215263 0 0
152.591346783902 -23.416414383503 1.78345385342326 0 0
-145.189374396018 12.7439792286916 -4.46832036981629 0 0
153.688377244002 -16.0676715910226 -18.1658485127512 0 0
-167.843169534849 -28.6183364866588 0.58011545761802 0 0
181.069682812225 2.42407773545206 14.6991435129444 0 0
200.056911054417 28.761670090839 22.571181995716 0 0
29.0668650194655 -11.4754561524071 -10.1797605968797 0 0
-109.080336606988 -9.05208573508096 -10.1767021208915 0 0
196.313843745445 8.98398086048218 31.2444103057148 0 0
-199.246474601925 16.6861079838531 20.2970918610539 0 0
184.300062451196 27.9155292048953 -6.93693441922859 0 0
-189.078422279888 -0.447435157782317 8.69251131338537 0 0
9.75639160480704 -4.59482475554078 -21.6418819420554 0 0
-101.210838008795 -11.638754708351 -8.46595612182991 0 0
-192.76004437482 -29.0302015366915 13.400888920874 0 0
-115.654826568054 -0.629336048908336 -12.1696804356114 0 0
-150.990714436406 -20.8912655008134 6.24773870183742 0 0
75.3659185183929 -8.00797716543792 -21.3827036321256 0 0
83.6720449634309 15.020739903699 -9.01462489219173 0 0
193.881824635717 -10.9287193778176 23.9853540861231 0 0
96.7117745487616 14.3405871675585 -5.42536231564035 0 0
-60.1149152672072 -5.46364403977668 7.06506947040728 0 0
-176.173914031514 -28.1933588924438 -5.4987409688955 0 0
123.841187983298 1.64691284682323 3.24432240669867 0 0
49.5502851841366 -10.5347777730714 -4.66374588422174 0 0
198.565579341189 -9.20426217616593 -4.44181292322198 0 0
-76.9419834883288 -9.36673097718349 -13.0134388555404 0 0
-98.7019536894044 3.87929408807262 7.69293369779697 0 0
-91.7352408058615 -13.3953298990339 5.27723531022166 0 0
144.414850393112 -21.3815278415846 4.11765495178614 0 0
93.8543267170891 -14.5656849214271 -4.04281149737048 0 0
199.408674942401 5.37129066554771 11.9872995822019 0 0
-140.18211367667 -11.9932547351297 -7.27781494922209 0 0
-198.613824296532 -23.0409997204798 -6.61451387732834 0 0
-193.623699643132 -0.494039712565098 -12.9078070311503 0 0
-167.166452813126 18.0988816201031 1.82772792017025 0 0
-187.009672641257 -8.59092034966103 17.1557522825843 0 0
-52.1373106306468 -13.749118266915 -7.43640948834743 0 0
149.247481059518 3.50293505190169 6.16226287152487 0 0
154.32750854596 -23.2520444632386 -0.73032674350238 0 0
109.957949892164 -15.4535702512085 -9.83153906188807 0 0
177.68350159979 12.9804806016836 31.2465114418904 0 0
190.108241072035 -10.3705845100444 24.1363533862319 0 0
-99.7868867395681 -8.9558421837288 -11.1209222342623 0 0
-68.1066409021261 -4.80236541396656 8.07339837140068 0 0
-216.508629505173 21.6507439065297 -16.524098247886 0 0
-63.1670769783828 -11.7442286313302 -12.1665839056919 0 0
-126.515916269318 -11.9004055781073 -7.12149378789004 0 0
-166.599567711453 -0.749497824492965 21.3292491994774 0 0
-206.203746585733 1.36388777216188 -1.50276016456062 0 0
92.6147947167662 -1.42120902311474 -24.0055409211755 0 0
107.392869372774 -15.6068643602745 -7.82494413669083 0 0
173.952305765961 3.44785737661153 15.1417876446408 0 0
-172.85307756892 12.2070957343498 10.8673395058842 0 0
148.403822735754 21.1386955658115 1.45060853689294 0 0
-192.669573185921 -20.5757083206775 -8.58565288848301 0 0
-219.719970434122 14.4158069026848 12.5274576232554 0 0
183.989878857647 32.5507484092296 23.562685314957 0 0
194.091050050272 27.8633432014 -2.50536130463503 0 0
-192.933010772813 26.7329048057174 17.3728707121333 0 0
-133.286212661583 2.72885294002545 14.2080124337488 0 0
-70.7772980001642 -11.9284445278455 -11.1093394709589 0 0
-42.9285882600663 11.2635717785462 -11.4237732134763 0 0
-184.270208284259 -27.1496661592928 -6.18548464223892 0 0
-59.596866610847 0.230138249527232 -19.1608900010856 0 0
140.257885505143 5.21928446368379 -18.9546577524251 0 0
200.05079654989 -32.42674520358 15.3181217910364 0 0
-171.90731411482 -15.5380534666856 -9.86657559556836 0 0
36.0606517320137 -3.5542505188706 4.65244535108969 0 0
75.6886543091081 -12.7133143933871 -12.1319119302982 0 0
173.406589396946 -9.31436245876649 -22.2014615663385 0 0
144.311792591035 2.15465667614752 5.30153193705615 0 0
-189.938493333773 16.1142337497492 -17.0785905494238 0 0
105.950280181003 -4.20414935694233 -23.6218329528882 0 0
16.1907704238882 -5.33168730302233 0.105256382724384 0 0
-149.262732025811 5.62704016747262 18.1635348015508 0 0
-210.560459892907 36.3703332444422 8.92365734386165 0 0
-191.807764316263 24.5036272190083 -17.8544047101483 0 0
181.193908901778 9.1358213750428 31.1013965025708 0 0
-188.267400337985 -30.5290169804761 7.5745547997687 0 0
-30.1531472685425 10.472225273124 -14.2001148191923 0 0
85.4873877181218 15.1785257360937 -10.2867346628744 0 0
-211.401502660979 24.0360092463013 -19.7273226222394 0 0
163.706248316311 -18.0270874823282 -19.6332775026095 0 0
166.197794568361 -30.6395121980272 12.2030956162149 0 0
-33.9604371284435 6.66551931728517 -18.4446928770054 0 0
164.620418096445 8.81606354476112 -17.0360250575984 0 0
-6.23639146166105 -6.4917864319624 -20.1335948794932 0 0
-188.869864315949 32.1841009246256 2.19910935324587 0 0
201.392710864366 -18.8989085471033 4.21774418981262 0 0
-198.739973200343 28.9056546495314 18.3888586697682 0 0
-54.1931648270944 -13.8471469244598 -6.98701328897365 0 0
-157.76166551657 7.79615249141298 18.818195625587 0 0
-155.578978957165 14.2620684663534 -0.774580181706327 0 0
4.46233530889812 12.0021388815688 -12.8680596791028 0 0
87.7465974065829 4.82393621085789 -21.466798188545 0 0
14.8634250702589 10.3366692837969 -4.89130441513047 0 0
-114.745555007766 -1.50857998354891 11.7791505769397 0 0
-195.561824711544 -11.5215481353321 13.239244454531 0 0
33.0532850949873 2.94229037227834 3.05158228786752 0 0
-181.857219535806 -20.3348989734634 20.1435251608668 0 0
-70.2185977967921 -14.2672269256434 -3.88194935870797 0 0
204.76711260859 25.3181504050401 28.5528556540187 0 0
143.830853198657 15.8796030668146 -12.2531816181112 0 0
-199.886022796579 16.9323023335022 -22.3208770299867 0 0
139.80862523174 17.0166501745081 -11.108583037087 0 0
149.048931384146 -3.53183483515088 -20.7425612601544 0 0
-142.604938445564 -17.7513561963178 10.7001799952604 0 0
-140.626251385505 -15.5453830006542 16.8426763077763 0 0
125.912579302889 18.1720478870187 -7.70518105286388 0 0
-139.279315240888 -18.6088108737425 4.83826728201399 0 0
13.5671242791219 1.17466924430044 -22.5502286196586 0 0
-77.4973007269303 10.3554581142545 -9.77142655055287 0 0
145.654231846102 -20.1978644287836 -6.02630166228039 0 0
-152.928768499867 7.01956279972791 -10.1974061233985 0 0
-206.603043417796 30.6852478522667 17.5433538454706 0 0
-105.707896622697 7.18931099904051 6.34109477470444 0 0
-211.081164619548 30.0359532352743 16.1205207877111 0 0
-116.807185945372 -1.55141222063043 12.2001820678304 0 0
-144.81399320533 -3.70848524954373 17.6247638616906 0 0
-163.490893544583 8.12790713264571 -10.8168730466832 0 0
112.321948418954 16.4700480541941 -5.68550016548503 0 0
131.208199032417 4.72243438959407 3.6175675759463 0 0
-183.737922119693 -23.6117281453104 -7.61568495201519 0 0
194.166917982104 31.1432131703839 15.0400699324529 0 0
201.398193582632 -16.8196532856168 3.34391951295854 0 0
169.359743026639 -19.5021008753425 -21.252017684554 0 0
-143.673058151149 10.5493840718082 17.3145138478635 0 0
-175.924862695177 -29.0803221597001 10.4517183590773 0 0
-82.2980587101266 -1.22243016422561 8.002863677027 0 0
62.3658280558521 -11.2936792505865 -4.0388330555143 0 0
-17.811535462499 -0.0124872987217391 5.67373943797693 0 0
-224.324483361967 19.8377036586336 -2.05054676008428 0 0
182.235414331199 -1.35133819556727 14.2081757308783 0 0
190.689341241551 15.8375940670172 37.5106221820345 0 0
165.950235481921 -25.1613938364018 -9.3200307361593 0 0
181.854096933962 -33.1893628781253 0.806985278016088 0 0
144.018083711358 -5.16301158230007 6.55046934104937 0 0
188.070206370884 34.0955020932415 6.5701859231221 0 0
140.797389898382 20.1560150472319 -6.78676810016222 0 0
-200.326938182256 2.01749025913925 -12.7328262254684 0 0
196.537768154425 -25.8909543229276 -8.8804912418021 0 0
-101.408810563648 -7.16393814287343 -12.1049059497073 0 0
44.3637989338894 12.100666780662 -7.40109389502799 0 0
22.948604713806 -7.74209631717553 -2.80914507605995 0 0
-184.665184533362 12.0480520934909 -13.8015384611595 0 0
-182.352998433924 22.1399498760096 5.46835913294753 0 0
160.52820513311 13.5499840150765 11.7527415796657 0 0
183.634453654105 13.7876248044537 35.914890780301 0 0
-125.200875062411 -8.64669661933024 -9.22635331350955 0 0
-191.617263510033 28.5036935861424 14.2451240803357 0 0
166.541441670788 -16.181908423504 18.8440533172392 0 0
-193.795723876804 34.4452456006547 -13.5078170882028 0 0
146.242788845362 -20.0419785633062 8.17084091634221 0 0
176.410174347588 9.19468072954503 24.6653503509777 0 0
173.479901081252 16.7011685387671 25.7565790772326 0 0
160.433983486161 11.4990371256168 11.8880282885114 0 0
-8.88327423727701 -3.55107995777937 -21.3466927755338 0 0
-69.6961493951358 -2.90761302352199 7.88113423463153 0 0
161.202172661506 -19.4786941374972 -16.6181453196026 0 0
-172.351536764037 -4.0290640953136 23.4002131948865 0 0
-120.275928136613 3.68755433290851 10.6902278697972 0 0
-4.02902532652409 -4.39103303652459 0.940511324009077 0 0
-23.9293104823086 1.45932641052562 5.56990582821028 0 0
-167.977037918175 -26.8581824334057 -3.42733217585522 0 0
-194.372344413859 -12.7897710663659 7.69868663420594 0 0
-29.8844965107087 2.96671894898333 5.1035810758803 0 0
196.162455385129 -5.09064543892324 4.48281389293743 0 0
-218.525128137384 3.79244299639442 -6.63866332253768 0 0
-154.201751610772 13.3489700379723 18.5242138618261 0 0
6.03893930926753 10.8332584612634 -5.39500186592146 0 0
-101.897134829527 -13.9394656402576 6.80814451374023 0 0
188.914797368775 -10.9329599399369 26.104749578969 0 0
164.027366605991 -26.9217625827128 1.19768439721748 0 0
57.1918363631202 -12.1124934626453 -9.95855512936498 0 0
-154.513464978205 -21.0685170380567 -1.57534605954828 0 0
2.22567680046287 -3.71379173118575 -21.7250710225445 0 0
-152.521601468533 -19.808059648126 -2.55011413814597 0 0
156.70355134769 9.1514130618112 -16.5508710945308 0 0
109.556037708057 8.82803581348891 -18.1004785479975 0 0
-190.904097598076 34.7498204910544 -9.03838123119671 0 0
-50.0666622107795 9.97230249138986 -2.49677333695259 0 0
158.929067469247 22.9823712760613 8.71279301380519 0 0
-185.876921767631 -16.4217975493076 22.4138445577014 0 0
153.766198055326 11.9439241739305 -15.0225763803659 0 0
-167.160527014488 -27.9290386590987 4.55312198738334 0 0
-60.9274181925445 -1.87280419095615 7.02739712630428 0 0
114.097114183039 -16.4016622839154 0.830798735878616 0 0
-104.859729749351 -12.1862145547058 8.4469562590242 0 0
201.692615854939 -20.2242233162215 11.3006347293599 0 0
-163.226212542707 -14.8882138644195 20.3478053770039 0 0
125.253768145334 -10.8483982975299 6.35887043003027 0 0
62.2624038605543 -4.54328300436708 4.14365864310394 0 0
-215.905309862363 10.8236075492327 15.2671438352033 0 0
-71.9125635466457 -7.0031144935334 8.10705051116228 0 0
-175.208461337363 -17.134727206624 -10.7068487860572 0 0
204.766983339149 27.4948914410787 19.7556888574166 0 0
-193.07151751115 -28.3642712804691 15.1109976169469 0 0
202.361012187287 21.436246980734 -7.00096973682518 0 0
30.5067108796842 12.2597259265961 -13.1935027207442 0 0
199.426139218461 -32.3857694875911 10.0638415989294 0 0
66.196297240298 -9.38246693848142 -19.2657555013537 0 0
178.834564786963 -28.5992910371112 32.5337552055393 0 0
-201.594065729511 5.0312595918097 -16.7243667854175 0 0
-150.919748224535 13.8122476883523 -3.5091592495974 0 0
209.60231243873 18.6799595037486 16.3949574785109 0 0
-184.682181884993 -31.5519542097769 0.490276913434503 0 0
165.562762978026 -14.2699841230715 -21.7414673852763 0 0
177.372406523603 35.4221518451827 11.2133201791567 0 0
-177.928607865967 16.9597173069509 -9.7376807246886 0 0
64.9276498720589 13.2023852742224 -13.7615913233327 0 0
7.22408725872545 -5.28474373255424 -0.201577143861214 0 0
-206.328369415433 12.3021835184853 -21.2429339999774 0 0
-203.940144900484 31.5574621250863 -18.4983302640034 0 0
-68.840978534741 10.8962408816195 -5.69912666471443 0 0
147.131575653447 -15.5721447424317 10.027527945725 0 0
155.099418290428 8.58063420877261 -16.744954113664 0 0
-161.352682662775 4.24288112383199 -11.4696362157901 0 0
-196.572708170764 -4.02421080532711 -7.83050468806225 0 0
-147.335391231831 7.13341501639044 -9.01058366403074 0 0
95.3611088307018 7.04874052458109 -19.7874440138926 0 0
94.322777973672 13.872675397132 -14.0929380080231 0 0
199.629265097146 -11.7702941844588 6.79314866027946 0 0
-126.380867812479 -0.665720264328269 13.3785926300358 0 0
-202.387265036371 23.86057923247 20.6219980131215 0 0
157.788433226482 -9.84397374122855 -21.0437012717926 0 0
104.842261766993 -15.1326576799008 0.527754917870208 0 0
182.984004303587 -8.71344190020688 20.4439702342203 0 0
-195.506778805787 -27.0440766529605 17.4694563180117 0 0
-191.669807870124 17.1723595922093 16.4008389090971 0 0
187.115158289422 -35.4061861187242 7.67681535016232 0 0
-181.575282829892 -31.6449288299261 -1.79544750068359 0 0
183.142427530389 19.6859631756422 36.5887752456467 0 0
-181.631096490976 -2.85367767114822 12.7957043218527 0 0
191.173402780035 -33.3995740502061 12.2633030096377 0 0
173.14928276806 17.2045453066187 23.5170653522797 0 0
-157.718102041151 14.4790616557332 -2.50552681583851 0 0
-147.535144931552 -18.2325470218363 15.7703657941234 0 0
-205.213499875088 4.15538675841854 6.78233193004657 0 0
42.687739641056 -5.69664513778133 1.59894978657255 0 0
92.4077764431268 -9.63480067858421 3.73829586430067 0 0
165.38825439449 27.1200519910045 11.6256857069116 0 0
164.312892651116 1.89760856884186 -16.0641280670199 0 0
-20.9093942897723 10.1768919338307 -3.54057786460356 0 0
-82.9769717380104 9.14104990392822 0.587236446671961 0 0
-180.779329363942 -20.1785870856384 -10.874157266401 0 0
-193.129729217416 -9.74782590121485 2.0488261955964 0 0
165.679277433689 16.1935858899124 13.7330622917122 0 0
196.215248477347 29.5941995589912 25.7648329107511 0 0
-82.494354307639 4.59959588463674 6.06955959380486 0 0
-190.019391039748 32.2288438005237 4.93405580204996 0 0
-196.819550423058 5.23840472906858 9.65495057324842 0 0
-206.608441850055 9.79941831638405 18.5165824492706 0 0
170.368529091819 -16.0172075001694 -22.9416505335726 0 0
189.663403002435 18.9995397675871 -15.003976107065 0 0
194.498084716188 -15.6923870951147 26.6507452739014 0 0
-193.47257981589 -2.52376879414207 -12.3083319212602 0 0
-191.076123645232 9.39091385914936 13.1416140625518 0 0
-201.760548153821 -25.6953232252356 -0.939927864974474 0 0
-212.246945036339 34.570759366784 7.62566282609963 0 0
-214.361361675824 27.1408057517105 -16.2849571879915 0 0
26.5965074672445 11.9557004987644 -13.5892965096973 0 0
-190.679312781845 -27.3937865246729 15.4454621365529 0 0
152.718799361773 -0.208788109067064 -19.4123031658908 0 0
170.066924957411 -1.10851077337424 12.4469788692343 0 0
185.34218052534 -32.1916125361553 26.1226409231112 0 0
90.3741834537518 -14.1521083069561 -3.98561682461843 0 0
167.333251276077 -11.6642278508747 16.0508794495959 0 0
-83.3112688676647 9.13943682652041 -11.7690248833493 0 0
187.470207727171 34.7158860451585 13.043070730517 0 0
-142.925461910381 -17.6292501848386 15.2597298329744 0 0
-181.758080952241 1.49045958449322 11.7179409074695 0 0
44.7879167762881 -6.76261252958212 0.345162554292192 0 0
182.127267388327 22.4056853400979 -13.6664443466826 0 0
92.452836039645 -14.41799091122 -5.46152450065353 0 0
-209.719603874327 -0.0695119111146616 -9.6954599015746 0 0
-155.670418834293 16.507049206744 14.7025543888105 0 0
-196.261084680401 6.6655702473467 10.9129044045112 0 0
-163.379221494229 16.5986850854256 0.980148557776117 0 0
158.595103217892 -25.4062994553169 8.36175126606349 0 0
-21.8595748902005 4.97044962159964 3.00095980717454 0 0
187.097885760542 8.54073387204003 18.7095544488293 0 0
186.755464278498 -24.6915539604203 -17.4630408953059 0 0
152.23056486743 13.628731361072 -14.0045863658248 0 0
198.618510146194 18.6118247099426 34.7739870811998 0 0
121.215322909326 10.3745800096838 -16.5962121252923 0 0
143.573483407611 -0.413796669279711 5.41949556928751 0 0
