"x" "y" "z" "f" "a"
-198.607074726493 25.4074420804396 -27.3094780185708 0 0
232.504908790669 -38.7249038350507 -19.0762912353407 0 0
-209.563458936568 38.2942709259195 -6.54597165761989 0 2
-210.073417972857 -34.8376341564054 -0.0656832025887604 0 0
133.042527850444 19.2155919899019 0.637534194890057 0 0
61.6610463308404 -8.21832216792898 6.48224277458942 0 0
212.499998451029 -14.9309034868412 -23.8214105474179 0 0
-193.744297808472 27.6591726010991 -20.9057598476336 0 0
226.978903690097 -11.9560135791551 -12.1167804998961 0 0
199.381571229177 0.738186049346908 25.9906613649653 0 0
107.880068136694 6.3927534781302 24.4554417782487 0 0
-31.8152367279211 5.17304637945019 22.6398185149175 0 0
68.9979606693217 -0.386367126661563 -6.57779860510756 0 0
204.308976521127 -41.7757007983317 -35.347708644781 0 0
215.946376463211 -27.3491761779902 18.2539569058759 0 0
-220.596612131799 19.8183312802601 14.0334665586256 0 0
-207.695341284382 -33.9372284255654 4.36349232244688 0 0
214.020047872654 31.1049270915249 18.5449794830113 0 0
177.919324457647 -8.30208421747981 -11.0633746514703 0 0
88.8759514371019 6.18799847900681 24.3638848183354 0 0
-196.308430716579 -4.88558161086887 -23.724202186469 0 0
-152.464480820559 -5.090617046148 4.48287028982116 0 0
218.027488692595 -14.2061212336601 -22.1747529825092 0 0
206.134116764405 32.0664117954856 16.0056266862839 0 0
222.704173129875 30.3033402330087 -34.7706634021209 0 0
-57.2733883051733 22.8451103435522 3.52954172975787 0 0
186.843755565424 -24.6557737800124 -16.2212271159525 0 0
-213.678644584305 -16.6433193210385 18.7780723783447 0 0
-196.830627256603 -12.1088008304883 -15.8282037787548 0 0
212.621858296331 -21.5172317870229 25.8510440437817 0 0
140.332858634902 21.164062834837 7.84400740628859 0 0
-233.488416320474 -39.6665877310968 -15.6735345167489 0 0
211.925969081428 -4.43876995495623 -10.7065260619073 0 0
227.188084337041 -7.30929940145407 2.14964522197037 0 0
-225.815162110501 18.5905592410889 -28.8842931700222 0 0
187.649714488445 17.3796683336354 -25.2620503584206 0 0
-205.809225379909 9.27605037674979 17.3052813009799 0 0
-40.3439019507358 -5.77074657937922 3.66848836383433 0 0
-112.869124516002 24.0070129423615 -4.41859363120024 0 0
182.970132727621 18.6357286927103 -20.3923499213857 0 0
220.759902467346 -13.169317449823 -13.3684264586676 0 0
220.699026792661 -9.17050733990504 18.6741420683059 0 0
-157.358280542101 25.6218746082812 -4.52915841209292 0 0
43.8981658932696 10.1361497925569 -3.68731769739928 0 0
-211.449161134733 7.69198967328637 -31.5793205143472 0 0
213.850290115617 -42.4712747938031 -3.05100773012413 0 0
-225.665593134359 15.7869559546659 15.9853307631355 0 0
202.340424140095 -11.6258615522896 27.0574873110102 0 0
68.938825966495 -7.37050748343415 18.485664453752 0 0
-107.30936835079 -1.54986452147112 -6.91092204613199 0 0
-202.858122360235 35.4974903731415 -17.6844475606125 0 0
-31.283230906647 19.5256380329275 16.7290234739872 0 0
219.817581033712 20.8447280166045 23.1882863219514 0 0
177.645142376055 -1.70276269381918 21.5051804043174 0 0
-205.803635661093 32.2207275512051 -21.0501774811865 0 0
-191.164421836308 30.1010605546507 -12.0450689157459 0 0
-233.030222568285 14.4968688906898 8.89612740931738 0 0
219.100996589035 -3.58837443987821 16.4579503873589 0 0
224.640738608378 32.7583946015477 -3.52205156156586 0 0
-88.0703836718653 0.756807240140614 -8.85443028266956 0 0
203.266668693663 30.7061084522173 22.8598189906707 0 0
-188.09995253847 28.8892828081859 -0.70443589188552 0 0
191.720369882903 -36.4854879095847 -19.7162211253673 0 0
-239.45914794027 -41.1166506243577 -13.7182000503418 0 0
-159.513450630928 25.7538489376317 -4.76673416720811 0 0
158.827892574033 21.9191697197136 12.8527949584574 0 0
194.985356595282 -42.9523033312674 -6.18368603185203 0 0
-86.328615082828 1.80795499785534 -10.1312581600887 0 0
-56.7878995500992 -2.17393474101005 -4.63705715059802 0 0
-127.55577189619 22.5248792917911 7.08109905302509 0 0
16.7041443415131 -8.40855860017472 12.2125577103214 0 0
-255.394021299283 -34.1649956426454 14.9060367352666 0 0
-67.894104206606 -6.36865590544109 4.91763778684511 0 0
198.544913123307 -36.8957945308125 -31.2621427715187 0 0
218.895394802503 -15.5813879837676 -35.0133705089358 0 0
47.883082551183 -2.31333266762187 -5.54563883912755 0 0
204.605135531469 -26.0129292326463 20.9697100547681 0 0
114.997454827994 20.15988867815 9.54585273775676 0 0
145.287656162286 -13.8507977264497 12.4175195864462 0 0
200.626329155144 -42.0863905489237 -27.5333712479545 0 0
-77.1962291676744 -6.67261001866636 7.73940411985327 0 0
-56.9482674258785 20.1144440923358 15.4300895210626 0 0
-43.5666039725405 21.0983062647304 2.67132562068275 0 0
-243.621571123765 8.1895460767301 -7.12998658823615 0 0
146.33355336453 -10.5690873457848 -4.01249174936671 0 0
151.877743762617 21.2907540852549 0.984030638091453 0 0
-245.093942697989 15.8321232254159 -4.5874316291903 0 0
-215.003102423789 -11.5872406083349 -11.5755670002283 0 0
-15.2820876246346 13.2182517477881 -1.53512230231257 0 0
222.176287905852 -12.3220156366575 20.8144667927339 0 0
155.789808940844 -6.68740042175406 21.5711584071368 0 0
-212.692071071086 -42.0776952852912 -4.91841501854064 0 0
18.0614227039613 14.6683152686533 -0.31453931262816 0 0
190.726575539136 12.0634282597818 -26.5136253409066 0 0
196.009686292867 -28.7532560214743 -31.9310925474536 0 0
83.2280435895292 -2.21500171578241 22.2478781403171 0 0
193.16310960069 1.32303776562672 22.2584703001289 0 0
-220.957298398301 7.91061312341345 -6.98408142579789 0 0
-10.9417030235899 21.9304203473531 11.5890024937429 0 0
33.1402898376608 20.2064691252282 14.0488557806527 0 0
0.886861695033329 4.7168449158369 -5.59488760901117 0 0
-174.263064770005 5.80169535910949 -27.2257956620215 0 0
-209.551329940058 34.4567348508919 -19.3298135291568 0 0
-157.702494073952 -0.283871240052295 -19.4989054676231 0 0
-116.920362467116 12.3729257983879 -15.1284420835579 0 0
230.747557235154 27.6686488466727 -4.20962635174803 0 0
117.797115215184 19.8735825274768 13.5004770369174 0 0
212.150612628193 21.1379462882911 29.6477998259861 0 0
-211.746051686818 -38.4253658204329 -2.40322220039504 0 0
209.851909684938 -19.5827294789567 -38.812674161642 0 0
-86.2793821720165 22.9527614263368 11.2501568989581 0 0
-80.8325376961854 2.47523846876426 -10.2062636244631 0 0
166.057786472767 23.4965418658818 4.48221346505181 0 0
200.336748996359 -40.2002814069578 -28.9323489066593 0 0
-65.3006806026251 -1.37266353266672 -5.81600711408055 0 0
214.680683237051 17.6954050626407 26.9704266660463 0 0
-226.832516913417 -55.072939959905 19.2164552313601 0 0
-233.708026827886 1.95910982979153 -24.8119456887478 0 0
-167.367350222787 5.66926586729573 -24.5057860207458 0 0
207.589840253688 37.5477618004297 -22.679010817415 0 0
-170.146671615589 18.5858467877865 7.72089830263187 0 0
231.345068642863 -17.1295559116601 -20.0493146058037 0 0
2.56064340973827 -7.52880159176728 16.6074238284183 0 0
-53.8959948590919 3.95256129239002 -8.68973667143851 0 0
-124.307916412573 25.2927041698077 -3.43522776034793 0 0
-204.171939968861 36.7313776701917 2.16945135261057 0 0
-8.36445376312016 -4.36919992131031 -5.40800403460385 0 0
-219.524795933947 21.4633444835521 12.5420633671817 0 0
110.95734008797 1.08655128116615 -6.75653866182455 0 0
-219.75416221149 -52.1296162587194 20.1752833742068 0 0
193.674940576898 -26.3891782971577 -26.7160544934786 0 0
-195.978222115199 -7.09140446980832 -22.0918242726154 0 0
-220.245025685332 4.37400041154623 -21.4893681965297 0 0
195.846471342856 8.93007663254766 27.7027248580627 0 0
204.812460715982 -14.8302260411043 -24.7130342637784 0 0
-120.561707911851 -5.77277988397892 1.62122596964666 0 0
74.0714623022881 -3.70692488392262 -3.38649505278846 0 0
-219.299416650588 33.8397399304306 -15.4664654666376 0 0
-176.519389921077 4.97985807321515 7.8554237165627 0 0
-170.360809140457 23.1361045904659 3.85295734552463 0 0
-73.0470224524507 24.1966944497723 3.82964786095435 0 0
192.580620657644 -15.6909337974977 -20.7788428039195 0 0
156.88735167381 21.3070156348273 14.5000325970588 0 0
182.137866479782 23.2058523495358 20.4060492748801 0 0
-75.9629962177342 23.8723831254007 9.91121499058882 0 0
203.686292730092 -13.8273571967773 28.159255939409 0 0
-202.999943102185 26.5863635985798 -27.7707315988984 0 0
-195.902274364675 -3.40894458039148 11.8308133987832 0 0
73.1243789032546 -5.12259789063365 -1.20020223043173 0 0
-215.970106938552 6.06798364887979 -28.6364135648621 0 0
24.0205024554385 5.80665839195217 23.5903885647264 0 0
-138.516469388481 -2.88811265379681 -11.0152713426762 0 0
229.047203164937 24.8768969760939 -25.0261635874235 0 0
178.413005820683 24.2851676121887 14.690928242338 0 0
224.976546809165 -3.78798620888731 0.321894992471905 0 0
3.79331536510263 13.2949134966508 -1.32253743634383 0 0
195.335002913869 5.6404796780567 -21.7050676429951 0 0
-225.214512882835 -37.8587546622822 -15.4212991872795 0 0
-229.535464522613 10.9757283437156 9.86489184027944 0 0
-119.35007543821 20.2174709918966 -10.9869370934543 0 0
86.600940457418 0.062781912758891 22.9662760439573 0 0
-245.035070875033 -36.4191047854881 -11.9538874775542 0 0
-229.79677400707 28.7273046786231 -1.65643863342655 0 0
-216.989639424119 16.6493620813923 17.5304431336331 0 0
42.4354326331306 16.478732878992 19.8355971793096 0 0
-213.258479339152 36.3615626996872 -14.3827088986105 0 0
222.959012294435 -4.17757004757594 10.7538342694944 0 0
219.25633416151 -31.0518199597188 12.1027725760283 0 0
210.233163046882 10.2418763719467 25.849019864857 0 0
-199.268349126734 0.275051954101609 -29.947099297064 0 0
200.463277206575 -43.4465338688824 -25.1781298718558 0 0
150.818650178726 9.53873068417085 -9.10919219057124 0 0
193.450431895098 -37.911675905106 -2.27073579434809 0 0
-224.972636342984 -57.8079451772399 6.21996260046703 0 0
180.964983249872 27.1909356819898 3.67889263808625 0 0
-155.163816086171 8.58308776389435 10.0994872044332 0 0
71.9266730389553 -7.6459801353825 18.1491717044828 0 0
-155.159146659591 -5.52854308158383 -11.0209591401993 0 0
221.6143650574 -14.7176312067002 -17.6105417033124 0 0
-235.125355474945 -12.2769985958788 -2.73579431341888 0 0
-208.916708454276 35.4448967210506 -17.8561593929332 0 0
-230.160045148631 -12.5327192365415 -8.16412345905771 0 0
-239.937956099533 -54.1010138422873 10.2065259184341 0 0
-237.592817197091 9.75710394351267 -3.51928502578121 0 0
-56.7898236052876 18.3907611666246 -1.14391956549315 0 0
-218.758841941624 27.2822982222378 -24.9410730604604 0 0
151.312630560772 -1.01616144719233 23.5137023700109 0 0
-45.31497730587 4.97858996345536 -8.1638371615921 0 0
116.643161818041 -5.5303080646483 -3.9877588487717 0 0
178.877774997577 -16.2934447160787 17.4874648423049 0 0
204.558884012342 33.6542835873237 11.2226813946682 0 0
203.986981323826 32.5263252603043 14.5254650228319 0 0
-234.772450267932 -7.07809964001425 3.43877321071308 0 0
-70.5386897136011 0.874420079926415 19.5006054640763 0 0
-246.721107420278 -53.2467655751466 0.994932765437718 0 0
207.418720747369 -13.4126580918695 -20.7280927481434 0 0
212.473390416022 -10.5916394045082 -14.1629522865549 0 0
-241.813585768485 -21.1558888030843 -4.25363028294212 0 0
194.686371648572 -32.1313128475041 -24.8630622625232 0 0
-241.641751669737 11.182071313631 -1.49841253275162 0 0
221.271058193124 -5.77675320245787 -6.91028257772375 0 0
-36.3355853522208 22.7819674689467 7.33713219937394 0 0
-244.074047580183 -37.9506498213473 29.4910162453032 0 0
120.829200406051 -6.31282029251197 20.6669713516203 0 0
93.0195203684622 7.41751060758041 -6.52258529508202 0 0
122.854328224919 18.5100367098004 0.405704463871361 0 0
-178.955317507877 -19.1665509053276 -22.7201116370682 0 0
223.263524136617 3.27029756150598 5.82592978399461 0 0
-203.091244669445 28.1739684800349 8.3153062677378 0 0
186.839778296878 -31.731514022171 -13.8236242385671 0 0
-166.059838837075 24.4079846116704 0.846858042074447 0 0
205.945474378312 -5.64306807299763 25.4524627704694 0 0
-180.303131451796 -12.3560793982138 -0.922580139453207 0 0
-167.489459488743 0.0898332299103452 -24.4413713979428 0 0
188.883345775932 7.16587139292281 -17.2488290074245 0 0
193.632691713387 19.5849236738355 31.3847837468246 0 0
-50.63228744178 5.10284208101078 -8.00561369666044 0 0
221.004538911302 -22.6215891877982 -37.9748082838711 0 0
184.502194062677 27.4982021679891 9.94341176576264 0 0
-96.273930056471 0.430093443314887 -9.1394287753777 0 0
32.2623335032237 -2.7459587509065 -6.01762964925935 0 0
197.438049990622 26.3055290407406 32.7726641805437 0 0
-85.219740505678 19.5676825835707 14.289778337626 0 0
-194.924025057857 -2.91395139864674 -28.4054000732607 0 0
8.64892637390956 12.3679145014809 22.4571394404211 0 0
-239.710458008441 -41.2369321176204 30.8673270253569 0 0
-202.701973620607 34.8754503400031 -15.1013578248201 0 0
-255.584980448759 -27.7268733956083 4.94541820318406 0 0
-101.236267193706 0.305191558545053 -9.25325212942616 0 0
110.889112125739 7.23634850377981 -7.44979160436123 0 0
222.175832700616 -40.2357393965911 -36.402955048399 0 0
107.280696403821 16.1337728228879 20.8347873605034 0 0
224.174008038349 -37.7452108023959 -3.28851138458092 0 0
208.047052849872 -14.5651919469701 -35.1969777935446 0 0
-232.779098062837 -52.8301770105557 13.479244560174 0 0
204.12193359602 -38.4501069731207 5.29855659589073 0 0
-196.253713705899 33.3909445636768 -0.656329621550745 0 0
-214.458755419365 -26.9175963932659 21.1479081547394 0 0
-227.356310834426 12.7753290967334 13.2485898086763 0 0
154.543159192443 1.60855316361222 -8.14100962656918 0 0
229.316135226386 -17.8248709044222 -26.152254719914 0 0
-215.806712294645 37.211935730183 -6.47572746234687 0 0
162.906100311336 -19.2956960055937 -5.02312051674016 0 0
226.836923269948 -8.97903204839225 8.54902957529745 0 0
-187.775212050781 29.4739979245283 -8.5401461998319 0 0
-241.33178379899 -13.3923849822996 21.299021792877 0 0
-63.9676047814605 -6.05083041439555 14.0104397997048 0 0
-110.201872595512 2.93090049579439 -12.7815488621348 0 0
-194.6747689912 -16.7950427119086 4.46382746599632 0 0
-164.313899016485 -7.43802826574032 -12.3904708067514 0 0
-225.812946884405 9.87643582135181 -16.2142492313749 0 0
-163.909090050691 1.06211131695682 -22.8343053189732 0 0
-239.780875675784 -29.6705359592581 -14.4138423769563 0 0
-1.78210976604854 -5.95850963598711 3.73037198543185 0 0
220.029434391749 31.8552188597175 5.88244295441529 0 0
189.435197074298 -1.89317722046323 -15.2428408618729 0 0
176.254964561469 -7.45047361430089 -10.4760497898447 0 0
-140.435795507695 6.42038355870765 -17.8062677261376 0 0
71.9240467629635 10.0608470485119 23.6417436683917 0 0
107.029501262236 -10.8393542406205 7.36557095702263 0 0
195.54209378355 25.4897506260994 32.6590234510122 0 0
-224.8348882986 10.4298362041459 15.6273063328362 0 0
141.023471530687 -4.49858061094644 -5.93036228365524 0 0
105.217353241606 18.765420241241 16.6642091820194 0 0
-193.198933236291 -18.282663227954 -0.723526483055917 0 0
-244.605135238471 8.82930195886144 -20.1584314866448 0 0
-181.471021603325 -20.1293295030157 -22.3917195438544 0 0
210.386428835163 -10.3994707549038 26.5453771967377 0 0
226.201566880316 21.3790007132389 13.7479396616185 0 0
-45.0345846684459 13.0968880222089 21.0275141349017 0 0
19.7929544530961 -3.47247301758583 -5.72695624574278 0 0
18.2012002265653 20.5099820055851 8.95134845407225 0 0
182.097549656964 16.1481892425458 -18.3467111503238 0 0
-200.873823351164 9.60752656108501 -32.7631236745808 0 0
26.8356882851605 -2.21103555406309 -6.57580998801247 0 0
66.6337917360333 9.57342366776281 23.7053276458709 0 0
-228.158117873602 8.76401829122038 12.5499856035114 0 0
-189.819009937869 27.1906685643906 4.51337487772735 0 0
-230.539365725483 28.7235070133787 3.54537905713349 0 0
88.1665581767674 -7.28644221999967 1.04565960633346 0 0
-184.842242448484 -13.9407139692387 -29.7171926771139 0 0
162.375188555512 12.2960821558724 24.1732046699358 0 0
119.39831845711 -11.3208722176802 4.83339910535622 0 0
146.723376462579 12.4128350960605 -9.03556723242821 0 0
176.778594452354 -4.20431122851591 -10.9146845040136 0 0
-179.400323949539 4.27931786317358 7.88333143647637 0 0
-226.041844240311 24.0600163985342 9.39502276076574 0 0
-232.115138217336 -4.97150679757089 15.1341966209553 0 0
-16.3486413739475 19.0876801510173 3.01534177888766 0 0
-38.1355363354626 19.2960417015558 16.8358616836203 0 0
-199.753080111957 34.4659929957108 -1.53570223461691 0 0
-151.796798957485 16.0262498242822 -20.4644929056865 0 0
151.090743712328 20.7873567043346 15.078054764906 0 0
219.974024718712 -29.3662252662802 14.2910371068477 0 0
170.997162921198 0.788166179393477 -10.2619876453819 0 0
-193.650821841705 9.81677104607841 9.77389043538316 0 0
-8.06073553947625 -7.31393855929523 16.563608725082 0 0
-103.561605915091 24.7263086202002 4.94629015028665 0 0
-188.097489690179 -18.3281132321192 -20.4540406550151 0 0
189.545799769667 -2.77133987157368 23.5043083581636 0 0
-189.119459703794 29.7414985766514 -10.6981679653494 0 0
177.187179949948 -17.6010880107811 15.5125830403625 0 0
219.381590594989 33.1704975791168 2.01590523473865 0 0
217.827433158048 34.7607630165746 -23.8351373493491 0 0
221.710037494206 35.5638909022851 -9.03605259722559 0 0
94.0068442821245 9.39880840392706 24.1680151668304 0 0
163.117549999833 -17.0690637481376 -6.09259568946261 0 0
-144.968148106411 25.0745907715455 -2.4923525647286 0 0
230.147802295636 23.211000843205 -1.18848012297884 0 0
-196.34642927492 32.9338522134482 -4.278225359218 0 0
-158.3992109562 24.5212788748947 -13.585997922734 0 0
-206.855213888417 -13.8237117177828 13.4955291120289 0 0
78.6846236239859 3.67914010553952 24.0778048219475 0 0
70.8013402196888 -1.96090347430558 -5.34577626125679 0 0
-204.976906885875 37.197117082906 -13.5238009260358 0 0
166.716193409003 23.568113803605 -9.83908249753722 0 0
193.354779969795 12.8624280476818 28.7903452993811 0 0
-214.254206344657 8.23468603418564 -30.4973228154042 0 0
-13.2012720096205 -1.77760009245031 21.7384154823406 0 0
-97.8905932017088 1.32814641692061 -11.1854227039999 0 0
-237.175638892067 20.246539165087 2.5855509491922 0 0
-238.023027828329 -52.0117827157707 -6.64917479533387 0 0
-181.807023927598 -12.3236605913857 -7.72858801269593 0 0
-187.145567258771 -20.2671361256655 -19.181066167985 0 0
-218.387227695209 -35.6265814111168 25.9594069502356 0 0
-222.930435199123 -2.11876049336293 -10.0754559368216 0 0
-242.729344792501 -16.1454148052073 5.11429404358472 0 0
-106.001025813257 24.4742357570178 -1.01664593969448 0 0
-58.9616987278724 -4.45734670823646 17.5510451101826 0 0
-45.8261081909447 23.2748615178325 8.3363711260327 0 0
216.675522687177 -6.67430553717798 -8.43035724196466 0 0
-247.507068252423 -28.6622582157524 -10.453124747846 0 0
214.001007053125 15.7214847544379 -36.2099677207696 0 0
12.4380345178136 12.9666985854836 -1.58689455275757 0 0
187.021802914314 -27.9114861134838 -15.2943712448667 0 0
-208.262768671509 -1.99138098675952 -19.1853169324039 0 0
-146.257151429905 9.98851379865738 -20.2140302566916 0 0
-4.16976020676168 13.2529951686027 -1.25615676166374 0 0
226.965783630729 -9.48685544684843 -8.45953237704898 0 0
217.088349664996 -12.5502988753486 -14.5272321926584 0 0
2.20593732108033 0.432215231111461 -6.93893569738535 0 0
210.129400922118 -37.4740289901565 5.85563322070335 0 0
-225.715090334559 -24.1968440724706 -12.1426063460836 0 0
-104.196161303012 7.85539324012711 16.6875813942618 0 0
219.250760031095 -8.45362809533667 18.4622347925367 0 0
-233.667392430203 23.2517955943643 -23.3189250089588 0 0
-171.839646783271 -1.19429021245499 -26.6881768790417 0 0
-208.810990685804 -44.5835091970357 9.79915421185377 0 0
-51.113827594975 -2.46199326854923 -4.22264430479085 0 0
-174.118409508348 -13.2373793773095 -15.6237143833943 0 0
-6.74339999475035 -7.85602118700058 13.8024794982733 0 0
-62.5921845578697 3.35056806910759 -9.16970637560241 0 0
-253.691002218356 -32.3332255089524 19.2060975835588 0 0
-214.630140603098 18.8508710453172 -31.0020596453911 0 0
-116.176752895837 8.07685481335123 -15.6667449261817 0 0
84.2367104929744 -9.99588406615799 12.5700912690879 0 0
225.638503507813 -32.9369477814525 7.61182706387812 0 0
219.754327374987 24.3069985157913 -36.4646393525489 0 0
206.302688508948 13.5432269884716 29.4268283407545 0 0
228.529264110016 34.7447215406827 -10.8669533569981 0 0
52.7744431424777 14.819254466005 21.2980458068558 0 0
195.470333452841 -39.5810007189181 -1.91095945236408 0 0
-179.671308199214 -15.7800250027415 -15.242455386755 0 0
-183.313518447412 -20.3567295213676 -22.1221165388304 0 0
136.294279932078 8.5799530413693 24.8110968613857 0 0
-136.58653045996 24.7326083704118 -7.06924940262308 0 0
26.5461671495876 4.94045666266436 -5.98910532421576 0 0
223.333645697318 -36.3733090265339 -36.9748078122692 0 0
-175.782681928499 15.4755922633311 8.38130034713801 0 0
115.534855331423 5.09600256104048 -7.49694658357605 0 0
228.733953233122 -26.5870193749237 12.2243898945701 0 0
-203.504488215026 -25.8232196793907 -1.0960504063367 0 0
-195.315453857954 -13.6557848038181 7.35173136425871 0 0
187.676753011366 -12.7950898146125 -15.4371137547203 0 0
-145.584554513425 -1.7900407510481 7.27189082989784 0 0
60.0672201115912 -2.75638544151049 -5.04055737731518 0 0
-30.0750561345201 13.2218517487442 21.5456498618362 0 0
226.252146553747 -27.3330308450597 15.0971847487355 0 0
162.302257316288 22.7738440304761 9.79684545456812 0 0
223.075001730936 7.7992443994662 -11.9986865506849 0 0
-75.9186885117622 -3.20198036226319 -2.88179357094012 0 0
-139.009746515513 -1.33121944330388 -12.6654655073985 0 0
-215.50320713726 -38.5332993278902 -6.7335378468617 0 0
205.403354698037 -13.9696741288325 28.5401292454686 0 0
176.127625375227 19.4332851392761 -16.8735551198372 0 0
188.88526045638 -21.7905840796705 -17.9987203009088 0 0
-222.497409215688 32.2187540080443 -18.3685358398638 0 0
-213.834103721742 -3.69698676320264 16.2841590246743 0 0
137.896268274077 -13.3511302784797 2.7930950455638 0 0
-7.08570007374632 17.2623815211004 1.73518653075636 0 0
189.105158897288 16.8714342755789 29.0678727566582 0 0
220.678250995512 31.5780903940302 11.4198463878347 0 0
228.704974959966 -39.5299277451988 -30.9509103716646 0 0
227.264534993932 30.128773270951 2.39192606793202 0 0
26.8476186472277 -5.59144191312409 20.0461790196714 0 0
206.88316324027 8.82183788351204 26.6452407018698 0 0
-203.967628177379 -13.6871027074358 11.849904577424 0 0
147.687975866393 21.4737735410411 10.4505196993576 0 0
-148.331193478812 11.8985268985741 -20.8131350182524 0 0
-192.244676345814 29.4281069236415 -16.1392484727973 0 0
124.108807099812 -8.610932115071 -1.76274971775716 0 0
224.238187063103 -1.95189142171267 0.945702272938747 0 0
229.186967117341 -40.2415182414426 -23.174677355902 0 0
114.192537000314 -2.42845622103287 -5.67521880683206 0 0
-112.6394158055 14.3027213498124 -13.484573361774 0 0
109.174877430315 5.8176627264704 -7.3870309982354 0 0
-105.048822472873 7.60055252560927 -13.9682661608229 0 0
-199.308200045237 -7.00798935064964 -19.4574217842324 0 0
-11.5962514440565 9.85141213911411 22.9890186346866 0 0
206.539003256476 -29.743830197084 -39.9506363743975 0 0
-125.989043294026 -5.05178999701295 6.38327150985846 0 0
-25.7930486083694 3.91664217628752 -7.17447981396565 0 0
174.491757541902 -25.7548907939193 -6.92623542150049 0 0
36.0093334731251 10.1505707107537 -3.2970625225824 0 0
-168.257709305493 25.6120226806958 -2.79987432195343 0 0
-133.130980710005 -4.51110911155475 -5.83062387809857 0 0
95.4140207338703 13.6380047777362 -3.6411918900575 0 0
181.140529267309 28.3573986856004 -12.7249693168794 0 0
210.937307425166 -8.39011286688901 -13.5481708353761 0 0
196.788358624714 -32.2849341251076 9.93149257797425 0 0
167.830112482438 4.29748876893707 -10.2445960031884 0 0
-169.826007134778 8.2397815529503 -25.7265238444392 0 0
-62.6225586647955 22.8021704316797 11.8778337732921 0 0
-97.4474718155642 -2.4984763346402 -4.90533272122804 0 0
-123.096515196515 -4.59998459617051 7.43874395474544 0 0
113.913428703302 -4.41387048117491 -4.6082773034679 0 0
-253.538997192456 -39.5573016219492 17.9688631851849 0 0
-220.025804907802 35.119814673504 -4.31631773319937 0 0
-238.815065254503 4.47093632331724 -26.5593039813343 0 0
-189.981281578597 30.328683737932 -7.35387534642692 0 0
51.9447281259821 -6.00078338110837 1.78179728660947 0 0
75.4127158163431 9.71431143838782 -5.00469609163373 0 0
174.450380662133 6.10679886504132 -11.9339428411449 0 0
225.012766032809 33.3249066434506 -31.3789948651502 0 0
-234.151769911694 25.3403052459988 2.05280721613816 0 0
-224.179974306318 -55.8795265726345 -0.434764304745607 0 0
-241.996593705168 -56.1345079226191 3.04921438297766 0 0
-12.8975805054428 20.6064045936975 5.23374404682352 0 0
-57.3767737544062 -6.50920237446003 6.6526230498854 0 0
-105.910750093909 24.9849614132286 2.84678710939256 0 0
-97.084316671815 25.1038990621502 4.27104988184488 0 0
219.673532167954 -1.14516031740062 -5.67468781983091 0 0
206.773737549764 -41.4081726208272 0.255650579936058 0 0
-220.140039811788 6.64257255839168 18.3241060598165 0 0
16.0696329083568 19.8006659920504 6.49749216928929 0 0
168.353752738996 1.32213729160673 -9.86483561741617 0 0
206.594662351171 -44.911871032048 -21.0066227566487 0 0
-212.748822921518 21.06752742153 12.0543933822671 0 0
-77.8388357375225 24.7193831857538 6.08827620297366 0 0
220.203318558735 -42.4490802052572 -31.6083443433268 0 0
197.803226930666 13.7722434559878 -33.8014545028005 0 0
197.939709725003 -36.4764513513335 -29.0046087717607 0 0
-235.962507720669 -54.3220524238033 17.9745466500934 0 0
-171.68485457506 26.0774154736833 -3.8865019776191 0 0
-113.288054225128 2.69597138680245 -12.9261091143701 0 0
-235.146473404155 -52.5729080668046 5.19806398335586 0 0
222.930753402175 -0.907053431582762 7.18476482453268 0 0
224.871863380145 -2.35737948247407 -1.13854974606509 0 0
-232.310957165823 -41.6476239304153 32.2322959764032 0 0
-44.6197562853 0.247001368174467 21.3182788500337 0 0
36.9706228047078 12.1480740821808 22.5270532296472 0 0
-146.695606476533 0.447578170872531 8.45312521132327 0 0
-221.988118216685 -34.8563813878398 -11.5030972933906 0 0
75.2855955916419 3.93959067404969 -6.62090168539554 0 0
-192.088551360346 -14.8111888012794 -15.6326526894542 0 0
174.032332236994 13.9197936110346 24.4712574751546 0 0
214.549412677676 7.57557942472945 -19.5986413818922 0 0
-4.90948920195972 -2.4878707548201 21.6216995355247 0 0
-42.7250394954689 18.3653401470331 0.128288878960611 0 0
67.0107139160791 14.6508903759244 -1.38728092410165 0 0
177.555957715125 17.5914388328874 -17.5267048635024 0 0
-150.449991475779 -6.70027838146287 2.34638534079014 0 0
221.32025413741 24.7513029033176 22.4621370470071 0 0
-98.929708530062 15.948634174858 15.3550005981016 0 0
20.5530529093581 18.6083403630906 4.07267554589121 0 0
-12.3701191068753 17.212886377625 1.60494069806875 0 0
219.662851045855 31.0478109844843 14.6297206755601 0 0
-221.345115891401 0.887242641520236 18.164055304744 0 0
142.82786114525 14.7779321221915 -8.47454265160037 0 0
-232.023990326368 -43.1187403582522 -14.7120062098436 0 0
116.603075487896 6.22420828237061 24.5824556335602 0 0
-230.052203812601 29.1804255692259 -17.7342093948074 0 0
-153.053408089191 -3.24590728148053 5.6841961036443 0 0
110.12815750441 18.8150669133729 17.1408158904023 0 0
-221.729328557438 11.8959736139131 -13.1333159006609 0 0
-229.31145159573 7.7532294674526 10.634441539544 0 0
-234.256619227365 -3.91966046746635 7.59999591512914 0 0
133.896625058692 20.7770989355977 6.47750001821965 0 0
21.4502653139362 4.37381223225183 -6.44810783728437 0 0
19.6707925790352 3.68646162154346 -7.35458256876985 0 0
-201.737906266207 0.262924460876538 12.0998390121377 0 0
44.8011578111341 12.2548172293251 -2.35665268211273 0 0
-176.064802426083 -16.641698709507 -18.1316298009095 0 0
-170.603086496966 18.0732854859479 -24.6062805601484 0 0
-171.79116371222 2.99876963641207 7.62523840162683 0 0
-231.941164267174 -14.0522077931937 -7.55298205264323 0 0
165.502756510497 18.4423492293077 -12.4740148734035 0 0
-181.331448408267 26.5652636364052 -16.1447674639944 0 0
-252.368209240151 -20.7245625149428 2.3892635313751 0 0
-202.715150358205 -0.518269268974396 -27.7385795603286 0 0
228.937245678947 -19.7068402615004 16.1352613235905 0 0
167.584171273825 23.7506038611369 1.65428804763949 0 0
185.759146163681 -14.8536430408324 20.936869426136 0 0
-209.05567754453 -3.83068334610638 14.506057530009 0 0
97.2224759198684 8.83598046784768 24.2523243848765 0 0
-167.377911280588 21.9354299673936 5.23678672644505 0 0
-23.74393395617 14.1333179573426 21.2333132814257 0 0
152.561649586313 -9.51419220367028 -5.59337242144212 0 0
-241.452069422177 -17.9465398803738 -1.1528813965457 0 0
-248.475826571245 -47.81672317083 -2.96274386129626 0 0
-219.438747529678 25.7146772441871 7.28521951342629 0 0
-30.2946915646853 10.2105198554002 22.4383035350066 0 0
43.508399393856 0.109124116803898 22.8256575939828 0 0
209.43375215366 36.7745040940828 0.629390576325097 0 0
-240.648587497326 -43.4209288696655 29.67985346356 0 0
214.212091328138 36.5263256883599 -18.4545930408601 0 0
198.730462514315 -41.8490040832985 -1.78928401022615 0 0
-166.364534657066 25.3362967226138 -1.76635473299101 0 0
-23.0871108551727 16.2832527664464 19.7892386479869 0 0
234.044422710737 -33.5838646695798 -0.0752355770783447 0 0
-240.807410907865 8.03240274489459 -6.78118937451348 0 0
228.568449097306 -37.9303183500135 -8.57823619779481 0 0
-215.875630219935 -9.89828351019161 18.1038161929064 0 0
-30.6217901058003 7.60509800244901 22.7447284444164 0 0
227.515457075271 -38.8441532018661 -10.7230580224386 0 0
-209.349119531399 -45.1828909936862 3.07186099876268 0 0
66.5758970653747 -0.565245427962804 -6.43324883889437 0 0
-233.653349496599 22.7269457886744 6.23027912995441 0 0
-193.409465963978 -6.42582323527084 9.96368624169916 0 0
-254.753291904047 -37.3464808002544 1.3353383929913 0 0
190.056285921806 28.6602432868451 14.4151360236375 0 0
179.033274541988 27.1244097175461 -12.4802688628505 0 0
75.9002233519499 -9.4564337047646 9.33054140008897 0 0
-161.838617008256 6.26238569231842 -22.920195892177 0 0
-205.943199322216 16.0077877784667 12.7507938830371 0 0
80.3628315241123 2.25635344170366 23.786915270592 0 0
-122.123479524158 21.5483903786312 8.72651574570172 0 0
-225.439172764521 -35.8255201083152 -15.4289068905242 0 0
-41.2214909036683 11.4804748763426 -3.56063202542457 0 0
212.894042705979 -38.6914491444825 3.07596676339386 0 0
132.459030535362 15.216492437718 -5.75504138273354 0 0
231.444668421318 -31.1018199331964 5.69099473768727 0 0
209.575963422811 39.9933564354504 -18.015029511003 0 0
210.293157932618 -28.5351216344928 -40.7736638187022 0 0
72.0786435873775 -7.68675814246685 3.67734924121143 0 0
-239.177262486497 15.7131366146276 -22.9477333690408 0 0
234.881740421504 -27.3710864387271 -20.9495490023889 0 0
-217.249144395432 -52.5180388978518 -0.252527692190616 0 0
-64.6761307414567 0.695378902451782 20.0057439454071 0 0
-73.0437502185628 3.19202877479813 -9.42910504288198 0 0
-194.961767834391 -5.52336583339642 -23.6158622643839 0 0
-246.783706280586 13.3112747545823 -12.6630359653126 0 0
168.127921660033 -1.93607831676401 23.04972152309 0 0
207.440344251885 -12.4362759915898 -33.3038045346889 0 0
-63.2983032694894 -2.87471982548709 -3.24627608175834 0 0
-165.084404496916 25.0934766002185 -13.8035713244826 0 0
196.380768628734 -7.26687379831006 25.9327160302594 0 0
-233.442978754777 -25.9079660559995 -13.8140876376382 0 0
200.679195589255 -44.7541051172051 -23.2495967845281 0 0
120.884124169595 -1.63395296210522 -6.17332369352747 0 0
219.786899832885 -41.4400739695185 -36.6429852730908 0 0
139.032408154727 -2.27554292594174 23.1208951395278 0 0
127.872976619542 -9.45432080462723 17.7685643770706 0 0
-209.675892986819 3.91310354897428 -30.654795004639 0 0
154.509195021129 21.8537853651932 11.5372930973087 0 0
138.088232392945 0.498892802558123 23.9159962116486 0 0
-235.805352688159 15.4701088750311 3.992867363785 0 0
-215.985453400548 -2.46247346373619 17.276870175697 0 0
-211.373586658384 13.5083489413016 18.1786791477307 0 0
-208.958941766381 37.9460997474902 -2.87151292446136 0 0
186.519097814698 31.2642779826542 -7.91878711286471 0 0
-83.6315296927324 7.67220100034575 -11.2042794955405 0 0
189.155953057701 -16.0213305224816 -16.8695377001838 0 0
45.4227086937853 14.3690832800653 -0.850782538181997 0 0
-38.7743897199607 17.5118467210064 -0.132845053045956 0 0
213.713845706366 -14.0140811924482 -35.3639166941229 0 0
-30.2446457501173 12.6272610617641 -2.62934869263094 0 0
-161.1370248884 -8.23926820019725 -5.34367367048038 0 0
140.271464675738 21.0087945365441 11.1151099184975 0 0
-63.7383460655852 1.56873860449451 -8.56313861246363 0 0
-212.328523299241 -44.2385386813984 20.3690779127733 0 0
141.019609350172 17.9253260312619 19.556709446954 0 0
-48.3137104766172 16.2579396721215 18.8990990849713 0 0
116.588976284583 7.12233887883813 -7.51906195951636 0 0
97.1080522129969 16.9383150641066 -0.320883538970944 0 0
-206.362760726267 19.5255478866748 -32.4919544706899 0 0
165.279201670742 -20.2470143000848 3.15195081901876 0 0
26.2586151084639 17.3599489652823 19.0939450275755 0 0
210.705905978358 -2.39300457521713 -10.9371938634664 0 0
-239.547940914594 -50.684967873867 25.9854578330774 0 0
-231.368660730532 -10.2109955639302 -5.50357240367739 0 0
120.058749418101 20.1682736697461 12.2410903516247 0 0
182.770828609424 7.08089701195117 24.8999467147315 0 0
-245.522385865051 -41.5773450707097 -9.96713053600122 0 0
-236.722140541003 -9.7310641735763 19.0366675914502 0 0
192.131965795597 26.2255181823386 -33.0947774609683 0 0
-162.2836935728 -8.58262694732622 -0.767068673167474 0 0
-210.96020041514 -11.3143526652966 16.0653203805626 0 0
109.281424993907 -8.39265507822371 0.345015220059042 0 0
-105.385541250192 15.2076162809703 -11.4050105023857 0 0
-217.272544304136 32.0628815718073 -18.32722683371 0 0
211.038585381078 -14.1235089358786 -35.3690327050807 0 0
-40.0377162801314 -2.8650972845402 -6.73006878547711 0 0
-196.723312370496 33.4769138654877 1.42147019142207 0 0
231.345812092532 -32.8965877933914 3.86058082701665 0 0
181.43766267459 -13.2947025535317 20.6313066864507 0 0
153.613973758734 -1.31211271050933 -7.50550613341403 0 0
-64.4587639163832 14.8208989490112 18.8663927615857 0 0
-115.448711572241 -5.19230444827557 -0.378476865781789 0 0
-218.544869346652 -50.1409528776333 -5.53488940136322 0 0
-126.819240196566 -5.20211472445148 -2.19292553897259 0 0
-255.665228435439 -35.3404947980166 3.94475736525241 0 0
219.088764672074 -10.427625446282 22.0882917530736 0 0
5.74550127794369 -8.07190204961086 15.290175432757 0 0
-48.3907195273771 2.57066180795794 -8.60926863367131 0 0
41.7419908918978 -3.45183621852218 21.1557584299198 0 0
-223.671553049627 1.17013817988153 17.7712754904739 0 0
-208.886326016217 2.25188021212707 -29.0328717706725 0 0
227.864377332982 -14.363394341772 14.0804653447596 0 0
-179.725771397532 -0.571502734525659 8.63992212442225 0 0
-84.9843959129402 13.8264707869443 17.7431091646476 0 0
-60.2327005716546 11.3636272074071 -5.28556810355751 0 0
213.311782034343 -44.4954560727479 -21.4978161867742 0 0
-242.294440314966 -37.5723665800579 -13.4356021400622 0 0
-113.676171055441 -4.41816865659768 -2.78965678783158 0 0
-243.043853360012 -23.1164655295598 28.5077061163521 0 0
1.12033819255307 -4.61202337239639 -3.68092522497274 0 0
-108.349346183189 7.77262229009567 -14.4819745709157 0 0
104.338655716865 16.2698495790456 20.6695546322006 0 0
228.855927645793 -37.1750364654695 -4.72060179435794 0 0
-246.692558316451 -15.2743963424029 17.8341985783925 0 0
-216.001394504251 35.7214723242616 1.28311491635806 0 0
187.107475268663 18.4707078430613 28.7125580450639 0 0
-6.84227272560632 21.3560446525376 7.75907689325484 0 0
-85.9622312488143 21.5225063954385 -1.83332764559604 0 0
3.9866139124604 5.04738831462576 -5.46066807348381 0 0
86.1714111790995 3.45122577871979 24.1230128315673 0 0
199.655613877009 -14.4503468554046 -29.9466091413339 0 0
226.784051504697 14.1375790588974 3.57589116600242 0 0
-237.938638634566 24.6381479819047 -14.8760389953435 0 0
-227.023408300337 30.5816091029338 -3.36000984517562 0 0
181.27965908313 10.4707789056643 -15.5449357880986 0 0
-223.697691175099 10.3782467338289 -11.0323364309632 0 0
231.797302888225 -25.1012866036064 10.7698444912943 0 0
-242.003995755749 -12.8027719743931 10.7157315204814 0 0
-110.171779461022 23.3071867786165 -5.12777960951886 0 0
-9.76437769725537 6.36968599260402 -4.93660511861636 0 0
197.917316291727 29.3190265379492 23.9446540047652 0 0
-89.6831099872013 1.90127223738853 17.8250115418982 0 0
-157.751297481462 2.52757291214834 8.34845934146292 0 0
-166.125837239206 26.1022408289642 -5.35455147712773 0 0
129.271912811835 20.558287468977 6.7991075181409 0 0
-213.929256442931 33.1733169573666 -18.4675218764572 0 0
-214.424328657338 37.4280600832124 -4.58607706657623 0 0
223.235407731148 -8.96851701146668 16.0149679710052 0 0
-247.35862719987 -45.0549444640058 -5.90419873837517 0 0
195.800670964333 -3.31764892570333 -18.8865471079057 0 0
198.918759702993 -45.7204831284209 -12.0563788898007 0 0
-234.684374147198 -53.9651292314818 22.6293815570835 0 0
100.445100709592 -10.4296915063934 7.57589406920632 0 0
-123.066056707332 22.5591572994711 7.6831603261276 0 0
202.206081503161 -13.9375850666326 27.9662948427882 0 0
-23.503755842313 -5.7572945443584 18.6772489855981 0 0
185.326025270757 -13.698192535361 -14.3556635716276 0 0
205.297649099314 25.9200829474162 32.3812180855261 0 0
221.946905080055 -41.2435703651207 -22.3128159327619 0 0
231.271670242001 -19.1771322520113 -24.0804449713522 0 0
-213.796981914179 -9.02862020612272 -12.3632917498124 0 0
205.147571293566 -31.3680871880245 -39.1996220896958 0 0
235.925934961056 -30.6044805382783 -15.3917894896488 0 0
-226.256866806088 4.84177976313746 -21.1302617932816 0 0
-201.811919311229 20.7684275144244 -31.6548767386322 0 0
-225.118124408513 -9.75483032088368 22.3837657712015 0 0
123.206703396654 -3.38934754300291 -5.68966686952498 0 0
191.753415831649 2.08475545943839 -17.1801062080178 0 0
-232.845889626178 -5.0667484156454 12.9575068845413 0 0
-179.992439922917 -20.1017720635112 -18.2244647663991 0 0
-208.652494488616 37.2194667886136 -12.0472164199692 0 0
-66.1237513307808 -4.03771297665902 -0.777674862664793 0 0
138.90600108169 10.977072115847 -8.13598954097494 0 0
68.2044478918402 13.889148947497 22.2157272685959 0 0
-62.0838572014337 11.494289019758 20.4121462513059 0 0
177.01295240985 -24.0928799600384 4.51394275898622 0 0
-14.8319768400409 0.279323082385681 22.4679346592307 0 0
-59.084356717306 -1.98511900275241 19.2770296347862 0 0
-253.743797255808 -24.0634844012956 15.398975604576 0 0
234.615195895033 -24.818258180427 -20.7960896185294 0 0
-91.5854414277618 10.5592968758664 17.9555502125097 0 0
218.452807734592 -17.2931133218922 25.7236002412754 0 0
-69.3666163168585 2.92172197271358 20.1855417318435 0 0
-245.204555352377 -55.6543118783651 11.6361291120661 0 0
-82.187765123047 14.1828579934613 17.8514078718459 0 0
202.862684884835 -35.3527577576436 9.06497313716556 0 0
214.424013151837 -9.7651197846021 -12.2333590743789 0 0
-245.356024413258 -28.6090025607368 -11.8447130688087 0 0
122.28688128966 19.9404416264818 13.7628554969434 0 0
-8.94836888230144 20.8178130284307 5.99824647951513 0 0
197.599062561857 37.7599065453592 -7.34820689925226 0 0
-16.6617375042808 -2.99846607230553 -6.29040934842971 0 0
-108.919389390844 6.29537534707079 15.9507320732142 0 0
-187.561513563226 20.0031735593803 -28.8167115887315 0 0
-188.744829178738 23.7593903518941 -25.5153423103031 0 0
181.608082818167 19.8420000753843 24.618677730535 0 0
-182.740185631146 27.3749071136345 -0.92677385710734 0 0
-89.539527590979 -6.12563641130946 5.25551519198465 0 0
-210.856270980079 32.7365920626254 2.75560072516184 0 0
-237.021166084349 23.7636128172069 -8.66967110516796 0 0
180.464694702549 -25.440091233323 5.60868448130971 0 0
223.350195662621 6.31235817075259 -5.57683675760073 0 0
-37.6393668812893 3.95532472277678 22.300732913442 0 0
2.95534158428094 10.4169144991845 23.0283942535412 0 0
228.138873585724 -36.3522835998109 -1.73262452611884 0 0
-112.357855563018 0.379307720061118 -10.1715286203179 0 0
-196.061782240033 -17.3082019863892 -7.76554520018283 0 0
40.5105502340306 16.1310361203861 20.1005676938989 0 0
16.544946630248 10.4287050292328 23.0011337689516 0 0
197.758439009861 18.2818695718792 -36.1879288363044 0 0
197.669117461397 31.1625779016352 16.0361933850133 0 0
-219.493635883909 29.5928769598231 -21.5348359286181 0 0
183.263186649833 5.23765548932216 24.3555376090715 0 0
201.8729105959 9.85354831936227 -29.9793646127931 0 0
-234.473686759196 -13.597781049256 -4.8230431901103 0 0
225.474402490453 -5.6493786408948 4.19926253298708 0 0
190.532005505443 -20.0859785916253 -19.9917360217355 0 0
-171.027613256569 -6.48590668771099 -26.3458530087206 0 0
192.564262808179 -26.8013127552037 -24.7076440243444 0 0
-13.6693409865791 4.88136286990192 -5.68555952293905 0 0
214.962060414408 3.4171073367642 -9.4104821359509 0 0
-227.517956103787 16.7408048141428 -29.2565024831339 0 0
165.014796130833 22.7584054602668 -5.26852447858699 0 0
-215.783318496767 36.2975304944546 -13.2927993712564 0 0
-72.695396858148 -2.49528527868449 17.8116925469504 0 0
-155.206805464801 16.5601142738235 -21.1935542921116 0 0
38.6848219411001 19.7441401384222 15.1226514713925 0 0
-64.6718464038622 21.8594899241436 1.27882784675531 0 0
-229.74824208359 -55.13331276931 19.4058495200103 0 0
192.5925980748 -8.53691346468887 23.4875748088516 0 0
25.8344096721873 -0.169278386690972 -7.13391487763581 0 0
-22.0533980291368 13.3369089322348 21.6751931214269 0 0
14.3489297274053 18.5712850667817 17.88065530863 0 0
231.725011033961 -36.6177771358879 -6.68846077454067 0 0
-197.453649114601 31.8023465415763 -13.9823737805622 0 0
200.782451144418 5.38956261389963 26.6781215489354 0 0
60.2101821623517 17.778074544737 18.6166953021265 0 0
-226.569670627015 31.6464754012852 -0.398788210430319 0 0
206.8677468094 1.94842373961275 24.3976905464171 0 0
211.669439083985 -41.5061667492469 -38.3285757852998 0 0
-228.009369610454 -20.0019829540569 -11.7346357778397 0 0
187.611447576196 16.0530175629846 28.449924056178 0 0
202.765439723675 31.2137267117705 -36.0929835261555 0 0
-214.631670251563 1.90684079765179 -22.1221848034882 0 0
-212.905919780458 -6.46237836497533 15.7586495365086 0 0
-26.0589346977019 3.52556877018158 22.7032803570145 0 0
-102.009472219981 -5.95443087210311 5.16412390872547 0 0
-246.09821218003 -54.2129888116565 5.69277172885431 0 0
166.429005732634 22.449405337634 -11.5260678327983 0 0
-233.440740053402 21.5933989781548 -26.2382786519306 0 0
199.226476572413 -38.2788091943055 -29.7191339350735 0 0
-241.704820594761 -24.5287205539126 -11.0289640130518 0 0
-238.655025686264 20.8767372360771 0.680916159466952 0 0
203.217453461417 -43.5011781477887 -3.09709436546115 0 0
-207.913870933241 -38.411244222855 13.7741865370493 0 0
-199.08257956925 -1.37253108124881 -28.3183924486959 0 0
-196.92925661668 -20.5874451764451 1.16423871327929 0 0
-190.059254501442 30.0232402446776 -2.24717255478348 0 0
1.29930791300606 -3.89788958668638 -5.86491222129564 0 0
-212.071313942479 13.7873958926733 -32.5433121701327 0 0
-218.570690170474 -43.7619643702992 27.4509882405566 0 0
176.333718444748 18.7483992955894 22.6571158353266 0 0
205.835852389988 39.2166646795343 -20.9370841134958 0 0
209.518412514628 -15.1937985082125 -23.0868141849029 0 0
189.851815691249 -27.5663731276187 11.5867740999257 0 0
97.8403713656551 0.751400955655636 23.4264849404391 0 0
-188.421218580895 28.1946992873099 2.05599275724284 0 0
-154.699151668042 -4.98793903252355 4.58020398692596 0 0
20.0893203638367 19.8363837292743 16.0114174714893 0 0
71.8532087843195 -3.28526480948247 -3.99715690238018 0 0
-173.513256112886 -16.1027584369507 -21.5899992889701 0 0
-46.9297308049829 22.2934105663066 4.18141021677047 0 0
145.424677103967 14.3986731565929 -8.89977202375436 0 0
-91.1242649349834 9.50297853862428 -11.4602543702252 0 0
-148.453149211107 -6.98328142779949 -0.177653849949764 0 0
198.043768966245 -15.3547865775206 25.2245032557613 0 0
167.610691795836 23.3276199998974 9.69058032613011 0 0
212.62201417214 -44.9153813370796 -11.3765242877423 0 0
-210.596332940352 -36.8348272826459 18.1458519462665 0 0
-254.169586343716 -23.0407057779554 5.53706743314034 0 0
-177.133292138543 21.5008644912419 -23.958975818689 0 0
-213.178048916144 -0.253296251400499 -17.1934725578905 0 0
215.988491937857 25.8866637284294 27.2575577402045 0 0
-185.149520863233 -10.948747775941 4.67956942748502 0 0
201.807234075365 -34.0353655440567 10.1290069944406 0 0
-21.3651852847111 19.8825700383599 16.481380601807 0 0
-168.674727387738 -3.33502056745827 6.48305439068998 0 0
-164.381893609974 -5.64123595579495 5.13356558306021 0 0
216.70355598566 -40.4860385484135 -1.87683946071591 0 0
214.184293007055 37.3238194614473 -4.02548477577735 0 0
-142.813949184583 -1.54671992134657 -12.9460453768761 0 0
5.74739421095197 3.74365821246598 23.2770195827198 0 0
-213.724150504264 -1.60400714583996 -15.5364743405348 0 0
-127.302387241363 -5.93399715008798 3.90891202026681 0 0
122.153748096081 12.095114637196 23.6861567429693 0 0
-183.924727468789 -2.344310268079 -30.0670764881231 0 0
-185.230619153168 28.8138972947167 -6.96524993264917 0 0
-96.0735232645057 -5.60205588823813 2.0729683155274 0 0
209.245369621178 -16.8997062081285 -37.1143593948531 0 0
229.084936991969 28.5283950999652 1.74569619584194 0 0
221.185885695644 31.7047101149607 7.61851049956877 0 0
172.990046468929 -19.944526339828 -9.90564101289361 0 0
197.750680340076 8.2098574395354 -26.0534518106673 0 0
191.699195831684 -26.0767179191413 -22.9266912148526 0 0
220.657479998102 6.90803020842628 -19.1840125978403 0 0
-11.5644338937542 -7.21991052134851 8.9575665351483 0 0
210.958537279357 37.3241322726417 -20.0441972730356 0 0
-86.1338519298637 24.3538377326848 8.52742949998651 0 0
-132.522290700688 20.1270386195663 8.87668067644127 0 0
52.8490735505722 18.8605331877805 4.61237686081303 0 0
-39.6118384129038 -7.27844828599039 13.2029315430174 0 0
-231.724150013809 -0.0824274973319836 9.48003624825069 0 0
-96.8621970022143 24.7235061374969 2.16240828290466 0 0
189.398400955408 32.5473909471791 -5.8757646229226 0 0
-51.1144712492657 22.7928121521492 4.52148359707009 0 0
55.7995646075667 20.2056955781755 11.5965825118277 0 0
165.974563757365 -9.6116059483741 20.4493034344311 0 0
212.834350183685 28.2290826647322 -38.8410107269581 0 0
-229.659145207913 29.4834879849753 -5.87147857735226 0 0
-110.742847386497 -5.64746244343051 2.16695598657283 0 0
91.9974295946334 17.8965753749329 18.3268719056417 0 0
202.036247576916 -15.1045221346809 -33.8033970717798 0 0
-189.677666314557 -12.8625658964622 -22.6164849637367 0 0
88.0605965992979 -9.64139225429269 7.28529071713844 0 0
202.082261994725 10.3971883703472 28.6372830504904 0 0
200.980716487653 10.2163157670288 -31.4135039223913 0 0
210.44645358878 -41.9665077338841 -33.008514715881 0 0
64.6544599296644 2.05633228053227 23.5054750867731 0 0
-34.342415804836 16.192053101053 -0.581601342089655 0 0
-206.227685642999 0.222527129273756 14.0146971011869 0 0
