"x" "y" "z" "f" "a"
-205.842359834804 -0.592806701970973 3.87482019132042 0 0
-19.1454621897006 9.16428977947583 -23.0263929619827 0 0
-119.503749175008 -16.1255064844338 -7.21643290497638 0 0
188.252185167254 35.0486742401653 18.3858193153441 0 0
-197.569113831122 32.574373791243 -13.220687044185 0 0
-196.667895157802 -32.9592943630567 1.87434176831013 0 0
-62.8432175848325 -15.4182595753185 -12.124575230935 0 0
-16.158853545336 10.627394659297 -13.8243649958107 0 0
-138.993944768181 -21.1935126583318 9.16823039068961 0 0
-108.63238106136 -2.94037601019068 8.83098663377579 0 0
-175.995433288854 -33.3386890184507 1.1811722304328 0 0
-160.208562447134 -20.8916267893632 -1.93301405279909 0 0
168.348962098961 -4.319128658213 10.313410313652 0 0
-191.111316836573 20.3082177246372 9.18399730059087 0 0
121.665198221872 18.10959322746 -4.26142540053639 0 0
203.057381082236 -33.5356792418863 7.96076103506106 0 0
170.043572239796 6.60499985411405 -18.0147414171179 0 0
208.058494194776 -6.52980124749273 0.933788839210702 0 0
41.2013962418892 -10.7768681372403 -21.796944890122 0 0
-147.91344188839 9.0461093155595 7.07300873356417 0 0
24.1083418019602 -6.11453591946269 -27.0050797421529 0 0
-191.395966725939 -16.6402474702779 27.7749063290208 0 0
-124.471434639266 -14.7708120707329 -8.01820088371013 0 0
-126.029029129803 5.84825951875838 -7.24377812529965 0 0
-55.4992266498121 -4.09662725387977 -25.0858644199832 0 0
-167.771506302683 -20.6238893873315 24.2618153904544 0 0
199.178131598924 -29.7902564501509 -5.70699374851355 0 0
201.996705288157 -7.96940470693044 -19.5184130502565 0 0
-11.278751767106 2.93679504498341 -3.4991033257737 0 0
79.9468281426181 2.98849052273306 -26.9776322072005 0 0
93.8338009686193 2.37887630365514 0.594547932890649 0 0
73.3894655806412 14.3478293071797 -9.84587980162359 0 0
110.376996697254 -11.5726330135701 -20.2895140064167 0 0
44.1727967511322 -8.71701225305736 -4.33170269816747 0 0
37.6960755986648 -5.33610789749012 -1.05283179515416 0 0
170.307562083738 20.2381076829749 -9.93845926865398 0 0
-186.298364444343 -10.1842634401568 22.9633673498259 0 0
176.276626563668 30.7409440719941 14.2524351878913 0 0
215.700973282533 11.8892026345944 8.28308913195696 0 0
158.005478631128 -21.2831534023633 1.52085504780604 0 0
-202.424636367994 -22.4657968877899 25.2169538551875 0 0
182.326792636163 22.7545090108393 -10.1975151380989 0 0
-194.219855078326 -30.1659344257495 24.0815625969948 0 0
-177.538744298052 -7.50792324165193 24.9472967574425 0 0
-15.8219434712676 1.66868894844453 -27.8850008074962 0 0
142.099688517415 12.5710802929552 4.98657866714591 0 0
-52.632191210515 -2.72247587777418 2.10995191707717 0 0
165.631750627429 23.6815422919803 -4.66123847272853 0 0
42.17157267929 3.05507054826649 -3.02085214021996 0 0
80.9362181293357 8.21127585308562 -2.99785193316475 0 0
-218.179599018391 26.8494023445982 20.3396395289201 0 0
217.753048285546 18.770463118496 15.7450298872915 0 0
36.6251393958997 -9.40418561266638 -23.774393855719 0 0
-106.345380702737 -12.8114959833109 -12.6797922381595 0 0
185.574383823512 -1.92451327565226 17.6913825059609 0 0
-182.115313670643 -11.5966487370101 -7.82293634782305 0 0
-226.062874765813 13.5669049703977 -12.9976464626838 0 0
-53.1147036859098 2.63515937001895 -24.9140603670983 0 0
-207.36240138165 9.4399924434972 17.442024242724 0 0
199.036050092071 -3.00636945734817 -17.5944298595729 0 0
-10.0052128890313 -9.72494021586202 -7.5103582611821 0 0
-93.7474222222557 -13.9441561393032 5.03770546642475 0 0
-181.857566201588 11.9056129827135 11.6388448191122 0 0
-175.360960093375 -6.73476430587067 25.1346945295064 0 0
-212.673886875547 2.24711896246371 -6.23988148589784 0 0
-163.090197404408 10.2487709580086 -0.994747693194785 0 0
-142.041104087701 -15.9473817109549 18.8024749501033 0 0
175.892165324168 -20.9386539667668 20.0648483206197 0 0
173.44225778759 3.23836856144306 -18.8480563841531 0 0
170.81064081324 25.9454218625296 -2.13007236986956 0 0
105.085628698197 -14.3553505851312 -14.0464894889851 0 0
-216.133843149113 40.4277980608364 11.3926320828363 0 0
205.154868079663 22.0271875929531 -6.18462774407793 0 0
-183.008124286492 -8.21576435739746 19.7251791463331 0 0
192.694726339718 19.1289618959503 40.0237549357213 0 0
190.945151448074 -11.8474750220929 -26.010231488071 0 0
-225.517366594865 39.0868497143668 -6.50553512095981 0 0
90.2576598733034 14.5180150345715 -6.87940993912597 0 0
-2.87281840198274 -1.92566035967991 1.23584755107121 0 0
-111.175363232615 6.06792284565041 -10.5512847119676 0 0
-198.096094057872 -13.8515712207102 -7.97075606695073 0 0
-218.668989948852 39.1760987272125 7.79692705839052 0 0
-82.4791800261709 5.94658048852733 -18.0403199646424 0 0
-136.786168351606 6.76614560505055 7.00309600076823 0 0
-232.494034632006 18.3285614360309 4.48441235018578 0 0
-169.221067531383 -21.0181652875849 -2.73514460847507 0 0
-164.143571484843 -22.113318207729 -1.65425747120135 0 0
171.19077838229 28.4338109065367 7.80603154495592 0 0
-202.911875697352 0.739230241179036 -8.41908454590982 0 0
92.3464126469229 11.9944014453133 -4.07961934542694 0 0
176.035727561655 18.8043934040677 20.4222520845397 0 0
113.830112324635 13.1620075940459 -1.21605937897756 0 0
1.21175629281491 11.4762078671034 -13.6070353709287 0 0
-180.165029704401 -13.1267812007089 -6.27693466020624 0 0
-173.069214382546 -2.50224715164148 21.373802088892 0 0
180.452652290306 -18.7375547401461 27.7069179354152 0 0
-198.930725854993 -31.1610741908 16.2877622882631 0 0
-88.451649812977 -2.87966280729241 5.10988945632944 0 0
172.086188783226 17.1094013909612 -12.823877777073 0 0
-204.093753727916 9.47146040329702 -14.0346079943752 0 0
-66.6511412005848 7.78251141275648 -17.3713999976734 0 0
-91.7543749590948 4.79878431248801 -17.6743196369854 0 0
154.491502178325 11.4431834417554 -17.4695295549052 0 0
-153.89975136293 10.4945610662774 7.8335820350918 0 0
132.303363711292 3.00536897885822 3.90974200268591 0 0
-86.8872787727152 -0.216378345751849 3.87340165594078 0 0
184.437858156647 -11.1748185216613 -25.034105764129 0 0
-205.493248102997 15.4048068329523 19.403551329157 0 0
206.680624333053 3.08680833936156 13.1506634174702 0 0
203.40694394587 -5.07710284642016 7.93394700950922 0 0
-197.566128382223 28.373221265741 12.5133127041652 0 0
207.337544945799 -19.8193698332941 -17.5504895320009 0 0
-91.8061301755998 7.10813896814509 -4.23754225699363 0 0
-227.670406651105 38.1132094452892 0.56755966439159 0 0
175.610605364145 -17.0108700437354 -21.2305532347387 0 0
-198.055535358378 26.5140242804185 14.6772989351311 0 0
204.249231130467 29.3158592094996 29.3651391949575 0 0
48.0362776127345 -9.89923811108934 -22.9650149658154 0 0
153.791810929012 -19.9290466904577 -3.51327112423953 0 0
-155.129641584968 -2.47719046753373 23.3403232554337 0 0
-198.418236966501 -24.3611279648882 27.3553828181697 0 0
155.49180148316 22.831633217542 -2.87346990777861 0 0
89.7946640169814 -10.8452370362856 -20.9260374308928 0 0
177.426882018402 -18.940985935103 -20.3740450250425 0 0
182.106974351128 9.31889619506335 19.4599028720582 0 0
209.708410666436 -11.050396902499 -3.1384750363624 0 0
105.701678495161 17.9051901112114 -11.5016504546916 0 0
90.0941612190975 10.3674565464345 -3.24326401170537 0 0
-95.5165961491938 -4.87669946463348 6.2526223981229 0 0
134.112922339112 16.8789658644903 -13.7196973759707 0 0
202.585267913931 31.7532726087019 19.7455761109085 0 0
46.2776385228949 -10.9107849249744 -21.4327826891081 0 0
-142.591302616551 -18.4058021907595 16.9643339053261 0 0
-176.257652424191 -0.663904418129625 -6.95788772454247 0 0
-195.20007693837 35.5501406150405 2.48659992204079 0 0
-136.466138380424 -21.3372739622427 4.3120556248119 0 0
-143.176974673481 -19.6714913433821 -0.866065424410496 0 0
173.006518273876 -10.5948408846231 13.2316901280865 0 0
79.7421086042487 -5.06469828362169 1.22668054463658 0 0
168.41641853698 24.9553494645486 10.9306017176819 0 0
-28.5981627505872 1.18973389306375 -1.54723464902168 0 0
183.197351566116 -6.0837942475487 -23.2266132508965 0 0
-201.510108602664 11.7939443612673 -14.0180676538515 0 0
-194.303021985724 -27.3935268296975 26.5193448334789 0 0
-74.9790729970618 -10.7559079188647 -19.6993772710439 0 0
128.844461143843 9.54797276568003 3.08836799655022 0 0
211.481228157887 27.8867657549123 16.9021212548606 0 0
167.972427519215 23.904329874646 -4.83838463890127 0 0
207.804543997537 -5.84414396287045 -1.26511911374633 0 0
-203.272308671766 30.5159728163015 18.5649434642622 0 0
136.519304902473 1.34785417293376 4.37868242909529 0 0
-192.675429171727 -11.1980336954013 13.0454251538586 0 0
203.475391418699 -1.16908210226253 -11.8726042059208 0 0
153.007349140351 -10.4882376636841 7.18510012054149 0 0
-225.973485108195 30.4004215911886 14.9705262513901 0 0
177.043063945188 -2.62851693243725 13.9284963641293 0 0
108.149964900717 17.5716737620854 -13.2001908990405 0 0
158.616339319515 23.1353907131021 -3.55903500223919 0 0
213.472883839626 24.4963560755376 30.9846504666885 0 0
-188.168103360329 -1.98606592299693 -8.66297209770079 0 0
144.776448258614 -9.92609592026273 5.67898316947989 0 0
145.588216869461 19.0289977787664 -10.6775029110345 0 0
45.2423334121928 -5.93518104867332 -1.37887517817018 0 0
200.184726391034 -27.1187935478606 -11.3802947679899 0 0
106.817158470803 17.2124402420739 -13.9119412660494 0 0
197.700659382957 11.4266744204963 -17.9992058718714 0 0
202.37647925165 29.8457414865854 28.1849331369403 0 0
-89.993353492118 -3.94019002777634 5.50236076270587 0 0
-160.281990420698 10.4277278433826 22.7090197639465 0 0
-222.468162181749 38.4624626082574 6.13796890946067 0 0
-143.57989238327 -22.4219693439294 7.22096105702747 0 0
198.730172441419 -37.2079159113659 25.2490153243146 0 0
-111.110398651785 -16.4943676366791 6.07722260478104 0 0
-194.991500756331 33.9732276365789 1.58093757786109 0 0
160.809637028073 5.38965080455736 -19.7909038393507 0 0
188.211677474606 -20.1416806870887 -26.0836420936748 0 0
84.9100206365582 14.0268474520599 -19.1467930511733 0 0
-194.660929554171 -13.145001211299 23.7373686780103 0 0
145.787238174194 -18.0449718745328 -9.23221111815632 0 0
-188.52858375962 2.43025929760666 15.4795495848302 0 0
206.818421529265 12.519089610827 36.8769508816931 0 0
141.970925912265 -3.70737446977167 4.81275402111905 0 0
210.51051129449 5.03911920499473 2.11724646283629 0 0
180.963364223834 -24.6558384268921 -14.7974397420635 0 0
-43.1936891814067 8.52166534586666 -9.71286532900179 0 0
-224.249962341002 34.5504651559989 13.8422096992911 0 0
-103.666914272473 -4.26186297172689 7.90450789835194 0 0
149.608810701575 11.9206743665359 -17.4908035337124 0 0
-178.91121618128 -12.0163448838766 28.3323164525971 0 0
-213.50831803041 15.4921152227985 -19.9531255386489 0 0
187.249580158551 6.06704278705408 29.5661655363349 0 0
32.1948719684568 -5.41478863408083 -27.3729599865875 0 0
-174.912703170368 -13.4822009279407 -5.03213572465296 0 0
-93.264912252391 -5.7975639481273 6.11625481850724 0 0
-135.764084416052 -6.03752039458958 -11.0599282239777 0 0
-96.362700100303 -0.359702587273279 5.64819581337862 0 0
-109.852702078994 -12.6550653045308 9.71731441626476 0 0
124.735847397136 18.4249795682749 -3.81485177051726 0 0
175.651859664521 9.43395175994939 -16.7620040795928 0 0
143.187653522093 1.61680404050608 5.36100441763594 0 0
167.639543128364 -2.60658994572887 -20.7004001311574 0 0
-96.7741326650422 -17.9459262300334 -0.0336117151818712 0 0
171.361296177192 -22.2253368003415 -10.7705214369141 0 0
197.267130690139 18.1526687211107 -13.665427470294 0 0
-73.9019547597753 4.50618839888434 -1.51758267437095 0 0
194.240155454999 -6.15221108268681 16.6731741727132 0 0
-144.344862467439 5.10342442215249 -5.92928437131074 0 0
182.282202812877 -32.5226457661968 24.263591748647 0 0
33.0208463889111 6.51871354820465 -6.46504737603648 0 0
-58.2536599800919 -13.5445544570438 -17.8591642042897 0 0
-106.3605690775 6.88371215291751 -9.14534826945911 0 0
-48.1255768282456 -14.5115512365029 -13.7075553318576 0 0
-174.059193070863 -8.95622465916794 -5.71880915316751 0 0
132.26760221385 -2.55573027030077 -24.7563003221522 0 0
201.894022850682 30.9302534576526 11.000732766988 0 0
34.523079408376 13.7549770247968 -16.3823121525347 0 0
102.077422076639 -11.1742200715703 -20.6052586855206 0 0
-212.610296254849 27.8902679879194 -21.4253873625854 0 0
-121.473315398107 6.02202017996846 5.11352017339957 0 0
-201.28988068683 -1.84464075171542 9.76179812385089 0 0
-183.670662746565 4.1147715751605 15.3223599800044 0 0
-156.138009296131 -22.7027542381102 17.3796127455725 0 0
-67.5891020891553 6.69096357985145 -5.15526245343214 0 0
-145.635971991497 -7.39888108718052 19.116064812944 0 0
-72.0401954938202 8.21511769135266 -9.97843407931073 0 0
162.190268075207 1.77589203952963 9.05840423162528 0 0
22.753501682266 -11.0717156870829 -10.4940867792569 0 0
204.619173957106 0.258992172309421 9.64154686441852 0 0
156.498725372712 -14.8859594664627 7.97216599925851 0 0
-200.759897671821 10.1319041178872 -13.0100522520942 0 0
8.45125862563403 12.5796692606666 -15.681774355706 0 0
-143.350014774399 6.27518955173017 -3.97406220787108 0 0
-201.089389455026 40.6688633446824 8.37841845295736 0 0
-10.3054628547678 -0.193256438326889 0.416397672676004 0 0
-154.018114000349 11.2415544358511 24.3915035845406 0 0
-198.051628298328 -33.5551515890882 7.09342091168215 0 0
-45.623969246485 5.41694362987285 -24.3330125458328 0 0
147.128688964937 8.55085342782115 6.22842754120447 0 0
43.8725950586509 -5.316214001297 -27.2862217322114 0 0
152.924487854027 6.32022563461127 -20.3819611416926 0 0
72.2331859999208 15.5392833952007 -12.3195157234028 0 0
-201.544760317563 -5.72404365875086 -2.45805352570974 0 0
-204.493093893619 -24.7640038043688 6.56998436127748 0 0
82.4345651063748 9.92111570835288 -4.01986641028768 0 0
213.320150404024 6.86576408228069 15.5579062049765 0 0
-199.745996944902 4.48625407839457 -9.56387321105666 0 0
-10.1673868666902 10.7865584413611 -13.2604012883731 0 0
-179.257685355695 -34.7426769978454 3.91925372101982 0 0
141.450928334172 5.08787480049552 -21.9654516180587 0 0
31.8800337473251 -4.51849635453844 -0.168121871968418 0 0
125.541436640143 -12.5495739620393 3.61570407201138 0 0
168.860542687563 21.2909760009376 -8.61588270476461 0 0
204.776345497379 -36.4307518209099 18.4210032860796 0 0
9.75474542863778 -5.71381363376829 -1.76267859190851 0 0
-33.7347804012311 -2.90920325078467 1.41870204998297 0 0
-189.651371146961 -34.234977655 15.2058451683422 0 0
-205.226846919592 -21.7085139956836 13.0137869689121 0 0
70.2807994643313 -12.4783922644171 -17.2584720521305 0 0
-51.6350013240067 -14.0097119614725 -9.55582337923578 0 0
-153.404658358197 -18.1339823503824 20.2384505097008 0 0
-181.520297798853 0.450932931311079 -7.34821996252569 0 0
118.70623204075 -15.0948453901784 -13.6723343296997 0 0
-205.559141158969 43.9022766873386 -5.54915198515873 0 0
84.853236657677 -5.38136927890981 1.4967085559927 0 0
26.9318525450004 11.6243390862395 -22.3664797384965 0 0
151.423736459223 -17.1062766324787 -13.4505617842488 0 0
153.514427041366 -9.22122859785837 -22.8554483234355 0 0
17.7079569916792 1.77093334201748 -1.21654153588902 0 0
102.589645109125 1.96285076231701 -25.9435787300691 0 0
190.67846624011 -0.98297279532368 17.2250428928711 0 0
207.502804598154 0.400018380917075 7.20389504453662 0 0
186.440778077883 -23.7429964433255 -19.2037584217288 0 0
-38.9738981363842 -11.5822477837952 -7.41953020329489 0 0
161.117007440558 -8.23188060936216 -22.5181066794666 0 0
-192.492067549716 -26.2833164403174 27.2230319710799 0 0
103.169834156043 17.5005414631446 -9.19115355635648 0 0
211.875516816905 6.87635316123696 3.25782737100101 0 0
-137.623758483269 4.27238078353177 -8.02237413425763 0 0
208.954498556461 27.0999048055251 33.8110189777102 0 0
214.53513396287 8.88728693886709 19.6970921573726 0 0
175.368877057316 24.4691895666669 -6.43446955742072 0 0
192.838197422692 -27.3582738390692 -12.9317361146873 0 0
-78.2051665932867 -13.0494770759544 -16.8395093395728 0 0
-154.451320581737 -4.50513536996369 22.9214709219774 0 0
171.739140945705 -2.02033458165672 11.7320001247096 0 0
-8.17832884868903 2.91529751309825 -3.42702422730809 0 0
-187.380510614918 -0.00685529912478943 -8.30235638887459 0 0
183.492714312626 32.7736385736134 26.1118990856099 0 0
-70.230679105452 -1.92970166080468 2.51426107670397 0 0
-218.880310458564 21.3962160452076 20.2432139224444 0 0
-140.962539674074 -21.2049803567487 2.60568491617854 0 0
-195.791595631697 21.1332794878739 -12.2430985707096 0 0
48.3926139224152 -11.517333106772 -20.0556065764735 0 0
-193.76815804177 28.3620721255152 3.757417483669 0 0
-70.7959876011144 6.54456136238338 -4.6889257247402 0 0
-189.135946938993 11.906702141867 -7.15931726196437 0 0
118.830339202978 10.0008507062265 1.53359292205257 0 0
58.3127520731809 4.65149872223482 -27.2444707108368 0 0
127.860607322687 -4.45451170929925 -24.8960948834576 0 0
136.21983368515 -16.7087879600051 1.88562382555808 0 0
210.075364401347 7.08610669164152 -3.76248803650009 0 0
185.737770803126 -12.6067565151037 26.6917849708809 0 0
191.766906673251 19.2038780247937 -13.0597878574864 0 0
217.231743693967 19.4145152605751 21.3521961967716 0 0
205.739604189966 -32.8838581544166 6.86774023153246 0 0
-192.164781104566 -33.896942646449 14.4679149135301 0 0
198.855565234046 19.9951633461969 -11.2326856351125 0 0
3.13324402415939 11.0844882800724 -12.5840138929024 0 0
-186.184274303732 19.3108152501882 1.96182481398151 0 0
84.8158069900145 11.0359776608746 -21.9999359384321 0 0
-170.25151606611 -27.6111522159966 -0.488216385832631 0 0
-174.81703675794 -5.01059082896205 23.368727713901 0 0
183.313702648435 -21.4084852077703 -21.2301427721187 0 0
-145.499306202423 -7.40214599351811 -8.87308301407448 0 0
-83.4772979604437 7.81078132281309 -11.2428321972538 0 0
-15.7404060631664 1.72407952974722 -2.21740988357805 0 0
-187.215599521927 -27.0534440426929 -3.15129274760258 0 0
-161.877436216412 -22.4649769539351 -0.802420997130664 0 0
-60.4132396360462 -4.56394352991034 2.62156854306739 0 0
142.736467397267 11.157433291087 -18.484887032527 0 0
-190.592240816421 -4.81567412974059 -9.29703581192408 0 0
6.33352436630104 10.8881865139168 -11.9793906538523 0 0
194.935263688854 -31.8626453660567 29.7843793605877 0 0
200.827048634824 23.7763061264992 40.6979602993733 0 0
-91.5666031544357 -5.7752763511573 5.96609511614667 0 0
202.173610657856 4.31807931269911 15.476713471475 0 0
-130.986993879829 -7.93126161348188 14.4437597848418 0 0
-139.266108646791 6.68196690764137 -3.21307183537545 0 0
-138.221338203705 7.02494087118672 10.2916455773568 0 0
104.078260706233 13.5417210779021 -18.6573857522477 0 0
-99.0958076720844 7.20756493801784 -9.99344312627432 0 0
22.7528075459892 10.2354656660308 -10.3688936801179 0 0
112.025356068074 17.9001527721375 -12.4489961721749 0 0
189.11925559063 5.18494327260133 -18.7464209495979 0 0
-201.226703989063 -29.4407413364326 0.52858281849358 0 0
205.064064822799 26.7212607133383 1.92205786115375 0 0
112.443104769962 0.760202235104286 1.90146887342325 0 0
-134.815464032587 -16.7875855213267 -5.07509147640153 0 0
-228.264982941412 34.1938124003762 9.08960408062576 0 0
204.231890094955 29.242565109654 33.1075610197238 0 0
-63.2470940769923 -8.74450181157232 1.70249423850979 0 0
85.2653390538774 2.19826519511687 0.0678185420925685 0 0
152.992227572752 4.5396420670116 -21.0674497618664 0 0
160.54807746908 22.8625408327612 -4.95065933234667 0 0
-50.1390878557164 2.22317460627023 -1.56698932969839 0 0
118.843177155015 17.2248870032878 -3.76266988128758 0 0
-233.355266919648 25.568640403281 -2.96213778114476 0 0
-196.033417599922 -34.0294708826805 10.4602594299888 0 0
40.6146982328636 -6.58300771498419 -26.5052185625262 0 0
-124.215451531066 -12.4723683932676 -9.95836654226554 0 0
-222.974025015938 14.6063032073294 -16.347440580592 0 0
129.532698460057 7.00511860005076 3.25916670294446 0 0
-183.331728126264 12.8645280651968 -5.31875237151796 0 0
120.948164308349 -15.9656862466398 -2.85520001460614 0 0
42.7329600309697 -9.39296575786381 -23.8291899019386 0 0
143.955854941031 3.43582905733951 5.63061153544762 0 0
179.069718187911 -34.0847624680548 11.0838094397383 0 0
178.978003367701 10.4003515895722 17.9704093898281 0 0
44.0156618006511 -2.63328992621253 -28.3176702092915 0 0
-22.972614670653 -3.194218805148 1.24756865108401 0 0
66.5393295494819 12.9017546439444 -20.9276952261979 0 0
84.9185321113814 -10.3996826213936 -21.5591455935005 0 0
-190.498279306114 -29.0899974083912 -1.02653337398055 0 0
-43.9521117622935 -8.11662313346083 -1.4213101575235 0 0
205.609575794634 -33.1707040891143 8.6589112600542 0 0
153.652999545486 -11.9208773545022 -21.5225149344006 0 0
207.566914363986 -13.7364901197124 14.3266648608571 0 0
-70.2869264804031 -6.42355357858281 3.91040750912794 0 0
-220.268708673694 23.5330050677711 -20.1797153810821 0 0
13.9467277788378 -4.01614586909774 -28.0538615720825 0 0
82.7292106014787 2.77469781637618 -26.9131049191503 0 0
212.516935016921 9.08596170156865 2.25142203589587 0 0
-160.223935614945 -16.5862243191833 -4.28174000914181 0 0
204.766641853159 -18.8499951588311 -20.9850495897001 0 0
65.4475573635153 10.6037420366224 -23.2425118975117 0 0
164.671900362317 19.5442039151441 12.631380852962 0 0
32.1758264984717 -10.685976511518 -8.93893634846856 0 0
-176.71709265417 -23.5048962219871 26.3762571943251 0 0
38.1637304540743 -7.65560733075736 -25.6167345711167 0 0
106.681616374406 -12.5941659303097 -0.0367189434603665 0 0
0.00262034221116732 -6.585866134176 -2.74855974489195 0 0
178.180441531524 -15.4895142942298 24.4692950301602 0 0
177.825564648071 -26.2902522648731 -8.48678409105571 0 0
-178.706490913074 3.5531306108791 15.9780402545486 0 0
201.276713173843 -3.9423410104369 -16.6617637912739 0 0
-109.739023765744 -0.672833042597669 8.08780316594647 0 0
-138.69385565472 4.5337011747314 16.6505930934699 0 0
-20.1725740022759 -4.30217957650733 -27.2121116628418 0 0
207.530080515085 5.62099468465112 29.9217350455697 0 0
-203.469400238439 -1.97650333426409 6.75824474264397 0 0
-174.191857341967 -36.670584237333 9.31464186894314 0 0
-145.897231990613 -12.8978344107852 18.8704832143039 0 0
69.914506125136 6.17788938027378 -2.79889289603816 0 0
-164.090401885641 -17.5668840318953 -3.86565217881607 0 0
-200.827091907294 -30.9737817848352 2.25147541060363 0 0
2.48757025557596 7.55598450535869 -25.7983952528955 0 0
-176.693988165233 -25.562271629135 25.3423314753615 0 0
-150.630174769257 -22.313137400099 15.1804417697792 0 0
-204.23072319618 18.411734275403 -19.3125925950747 0 0
-88.624268433804 7.59694709007365 -11.1809332312207 0 0
-206.460234139339 10.9798612089352 18.2788210502243 0 0
-68.2478449009567 -8.55227684935253 2.84992086640565 0 0
184.2169555471 33.8380149987145 19.1482277646954 0 0
209.835065285492 15.1033388063298 -8.46029492165305 0 0
-97.887919269637 -16.6054317616977 -8.88178564723558 0 0
81.9356631699133 -8.89731691060829 -23.4532329697708 0 0
70.1055664178334 -4.34388385136417 -26.9687244635743 0 0
-154.717061953184 -24.066170902647 13.999116380701 0 0
-97.3635248150788 -2.81090993021487 -19.4145316155286 0 0
-103.93527383676 0.237462786830864 6.91652348914349 0 0
-103.913251316668 -14.9007652718253 6.10681104263559 0 0
-193.883539060597 23.5060726951239 8.77867484706749 0 0
183.898285345251 7.47945649366112 27.3157282921656 0 0
195.949661328562 -4.5821744309399 14.3865440317405 0 0
-4.4480996928854 10.3961504353872 -12.0305152610477 0 0
191.796292056188 -10.3047821318938 21.3873241346164 0 0
66.5494795356681 -11.2485722274227 -20.3351335196596 0 0
-168.094447446726 -8.77562056758641 -5.35780756817599 0 0
-100.823048083961 7.20343364804884 -4.27572697566803 0 0
37.8439885782746 13.8546453319594 -15.9441852891714 0 0
-192.083428873933 -25.7103806410827 -2.00639625665249 0 0
184.359409903489 24.830313814838 -8.33513489754436 0 0
-3.34309972430797 5.91217060012546 -6.67816271639809 0 0
37.9495330501966 -12.3051030051822 -15.1086957142196 0 0
134.798850872984 20.220416476769 -5.94275600069065 0 0
129.130677600681 3.72339545608051 -23.5405647474726 0 0
-175.785418640728 8.87376763363846 -5.81820936938148 0 0
-200.668608957703 -12.4309370360804 9.32214881904868 0 0
-143.840271148107 10.027796635504 11.9114692951484 0 0
134.49394892642 3.02720501353202 -23.3400296818273 0 0
188.613648530388 25.2558883538947 38.0386400513222 0 0
-202.407446831484 -1.01245645551118 8.52221735259385 0 0
-57.6362459443774 8.68091437505133 -16.2587694180526 0 0
-135.283333254117 -0.185145345653139 -11.5459606903222 0 0
-101.764167073489 -11.5138662580368 -14.6023814443443 0 0
-24.5955165060173 -8.71936003295098 -24.8752456411355 0 0
-147.614077439148 -20.7904057442454 16.918837592659 0 0
145.274625049951 7.60633350041707 5.79137087324003 0 0
214.698648578905 10.0701259762164 6.91155742734649 0 0
146.562662456012 6.10965389743354 6.08911356363018 0 0
187.357844244722 -33.8406487134716 24.3530496794506 0 0
147.79680056499 -3.0271638594301 -23.6072394214751 0 0
188.366960960509 32.6219358409171 26.7428246814134 0 0
185.889657528813 -13.8385680427702 28.1157533052619 0 0
134.759686770807 -10.860532459185 4.526875264209 0 0
-49.3154164413066 -14.3909883685992 -12.2843698739918 0 0
64.1850275804976 -5.04179385175114 -26.8657226118934 0 0
-214.585396163049 42.4511435605945 6.58179713040334 0 0
-86.5078323595594 6.84949534340488 -3.96859940280941 0 0
-130.756893384614 -17.1553598174838 12.0167811387935 0 0
-177.364256032332 -26.786344626701 -3.05656410537287 0 0
202.737093977094 6.2725906970279 23.1130801247036 0 0
210.398850701912 -15.8093569735022 -10.5691940611522 0 0
-57.7048629210783 -6.90296674531558 2.50407420917388 0 0
49.8601234126778 -12.3404279297368 -17.0783664495988 0 0
-191.069425069358 -11.9538553272618 14.156366581606 0 0
-67.7745153321717 -15.8054802158086 -10.8911181463713 0 0
-86.812330052773 6.95060026565685 -14.4679317069732 0 0
55.5511152423952 7.04413161745558 -4.79581934783549 0 0
-227.884325851072 25.0395693989771 14.5333518944753 0 0
176.8748591689 -3.16733511304703 -20.7412069747284 0 0
182.497177640082 33.8724757813461 17.8691270505146 0 0
8.22487050621127 8.22047515659096 -25.3769821961997 0 0
-220.108999399075 36.9310923294634 14.6924038854355 0 0
-219.464595104284 9.63194671206853 14.9983624897257 0 0
166.772583987528 6.89129442643915 12.6260808719372 0 0
193.819105936913 -22.226376172988 31.5311515483058 0 0
62.2313184013632 -7.43515452413494 -1.51089305268777 0 0
210.527793901006 21.0211740392446 -4.69012129647377 0 0
198.806026079999 25.3027906723032 -4.83883604445117 0 0
-214.941935213987 27.6169568853721 -21.3193806857738 0 0
172.42904768474 -26.4839777163334 11.98165011274 0 0
205.855261843607 -31.3876190856694 2.22562317214091 0 0
-199.416333553355 37.9879126432378 -10.292454782164 0 0
-52.9893734518752 -10.0333494789354 -22.420263595415 0 0
-210.140796825451 27.0020647755726 -21.3809702359348 0 0
176.223272034539 -12.455952704725 16.2066279720319 0 0
-8.52451645434725 -7.19106667617299 -3.17221019752096 0 0
183.372226920603 1.17409059877463 -20.4252003213336 0 0
-48.9790636701722 9.35271589247102 -14.2325771088015 0 0
171.902829017671 28.8259426016348 5.08350823676827 0 0
-61.8867851617691 5.49037672185511 -4.00956759496472 0 0
105.980142313656 -15.2380415770262 -10.4825570978585 0 0
177.616028760684 27.9842470934908 23.886095028395 0 0
-145.22694781562 -18.9480518112273 -2.17954072508309 0 0
206.079954685954 27.7540713974384 6.42406173688301 0 0
123.029401314769 -14.0738273467333 1.96322621521063 0 0
-183.412269378622 -36.3741526344674 13.6175892197775 0 0
-205.642598530029 -23.392041006504 14.5902130139792 0 0
-143.590863275677 -15.0367434352642 18.7213458263765 0 0
158.999116024286 -21.7502676538551 4.64403507507965 0 0
-177.558020353501 -6.35546232836851 -6.39748761912011 0 0
34.6237859523762 12.7919417821694 -20.999593556479 0 0
184.264986130169 2.54618176479521 -19.6706533694799 0 0
117.108981523585 15.6532889762182 -15.700001042422 0 0
50.4301400517744 -1.02628071879856 -0.174055286691328 0 0
15.7339607260596 6.2699427970471 -26.8595727930624 0 0
-88.2321766978877 2.20208462997128 -20.1895112186087 0 0
205.937177818891 -28.0441789759494 -6.12801926112636 0 0
-194.277320752615 11.6747977251152 -9.51222733232216 0 0
208.628004825074 -8.21314818830165 -0.474522275677464 0 0
184.917168305812 -20.6124115280064 -23.2606151403291 0 0
95.7012191427157 4.00473720290646 0.448276952154884 0 0
183.766447376392 -33.5675265162518 1.86431796940553 0 0
-201.378905069463 -16.5686725054174 16.1226865357433 0 0
28.2244424720024 -3.49716750320086 0.482775093953232 0 0
213.826709975171 12.5482336609147 28.2682943547432 0 0
-150.349442251049 -20.3495572257893 18.767170223632 0 0
-2.1768051159105 5.66006899329882 -26.9389389191688 0 0
76.1246941690246 15.1083130977809 -17.94871639763 0 0
173.034261141222 22.6312403895648 16.9469091722079 0 0
-59.9280517775147 -2.67329162104642 2.35112504642537 0 0
-193.633799688959 9.57203227646778 15.5768764992629 0 0
210.35351656256 9.21294809382233 -5.83868979741482 0 0
-203.421390044932 -17.9274350085492 9.25210650556226 0 0
-12.5224068324429 -5.0839706763718 0.511771855424458 0 0
147.267703369976 20.3130993408194 2.03011843827525 0 0
-35.7262054388986 5.38288137970346 -5.60066954965475 0 0
-207.492122677121 26.8492724468316 20.8292183548188 0 0
-187.244320802128 -29.3665297187749 24.4055410562306 0 0
-167.583204245304 -19.6951600964348 -3.23735278257695 0 0
-185.213355898638 -37.0281916266241 11.9102771899516 0 0
-176.634661452734 13.1372478595906 -2.01239500859588 0 0
203.181481651856 -19.5359691835807 26.8323321798147 0 0
-193.63200874435 -12.9219826640258 13.9920262876712 0 0
-49.5893334051881 7.53651048173826 -21.2449664137624 0 0
-28.3822439156491 -12.580471531203 -11.2003515445501 0 0
-180.149323553631 15.2461220370693 -1.17893708677131 0 0
170.344336403694 -3.75071951245057 10.6481967080902 0 0
185.834742322654 -8.58598167174519 21.6979569415061 0 0
-86.6435942976228 -17.3556860909377 -4.76148232480773 0 0
-62.8666866868457 8.63267846610913 -14.1284894076686 0 0
-230.321048058006 34.4875994944673 0.886118052542844 0 0
204.57053306852 13.8194032671988 -15.1869204062814 0 0
-81.9936941098009 -6.33943475053855 4.89176438664695 0 0
201.710699621312 22.0052899215425 -7.56707960125479 0 0
208.778754491477 22.4689250337309 -3.90325563450683 0 0
-173.568611631016 5.35508850404707 15.5001660413795 0 0
-153.845199397705 16.1547754359007 16.9095290449021 0 0
-63.0230411350625 -14.9914016738004 -8.12172957465527 0 0
-68.131804383616 -15.5820929065678 -12.754861540495 0 0
-195.121865572359 -20.7600180673116 -7.16281740054843 0 0
-62.6143067053569 -13.4628029688042 -17.8114467924096 0 0
-204.377365880283 2.79246342002856 -10.5206637162332 0 0
-30.7515015290147 -13.3013666511046 -13.0101497170805 0 0
-209.841323989212 6.19532554692192 -12.7820495838555 0 0
-115.452917189068 -17.9163127795062 -5.17416622757751 0 0
-55.5060104763605 -10.818546520211 -21.498879852158 0 0
42.2777988784117 4.5150117061841 -27.7058662556744 0 0
-187.653928476733 -36.6041682154915 7.20441123986518 0 0
106.372620607709 13.7800814510561 -3.01052572048889 0 0
187.461335753133 20.2724000708461 -12.497740056368 0 0
37.2501163696872 0.270864895430677 -0.745881764948221 0 0
-229.525004425989 35.0939456934222 -4.69848725628261 0 0
151.69418061723 -19.5863419648229 -3.84403822817683 0 0
192.547977207024 23.2977365049865 -9.55027887842187 0 0
162.573217860843 23.7237887540987 7.48936740688925 0 0
-68.4847776633292 8.39608734260792 -12.5927655048451 0 0
174.841867480566 -25.178607498434 16.2622017799389 0 0
166.239587782065 -24.0644987929066 3.96238677548771 0 0
-187.619061008407 -35.5181668373624 13.405585453699 0 0
142.96962875142 -2.90420461676864 -23.9879884461048 0 0
13.7113027580031 0.218386777223876 0.247636309622896 0 0
-183.542751405248 0.914863279611056 -7.12876986911336 0 0
198.445210510266 16.1280968231349 -16.6258739416057 0 0
-185.385507641135 17.7597414014575 6.69325459708799 0 0
-116.162629599808 -5.00875393492856 -15.2178260510478 0 0
-96.4377822791561 -12.5071648707627 6.61386972432465 0 0
-131.514509878352 -20.3558756850375 0.92831664775911 0 0
96.2523989163387 -12.6686185321251 -2.6243110923169 0 0
-141.370874287692 0.948687453874292 18.0518465003223 0 0
-107.452234006348 -14.0445605406449 7.09674152812301 0 0
-84.282557364881 -14.6254768609388 1.35687565119525 0 0
74.6147203352085 2.72601436187276 -0.671746241657833 0 0
-65.5752249243613 4.82474976502721 -22.2163078923155 0 0
-13.5394908436362 2.67861522665663 -27.7492853426109 0 0
-165.459400143461 7.07246643255328 18.1345501198349 0 0
-147.028113640389 7.55343854184115 -1.09947566352955 0 0
196.713095861628 25.200185863771 -5.96494263892518 0 0
-63.1749006426409 6.2772744238756 -20.9857685122323 0 0
-194.560860659784 29.1375058699464 -9.23276482339947 0 0
51.6149931240647 3.43905068513315 -2.42623397922245 0 0
-17.8036997606364 11.3377972072597 -17.37797417046 0 0
171.964584789458 -14.3200286042241 -21.6972743953192 0 0
91.6282690007725 2.69317582392964 0.426540454702161 0 0
181.854123843561 18.2867805473588 -12.9846859762293 0 0
-205.487682226826 4.53867184993651 -11.5249531817129 0 0
-61.2204470613543 -13.5949420321033 -5.27082178266373 0 0
-178.732582902934 -10.1264174652644 -6.87671995417019 0 0
-213.36539218119 10.4658498275153 -16.9991216311293 0 0
-149.783486259902 0.425787014172082 22.3498200637182 0 0
-202.315088581216 -27.1073187328654 -0.529667260620714 0 0
167.606277199589 -6.08236071751548 -21.4873933173768 0 0
-124.874173489019 7.08205118928307 3.35538024636886 0 0
184.751034396751 23.1081887822331 -10.0476456369342 0 0
181.114199790933 -26.9519258248261 -10.4104670697217 0 0
192.611726024494 30.8203183624658 29.8997712835044 0 0
-159.993171805043 13.3339072903146 20.089685123051 0 0
130.447974812509 -16.3373902042617 -0.0869382314635733 0 0
125.90047364185 1.93128440886845 3.19011301351446 0 0
153.351385264565 -14.9742103832902 -18.3259875380959 0 0
-22.4014386143874 10.7698359885689 -18.9991297673357 0 0
-25.696098215919 8.49973038689092 -9.78999552650916 0 0
-100.037318895307 -6.82969276779541 -17.7936782004509 0 0
195.052347127909 18.3454569635586 40.5674133642206 0 0
-26.9975136583343 -6.71502598623077 -1.1047232613987 0 0
-165.726058730534 -10.0943213074042 26.2027883085268 0 0
-201.132427593447 -10.0738415963217 0.567319897537868 0 0
-200.834530580387 -17.9641856898944 -2.3838669441084 0 0
-37.2832367295633 -10.3277384181307 -5.62049278522255 0 0
217.444715508611 15.5235616017738 15.2945409125865 0 0
-173.67687724612 -36.2430236476446 5.6299676341576 0 0
-198.952134105448 -33.0637497467715 5.08615546748455 0 0
-211.832950842415 44.8435964332305 -5.26051755242765 0 0
-201.628837128211 -8.90045565291981 4.64126384794195 0 0
-217.200023719082 20.6606331802837 -20.7215415070268 0 0
198.378904273493 -35.8239280804908 27.5036305175678 0 0
-117.299530306655 4.69869748899015 6.29861570860329 0 0
-166.606138727079 2.60492741661863 20.8393578770945 0 0
-169.497288331839 2.22508433849867 19.4397070330047 0 0
140.6665974232 -13.6801565220343 -19.1024446951696 0 0
206.98967952579 -2.83621104349508 -3.62707563593635 0 0
-138.982675721733 -17.4967743418106 16.4651673513456 0 0
-195.498436889897 8.13302809644833 -9.50042942392976 0 0
190.910386769902 34.7527456437416 18.7398030242468 0 0
-83.9045486748892 4.82589499421603 -19.1947888214966 0 0
9.99930871036838 1.57603687474667 -28.6122679768219 0 0
-207.905386185909 20.673238062326 -20.9333920171707 0 0
-169.486837421052 10.1452145486396 12.2539035782567 0 0
164.747113608362 -1.6511858890972 -21.0049324125285 0 0
198.001585910646 28.6328227571377 38.3073473674835 0 0
-112.589788628202 -7.84713397508936 -14.9167185573278 0 0
-172.031972210032 12.7799039634576 8.37004410870513 0 0
5.61934523556761 -5.68478463487417 -27.2255733080525 0 0
173.858896719211 28.318156424639 13.5968124908048 0 0
196.836582795143 -28.4478031824773 30.3758296348296 0 0
182.760492192237 19.8847021274916 28.0264748589366 0 0
-107.29655672292 -18.3236409944171 -5.14707768627479 0 0
-153.075789808779 8.69322261314206 1.80374792360098 0 0
-29.3901851040641 10.1271333083227 -13.7954947964032 0 0
-46.6129277332983 9.50368567201407 -14.7922004807198 0 0
-29.7317340520744 -8.3412398512063 -3.65297186816784 0 0
177.586139987263 -30.0815175395719 17.8902571315078 0 0
-94.7983132688431 -3.35590539457477 -19.8319554573969 0 0
134.310111949865 -15.0970570864501 -15.9402711527679 0 0
162.230562698579 -20.3074299584706 -8.43224735997212 0 0
-126.161621060926 -18.3747497123365 9.19094725419322 0 0
212.721561404902 19.902714622275 -2.41593430073231 0 0
183.643989436944 -34.0637242815131 19.24683231252 0 0
203.924413630518 -29.5334490790622 -2.73242788310669 0 0
205.011532247828 24.7458939007428 -1.78168916271148 0 0
-191.279330081264 1.70742172500375 -7.99055464803695 0 0
172.384874837206 -14.8134940439712 14.6759558103197 0 0
52.3229627708619 -12.5929523832401 -14.1193957931442 0 0
183.715070599516 13.5718763924413 32.6974173487894 0 0
-98.5945821946929 0.447685949348615 5.5294663200298 0 0
176.179019064342 1.64407509983799 -18.0855587594662 0 0
36.5120929318166 7.22745071912146 -6.82110646205008 0 0
105.091468977037 9.50033232463379 -22.0525617627804 0 0
124.253326843339 -8.85544341832959 3.48657315329111 0 0
176.464400156633 -28.9695555702255 2.30809237032002 0 0
208.246964003444 28.8359859770092 18.5732006828596 0 0
147.643300963434 20.0678594405208 -8.95068685134095 0 0
156.130608953425 19.3515646285875 7.57513895126392 0 0
-171.268163971598 -14.5126295070644 -4.56150044000245 0 0
190.660928647449 -28.3719024435752 -11.1772369029408 0 0
176.920444215309 31.0257752727399 19.9472117152746 0 0
-72.748209056166 -16.1840131296415 -7.68504111675491 0 0
-143.036371417594 -18.1211360526327 -3.18539311150352 0 0
-130.771168201806 -18.1249059475947 -3.69378687445523 0 0
3.4120291556767 -7.40593125956587 -4.09636344426795 0 0
71.9348391591148 2.10601504080851 -0.701336823715143 0 0
-191.610991736141 4.28265461395854 -7.94289568175558 0 0
-41.6581712251427 -8.72746352808195 -2.7198971579602 0 0
139.750385753972 4.21851734584811 4.94845620031214 0 0
-162.199956389264 -14.7939847362845 24.265748906514 0 0
-136.727998846491 -14.8196457959279 -6.66759477372479 0 0
-193.890234089729 27.069658924117 -6.56655118118558 0 0
16.0515003149332 12.9618595259027 -17.3185997657751 0 0
32.3981159194921 -9.37607119916116 -23.8612759139015 0 0
-199.077314328704 14.6302000309132 -13.1378357419688 0 0
-117.92145983147 -17.1396540192124 -6.16109440314542 0 0
166.33048743898 -20.7390815113838 -10.3090057958592 0 0
180.917079971153 -28.513636559914 -6.21449535997195 0 0
207.845793719921 28.8369916384591 15.8092962208763 0 0
-193.909610597586 29.5002570401802 -5.81528075558341 0 0
-163.639961978249 -1.91368633904428 24.7311862023037 0 0
61.7191224577609 -12.6981307821379 -11.8295657328151 0 0
198.949809876256 24.9018958707783 40.4197801641794 0 0
-170.183371990115 5.16842187802629 -7.31612831106186 0 0
180.43879538907 15.4449128996036 24.2350552952199 0 0
-11.8430837250383 -2.33741403734691 1.27558961488902 0 0
-0.098605640033534 -12.6427450932081 -16.7239879241463 0 0
186.346351037408 6.76240736645216 -17.1859066398457 0 0
172.188798542913 -17.0545675681329 15.11029071005 0 0
-200.283921757032 -26.1719825039489 23.592206135523 0 0
-82.5791892433049 7.95625719007811 -9.37212983722374 0 0
-188.718726326323 1.25887679850524 -8.00298442311248 0 0
41.7387149775769 12.5732269570749 -21.5140519113423 0 0
-196.149327568046 4.19054914780045 -8.98376493281125 0 0
143.790617029381 -14.4602173063153 -18.1343565053213 0 0
-83.3518948704911 1.93894555450447 1.79243148052865 0 0
108.956433712222 10.0572694273754 -21.3694222399645 0 0
2.69349726350275 1.64062213297776 -1.15586549941612 0 0
208.891408898508 -9.99596861573518 -8.96337651044144 0 0
-194.154040104416 -28.7663747419279 25.5407564501447 0 0
-212.559293705636 19.8457148724736 21.2503734086938 0 0
-164.417647595403 -25.2309971217223 1.11571367359852 0 0
185.174589483365 33.8518241024873 24.1525126500943 0 0
-204.575550969759 18.0493357023666 19.8429992210669 0 0
201.791436210824 12.6025410567595 39.0587404396105 0 0
96.299575730057 -8.59761891138285 -23.5819016857851 0 0
-137.829449458804 -17.9036453721606 14.9086037015972 0 0
-31.2206431301502 -7.62936915666683 -2.36840024006334 0 0
-78.6594458553031 -9.55869347449635 4.5214776384634 0 0
105.872710125651 -4.04882360278233 -26.0643609962636 0 0
-56.344307043888 -14.9319031015058 -13.6676137837065 0 0
111.399017967717 17.9679703814377 -7.32523783988093 0 0
188.225970500589 34.5766407495732 16.1903860832824 0 0
180.338791846449 18.4780420768379 25.3157650393651 0 0
-38.3065748875468 9.22628327889394 -19.9291396424958 0 0
-214.603932452101 16.4897710119101 20.246997278686 0 0
214.349701689932 15.318725765888 29.1793847953486 0 0
100.228642724089 16.7553758584338 -8.07852069679245 0 0
-23.8240347506535 7.21344315150554 -8.05108537978303 0 0
-226.519447868586 35.5537773339044 -10.8160294337108 0 0
174.652006506999 -21.2512388735027 16.9301479823951 0 0
104.351333488409 1.81693779517201 1.31740836194132 0 0
190.085142704836 -37.8390607881997 10.9555234904442 0 0
-217.137436204729 23.0501736370872 -21.0157707126359 0 0
-182.342494939823 11.0864611376471 -5.60475943530868 0 0
-216.703350267711 8.53589102328799 -14.4921278643507 0 0
-198.374505699339 -18.1265523414868 28.9026770729718 0 0
-138.472902585824 -8.55062541906839 -9.74968967376216 0 0
-215.407035852387 27.5137900670227 20.9319487636976 0 0
-145.258142148307 -4.4115469154315 19.3390298833676 0 0
-104.720086886765 -14.7499616624258 -10.7696732693799 0 0
191.498449440495 -26.7728620910864 -13.8301908355354 0 0
-17.6031469532255 -9.20459314726788 -24.6663138795008 0 0
-161.481181611425 -24.8633095991864 18.2953439927713 0 0
141.398410389813 -18.3637893400976 -2.88861550109752 0 0
-225.773275972317 27.1350502985803 -16.3569864029455 0 0
211.361598521955 27.9964729136357 23.0073372661778 0 0
-141.754415265947 8.7458630886956 10.2323995248523 0 0
-198.672673682201 17.7572214618654 -14.4106996848273 0 0
-123.541792359841 6.09092168866528 5.36758604857699 0 0
79.7316062456035 -13.4639067638449 -9.70350416490482 0 0
-139.977379845052 -14.7488464245118 18.462467609501 0 0
145.659511753531 6.07740874166652 -21.1698038618586 0 0
-107.765022129824 6.75907059680168 -1.41317331825289 0 0
-156.117915275571 -24.7194756335373 5.89267999850809 0 0
186.774599682506 -29.1971094829618 -8.62777659445998 0 0
-45.7166436034301 4.90811040522793 -4.46301394122697 0 0
-226.058997078342 39.8203805756331 -0.931354801895945 0 0
174.684059074833 25.4819053929541 -4.5317379921065 0 0
140.981860522748 0.199895295989857 4.88040843904755 0 0
-76.5296499606344 -14.5841625625694 -14.8724799306777 0 0
205.864827740589 -32.3636785252027 4.53491237767219 0 0
194.008843148125 -20.0330500287736 31.031177850019 0 0
185.749988247368 33.1020289934049 5.60958231970812 0 0
11.9298501428343 3.82166632416669 -4.44012938965546 0 0
162.600858460744 9.71892757874216 -17.7212159387148 0 0
1.91815954834168 9.87089100097784 -23.3664935427475 0 0
142.173158011906 19.3765651746727 0.908783923733988 0 0
160.728008343409 -1.51408132780999 -21.706291412583 0 0
-189.705249959584 -28.5241400329361 25.4296800235696 0 0
-172.057546632015 3.3518251085963 -7.81517506433483 0 0
84.0788037924381 -2.47303723705209 0.734423791691572 0 0
-207.136562535904 0.302310126269606 2.98044462386036 0 0
-133.149644364211 -20.6461046141496 7.81741270959676 0 0
-96.5201057443084 -3.16498879177187 6.27828820601789 0 0
208.064833945352 -28.4755665392334 19.7382067551666 0 0
-3.68683335183486 -4.56870818904364 0.496401549347613 0 0
-35.6255430410364 -5.51590881214466 -26.1321270985397 0 0
120.663677966103 -14.1547456342736 1.32418340561158 0 0
177.08077319973 19.4444772899523 22.034988967496 0 0
148.153946931876 -17.6193907548245 -11.3730890971347 0 0
-190.82081615026 1.34510665484846 15.2816466238378 0 0
-199.027045963362 -20.6687437201219 29.0097981583653 0 0
95.9499179538882 8.53505742288221 -1.39856651523946 0 0
-213.883635919915 13.1105950736314 -18.7015425202227 0 0
-196.105568017081 -10.7399170678937 -9.48246440034324 0 0
131.498021237169 -15.6819318050409 2.0048318488304 0 0
-213.312613708565 2.07026197840166 -4.0208125877148 0 0
-215.335960396027 6.90321663087618 10.2011562716264 0 0
-64.6027304522649 8.58587931314925 -13.365183640446 0 0
-213.577525257664 25.7928538295144 21.4069628822304 0 0
147.61118459378 11.2503460637805 6.41853276532892 0 0
-102.516968439722 7.36667801512808 -6.2397606456055 0 0
-113.307396464496 -5.16625491998362 -15.7718839498176 0 0
182.398732157482 14.8601306399781 30.2891893237647 0 0
152.926664174552 22.2899419178582 -3.50333571877088 0 0
143.533384031132 7.4715075940981 5.44329379309225 0 0
202.348618940311 -27.7554153268253 -8.04752248471527 0 0
-206.775338760194 14.3370519913425 -18.5905029989316 0 0
116.236577103842 -5.1664378336485 2.62814973225887 0 0
-137.83848914552 -11.3988698181307 17.1067350700982 0 0
-77.8174907275797 7.75904200722617 -7.49892865235076 0 0
206.720227622971 5.69327162889057 21.6818567302889 0 0
130.295383340661 -6.61017658472475 -24.2399927308054 0 0
177.175522829609 -14.3112245441462 19.4380380393638 0 0
157.477796580521 1.35298287807374 -21.493280779938 0 0
204.553103325347 -4.26269488947494 -13.0817929806866 0 0
175.847269680748 -19.8962374320032 -18.2153200773908 0 0
143.713906128238 11.8914733841066 5.37934778690082 0 0
-215.114647819035 7.17639836401188 13.4417911104982 0 0
-93.3619266842844 -2.08764294819253 5.77491691180409 0 0
83.0368150384948 -13.7423137735943 -10.9511295534673 0 0
186.140052130538 -10.0275191069961 -25.1751007529358 0 0
187.319416997003 -9.79548386725184 22.6494390964015 0 0
-177.442875180484 -20.7342532493486 27.7965830748884 0 0
-75.7673007775314 1.02627668324321 1.44564450411084 0 0
176.209359011567 -1.03457123508687 -20.191422676396 0 0
-42.2491708935785 2.58142081201213 -2.32007493273298 0 0
-70.9351356356258 -7.98712964337604 3.92348607744442 0 0
-150.582794272789 -20.0077734069973 -1.33330838602585 0 0
188.991769596003 28.3137139937079 35.438533587088 0 0
-144.728828737066 11.167486151321 12.3936605401317 0 0
170.367544843155 -5.63166501533253 11.0588597648458 0 0
-73.5750554137623 -15.0020931509928 -14.4731834301108 0 0
-117.498170334808 6.53494307205142 2.59859433782638 0 0
-94.2321718421547 1.01278510489026 -19.5155910776104 0 0
194.534043236261 -24.1419821284889 -19.2448232547899 0 0
-87.4944374494158 -0.537052314100386 -21.0376510830411 0 0
-209.663507426262 34.8576193916245 18.4257045899693 0 0
-135.840612510086 -2.28798119103671 -11.6277441750446 0 0
-198.328308486799 10.4766633752515 -11.5684673563821 0 0
213.102944550948 25.2753317822575 4.56699173069568 0 0
98.7223168527922 16.5537226105844 -15.2134085748724 0 0
-159.055965317678 -12.8623865268548 -5.31181960564093 0 0
-170.65903451943 10.9256014299622 -2.22927324277173 0 0
-201.746354796039 -26.9665291590957 21.167139393668 0 0
37.1702269220499 2.16262649949853 -28.4663836561069 0 0
-80.3677216684368 -16.7791627157727 -5.82435109404138 0 0
156.116652827645 -10.4508705708709 7.8675239501025 0 0
-208.391978352614 2.55622246492539 -9.65313563376458 0 0
-215.027960164862 44.7737508866768 -4.2634171896287 0 0
