"x" "y" "z" "f" "a"
187.015114125796 26.7627161214472 34.6538544193673 0 0
-235.322069792139 15.3799031142268 14.6576076659122 0 0
-224.548790802821 -18.4180714984298 6.48797233118251 0 0
200.483358856906 9.68984933169493 37.3341633389319 0 0
-134.222772208031 -2.44086293014583 12.8413229620655 0 0
-87.4859957376733 -9.03956900101482 -19.9801947398253 0 0
186.555232175856 10.0682132636082 24.3931798125444 0 0
-234.653192123258 35.826043992051 -24.2196499104478 0 0
166.910695941109 -21.1560145430256 -13.0352020892514 0 0
179.146663525306 17.4298813797397 20.0066379816023 0 0
-175.20788331895 -0.161563417558181 -8.50378967241668 0 0
195.995887600361 19.2275268447341 39.3667108194137 0 0
-107.317717696022 -12.7764738171082 9.36398720534983 0 0
179.180782463144 -37.5536425631033 3.95463493734397 0 0
190.09627348261 26.5157010988536 -11.8928939335986 0 0
-16.3476245772399 7.0609561666938 -4.3903128226083 0 0
-216.388485881281 -22.8447751366968 -14.9984210697616 0 0
-203.922165878475 -19.841335763868 -13.1257393087438 0 0
-191.243945833357 -18.2596905526473 28.0136667476882 0 0
130.382967667766 -14.6356384630541 -2.36947793758905 0 0
-162.262787131954 6.3893694296759 -1.87178443800959 0 0
37.1158721212807 -3.15462728933319 3.05306572142481 0 0
-211.302946541362 4.87096724859248 12.5355133596827 0 0
220.948107493822 25.4951176082118 -4.01543404559157 0 0
170.260927045076 -20.4533460725683 -17.0964675419924 0 0
164.099726880657 -18.7956220380833 -16.3843749605475 0 0
140.137810163929 -13.627498791585 -20.3407208008398 0 0
-120.42515453307 3.3148916726818 -10.5309946662438 0 0
219.354477478789 7.81382190256246 16.2990806547177 0 0
0.776522223917701 5.91355313745892 -1.65087893864964 0 0
-227.363741606242 43.9368754512092 -20.9071201873984 0 0
201.60332982363 4.94946403082828 33.561190561703 0 0
-155.78982669424 5.95417468242119 5.03227175167613 0 0
-213.715179401613 -19.5738981816834 -16.5205297800527 0 0
185.238241541946 37.6376807782171 8.54314509735629 0 0
-160.579901730026 3.9060906654506 -6.4339861949779 0 0
199.661136285521 4.64268791290167 -21.1278090049687 0 0
47.6833848741797 -8.33269139410521 -22.4502875040944 0 0
173.901242138248 -0.969220575256603 9.7382738275726 0 0
155.168998834912 19.2765836893073 0.620327378945708 0 0
-146.101735004053 -22.2029797376339 4.8825884370342 0 0
-161.294292930254 6.40288603062311 0.704101089600297 0 0
-176.020870712669 -7.713631457917 -6.57688096335841 0 0
-240.248523263816 11.5628669190767 1.6598172634796 0 0
-218.296022451577 15.6744014025295 -17.716894761576 0 0
-141.793071885492 2.46962379016796 9.30315656046082 0 0
212.233201144108 17.9956656491525 35.7646948716209 0 0
208.067630376558 -27.1514994679297 28.2493496866272 0 0
-230.809493355295 15.3984870453229 14.465960730568 0 0
-163.484542090266 -16.5195828146451 23.2042875232496 0 0
-242.234537282425 49.4026571328169 -4.29536685211393 0 0
-214.450100601288 26.2757940765865 -19.648184916829 0 0
-169.316186894215 -10.7370375289279 -6.09741129938194 0 0
-201.421971312672 -35.8188297944777 5.93230713037691 0 0
209.636073214695 -10.6581919470793 13.515022064111 0 0
-196.414129424665 -31.0006567428647 -1.85132362593233 0 0
-39.8843583708264 6.70706831605378 -21.4398009903005 0 0
161.564277147019 -4.08526311459487 6.02806368398427 0 0
-225.209333705257 -20.3342917220746 -12.1315685319781 0 0
-198.8386175196 14.049952657119 8.96249000515602 0 0
-107.053532655394 1.65231192428756 -14.136384204345 0 0
-220.24920566847 -14.6674443869684 9.21655826527705 0 0
55.6936732358318 16.3542059647876 -18.6675408290888 0 0
16.2941746067274 -7.69419839813901 -4.63190343403635 0 0
-228.653122159448 -25.2947442467685 4.80475194178769 0 0
-217.439132263708 37.6802516021086 -20.4669248376836 0 0
-34.4675157063425 -13.0162270110067 -20.3958403522975 0 0
-197.705695641171 -35.0434371455507 17.660209737865 0 0
173.092419964353 26.361143219762 4.48784225277938 0 0
129.824275924281 -13.4364282300787 0.0361652732375098 0 0
51.0238823840475 -4.70555338789253 -25.1888504261824 0 0
-199.798697654791 -17.1319780837323 31.2750497107865 0 0
181.600870427816 24.3574152041936 27.6191394799879 0 0
-101.699987870503 2.08238237564061 3.52045344402952 0 0
-239.118582393124 13.3719673664769 -16.7586141693586 0 0
-141.954340688318 -9.96940107845728 18.3674062467392 0 0
-169.572903187724 3.24358262496933 -8.14635910283885 0 0
-91.5618156186987 -10.6826604886559 -18.8616009420127 0 0
-45.8305602022574 6.19808545963506 -20.9248645830775 0 0
199.485497309083 -39.0215573140457 2.98804146557859 0 0
185.240071211765 10.4617027432957 22.2495532283753 0 0
200.124094873075 -31.7669638957389 -12.5461752712188 0 0
-151.057253142234 4.41964961584985 -5.01014048220307 0 0
14.9579913131602 9.88928885773047 -7.08512248177824 0 0
195.731192455484 8.75916219507169 36.0606006891163 0 0
-186.8184820146 0.07893317250918 -9.51517438946917 0 0
10.3330128218942 12.7668777811264 -12.8563305264813 0 0
74.723662310395 17.6810368265654 -16.6579843088951 0 0
220.058530328171 23.7129719428994 -6.71280310936982 0 0
-201.348433208256 20.1867364247712 -3.46557217670923 0 0
-215.453002428394 24.43515224513 -19.761264376201 0 0
162.182062348764 -18.3209527785062 -16.3138631480247 0 0
-216.104481714093 -13.9517639237975 29.2628311803427 0 0
-88.3317297007967 -8.09758116281292 9.23750689518604 0 0
-213.921465591178 27.7600853162782 -19.4717074487654 0 0
-156.975965507037 -22.5304810348864 0.477587086526035 0 0
199.579567072934 21.5491851176352 -16.9376387847192 0 0
180.431698941288 2.72826806280079 12.2101818204597 0 0
-91.7843654674005 -6.37807467524518 -19.8204807495124 0 0
-207.690004031507 -26.807494464447 25.2186662245985 0 0
127.963090485387 0.872254690524986 -27.4556243619777 0 0
52.4581223849044 -2.12607038217129 1.805942976646 0 0
-158.307319126614 -16.5091619605869 20.5838739334385 0 0
210.717096354522 5.34160005599088 10.8895366184102 0 0
61.7648366151594 13.4637610983205 -23.0137818409526 0 0
-183.918749581434 -11.9965459441854 -5.68651915701069 0 0
-80.2774887245398 6.82985679866466 -5.91353753007205 0 0
-166.48763449319 -12.1236289854645 -5.93077415376482 0 0
195.45563573307 -39.991630264195 2.65990827235189 0 0
-45.2282881391475 -2.32295078050154 -24.7082182260128 0 0
167.391900842617 -22.1698117527767 11.4121866714684 0 0
-198.037561648754 -14.0350447435795 -10.3684333642071 0 0
-227.839534033351 5.86725725575837 -12.9970855328454 0 0
66.9833465472893 10.6809938592184 -24.9757425171416 0 0
47.4844282847227 -11.1823436009213 -15.543048235458 0 0
-207.286792702546 36.5257329681317 -5.2730303621679 0 0
218.86127816943 32.0920788903914 25.1431157027678 0 0
-235.813144402789 31.45508438026 19.3682442844877 0 0
-219.321555998922 33.2538717996912 -23.0580394691433 0 0
210.159748352364 -31.4188708199321 -11.8694664056441 0 0
-246.837119741115 15.163294253901 -5.48937100659693 0 0
-177.439188183443 -1.332414157762 -8.21142386301794 0 0
-185.220148184549 1.62102188406975 25.0377456549004 0 0
-227.383590689833 51.3372095768042 2.53617135112747 0 0
-208.480209833069 37.8234567288924 4.79785534734593 0 0
208.188209422437 17.3609496138683 -20.8348342717947 0 0
108.060682433838 13.4267403680415 -3.27102073679964 0 0
123.505729443654 -6.68150990713024 3.40773540432959 0 0
-167.067141601556 -9.81544120552552 -6.58972403535403 0 0
-161.789749737614 -17.2915314356339 20.7361158554612 0 0
-236.190036709483 49.7907201356994 7.19793369912732 0 0
-151.67788914929 -18.0925710445085 15.1885198843687 0 0
-148.847881228332 6.04467980328199 1.32473778614322 0 0
-199.614132925489 17.8513990679909 6.01329052007709 0 0
-174.321023000363 19.2007445866286 17.554903976307 0 0
211.206292486033 -2.138978330619 -1.09696605208956 0 0
199.485119565482 -0.669105349585738 9.07941164766909 0 0
141.324818680393 6.66633436058297 -25.2509403555351 0 0
182.327979495134 28.5060485896116 21.5965751152609 0 0
-58.0224026381163 8.2628115914683 -8.74930827803417 0 0
-230.130274729221 11.2246973154466 8.1174990823482 0 0
-164.57583456894 -7.39939174729995 21.5281121716608 0 0
165.455775081299 16.7699247486149 -15.9062537581629 0 0
182.448275416831 -23.151013709656 -23.229685386441 0 0
-199.996391372875 0.141968998729399 -9.91299848342562 0 0
-208.131841491786 -36.2749150256387 12.6414728664661 0 0
208.510135515304 33.590310106558 1.92939984498187 0 0
220.723354665996 8.07885669531656 6.98102012878991 0 0
-157.101959073176 6.15451089786934 0.586013443574531 0 0
-195.992546860545 -4.41352869172325 28.7581744887958 0 0
-223.530239022729 -17.7193987732565 3.75256865907099 0 0
-151.971073399429 -1.45639063906204 17.4521786637038 0 0
-79.054731353052 7.3989807047957 -11.2599953646851 0 0
168.267021448647 -19.2314432035942 -17.9585080710182 0 0
181.516275412152 33.2205137822519 5.29641485748823 0 0
156.32618256488 3.54230206475299 5.32907359255546 0 0
212.405641859148 34.1993937282852 16.7759859948096 0 0
-233.809047028451 50.350501452586 5.66459678072295 0 0
188.120375730211 5.66997865287907 29.9110074694617 0 0
89.3786267764469 10.9323217491355 -2.74301443491453 0 0
199.727259163834 33.586525987536 32.6877452167682 0 0
-219.221902089604 -12.4453270578418 28.69101023758 0 0
63.3272211047567 -11.1634574292236 -11.9866242122475 0 0
-23.6177254931927 0.938263112992239 3.2508753558419 0 0
-209.453014768388 21.4057528414551 -12.7598919122685 0 0
-98.6095269327318 -2.5033377848247 -18.4548260634635 0 0
-221.331743402701 -10.5424802198944 17.9614405469457 0 0
-42.8674157554822 6.87340662801997 -20.6152009633733 0 0
211.053362904257 21.2533587476127 36.4357410424263 0 0
-97.6549162101465 -9.08703090221377 11.2112909859385 0 0
224.653414222688 21.6989601148556 8.61920555607911 0 0
-186.597408932439 6.26447297763765 22.8004507182449 0 0
209.728741642291 27.4633772944514 -6.44141782633291 0 0
211.19102263676 -28.2751099011271 -16.2122906181628 0 0
175.652146673708 -3.4451291650114 -26.1969135557771 0 0
188.748935025797 -13.591156676124 24.0346322170006 0 0
184.245751167476 11.1955540797783 -20.7548371430562 0 0
168.39228864542 22.2803915354887 12.3407097666418 0 0
184.800527653045 -13.7603232368363 24.8721531888698 0 0
-240.692519958507 10.0414854520931 -7.97830375340278 0 0
118.271095375701 -10.4277176340466 1.17348933268889 0 0
-76.7880369734653 2.78878732300367 0.886966907474392 0 0
178.335608324311 8.43528683695027 14.1127429339892 0 0
166.094558281137 5.42630943514491 -22.8659417291358 0 0
153.636909109923 -10.7716224698448 -24.9135650070962 0 0
26.5499577473723 2.37024923482877 2.09898110763078 0 0
141.738846965667 15.2087431573724 1.46865761590859 0 0
-52.7280727636916 4.09738484498541 -1.4634597889055 0 0
-122.021912860035 3.96829422922288 3.53612143597559 0 0
189.15281814717 -31.1382197962568 -12.3762560098759 0 0
125.201838941849 18.3387716397802 -15.7980048572646 0 0
147.490652169437 18.8337606143962 -7.17679715986791 0 0
-9.77449257945747 4.99550267952885 -25.6909719810388 0 0
192.23034921213 9.06412089153081 -25.3928492169306 0 0
213.800614667609 -24.712950061377 17.1430886393093 0 0
11.3060513212924 -12.3408436299125 -12.8707028836152 0 0
-220.460747566606 -26.8164999756022 24.9944286445774 0 0
-98.7235044632252 -19.8322682051185 -7.10426702950542 0 0
200.109304360952 20.4710031190153 -17.7027657942567 0 0
6.20830748741006 -3.25364632172357 -26.2925205432583 0 0
-228.07106525338 46.3432942833012 13.4826413126438 0 0
177.322513461538 8.54933235210573 11.2915344543541 0 0
125.05744394939 10.0961835416488 -24.4682799406114 0 0
-212.043573715995 -23.1567933048487 -14.6966398441712 0 0
-84.2432990667394 7.26662133884648 -9.13861681312606 0 0
189.627776156075 11.0815030606912 35.0285396849588 0 0
188.979980480615 17.0465001075033 36.3468412898267 0 0
219.075101995227 11.6713628512839 -4.62177826988297 0 0
194.394405001012 2.71389388976143 -22.6180976289882 0 0
-121.160929749306 1.68432375588097 -12.0102355289279 0 0
-201.065124344709 -28.3494899042712 25.2627464372734 0 0
134.869424306082 -13.5078433820062 -19.0416460758454 0 0
203.007856566563 -10.5963504322731 14.778313004568 0 0
26.8252567780029 6.7216256723124 -2.00150984558416 0 0
-234.6920145853 41.5929039899343 -21.7374869851081 0 0
-69.7233261728023 -16.5928848313349 -15.0599159048861 0 0
16.4407243466971 7.07229315088025 -2.84941726449238 0 0
-127.314366561441 5.43739847654449 -0.157019548220471 0 0
-12.9408640522441 -3.45944629368507 3.54679996994851 0 0
175.514708053152 -19.6560177501974 21.9045539857107 0 0
-235.920914367949 9.83495036653483 2.24408908389479 0 0
13.8748432879331 6.08416544698842 -26.1482914616492 0 0
222.917133744369 15.1831616741076 18.8342483242402 0 0
-152.092485595368 1.28139720750321 -8.14823085818116 0 0
22.3051824530255 5.51503760195885 0.671508791968596 0 0
26.0884790238682 -2.72592061848555 3.65302402015532 0 0
33.1696935201297 12.3163364224568 -23.2406143987873 0 0
-208.869721245417 12.7184084252424 11.184138848558 0 0
190.37812918149 -41.2524977103849 7.35665735124578 0 0
207.259276806707 -9.19680498727244 -19.2262434707609 0 0
169.704795149482 13.2231627780767 15.6101404935365 0 0
-162.770185260775 -12.9961531106001 -6.21434087904964 0 0
-116.603739770407 -9.52385432121625 14.3387861816136 0 0
-32.8722046167117 8.4950510239534 -20.4416237819867 0 0
167.970721369895 11.2238989246585 13.6251212709932 0 0
-122.976073120376 -13.1957012527282 12.3092967034042 0 0
-224.680079731974 50.4046756861012 -5.32828725709351 0 0
-226.815695646288 -18.1656636133096 10.2042186419663 0 0
211.807823071364 -12.6352719403127 -8.94844782217919 0 0
-220.302267575956 -12.6556419075564 -4.6240372666566 0 0
-162.396389495822 -22.8272821104153 1.04406727668005 0 0
110.104226799295 -4.1826159468914 -26.2003565629259 0 0
-210.879784065555 42.4377093014438 -7.62460563038316 0 0
-220.580090990969 -15.215503757098 6.86293441939212 0 0
15.2767313198045 11.0346664942352 -23.4732856138164 0 0
167.123292426774 9.00312709188915 10.4911034366099 0 0
-135.459062242608 -3.6554976527643 13.9054611293996 0 0
-41.7796023542267 7.1532105057126 -5.51509962754474 0 0
-214.310605849934 25.0092735646913 -18.5679264702796 0 0
141.432893850956 18.7515752010294 -11.0813135890391 0 0
219.348134370386 21.6757355785456 -6.22920697663044 0 0
147.45421187961 18.4682336629163 -4.51451742502962 0 0
184.399167457077 -35.3040068733047 -2.12067375155204 0 0
212.749263416091 30.3350585991778 -0.119839869148466 0 0
-181.123683019899 10.079969554592 2.26012786983565 0 0
196.776808432538 -40.7606567489153 7.09208148833065 0 0
174.813848754998 23.5158547268721 16.5237900962848 0 0
224.697457768518 27.8193775008733 11.4154267400559 0 0
-216.531962933429 2.14938881707499 -13.6055758225876 0 0
-229.215300575544 -24.8240498884385 13.2630528108709 0 0
207.318260511503 -36.0414096653198 2.97354827032521 0 0
143.818255435675 13.0322819556209 3.73219745515364 0 0
-82.1266852033178 -7.89056894718537 8.17016304151439 0 0
-1.07018605053179 3.01131352210241 -26.547141338311 0 0
-133.21633327871 -0.620451260067385 -11.4498157241926 0 0
126.992202596902 -7.52310684816294 -25.3527963301236 0 0
-96.3361674487094 3.48635967828903 -14.3825818958346 0 0
-203.720164303796 4.05984990801874 13.4441509885522 0 0
-164.172928710041 -18.872719961565 -3.99643876813 0 0
156.923115823073 19.81659200044 -3.33128564121448 0 0
-233.291933898726 31.1471974963921 19.9645458456089 0 0
-101.556426862179 5.99899238053422 -3.62811238050816 0 0
-133.408633974105 -4.11927956745676 13.6300993401473 0 0
-196.594219207922 -25.7347909646269 -6.38246347456846 0 0
220.280742885102 30.9943249570058 8.34880503411484 0 0
-136.505412816367 -13.6378335182177 15.7146672785874 0 0
-115.077882967054 -3.56071330000486 10.2713928015105 0 0
-122.791878033422 -3.49893305066905 11.3173933518508 0 0
223.456877896641 25.9971158200216 20.8170959405165 0 0
-65.1283045774153 1.38931282086415 -21.9875851508198 0 0
210.309635136521 -10.3292078054126 -14.6763283960131 0 0
-36.422352564419 7.7984871753114 -20.6793304949992 0 0
189.685081564936 40.2484167247153 12.1581201952642 0 0
170.537851403292 -23.7482748721312 -8.36153499192529 0 0
-156.474350321515 -4.07528793082538 18.7301431474991 0 0
-199.863995236494 -20.7756888890411 -5.54743397439955 0 0
89.489818899255 17.9593596430199 -17.238288734973 0 0
-222.175425928162 -14.8846619352782 -1.85448996623656 0 0
142.511776469762 -8.64053861724895 -25.7513698144844 0 0
-223.75616054436 10.7873197084598 -17.8354109673074 0 0
183.710029017283 -18.3591244490101 28.5448087457082 0 0
-144.368575215224 -5.32595259660382 16.3095452969567 0 0
-223.068459149423 -3.68281004054408 -3.99479883562258 0 0
93.182759329653 -8.63357243085798 -1.04018874847207 0 0
213.387946506598 26.7744170726004 -7.71497264359578 0 0
-181.202581921586 -7.22395386458115 25.6604201098584 0 0
149.622287456647 -8.82082921857632 5.3146248291236 0 0
200.657128083727 -12.2614258759967 -27.8279185379273 0 0
199.964139892376 17.2885497343803 39.7972727683151 0 0
163.003149671398 -10.3204010474416 -25.8195445781212 0 0
183.526220660725 17.3507144397754 31.0592828548394 0 0
-69.079398564325 7.95787827970973 -11.702925069078 0 0
-104.713443505475 5.80160138610467 -2.73268781532773 0 0
175.162497897935 -3.26621005826965 10.7232796657341 0 0
-232.144305045941 -13.484229110064 20.4408550457922 0 0
170.58632863814 7.74626970876372 11.2632566373153 0 0
153.305558055616 19.2740524948508 -7.44323601061329 0 0
-60.7449086839622 0.726321470721235 -22.836941636716 0 0
-94.7416977014476 4.59555234066357 -13.442241500524 0 0
-206.662149605231 -28.5134787239294 23.7414750404422 0 0
166.95798045966 17.95791798375 -14.5390660064342 0 0
-55.8232402474536 3.51744340831293 -0.685162849363107 0 0
193.238810432719 17.1649832371344 -19.6457379060028 0 0
-129.037600151607 -6.20069034703715 -13.270708922967 0 0
-140.495011983479 4.46663743828559 -5.03537881762159 0 0
210.2789520234 -13.0498905429118 13.8187814848163 0 0
101.240048623486 -8.23033888531492 -22.8694617353464 0 0
-228.058224040348 20.1357330135625 18.4679379699411 0 0
-221.053503164637 -10.7482845310324 -3.48769978778057 0 0
-75.9824232205031 -9.56781432597708 5.23337067555129 0 0
-200.015976925406 -37.480732360406 13.0460573390904 0 0
179.41546346641 -20.4378180625835 27.410072766433 0 0
-194.876282448961 -29.775191690263 -2.45016297315093 0 0
-198.239568970668 9.59550450764621 -8.43710118849301 0 0
136.394764272955 16.9918546458733 -17.8885541875033 0 0
-233.362246291641 4.65824148656456 -5.63514342841738 0 0
218.746384866975 11.3484753050382 26.1189038153194 0 0
-13.6862664219575 -6.34319047542879 -0.913524161645683 0 0
-229.012627596701 45.4283616825008 -19.6573459655805 0 0
191.13914459253 32.9449388292501 34.347550673252 0 0
-193.735536221824 2.22754213384205 19.6466988404764 0 0
-217.930218848939 19.1120263615962 -19.069688658174 0 0
-182.283941662113 -23.767116470269 -2.61236097461185 0 0
-38.5984410178203 7.70534619033097 -6.31630462964795 0 0
-167.955855454737 15.0580159610694 15.3209873790036 0 0
140.803841944954 -16.1115294262616 -6.48262000422022 0 0
190.134913212903 30.2627424398862 36.9942815147073 0 0
-157.444119319831 6.235083197031 3.19791619564544 0 0
50.5367031179842 -11.1610783914637 -14.2441349684062 0 0
-207.018826986661 25.4917006021749 2.68794583546236 0 0
92.9955851216545 11.7414874892264 -3.14229448483509 0 0
-221.778729455092 26.3531328838033 18.3566972666233 0 0
-221.6191685189 -28.072558047268 21.5623298813128 0 0
211.12286014397 -10.4409417448827 -6.78469493780468 0 0
-203.241985676433 -22.7320509561114 -9.45146845288124 0 0
195.789458922513 33.4803624685099 36.8382561435328 0 0
170.11800730343 24.2314571756418 1.20001055866799 0 0
-204.054246060724 -14.9476183009363 31.6709029956467 0 0
-137.909314473791 -9.64125409230585 18.544154560497 0 0
-225.658562262624 5.0773023079677 2.98878031448677 0 0
-221.9504303969 -3.88834501581682 3.34270294849024 0 0
222.056578895167 10.4942312752725 3.7754552146773 0 0
210.003601815789 -37.6721186195782 6.36431645099138 0 0
-229.579103641738 -20.6649744413746 11.2927715179099 0 0
152.571805495372 -14.5450730766615 -20.8571646021233 0 0
195.437624953353 19.4300303030359 -19.0916257294702 0 0
-243.631721465409 39.3370624169636 12.7819588183342 0 0
-225.456843058346 -17.7250082855591 -6.87820643226618 0 0
-231.489905296661 10.8411337098237 -16.2071023752921 0 0
-79.517559568168 -14.0702770276674 0.673451834069578 0 0
187.877605171824 -15.3067976370979 28.8017560510279 0 0
189.233452609976 -7.60529673169976 16.8382728054211 0 0
143.462454836992 -5.94165980604139 -26.8579021391642 0 0
-212.340631901863 27.5789752986748 7.9943226963382 0 0
210.301153985004 6.56990006336942 29.7344212612617 0 0
209.050685779329 34.0099648553984 27.5671082219023 0 0
204.401542247082 -10.1426861991403 13.7321429777167 0 0
-141.178799519836 -21.5108620463417 5.66812358151674 0 0
-222.833119871992 -30.3809559480571 12.9269095388994 0 0
-224.887518946947 -21.5855519271079 28.1148037339557 0 0
221.090808750437 27.9896537232013 26.60536098609 0 0
-170.203666984202 6.94204048890573 -7.59137231984578 0 0
-204.971198796505 -10.992124316522 31.5469465832436 0 0
-85.0494016275434 -9.52309801920518 7.58126877241892 0 0
110.550798388198 -1.39798523890914 2.38346376613379 0 0
-46.0449927702177 -11.1980483873784 -22.104053674327 0 0
188.799483846602 7.41036013080127 -25.1126207627282 0 0
85.1880586070968 6.20404869629307 -26.9443482791977 0 0
-53.3504296013307 -16.1258278524107 -10.5771050624157 0 0
-222.820374239823 -17.9500996917906 -6.72533697522589 0 0
-199.355153592455 3.23055971116857 15.0919441348863 0 0
-167.427971642196 14.312302430661 14.2233809888857 0 0
-128.767750746643 -0.913591752439173 10.5017080219016 0 0
160.192251538423 -15.6477829904954 8.59544810122708 0 0
-173.257216208963 -14.0070662662829 23.6841630760504 0 0
4.03492448075962 12.3347842386873 -13.0223646526934 0 0
68.2647231561575 -3.18689006002642 -26.0395521988536 0 0
173.747121008265 -4.33712368690028 -26.3213789783779 0 0
53.6062665689567 16.5446108821283 -15.7933633317483 0 0
-7.63760571849518 3.17903614536849 2.34668663934759 0 0
-208.964047818827 19.6537706490188 8.19784802034345 0 0
-150.477903217165 -11.3809660150951 20.1189291274041 0 0
103.093007884981 -6.44534626331762 1.5083940215725 0 0
-66.2742139963365 -3.36668600364305 5.79787198288859 0 0
222.921340088769 11.6499109302165 14.0743743326962 0 0
151.583193517018 -11.674200512202 -24.1723606426977 0 0
183.426433111266 -34.0949671112138 -3.72684155482001 0 0
116.244884385755 15.3407206019664 -4.58786418858201 0 0
-211.800545400213 30.4174469367541 -17.4527487426895 0 0
-35.5419026438457 3.46977606206266 0.229216512880949 0 0
115.500728307564 1.81970875940192 -27.3504157087234 0 0
177.563167174617 -35.5757495447722 3.20330983141177 0 0
106.574935056583 -8.94293524217056 0.468435756929791 0 0
-23.262725972722 -8.36301246691323 -23.9298017852565 0 0
-94.7151972003054 -7.91916928601218 10.011493476266 0 0
-225.593815603474 25.5956163637754 19.6327146110257 0 0
143.907315433196 -12.0218799841918 -23.2496933906766 0 0
-159.786571687259 7.43489840570403 13.3453672242523 0 0
-202.090715884743 -16.7143302858672 31.4263506821934 0 0
25.0263867534484 14.3050111714893 -19.647043541332 0 0
158.637025440957 -14.2627602790142 -22.2651700227302 0 0
25.9461661034795 -0.597113661052932 3.18292667132757 0 0
-209.737733415819 6.97034122123556 -12.3413881954455 0 0
25.5264353540598 -0.969305351418819 -26.7826909994361 0 0
176.484694632859 11.8816928307688 15.0698137355903 0 0
213.758971683552 9.28960152892874 -12.3694156301242 0 0
-182.418222526916 6.27463078776286 -6.90400878668343 0 0
-158.874309593793 -13.6198397298715 22.0096433467176 0 0
121.093461856192 -13.7835824210727 -2.94617840586349 0 0
199.04515748928 -28.8963111164528 -18.1511580753167 0 0
10.7608389403873 -6.20881462452621 -2.93539324510206 0 0
93.5676403524215 16.4831637151743 -20.0896542700361 0 0
-132.823353324909 -7.73721277741399 -12.4400185459992 0 0
148.506689322802 -15.5591677708615 5.7404566261021 0 0
195.785934057533 -25.7028190307918 33.6554252212671 0 0
205.840911510626 -42.1519281020731 20.0283217848017 0 0
184.648042296164 37.6780499734132 17.8122401606751 0 0
-181.760350967394 9.32656084614343 23.5819595063181 0 0
-157.358222131602 5.47374027179748 11.8311749105586 0 0
-114.148952440535 -12.3608173732372 -14.4780692984755 0 0
172.154328179554 -3.08111668594513 -25.7116391650731 0 0
-171.823210559212 8.78217003944511 2.6230475285891 0 0
34.29559549588 2.83125052466253 1.71314982252195 0 0
209.281494216114 -38.6336215792359 10.6617362055462 0 0
-138.539363010762 5.08542301644104 -3.30136332803113 0 0
-212.061800589508 -11.3961228878501 16.7894729081128 0 0
210.18797044426 -15.7891234865004 17.8856757448027 0 0
-21.3503532760709 -13.1675961693065 -10.3750410124547 0 0
211.225797223892 31.6721028456201 1.01471644952729 0 0
25.9935187312512 -7.76995640978393 -4.74286230610567 0 0
150.962477462111 -6.71806809134173 5.24629008852051 0 0
-221.627963925075 -33.1107607325343 1.78417219959049 0 0
-202.09586361064 -27.0672743200881 -9.51980919219897 0 0
-202.575802452486 -19.4972580967612 -12.5630404901032 0 0
-190.805130435646 -34.2329513207088 2.72686060119148 0 0
208.924235156843 -15.8647302765084 20.9670634835395 0 0
-9.90505082606003 7.47328319897746 -24.3989946558948 0 0
215.335989453466 25.2641944066032 -9.82377126920803 0 0
-57.6314013669244 -4.56922189776156 6.13619305005734 0 0
190.723684077037 -38.2413572253185 -1.13367867161124 0 0
-212.570800483234 -32.126065087821 -1.20523563312267 0 0
191.824604574911 2.14096366146314 -23.8456711603808 0 0
139.450800460428 3.81228475207991 3.86681951741522 0 0
-106.411690590595 -9.68380826906305 12.3533160874945 0 0
-184.813677080152 3.06853731382395 -8.87419844510841 0 0
206.855012737653 4.47472572938666 30.5801284851727 0 0
151.156999709058 9.40410824505493 -23.1565917555028 0 0
204.40190607413 2.76563323510989 -16.8863905962184 0 0
-182.20391309898 -16.9304449728179 -3.89746246590221 0 0
207.943812533514 -40.8684279880269 18.5556253148958 0 0
-97.9296447032692 5.74894738606373 -10.6671241124556 0 0
-122.999050189284 -16.8774592849485 8.45350683679286 0 0
-15.2176819275422 -1.05051717133496 -26.3610207549638 0 0
-227.818373328684 -23.7132851515809 6.2863561525513 0 0
-40.655457236143 2.95201966867661 0.779282415926219 0 0
-208.296348924301 35.5204254289918 -10.1001793446961 0 0
-199.505355573044 -1.49112831156106 19.9241815969877 0 0
101.492231746262 16.0165826182413 -20.612609968396 0 0
-219.182418304137 -29.8078646174227 -5.01776374167162 0 0
191.877662331372 -13.1780086744597 23.7817307959405 0 0
-191.58789120111 -1.33787307398605 -9.88708638086002 0 0
199.0395368771 7.4030764325729 35.3634154900271 0 0
223.560720744104 23.2318174939711 3.07854229249405 0 0
-232.366719050804 -18.6889972819693 16.1950159950141 0 0
222.552338860793 26.0089172661162 23.3686569185052 0 0
200.243965476377 -0.781459070185419 -19.5244317381257 0 0
184.369980633004 2.35945190133135 15.4444402435414 0 0
-176.881802478026 -20.2182162867677 20.7149252279188 0 0
198.856392880001 14.611997837494 -23.0982295483061 0 0
184.93779415 -16.3415992602033 27.8391826342876 0 0
-161.442415251963 7.88366012101572 12.6612430872325 0 0
-142.155921379122 -21.01427692131 7.47598772051687 0 0
202.958609935061 -14.64677081045 28.3638776403234 0 0
211.797016303258 -33.8723916762445 -4.17772792906255 0 0
191.680446663938 -38.2575232228889 22.751953934506 0 0
-197.131011216987 -6.27040231421102 -10.7877816444389 0 0
-117.598127680994 -15.7861948603275 8.52798022699097 0 0
211.562249972715 32.9176339973102 4.15814496877938 0 0
54.6552683439428 12.5056866723601 -7.36922126845624 0 0
-222.905701697244 48.3025987399098 -14.3662917619274 0 0
-209.836041870074 -29.4067435316567 -4.16751899323357 0 0
-191.077945871966 10.8319623046606 -5.39164462455233 0 0
-98.8172822502067 -2.19453860266462 7.43325039622772 0 0
180.827969142462 -30.8607479520636 -6.24888996876126 0 0
93.535028902157 -10.8629049050721 -17.6589455090004 0 0
177.638718277177 -27.6938549627051 -8.92394032306845 0 0
-209.083007873484 -36.5957665439405 10.888965880128 0 0
176.035399490704 -31.2679637508815 0.433796482844602 0 0
210.188050922487 -19.7183770780705 -20.8747441209179 0 0
-55.8788676908944 -5.51307915152548 6.21367428671414 0 0
62.6937924513547 2.07776039099997 -27.2813888060893 0 0
-208.827910267426 -35.6691459929799 5.11099008703165 0 0
209.878358037382 -37.279788666171 4.52386699628586 0 0
174.322038317259 18.1175484815351 17.102779484132 0 0
206.247476922116 4.70133487916506 11.7977590220526 0 0
188.849142613363 39.9413379219425 17.1127176170251 0 0
201.106604057835 -38.1782860109286 9.27684419460476 0 0
-104.685224746941 -13.6822163819177 7.72250117567818 0 0
-221.136172361032 -13.2711058059467 -3.06406001252164 0 0
93.0657334057502 17.9160100640122 -17.4866749903261 0 0
-204.108026699768 13.517688843741 9.80911912319439 0 0
-220.905316519739 32.40896852771 18.5727601239027 0 0
-172.388401936899 16.6687313553013 13.5547460400684 0 0
170.127583466224 22.7001320413361 13.353956736428 0 0
-19.6548088177298 10.7623541991595 -18.7444478769755 0 0
-148.074752410927 -8.11271882071597 -9.65721095667901 0 0
68.4563434337838 17.3485497740226 -17.2402065961926 0 0
-150.149077971665 -0.0899515753567465 16.1515945739754 0 0
-204.765226994474 6.33329380583538 12.2829968933049 0 0
-88.7343592220045 -4.65149466386505 7.39699275347452 0 0
129.773112099163 16.8703945531877 -5.08908383751165 0 0
13.0621383812451 4.14572755985449 1.12856183335675 0 0
209.061074884936 -7.19146269976059 7.70276682388977 0 0
193.231813211022 25.3755944300753 -13.7626820509771 0 0
212.709872178264 29.7757477821516 -1.82126659863803 0 0
-205.337153254591 -4.24720807396788 18.664871266365 0 0
-215.975918845202 2.39897819255866 11.8945685027141 0 0
34.6266005471648 -3.09589995068169 3.15981499690163 0 0
-228.55860007978 50.7677566707383 -0.573728989917398 0 0
198.029906380624 -20.1270793191527 31.39126585141 0 0
-213.524059589386 -31.4182137009921 -3.03702353853974 0 0
135.916064722269 16.5619357860427 -3.30381528012448 0 0
140.759256719824 -8.99325651127218 4.48906542394872 0 0
192.323030991807 -41.4664715323011 8.79232130761363 0 0
-142.632314551562 -12.9148023518625 18.5456295059048 0 0
-231.505939727775 40.960803052368 -22.910357602361 0 0
-6.29444630574058 -8.59856530849149 -23.6822136018692 0 0
223.517013732966 12.4433493552373 8.74152261137737 0 0
-85.6803073570129 -12.2311549540576 4.71580373523128 0 0
-168.950836263466 5.27149026709571 -7.77762271920778 0 0
212.696093064224 -37.3896983237539 12.0603536721837 0 0
-231.107527609246 -22.383973711237 15.5236122970277 0 0
181.588739007808 -29.8219784790699 29.4405296115697 0 0
212.719262680398 -29.2289658040807 -11.8498270947503 0 0
-7.48202641510868 9.70350243230923 -8.19292707765631 0 0
138.259331544502 11.512581554926 2.94633676524243 0 0
169.505426012748 24.2487115354627 2.80639448337019 0 0
-229.774261787763 -18.4268913657739 -5.23666119710464 0 0
186.410396015435 -41.8039434568256 5.54095523658255 0 0
219.171385010021 19.2868256845092 -6.08308883793543 0 0
-32.1936598652748 -4.5674185783688 3.86860143146932 0 0
127.266300261574 -13.1418630801926 -17.6410275140261 0 0
213.341750914067 -22.2512075532558 -13.7235723080104 0 0
31.9560222405891 -4.14925960163127 -25.8227240456706 0 0
-207.99315584328 14.840507312119 10.317241309037 0 0
51.0407294144449 -10.0087599958017 -19.5300701538038 0 0
-236.303057467493 22.3806679094288 17.8696320431486 0 0
-41.5667720678318 -7.5051490144819 -24.1020906215146 0 0
-222.412659050626 34.7127849583652 18.7471770834531 0 0
215.775167354726 8.52372449358136 -7.93640885339066 0 0
-207.711130636597 16.8494986092742 9.29175534844101 0 0
-159.55982970426 -22.6722487000801 0.752640224707412 0 0
223.696739434311 24.1531160376877 19.3981413456374 0 0
188.847161946563 -33.7076475178715 31.8991442518351 0 0
72.9649789198432 1.66320140180545 1.23684737813774 0 0
-118.106450178979 2.53615498092994 -11.6444076195669 0 0
208.80238901807 -14.3343811978879 19.1210695900529 0 0
200.421539070121 0.495978932163746 9.88947869028293 0 0
213.988097859839 -34.2324082400096 10.2662179098049 0 0
-194.541757783002 -27.8643789575046 -4.00842009872659 0 0
-108.937622724259 -16.8911174986043 -12.3887435743168 0 0
198.516886937873 -2.13549186314102 9.36170868468083 0 0
-68.1918697230561 0.14411147251722 3.80797583043238 0 0
-214.690585687885 -9.0457289893073 26.8698026689353 0 0
204.620723480006 8.25548494548573 -19.7881011023294 0 0
-186.307931128548 -13.7148722369511 -5.34582787727196 0 0
176.90811839424 7.68722711559929 10.3908000472128 0 0
188.448301506117 -40.909185944875 4.49478694736518 0 0
-215.026438856528 36.7903875826576 -18.7742498651531 0 0
152.811120365659 12.3702083031368 6.9609594311316 0 0
-189.886076908504 5.8091408918498 -7.96223767559573 0 0
-71.7954920612411 -17.1993316790904 -13.5584015469919 0 0
-153.636926989204 5.57280057627533 -2.96500139493196 0 0
198.282692003572 15.3925359962213 -24.1922553884317 0 0
-58.4603777557048 -4.18660156363177 -23.7786462064097 0 0
-144.354701381764 -22.4051655072288 -0.150548628343395 0 0
-182.713881135766 -28.5587527228736 6.56468897099529 0 0
199.067752763121 -13.6588552335989 24.8416428696469 0 0
-216.641516288857 -24.4859883367286 -9.94443701492629 0 0
-197.88073146294 -29.0908228437069 -4.26406553887853 0 0
-72.9903695033108 -17.6540040058015 -8.62589960622891 0 0
183.601390938665 27.1876130337366 26.0431150622806 0 0
145.060847782705 9.48901437721068 4.62015963030971 0 0
178.208680696428 20.6196645722952 -14.6442981590635 0 0
-177.777878654901 -3.96198682910464 -7.63271377155623 0 0
-31.7439082194723 -0.2605008792122 4.28042518941667 0 0
-55.4785138467991 -12.4938226913099 -20.8883310807825 0 0
120.067133364638 -8.21178852964484 3.21660703874107 0 0
98.3048464479426 -5.06909516993916 -25.4301271484606 0 0
-209.218831644936 32.9056196041917 -12.9025733729011 0 0
190.235046928848 -34.133149640955 -7.72521779292555 0 0
-229.388911181032 44.1549718211465 15.420450048564 0 0
171.115634771508 1.9844212569671 8.60212689025217 0 0
198.939235225453 -10.0552766605589 17.860249315027 0 0
-49.7288240571006 -7.95459555284132 1.90111111724049 0 0
194.875155309818 -16.5560348953337 30.3641061417503 0 0
-180.453399246367 8.29145659071442 -1.61994253343187 0 0
-81.7959908601166 5.00681247280656 -2.06531781702956 0 0
-248.457888199156 32.3341391791588 10.1868893579687 0 0
217.663476792098 26.8950499988609 -5.75255009641209 0 0
149.347670226961 14.3376191593532 5.23463472254493 0 0
-225.141848295149 -30.5521552551746 3.36617779124824 0 0
206.907427407211 9.39745009448672 -19.346680823005 0 0
209.176298520396 25.5553140662698 -11.0743583710036 0 0
-178.844108838787 -6.36843640289124 24.9819824191292 0 0
222.691267454188 30.4067608037327 18.9209985926601 0 0
-198.090815732405 -3.98514701731449 28.523823049244 0 0
-88.1891320798554 -14.1405274222943 -17.0510852878341 0 0
151.431112314433 -17.9944253490025 4.12288373787316 0 0
196.980960968373 28.725597716497 39.1334038715905 0 0
-76.3292533714541 -17.5313742851274 -12.8528875033081 0 0
84.901821334854 -4.65241588577296 -25.5410728948636 0 0
-170.544215592952 5.34134711003261 -8.14599750568026 0 0
-215.849416719695 20.2961946005315 14.1339154200523 0 0
-20.4753130525991 -1.01990269511482 -26.1170836420237 0 0
38.8154113548709 8.16124468838027 -25.8422656705442 0 0
-231.218320694091 -11.2543800167934 19.8163816370916 0 0
-123.971313109339 -10.0042949204447 -13.6745152214092 0 0
183.709450725423 -29.6924504178415 30.6583906173004 0 0
-208.728447305363 34.4277203542597 2.96386283894379 0 0
-132.284149636196 -20.2830769462441 5.93514380061351 0 0
-224.768315277962 -17.2811122567366 9.09387106730188 0 0
213.477895807262 1.65760562452327 5.00513086115282 0 0
214.873612975282 -27.0302743243537 -1.16288214202512 0 0
-211.429737237525 -7.13893198849748 23.0401197223384 0 0
179.896234578867 -40.2839595971028 8.35231465172955 0 0
-217.45545814368 -11.8479984423561 18.2409965415357 0 0
-150.933249558585 -6.41025199692985 18.0259753091478 0 0
-26.7897714236662 10.6317286275485 -14.890709345933 0 0
-224.111025675379 31.8898017891299 -25.1569310650581 0 0
-183.876325950318 -27.2614445391035 14.0390107283538 0 0
183.358628631455 -26.7868033925214 -17.0216620751199 0 0
148.431637324356 18.0425419865491 -2.02689504103705 0 0
-234.246647060153 51.9409699421226 -1.45825571107131 0 0
172.412411281047 23.0998462779253 -6.29724508476132 0 0
197.36052336194 -37.3963585228489 14.9595171805469 0 0
-156.465775178706 -16.5616177076888 19.2402091349694 0 0
-191.08154570381 -11.5323171610804 -8.10028264275618 0 0
29.0615074918061 14.718098696578 -19.3652505114804 0 0
-176.859078478923 10.6567403453266 3.99201798425121 0 0
209.045365775213 21.2359136102699 37.5511815407917 0 0
-199.226971453355 -36.5189014036409 5.44322942320702 0 0
-236.615502817848 43.9346508145675 -19.3341640984773 0 0
-217.466400325449 -25.3577130305387 -7.44023501006938 0 0
-180.422041094737 -27.584060427624 7.47583865193113 0 0
203.679615042884 -3.12497644987228 -18.2717768114874 0 0
187.966707439467 -16.0036900591083 -31.866243759437 0 0
117.448210863187 -13.1638613253808 -13.2896104418475 0 0
-126.788550813389 -13.5406733719834 12.9320523445373 0 0
-229.868781266702 -8.87815637758081 22.512940889366 0 0
138.271284524011 -15.9148166076126 -4.65996406748161 0 0
59.5399316695954 -7.99387089916594 -22.5763817880278 0 0
100.485608427471 10.3446124966935 -24.6549578085138 0 0
-105.601884247315 0.509629462357895 5.65633750186205 0 0
-11.9672965952906 -2.21289349616976 4.72992112776745 0 0
220.545505630932 7.99314434931388 10.3572975116886 0 0
95.2589411578961 18.4694178383603 -13.756544006156 0 0
212.941159169606 12.6077038854716 -16.5630512385279 0 0
155.034038710222 17.2781005019586 -15.1430358907319 0 0
189.448300569654 1.32193846849391 -24.8992366552316 0 0
-3.44004148248582 0.964920946335382 3.20110949784228 0 0
161.338936472846 9.7067415687382 -21.957392342283 0 0
57.750260172398 8.07216972095882 -2.26716605211569 0 0
170.870163529453 12.9149273781292 15.6926655347137 0 0
199.780961205114 3.81373754016191 31.4110360464085 0 0
195.092160666562 -35.74020240922 -5.37399245553233 0 0
-181.38513282218 -9.93558221696101 25.6503432990586 0 0
-148.195258283697 -6.58449649671338 17.610962862856 0 0
182.13790318578 8.85233672429221 23.4359319947264 0 0
-28.2275638309963 -8.61961856333825 -23.7978123681496 0 0
-242.62134180906 12.231773155104 -10.3503633100279 0 0
180.915338453068 -24.3787253845534 -19.7151605407301 0 0
30.7665584296651 -3.09179442167074 1.28886427994942 0 0
-64.8960111913557 -7.92774163559726 4.77134544597644 0 0
-215.624439640705 10.0367814540852 -15.2923883506858 0 0
-113.098348123813 2.12700835346889 4.84511469696154 0 0
-215.77098401594 -25.3380039835383 -8.29489787960613 0 0
126.192465503725 -3.50454287253637 3.27091128180067 0 0
199.047608592062 -22.5563528544609 32.224224916494 0 0
192.848470412933 38.3955850455975 2.83651172153863 0 0
-217.770129780695 49.5136462493242 -3.81435527232031 0 0
-220.527590609036 -12.9354514422703 14.2739465171953 0 0
-207.879718299201 33.9096380720895 -8.36285846312703 0 0
-142.114008398562 -2.38911495514669 14.7513026445451 0 0
162.938641202263 19.6800439777098 -9.95765823932445 0 0
-173.903898275932 -23.3676275827113 -0.0084000004134111 0 0
-227.021332032912 2.84381189921448 -12.5095288306408 0 0
-11.7270136183894 2.84866515844994 -26.2342311513861 0 0
36.5338452939059 7.29386128105833 -2.27770393660534 0 0
-202.856413335996 -29.6765844177143 -4.7451812316219 0 0
-113.750656721775 3.77121800162164 -10.8876933392251 0 0
-79.2094875839167 -4.70708674638509 7.12574975437599 0 0
-201.973531011374 11.4862648220841 -9.1319349931814 0 0
196.269157834836 5.07309287682231 16.4244421123014 0 0
114.493878968451 17.8590126463282 -17.5698303090492 0 0
210.254221272885 17.2941157898978 36.8575032123598 0 0
198.034219286945 34.662098721206 32.0394718801339 0 0
171.959369239007 -17.1050956232566 -22.8600184733951 0 0
-216.820468049437 -34.5739780640458 2.02588183806865 0 0
-63.4411158016236 4.36106766990881 -1.65304965028196 0 0
183.220988637931 -25.7726937541673 -18.675398109896 0 0
-224.495782446213 -29.4744903223413 13.6971531737056 0 0
-88.6930990615178 5.35198783387915 -13.7467678199847 0 0
40.3018054517471 -7.65485799515147 -4.38538893244271 0 0
-129.959875968953 -17.8342003151269 -8.1332367724575 0 0
70.645958508697 8.89461579851261 -2.78676558456562 0 0
-220.407484222059 -18.8606689126911 -16.9821694942601 0 0
-181.610269381595 -14.7819435473097 -4.49604745885625 0 0
186.37148105345 -29.6707889990256 32.087178223821 0 0
-210.750985240692 37.5392970321864 -14.1186387449336 0 0
114.043352966081 13.3764024760586 -2.68723205911439 0 0
214.125066263705 29.9006018111243 -0.276853345386586 0 0
59.3032692835687 3.57611538795082 -27.1495847069145 0 0
195.060664137848 27.4041162678525 38.4651169888135 0 0
-186.748475709188 0.376281039247819 25.414335118981 0 0
197.514652002395 -39.5402680791698 22.2315857695734 0 0
-185.104643739622 -22.7749236178522 -2.59577129772059 0 0
-108.182112432502 0.693686880955935 5.71623557089934 0 0
-244.933015130603 13.3091796976295 1.33566024326376 0 0
-216.794614213898 21.7342234312206 15.9912390766703 0 0
187.485971254017 37.2498810943202 3.96927785090883 0 0
201.966003355468 2.9987510416798 11.4745117269429 0 0
-213.714020526041 30.92753007901 15.0933183091833 0 0
197.393412140905 37.6905588359773 26.1098821845913 0 0
-221.020382721427 -30.7269652637616 -4.50153308289467 0 0
-182.99037457949 -0.0335830315892922 -9.5449911378281 0 0
-166.128253439629 -23.7171740270346 7.22817408391951 0 0
134.964041746075 7.23365642620308 3.27772000728121 0 0
-84.0487391199033 -18.2822994426524 -10.8672331302898 0 0
121.682141676006 -3.67789826797522 -26.7782956204684 0 0
-174.276284961937 18.9709879418002 15.9042716808674 0 0
184.767910750362 -38.0492389617175 21.5400025716423 0 0
-44.6701599465659 -12.4556847530521 -5.06952094500163 0 0
221.740329832568 24.618690522434 24.8194018130306 0 0
-228.47317482044 3.55435672691714 -12.4348419280027 0 0
-47.6772533135691 2.02605973823506 -23.8464841573631 0 0
-136.364676806294 -8.52743404243697 -11.7270149161152 0 0
201.730722875806 -37.2740895546248 15.9612243963779 0 0
-221.186163878198 14.0227907037993 14.1368696858876 0 0
223.678303370818 27.1632030460737 19.2378067130067 0 0
-225.50803646289 -29.5423428945549 10.4244418702543 0 0
89.6863427124823 8.43466033055173 -25.9469798702539 0 0
-223.322036216495 2.70717136027093 6.58520976150878 0 0
184.708405520589 -5.60407804868899 15.658590369361 0 0
-239.143714262826 50.4374826163744 -4.31011356878258 0 0
111.661174028268 17.7168617675103 -9.22354965510472 0 0
-46.1741432518619 -4.96805513283365 5.69779709479531 0 0
207.817599952242 -32.4257457033993 27.9301996486282 0 0
-49.1996017764603 7.8801149944023 -7.02533049022551 0 0
-202.427890319326 9.48415148642693 -9.53276043862841 0 0
-209.795179347483 -1.40811525417898 13.356791655902 0 0
-211.074293824157 -8.80072968366401 19.4115671535402 0 0
175.464746532547 -27.330451842883 23.5808347206454 0 0
203.410954931237 -12.0341984213824 19.2250748674916 0 0
189.28555167232 3.97539010070357 16.7399492755506 0 0
-249.871559923292 27.1069272117624 7.70816879625606 0 0
155.110597941435 15.34194022255 8.27247634461876 0 0
187.931616796617 24.9230318659965 35.5490747028139 0 0
71.9171849575115 -4.28395910676812 -25.5239334614095 0 0
-215.81071636844 -24.1196032551314 -12.0530220832614 0 0
-241.565157482646 11.0469443363142 -9.52117032990608 0 0
128.847954809338 -14.5817367868367 -9.54184710257347 0 0
29.0199500378907 -9.7641676867698 -7.11173451967097 0 0
-209.968372885509 -28.9997765396679 23.4197952348895 0 0
-221.153035045934 46.5921787156863 -16.045071442171 0 0
208.079646588974 36.8415735110759 9.36874235872041 0 0
-114.450670422022 -19.131720179445 -9.26850223655217 0 0
180.858391721405 13.8103508663979 25.2172094306275 0 0
-245.391776045465 15.7110864418321 -11.3193173424934 0 0
-251.01965937928 22.2294154495111 -1.01225806417896 0 0
-225.948732586502 -28.1530681232754 15.7181786407521 0 0
176.376763661751 14.2169723904753 -19.5042956664769 0 0
38.9787557379222 14.0091504374698 -11.2416237233057 0 0
-29.0713264926002 6.84252184467842 -4.65220652516879 0 0
-34.3381165515472 9.44160981755102 -17.9981414783922 0 0
-148.248822389783 -12.5406338342291 -8.50293253259833 0 0
-221.107941351945 -2.95278946472849 -9.39363740954448 0 0
-211.784028001434 -33.432165912501 9.64600722335819 0 0
199.362913596074 0.662110640699336 -19.9043348337359 0 0
154.730004831784 18.8475959469169 3.31328508325834 0 0
188.77376641362 31.2942560723799 35.0291199667659 0 0
-118.873648333471 -19.3265345429514 3.83324218351229 0 0
166.928865458593 -11.1278305463515 9.26357795914657 0 0
173.646055881578 -34.8585128870078 6.50347409886107 0 0
-218.012140966026 19.7908431906269 15.5171458013376 0 0
-128.985290181437 -4.62140813275007 13.0790302369001 0 0
130.624794685414 -1.35984267732374 -27.445376863534 0 0
-230.253395385851 -12.2583100902006 25.3564530230157 0 0
-31.3163129291385 9.4686816984922 -18.963014379531 0 0
172.876260161282 -0.119542965265777 -24.2276540832424 0 0
19.435076101429 6.98285981484849 -2.59144358313841 0 0
202.613819730148 26.2910232513401 39.3351684187818 0 0
216.008199591858 6.48846580618711 -5.360710231053 0 0
180.83725669481 -30.1386798019738 -8.14332114372042 0 0
75.391361488383 -3.00729565684883 -26.2231466272826 0 0
192.807027858266 -35.9645650626108 -5.33616672412879 0 0
218.653735438662 25.6800137001302 30.2876169404738 0 0
206.450153047177 15.1007887320521 38.2346345958087 0 0
35.4768708841861 11.2589597199985 -24.1607295677802 0 0
-223.260542899045 -27.2084058575174 -5.50948836459061 0 0
143.815303876743 -2.39405655428364 -27.2746612814139 0 0
-186.962117200221 12.0552368855892 -0.147725102649086 0 0
187.394710880784 2.49450794424252 -25.15587653693 0 0
-109.114462062137 -11.9485763418444 10.6707673127625 0 0
-190.113053121719 -33.3360774886647 3.86869975580482 0 0
-203.731111376019 -35.4198980467989 6.29606781326579 0 0
164.37091188352 -23.8720896366649 1.81577301513473 0 0
123.231276300873 4.68128169816242 -26.8023737101173 0 0
37.1588310253881 12.056273022678 -8.31433438037345 0 0
-221.348411281285 11.4624504703694 -16.5146641408918 0 0
34.3009884057572 13.278144822614 -10.5240843756501 0 0
177.026808518032 -26.7448000493805 -10.4683787549967 0 0
-95.8115193710506 -2.74171210315677 7.32267071600245 0 0
146.511371626155 -10.1915155948659 5.15810458269793 0 0
175.074368487932 -14.355488232554 -26.7189092258681 0 0
224.026072929288 17.2340881696993 4.87201568408298 0 0
105.536911234864 5.81356188019926 -26.7103862745424 0 0
203.949609442722 39.5669708400849 12.2811040030858 0 0
-58.3078263511249 8.41201425728452 -13.59288079884 0 0
-219.03681431461 -10.3101249240497 20.1718913901939 0 0
210.384421276154 23.3656033284239 -12.7714768788298 0 0
215.264806494985 -24.05773579176 2.43651960127273 0 0
-27.5292040761922 8.72789659363022 -7.48708254223473 0 0
-208.265488630606 5.11533082659865 12.3551609765788 0 0
-226.818286051754 2.47852809105318 0.838455389999139 0 0
-213.369119912534 15.8981822647245 -15.4589421111015 0 0
43.3098614810304 -2.0128001255915 -26.4314311126698 0 0
201.023939725428 -17.6939284947398 29.2472076106028 0 0
