"x" "y" "z" "f" "a"
184.516344620477 -6.97035615943429 -27.4945074157199 0 0
-159.812202331278 -10.6553109585482 20.4333897786004 0 0
-44.6980101976204 -9.73434789108154 -18.8105051974019 0 0
-159.156783488507 5.76762636628698 -8.92840445876844 0 0
-227.344509249311 46.2660748463862 -12.403422890102 0 0
-202.244528024884 -32.9386078517491 10.4351869785237 0 0
184.412491445087 -16.814368613009 -32.5518273991646 0 0
-211.681620880761 14.050001506681 -22.7877864348463 0 0
-164.978085989706 2.23381151158457 21.1090609706087 0 0
-188.173131567078 9.11006357485499 12.8167258500104 0 0
167.935968998551 16.5868037912475 -18.2640877467158 0 0
154.879619666623 -3.63991975027484 9.29467735855036 0 0
195.797594659429 23.6007931260371 -17.5133974053132 0 0
181.410928317503 13.1681625744264 22.4696089547736 0 0
4.61607600740008 -8.05237332135384 -20.65898706353 0 0
-172.184717123839 13.8310578060908 13.276274741568 0 0
-207.677395952475 40.0502547402967 -24.407476219698 0 0
-157.989525940131 -22.7683540213481 14.9278529485974 0 0
185.229801104078 -38.1929775899327 3.87683696407713 0 0
211.557873188869 34.5568816859599 23.3216528556001 0 0
183.67663418094 -22.7612970359217 -23.951259441071 0 0
83.5801797637701 -17.5401902577558 -3.17879487485076 0 0
183.88699557447 23.5124823452222 -19.1998401838329 0 0
-41.0491134702489 -1.57951895430857 5.30589859818257 0 0
-162.954022920421 -13.4669308195488 -5.9287995395012 0 0
52.3327704725574 -4.02857586633423 5.53254196209607 0 0
-188.404770931281 17.8735346219796 -10.9368743091349 0 0
-188.696290819222 -18.4984645773631 -9.31214201870488 0 0
170.694971757861 18.6770553934774 -17.7043911948541 0 0
192.426238016003 -29.7576160610474 -9.8763194605815 0 0
71.8525579278394 -1.62457699395424 -21.8961257642358 0 0
-153.313488692941 5.94345536649246 -7.80165987580324 0 0
-138.224714117956 6.86041572858757 6.5768364527344 0 0
109.031029582732 11.026947711279 -18.370077530492 0 0
-60.0874983261054 5.48607292800796 -5.01053853627424 0 0
21.0912772985817 -4.97438865936864 6.29440096107728 0 0
121.308045107001 -18.6364662358257 -2.65538756508537 0 0
158.46512060886 9.45434757141503 11.7461635482286 0 0
116.320564157011 -10.7570518382891 -20.605093312036 0 0
-160.429057060069 -12.7414438761865 -6.05123347481096 0 0
176.67827884873 31.7268390630458 -6.53889069105138 0 0
125.832558726131 -16.3398065463617 -14.3066326008681 0 0
-202.018880315056 6.87479537173193 -17.6506649930074 0 0
88.4477022854101 -4.21909906669072 -22.1042254077209 0 0
89.1552774160604 12.9031216511359 -4.67092072258273 0 0
191.960368476478 26.6508292655361 39.2874948895226 0 0
188.371725950581 -9.17897433014681 22.0053398760858 0 0
-204.931483767746 -14.4752704561754 6.80386149675788 0 0
-158.049760673163 9.68429280752959 -5.53092804342587 0 0
-183.515804967833 -26.5849073634244 22.4035072882878 0 0
207.048905658774 10.4336513141796 -3.00012917727117 0 0
-81.8310569435456 -6.52512406388149 10.1027522799298 0 0
7.08192612928562 -0.28823481246679 -20.3875621756743 0 0
105.537442108502 13.4516644272036 -15.6433424455488 0 0
93.6651528103605 3.67679675095108 4.31133483979025 0 0
6.68335044655982 -19.3676291757511 -7.97146656979004 0 0
-63.5952301481284 3.98051777635253 -0.293756950416666 0 0
54.1383396654841 -1.04949796520008 5.48575082565406 0 0
-225.878070937679 14.0499991332883 -18.1889919289117 0 0
24.4037598001523 -2.11663211473821 5.68679304542396 0 0
-174.009065904515 16.4625331518424 -0.142774241012416 0 0
147.981766680535 -13.7867675286022 -20.1155073345921 0 0
-105.316483841081 -22.1101960931008 -2.22207817585777 0 0
-53.2969101527906 -12.0074581736281 8.08640146310163 0 0
-117.49265221729 -6.99893561705227 -11.7120703674801 0 0
154.679853428101 -9.36118564452393 9.59307682667233 0 0
-117.729239864328 -3.39317259258001 12.6792127696559 0 0
120.233458446494 16.2917882920952 -12.1928167742254 0 0
-36.6799837667001 0.163574576032381 -17.6452927262739 0 0
-50.7317728381277 -6.63252646789435 8.33444209177464 0 0
-174.99489780692 7.20665760904132 -11.1964227975165 0 0
205.536372644201 19.5428873639364 33.0599511830418 0 0
106.293105336666 -11.4511227747316 -19.9920859449149 0 0
159.314634870417 -21.0104339755523 -12.2461905208529 0 0
156.751038300114 -4.02201717348846 -23.8298250288964 0 0
153.021089500149 -7.493787898137 9.12820920695329 0 0
192.143699907936 -12.1495586315408 -26.9247414705058 0 0
-174.224222472371 -7.12408659032798 -8.354667548786 0 0
173.893987838597 18.8208859975379 19.4784441416984 0 0
38.873184481441 -5.06118230898821 -21.4767935654245 0 0
156.040301732451 -9.05671461270846 -24.4392114252722 0 0
208.263339268753 35.4115547639906 5.09124358112573 0 0
185.135606558154 -26.3179258161669 -18.051419359279 0 0
5.6985388205135 7.50383900101858 -6.7487872352729 0 0
-221.954011745247 42.8403564126985 11.0555395514706 0 0
-214.420286956509 14.9608599410488 -23.4425476684045 0 0
-191.715751500099 26.7524175721818 -8.9707443802047 0 0
-183.973849117727 -24.7195937229953 23.3127681365975 0 0
-92.4453082395357 -13.7173865581098 11.6588948357861 0 0
43.8361184364853 1.9936815029816 3.56794100133242 0 0
173.63424727011 -6.98000106411703 16.4348626797164 0 0
-69.6232868897667 -15.6186754098037 8.16635474791717 0 0
198.386003882453 -13.536311709335 24.4380970862179 0 0
-112.636171435223 -22.6595752445051 0.338446801390067 0 0
205.17466221499 15.5494964669068 -12.5697740419245 0 0
-169.40133597089 -16.855919151245 21.958092661721 0 0
174.859887223287 -7.65947394546849 18.0240413044234 0 0
-178.276880692985 -31.1552263191274 17.1799867621469 0 0
171.376879207395 0.983615285913444 14.7431818886379 0 0
215.285259439749 22.7497049143054 14.8279189079415 0 0
209.939130493453 11.9139016114472 11.5040784501824 0 0
81.0243653191646 1.72636071089963 4.62132164350791 0 0
-193.999175237103 8.79699552734378 -13.9484531452911 0 0
-192.843792042828 -15.6763198292465 -12.5395588400138 0 0
-140.947828947987 -20.5374803445963 13.0496511292117 0 0
-211.301487331173 45.1939275195102 -21.5108692265789 0 0
148.003495302784 -20.8550820829397 -3.97249804430165 0 0
-185.031048817749 -6.58606542117726 24.0581767585452 0 0
79.4419809234497 -1.4045527929684 5.23537370422612 0 0
-118.842149492468 5.86252055105539 -3.23362514761171 0 0
-52.8036523743166 -19.8597989171901 0.859717708226521 0 0
-223.139969412666 9.05161952199084 -13.4056025023061 0 0
-184.96536517222 5.30019668696754 -12.186081628205 0 0
15.74511258424 6.45283158837728 -16.1977525543707 0 0
41.0391693482038 -13.930598367888 -17.9529990987223 0 0
-199.44328534011 -1.34543735347846 12.1349849783656 0 0
171.528474946192 7.52378326701615 15.160006250575 0 0
200.159421607394 -28.2271627020443 -7.83086483330776 0 0
176.158538160709 -8.59485208140689 -28.9499112299109 0 0
-39.9123146368555 -7.13481910149154 -19.2351104902236 0 0
-201.199460278182 11.7711574049723 -19.2751465370827 0 0
99.1580236836556 1.51338436738844 -21.9834037499588 0 0
-212.460712455757 -25.8825621116756 -0.27892233902428 0 0
205.470990367944 6.73839397410343 4.41755532838491 0 0
-146.403603933651 -16.1400450916341 17.5501835053429 0 0
-134.570474736763 7.08658332380333 -1.95469619406478 0 0
-190.424432963691 16.0282819573694 10.0871279407265 0 0
-77.8249227601014 -12.2639309319752 10.7497699894798 0 0
-87.8953554156958 -6.27229720486657 10.6209867194011 0 0
-102.674619552385 -14.3775137397753 -11.3352674935784 0 0
-110.537143849752 -18.3959700344273 11.4898228258741 0 0
94.4181442192266 7.90778251537022 1.93682923274146 0 0
74.3562253650253 10.6090793359062 -4.23385265490172 0 0
124.291824752667 -10.5024754105152 6.15392869982897 0 0
-209.217984462873 -12.3082255575161 -0.593881968867578 0 0
-99.242370599714 5.39620369495921 -1.95104840961076 0 0
-51.0406657450403 3.77596707822041 -0.345384774109669 0 0
184.353802618895 -30.2875197963124 -11.5339165956484 0 0
205.306946919286 -26.115399718067 -6.54001356317028 0 0
-13.0723746064791 -0.718242586071643 4.98010812304277 0 0
-11.0978870667206 -10.5952496016624 -19.7613610842875 0 0
164.94237598287 -13.6903145499629 13.640197357683 0 0
118.745962460418 -1.10747809030582 -22.6617047806506 0 0
-212.48962449123 6.41136138841978 4.72598552365262 0 0
-67.9643254012701 -5.31065906424074 8.70933662756189 0 0
61.2945439754074 -15.1996611426286 -16.2948819585442 0 0
-46.0662165134936 -19.9070256919228 -11.2273703276968 0 0
-184.817028067394 -37.9382889348697 4.31765098900058 0 0
107.306303576398 1.69327310390139 -22.0364568290639 0 0
44.8402993609618 -8.92721147656683 3.67413966943254 0 0
85.4825885548268 12.4878574229987 -15.5351006955773 0 0
-121.75018035519 -4.46273904763627 -11.3084030111761 0 0
-59.7270342649681 -4.43928020299105 8.00497830442683 0 0
128.088047446834 -9.49476103743743 -21.6162290372687 0 0
95.3616443010263 4.49605342544831 -21.2221895460823 0 0
172.82821417157 -5.75083910294131 -27.3913975890285 0 0
-45.0737209150203 -4.88973656231115 -18.8714861416775 0 0
54.0569307852875 10.6769235355465 -9.08017577741811 0 0
186.959444881092 33.2998760168273 37.7423418580242 0 0
-212.982553758014 24.5504081630013 16.8362853420874 0 0
63.7409109955205 11.7121454002833 -10.077917825017 0 0
61.2771176984781 -15.6198280393025 -1.16021793500356 0 0
109.800859324947 5.22854884718673 -21.2805320073132 0 0
199.258634033976 11.6367239063095 -16.36518622312 0 0
-101.155881194664 -9.98511248240646 12.6088612784254 0 0
50.5176832059782 10.0598432235252 -14.9995153734139 0 0
-179.991995582367 -31.9337627857978 16.8847325693815 0 0
138.480559348291 17.1318878289761 3.55723412096263 0 0
208.098103566378 -31.8111025680232 10.456028103204 0 0
181.252302339153 -30.9334354093547 28.0674252620254 0 0
188.642487310702 40.069307535696 0.174296138026132 0 0
-160.249809574767 19.6234562514403 14.9211108435393 0 0
49.9499170641885 0.212829490112518 5.03088088170284 0 0
-164.578547595642 11.7609965417046 -4.15546971323532 0 0
197.946395631253 37.8572407235636 26.9706203093705 0 0
-176.925859342781 -12.4268766136554 -7.45816727327008 0 0
211.638223203775 33.0953007987394 25.4194465590113 0 0
-139.787979647252 0.0468887976754361 16.0893988927496 0 0
-218.725465277754 11.27300939537 9.33638422939252 0 0
-176.670214295756 -5.80333058235165 -9.70356677498748 0 0
-162.471762589811 17.2824157625645 20.7856875648567 0 0
206.93079288705 35.8391173388057 11.844407207164 0 0
188.719858719165 -17.9187149005719 -30.6614834249523 0 0
168.780788155236 -20.7591323973335 -21.1665527271504 0 0
133.901650697885 -6.58611235556734 -22.8730561361535 0 0
163.255559503014 -21.9838786618712 -13.0946646361291 0 0
-42.2418276532878 -21.0965882922621 -8.49840896115401 0 0
201.417069622474 -31.0918708451348 -2.866409367313 0 0
-85.8527570580181 -1.50997970546833 -14.2033571870503 0 0
-209.221160179908 6.41745153653035 7.85749097531825 0 0
-216.862572006064 -24.5656683247145 10.9413214674437 0 0
-142.608743762577 -0.203112330010847 -9.31541536530133 0 0
-139.664511846889 -20.9411480164009 -2.33637262121422 0 0
66.789832220068 6.22023002140035 0.411836085165759 0 0
-214.795623558985 -24.8913622742261 14.6734900311192 0 0
-194.29857975752 -36.0796633233567 9.55742205719648 0 0
-9.74196209044766 -18.8011796351023 -13.0448660982071 0 0
-145.186227071318 -11.7716428343169 -7.43383633129743 0 0
134.270690127269 -19.2446569701385 -5.55958986490779 0 0
-227.225815389821 27.6553179155327 -24.1120823047937 0 0
180.659509192751 10.4157938962758 19.8380611034229 0 0
-188.375844664337 -2.94650652735141 -13.388197481484 0 0
18.2915256511888 -12.7155259703043 1.66792809891021 0 0
204.063473775915 34.8974672111229 -1.38450849164984 0 0
89.2471996326775 -17.1843522377185 -11.2623331554787 0 0
205.989767529255 -20.5511476898074 17.8813468420557 0 0
82.7566021442858 -13.0259186147817 -18.4669036317864 0 0
-71.1016594826503 -19.5810705080238 -10.1037010460979 0 0
-45.7958834791912 -16.90977401553 3.17271420585311 0 0
199.348270424934 -34.8420641074584 4.21300880549065 0 0
188.805984811881 38.4105942968173 28.0317233915755 0 0
-165.172203616481 14.7434446826223 2.42107067888517 0 0
-47.8912711809657 3.78468291114271 -13.1470562468551 0 0
-4.03236233524467 7.26082539038515 -7.13886441040106 0 0
-79.5639908058502 -17.3684465897989 8.26910750035216 0 0
-8.12680633957272 6.04028735218525 -3.60483351694283 0 0
-96.8093091538028 -21.3212683878634 -4.94902479197471 0 0
184.235085643993 9.39248784364393 18.3664369852135 0 0
163.540598637649 -17.4284742560063 13.1172206144449 0 0
-191.064046635911 -18.7212287522832 -10.1769206104462 0 0
22.3211010052401 -8.08393316974284 4.84593743523442 0 0
-214.406506904912 -17.7924510823019 22.2467139821721 0 0
-112.645339764975 -17.9099483328905 11.877410487972 0 0
-236.805354149901 24.6587856631761 -5.18490446943832 0 1
191.607890052786 -36.761256731611 2.68817356416483 0 0
-30.942145683034 2.28083678727935 -16.660198896605 0 0
-191.438181489664 26.8903729295564 -1.31954906670185 0 0
-163.028416145037 14.0965860069736 6.63014950826269 0 0
-196.178416869985 40.0651289072523 -2.78049303500481 0 0
-53.1817443830934 2.73245317348084 1.08076954789702 0 0
141.756349432969 -15.928109565616 -16.2978373378058 0 0
-155.421367105587 8.25200063987665 -7.01803786832923 0 0
151.301720989236 18.8882478506621 -12.0126032615588 0 0
-172.672931376209 -13.601162725719 23.0645126137185 0 0
-201.379722592308 48.1490883598068 -3.25141333303336 0 0
41.9809643718543 -18.0782084979161 -9.43282805029557 0 0
-179.056071744545 8.65334817204086 14.8716025933005 0 0
203.800701270105 -31.4937412346116 -1.04321963955566 0 0
170.621880822121 -26.9782933605897 16.3074643127207 0 0
162.804782615239 -0.53153287649531 -20.9328016263322 0 0
97.4791658633088 9.57694673284082 -18.9206015873228 0 0
147.786053524351 10.1163819647044 -19.8201444666711 0 0
-211.515456809464 51.9723003225183 -2.08076928333961 0 0
-224.864909521364 21.2962979212513 13.3233541512402 0 0
-199.395434294674 33.2677640274969 -21.817124383807 0 0
168.203653434764 30.7614861231919 5.86594027405657 0 0
-208.270824941379 -13.8782883822893 23.6467586448995 0 0
-56.8026114268467 4.11846961473054 -0.751694194036964 0 0
-231.963917308099 19.7379054084183 -16.3526563466493 0 0
-65.1760678787609 -17.588583754911 5.79583568272123 0 0
105.239427782729 -11.0193036577302 4.43888361301911 0 0
-119.991648668606 -12.6021874014032 15.2738182571107 0 0
131.029086787552 -0.819476221847872 -22.8791221447662 0 0
107.898128600364 1.07249688705322 6.03143274207335 0 0
203.837564429131 22.6852717755037 -15.7725110057994 0 0
86.330126136284 4.15847824607989 -21.2997424386326 0 0
207.581435745193 36.2817455265732 25.1586466070074 0 0
177.171403680565 29.798982959716 -9.11813934747161 0 0
-6.72152484154424 5.53575388410956 -2.54984724570356 0 0
-16.1419976075037 -19.7552994542155 -4.67246556079977 0 0
190.954432042194 -26.4465353559929 -16.5463145619439 0 0
-207.838200028357 51.0540681282212 -3.49680583885187 0 0
-25.5020301529251 -9.53111330365421 -19.7175578297191 0 0
150.211311855133 21.5374267256303 7.48476827734885 0 0
-193.244710877198 -3.28400714455804 15.1805027423726 0 0
-174.463222804033 -2.01180917049715 -10.1080086540806 0 0
173.614124830021 32.0897085368999 -2.82243329328204 0 0
-196.527790058149 3.12133701763978 12.5226898265072 0 0
108.268302810507 6.7755286785343 4.42899735775524 0 0
173.727753972157 -26.4433483602194 25.0455631753118 0 0
-216.479622508008 44.7694807093311 -21.8473048525663 0 0
200.251923474589 -0.108422588186125 1.56715104080537 0 0
-38.8462036416512 4.75756030110587 -12.5815573607331 0 0
180.44044088016 7.49290972518431 -22.6496519187394 0 0
-148.326460896933 3.86338370581627 -8.43217836418085 0 0
-174.772295055445 -30.3593548316242 15.7698190513724 0 0
-116.324676799068 -20.2722444241367 10.5226844700466 0 0
106.45657930408 0.0559202068470299 -22.2540862960147 0 0
186.993188845032 5.37742364285089 15.4780871692577 0 0
-1.64295521671565 3.89101207707317 0.00972929954858336 0 0
-110.015087010156 -20.2944146609961 9.97193447754475 0 0
-83.2126183154722 2.37924806236916 3.55731254348094 0 0
131.210172964895 -11.2230680578429 -20.7805250535025 0 0
70.9170025972773 -4.41629148335403 -21.7718561300301 0 0
-196.490294160486 44.004229423811 -6.08620920202289 0 0
-213.746804021847 -13.5002373555738 13.9208167108474 0 0
-204.90397096287 31.2219714235481 -25.9546164174405 0 0
157.992432418944 13.0212461077999 12.8342326632822 0 0
-217.258495489129 31.27099089074 -27.9826640267756 0 0
206.690326119519 9.29881166934999 -1.0480099243173 0 0
170.093914085885 32.0686590258028 15.5818828571355 0 0
178.355183791129 22.655552706873 31.262668924345 0 0
202.902997871515 30.5537316618014 -9.31388546422421 0 0
207.545990625649 -19.2637581282862 8.95324845297428 0 0
-123.708429491971 -3.08901978257505 -11.0499279374492 0 0
194.473831595604 -32.4486110466854 29.3595687277997 0 0
-159.68530649395 19.7230044548572 13.4650034063634 0 0
-117.026992290142 -7.42110301345997 13.4591309883156 0 0
66.1016360618464 -16.0709872844501 -14.8809220084878 0 0
86.5485801640329 -6.29772612917607 5.50892153134717 0 0
-199.508176336283 21.3279921562263 10.6984239361502 0 0
-179.47758683988 2.34740191651398 -12.250830974011 0 0
-51.4139012337011 -20.9360089909566 -1.39372359127274 0 0
-231.295014189382 39.3863123213723 -16.9894352982661 0 0
-117.37751439488 5.19412230998234 -5.52787956732636 0 0
203.411646912484 9.05986878996183 20.625432361284 0 0
-54.1549773391293 -1.98701907937244 5.74333057956512 0 0
-69.3430931347807 2.03021636685348 -12.9611769394235 0 0
167.345088774239 -27.4421229514434 10.5057476121129 0 0
-213.390384212288 11.5143891457387 8.74231922828409 0 0
-180.716863171063 -5.29498606705692 -11.1060436863682 0 0
-218.605964499809 50.8822546386605 -8.05079574683959 0 0
-22.8565334263107 3.12774299694422 0.602017088428582 0 0
202.307395075648 24.2886601366256 -15.315210339223 0 0
188.606642798718 38.0018032920038 -3.77750609738991 0 0
29.5438389846279 -2.53652437738233 5.60747790816247 0 0
-104.542077087446 -0.3355371680847 9.57590866995119 0 0
-191.240601880026 -20.1193251341689 26.0537530509823 0 0
-2.42984458776259 -6.76205880671181 -20.7087291271747 0 0
-54.8931167967994 3.14694361915675 -13.3274860854671 0 0
-176.413127722948 -10.5357473986983 -7.99950958347607 0 0
203.248937979447 9.41465409019254 15.2705952372358 0 0
183.417269330257 30.4141591988562 -12.0690507740847 0 0
-176.138273433935 6.14627100448396 17.8779654591259 0 0
158.189441463066 17.0313340685175 13.316041634887 0 0
55.9104750884977 -14.7803291734962 -16.8939640660317 0 0
-123.85693997973 -21.9650705968174 -1.09000606791809 0 0
171.301773587762 23.5190178032014 -13.0538494539681 0 0
30.288305680682 8.97100831893166 -8.26714792832207 0 0
77.0964352950689 -1.18512280939978 -22.0074497229338 0 0
-136.93153391102 2.98645140487615 13.5690997146965 0 0
102.485170042885 -3.33701964774501 6.02829940274481 0 0
189.008277639009 27.7068262113544 -15.6978054694108 0 0
177.7284032637 16.5378151905751 -21.091977610675 0 0
-158.784571451459 -16.1102832421546 -5.38058537055602 0 0
-146.93755884242 -0.52826047345073 17.3844165030062 0 0
-132.636300270883 -10.7716723498366 15.7462764233892 0 0
-12.5209266657315 -6.63155626288071 6.76381862957204 0 0
207.329035439579 22.4341707807387 -11.3640559119958 0 0
169.831672125871 -30.1314246516299 -0.90089039434314 0 0
205.071433641595 23.6071196608234 -14.7085888753466 0 0
180.581018367825 17.0574118719272 -21.3531040202286 0 0
108.905822365672 16.0194746995402 -9.65558542463545 0 0
-193.57890068195 5.84720684564777 -13.5299147526272 0 0
180.497814166413 40.7699649651352 2.82899232254172 0 0
183.658904210546 -11.4496992980415 27.4597308544159 0 0
-202.770088609109 27.2978979600896 13.326296411283 0 0
-229.534213784395 23.4056888753438 -21.2504970312266 0 0
-124.826279401751 -23.0227531505086 4.64974233815238 0 0
-213.150728523154 -20.0136398182895 -0.344465964875053 0 0
203.340313694946 -17.3735865411792 21.028699983453 0 0
-163.571498442624 9.65548802987889 21.7850592469234 0 0
169.728851649644 24.7271397958344 16.6971108126563 0 0
-174.547154039402 15.754776601979 8.85069893821636 0 0
192.899075682046 23.3815718860783 -18.185651964143 0 0
-71.3616308945346 -14.2737498285812 9.31891947805915 0 0
155.594409997502 -23.0499809959272 -0.0367439987083126 0 0
136.192004848898 -6.4239201358712 -22.9919817837891 0 0
-221.191095294233 49.6995094259255 -0.500805496940299 0 0
-215.485887540992 48.1754526350926 -0.0917741996835872 0 0
-99.8930840276384 -1.28345683612244 9.68950879459265 0 0
-171.45244117012 9.2740236279998 -9.71940205255667 0 0
-153.668818653371 14.84039999767 9.10635193973543 0 0
206.107399595302 -23.456377985189 18.9754679099953 0 0
-73.4762092971334 -3.88407466904533 8.39227992740937 0 0
193.992623473899 33.545512628568 -7.12216769700975 0 0
147.148442292461 -11.2672752342062 -22.1124044196933 0 0
-171.61994849809 -30.1681104329237 11.8613171060131 0 0
-187.760756482632 1.08310656530813 16.4484101975197 0 0
170.448351661641 16.2264404781856 -18.8953689560889 0 0
-140.262018963382 -2.94355212436686 16.2389188383056 0 0
-69.8178101485049 -11.4003850328947 10.2341081612378 0 0
190.224682840232 -4.54526083781224 15.4206049361276 0 0
-93.4278180085715 -11.3843887678417 -13.9193025100902 0 0
-231.460903551926 30.4433541100442 -20.3949941567867 0 0
-200.313837619451 -33.2915471476266 12.9473890208333 0 0
135.519143912587 -3.90253875305243 -23.1149288252476 0 0
120.399167076644 -12.5259220843627 5.10175205307821 0 0
215.733371987519 26.310317320272 9.76280541600565 0 0
-24.4484092287969 -17.1085011926777 0.430145310696747 0 0
12.106307730062 3.22892530939271 -19.0411947697066 0 0
160.003654722405 -18.0336845821885 -18.6356532843948 0 0
199.187090159898 37.8999826068646 22.0138484681875 0 0
-47.8221849763749 -11.0178440434645 7.69482054991031 0 0
175.062851501121 21.8939979762902 22.7044180864694 0 0
-231.604644183995 32.8569953614623 -19.8956791005049 0 0
-202.903878131209 -11.9995317831879 20.4728808797515 0 0
-129.234474107532 -5.49414581821119 14.683765290707 0 0
-103.972987779933 -10.7481397039837 13.4081867968533 0 0
75.7330287500122 9.34975376059741 -2.28113443989296 0 0
206.107293979163 7.46860208882212 10.6540660432441 0 0
165.643273574221 -25.0037936828169 -7.90710368458551 0 0
-207.151744490859 -30.8463510397618 8.84491197359291 0 0
-189.324515762924 6.24132745058765 13.4592371586462 0 0
160.705318191795 26.3165050412928 11.29560319547 0 0
182.011074846193 11.6987511795712 21.0034596587393 0 0
-181.900444415551 -36.6301476563336 2.22573581568511 0 0
207.529413342347 -22.4396151239381 -2.38166871690439 0 0
-149.141788316576 -22.7319978253411 11.4057447043191 0 0
-198.34394728868 45.6403543431563 -5.69576078535291 0 0
-187.479311990718 -36.530548939885 8.3231155700787 0 0
114.295931038412 -16.0642602229092 2.03111833986859 0 0
166.925529658716 27.0045910129827 -4.53852871199124 0 0
-169.69494165804 5.4817727129805 -11.1165433401954 0 0
49.9865416252819 -7.56528174273678 -21.1573274583239 0 0
-150.615427242724 10.4219741614294 6.83658064724374 0 0
-154.581711693706 1.43492977484497 -9.07800263314315 0 0
208.924212093083 23.2269771657371 30.918661622453 0 0
145.746009925809 7.70548771690683 8.27518812997487 0 0
-204.717554090162 -31.1603025488917 -3.2752661941615 0 0
-210.807122094394 11.467280427695 -21.7035118789213 0 0
-121.773040501645 -13.0596525813483 15.540735946488 0 0
-147.957452464756 8.55036555722193 1.52796885039351 0 0
-173.349896638235 -9.18005634515641 23.1887856773283 0 0
172.575851265176 -15.6594182111544 -29.4643327994086 0 0
37.8831345579311 -2.97614485498329 5.46567122399224 0 0
-219.473602842558 48.1519102824096 -1.31739406409405 0 0
-202.248855925516 -15.4310218360043 12.2069012921183 0 0
-195.164673266488 24.6635868810201 6.20861631018589 0 0
192.957645854893 -23.1620323380853 31.2554890733565 0 0
190.553219700868 11.1417529156751 20.1627091012063 0 0
-237.121081914622 26.8697374373844 -4.35358602342737 0 0
-27.5137518821016 -17.1386981986985 0.68743127817625 0 0
199.308520224122 14.652053810422 -18.3540052975058 0 0
-170.205425871543 13.4945908189421 16.4279811918266 0 0
88.628957056724 -5.86883211259535 5.67433756186042 0 0
-48.1016947828311 -17.9635647114537 2.41158014478002 0 0
190.808140257426 -30.224297886203 -10.1330619731318 0 0
153.793308996513 -10.195582513865 -23.7213043228718 0 0
189.324671915517 23.7660996659414 -18.422316400405 0 0
-177.784396497015 1.54505404154074 -12.0329267633664 0 0
-52.7462073216512 -13.4739909747486 7.0623233731548 0 0
171.022630811277 -28.7999125383894 14.8447673351464 0 0
-8.19061998598476 -19.7272003139111 -6.03411481652072 0 0
-47.7236974464347 4.17292952389009 -0.872322157825064 0 0
-182.202802199821 -33.7660741465543 15.4570297801336 0 0
-64.8523052280058 2.25182626303077 -13.2384711892371 0 0
155.333741217294 8.37749210706391 10.3240297929758 0 0
212.308768772617 30.2209512756552 -0.346517516992743 0 0
174.541653777442 38.4026665730217 10.727528373679 0 0
200.044120539735 36.8369427960919 34.3959620394612 0 0
168.63622782829 8.14587399165723 13.6201764845174 0 0
171.365719151657 30.9839168671658 17.3276173900508 0 0
172.88435669175 -26.6974203449647 -12.4295150610123 0 0
193.790323835533 -28.0483825274677 -11.8909292388216 0 0
136.546177196067 18.0623817739008 -10.8095176145658 0 0
-169.033925285755 2.46162014604256 -10.3971400502069 0 0
194.505305739059 35.3413961468883 38.1198284135434 0 0
199.491852509615 10.95482142438 29.1366024456996 0 0
186.760793139183 12.2029672043759 -22.1503197451744 0 0
202.553999222615 -32.4034359869542 23.8284318415394 0 0
-215.530175258738 -25.2716761667634 12.408555250801 0 0
188.854197282997 43.2770584239608 7.17795127805061 0 0
-199.397030543903 42.1702944453358 7.36756863697268 0 0
-132.84670210077 -8.63609317649101 15.5806231792857 0 0
-104.146969013657 -2.52472540458756 10.7320269872267 0 0
-27.6069219774702 -10.5436189733815 -19.425695449001 0 0
-200.967042392713 -14.5340582078805 13.4871051925583 0 0
-197.903930204646 34.6624651315428 5.77684890659493 0 0
31.4017983817114 8.44402193657122 -6.1835799123444 0 0
-209.764180834177 -12.1527016764649 21.2214109647292 0 0
-174.870668953328 -16.5493839111159 -6.2102532885526 0 0
-199.218551800786 -14.3756431111574 11.6436104729331 0 0
-180.191978879237 -17.8628077244654 -6.73787141983486 0 0
60.575787105273 11.21709936769 -8.82068092455512 0 0
40.7941257900911 -12.619209559007 1.20253679768236 0 0
172.239168457381 -6.72482680130605 15.0050907015888 0 0
76.4891981110856 2.97167501141699 3.99291106074605 0 0
-217.384659722036 39.6600415485113 -25.4364413373175 0 0
19.8860084944785 -16.8156264400467 -15.0373683091347 0 0
144.220957303695 -20.1687540695416 -4.83774385927406 0 0
-199.194556145401 3.30624196313788 12.3623958752425 0 0
-212.553496655479 -13.4012020796389 23.2072664618406 0 0
120.154856536784 -12.5354032105375 -19.3205591843625 0 0
-201.61615809178 17.7298744998724 -21.7112034619695 0 0
-202.926038949508 18.7974425008813 -22.8955818890399 0 0
206.040968441746 -27.974476240575 19.8036333764471 0 0
185.893036161472 -25.801420638261 31.5195696216752 0 0
208.081729248785 32.9016352555054 -2.9003685795461 0 0
-149.816360460821 -21.2252810484687 13.9276622969752 0 0
-157.062528723756 -4.42819042945287 19.5467659473479 0 0
189.668860333368 37.2840613399333 36.155671295226 0 0
-153.532522610181 9.41833286312595 3.41842301798723 0 0
102.595614947255 6.28544091662137 -20.7332649122813 0 0
171.872609624162 -25.5582303468161 21.0400805802694 0 0
-52.0066279076831 -2.08937124647977 5.83891558787714 0 0
60.196466037442 8.38390680458989 -18.2523451494071 0 0
-40.7106778293801 -5.296595913853 7.51155641328103 0 0
86.0913780467139 6.65792655122899 -20.3587215876944 0 0
176.122145106683 10.5204454781076 -21.2852200913766 0 0
-188.673470002753 -32.2077423577621 17.3983540613864 0 0
-211.021367066081 39.4656741543361 -25.5607279482276 0 0
-60.8818491019774 5.22433942995443 -8.50485034089825 0 0
72.6042054816374 12.3153589989355 -8.36737041695536 0 0
153.165346829134 19.4812153627399 -11.4071711190294 0 0
196.3299287023 9.75493995819474 15.4304488879191 0 0
-83.4895034521528 -13.9840587988648 10.6871705562582 0 0
-51.9551613595473 1.64955603915082 2.36114775662829 0 0
211.428231823399 25.4258783324144 -3.2857243469039 0 0
-223.66464769153 43.6850340359589 9.3655757837006 0 0
-186.137107540896 -26.7637611450218 22.624054488451 0 0
171.584300186316 3.25643357764411 -22.0179069544059 0 0
34.9329423415855 -5.26292247540053 5.77891905836304 0 0
201.599214162481 9.60510765999052 24.9091405344394 0 0
159.000171642197 8.11085611135543 11.0183053911339 0 0
-211.439372482797 -14.3699302050622 9.22943058405601 0 0
-110.643429079401 -16.3414523869561 -9.03949212682533 0 0
-115.240531010135 -15.4932373513336 13.9666461088599 0 0
36.0195640450803 7.40235587254883 -17.4907199646253 0 0
201.421488803333 3.19682953321923 2.8191881947237 0 0
187.492859444706 22.3586863383522 37.7505930641139 0 0
-145.221023447872 -0.203666545820618 17.20693242457 0 0
-176.474095731752 6.05309380515381 -11.5699540179728 0 0
35.3499259314148 -9.41385117874625 -20.4932563917101 0 0
209.924257312632 35.7116492217233 22.5669152988181 0 0
-41.0359154573411 -14.7591042703931 4.51475402486173 0 0
-144.990614700752 -18.5090725312601 16.3313045930884 0 0
-112.416405849501 -21.4910336304302 -2.99422507262121 0 0
203.809072591025 -13.8557021971142 -10.8953842403047 0 0
184.76807763977 38.533529955547 -3.05641318367107 0 0
199.150531835274 19.1179053501982 -20.32195188565 0 0
-221.870119381964 17.6301848279168 12.8940005829774 0 0
-56.8362929406486 -21.372455344488 -1.44445095750708 0 0
54.2277284871534 6.82648455232594 -19.1527005499625 0 0
-22.2291879787082 -1.88973760371037 6.04189575233589 0 0
199.802278139425 -4.80223019548372 7.22913503844739 0 0
-123.273222524899 -12.4217681854952 -9.63463725506922 0 0
6.55051438707044 -7.28571161636872 6.21162738437198 0 0
180.461559384026 -24.0594784239317 -21.8025661048902 0 0
197.330538951516 39.6883115448854 14.4744423437938 0 0
63.0851679034269 -14.1886933884175 0.237247196032768 0 0
175.605845620814 29.6556500052067 -8.15555508595299 0 0
-180.507976355598 19.4981966703884 3.07780423797034 0 0
201.953854557112 -3.87257776728765 -1.05874224033505 0 0
-170.468688379284 7.57346895371213 -10.4485504931016 0 0
-98.142555663906 -6.46330208064789 -14.0144464946614 0 0
125.75412606917 -10.9755273133884 -20.6681633375937 0 0
31.4328846495876 -6.4274384354281 5.66749403949278 0 0
196.008618967808 -7.62182025967734 19.114053584345 0 0
-40.7618303353492 4.38614780115483 -1.34813734055273 0 0
-155.984011271269 8.14455947441506 20.933208809701 0 0
-145.026715570677 9.98684129135896 7.57627979453186 0 0
202.313032243295 -35.3020848425024 5.78283562559919 0 0
9.60686175243166 5.21063371772138 -17.0094237007012 0 0
-77.7230542872948 -3.43071314930178 8.540259332111 0 0
201.391610726051 37.5363501897061 22.6297277670903 0 0
-182.609416646966 20.2002288940651 3.78019820622068 0 0
-91.7105093868493 4.3304123518434 1.15787926878606 0 0
-36.3733365625816 6.11632005203313 -5.90459790385116 0 0
-18.9924343475927 -5.31472828994276 6.78915120354728 0 0
187.792243840985 10.5487957716581 18.840956728675 0 0
179.633169709626 38.7931792568905 -0.462170522922423 0 0
-193.797743105626 -20.4391655289606 -10.7982242977472 0 0
194.741174892465 -9.27456937744662 -22.5766565269355 0 0
-186.244081102737 19.6707132591945 6.7025695002736 0 0
-202.430553042177 16.4865123560389 12.2608132597237 0 0
-117.284661063829 -5.52895153596069 13.2925013921307 0 0
46.884918411838 3.66301101789549 -20.5161914758823 0 0
205.92427536506 33.5335202060841 33.2665001781413 0 0
-201.167207671799 -12.0786027181925 19.4004868574863 0 0
-169.949713729886 15.7603139431421 4.7144015531242 0 0
204.242406522435 20.9329899093191 -16.1987922540412 0 0
57.4476582069841 -9.69087822012716 3.32029949260334 0 0
204.307184597998 -24.607133971111 22.8483880954297 0 0
100.83767307906 -11.4261820197723 -19.8879502838106 0 0
-39.7143051839113 -21.2330174499651 -7.65684693228672 0 0
197.561470178688 -22.2195806955565 29.0022597640511 0 0
-228.800989148888 16.6291343257704 -17.8858663987202 0 0
152.166498732507 15.830461484958 11.0644467132005 0 0
120.715233551128 8.01761825453558 5.42691059924904 0 0
64.2092973828553 7.38550134575899 -19.1950296367873 0 0
-207.81233174352 39.8249809466913 14.0429184228205 0 0
187.940566106527 7.55797382226845 15.9191909589161 0 0
171.424872484618 -20.254981636668 22.2257600719336 0 0
-119.474381450641 -7.35648015404455 13.7161052753791 0 0
-205.078446792522 -13.7136164310929 5.29985509349189 0 0
-59.6106858598713 4.95860557625458 -2.59301123224432 0 0
2.87248409440351 0.734106819827498 3.34384474397398 0 0
186.011436032249 -10.6364194548288 26.5175333858272 0 0
-14.2732008138301 1.48367875903724 2.4408283619565 0 0
-179.693565948692 6.70769471870445 -11.5030346428131 0 0
186.614296091078 -8.0412402220387 -27.2808945808291 0 0
86.6371257160695 13.0274429490128 -5.68575988121397 0 0
180.013934061285 -0.692300022534265 -24.0652252950055 0 0
-196.232620015539 18.6780719451197 10.0415579573668 0 0
140.68565227813 -19.7959707288193 -4.5972721719387 0 0
5.36125557489081 -18.4359250552231 -4.6188753968519 0 0
-165.330315837807 -14.5627911471436 -5.80830974868304 0 0
41.5702701101198 4.48176610634625 0.648173919924097 0 0
-89.1008436189478 5.3221217706152 -2.46118556247956 0 0
-155.177061169511 -22.034827415362 14.6996547451696 0 0
-219.868197101827 27.4787683930853 16.7178069086852 0 0
43.9165872043142 5.84983530933311 -0.78509830826456 0 0
138.331876775543 4.04009883511026 -21.9398187176251 0 0
-131.139255952728 -9.27869410762907 -9.75747453056404 0 0
-205.642665528774 -2.23687700838294 6.1993098600415 0 0
81.9974326260654 10.3894716533077 -17.6268351328238 0 0
37.9582479717553 -10.7285654056947 -19.9645740518373 0 0
-4.83652236426007 5.24496711973955 -15.2507557615253 0 0
54.7886647634631 7.65136821967577 -2.56329284100187 0 0
-232.154623942413 43.0658472574251 -8.20163986314218 0 0
161.196061014604 -3.77740770278377 -23.6810476413769 0 0
-3.99426779137233 6.76615508685902 -5.16877222830856 0 0
-158.147587554141 -20.2360918586519 -3.82789749690117 0 0
-139.965494096267 -1.71595399569098 -9.62903371504676 0 0
175.148799192231 29.6388968521938 21.9636381349262 0 0
-179.800409734491 -15.747749259617 -7.19481958414805 0 0
193.223939695245 -8.12512890006577 17.131184643928 0 0
16.6504847028634 -0.733646959056169 5.23519911957891 0 0
213.361429426331 17.1776410272601 16.5403921592988 0 0
114.741050686018 -15.2063703789284 -16.1061506664905 0 0
-192.865031100224 30.3010704551632 -4.60282733660082 0 0
187.721048981096 -38.9610788138297 7.94565053150357 0 0
181.682083085765 -0.00327724937323973 16.5784148398311 0 0
-148.978990365047 -1.03780951709777 17.9407048144724 0 0
94.8128223378531 -9.34311190849226 -20.9432984230461 0 0
-106.3422487067 -16.6619146597685 11.938034507641 0 0
-82.0261682563182 5.34754955874886 -4.24721347331364 0 0
135.913947444865 15.6764665676116 4.01665859180648 0 0
-148.498863546196 8.53884700568659 -1.00250139829988 0 0
173.28605631744 9.31220787449193 16.4329673098055 0 0
-200.789496551823 -9.49798556019194 -14.3520033580641 0 0
181.567247108778 42.2442451747033 15.5631243671144 0 0
140.345019844892 -9.39782104618114 7.36088935260717 0 0
194.408128088998 -34.8982742590471 15.5518570955966 0 0
-186.47470542735 17.0349314787592 -10.1695295609401 0 0
191.310355281729 42.9819271240207 6.79592849490293 0 0
-45.7830598324647 4.73464461207242 -1.94941656889911 0 0
184.71121000893 42.9468679024344 7.40289885914266 0 0
185.728199804114 39.6530459247711 24.6521067518669 0 0
-93.8459419709501 -19.1672667955391 8.94064639705922 0 0
117.542055426903 16.9033166456928 -6.87611176619321 0 0
-1.17186737206536 7.52478335444454 -9.51856285283652 0 0
204.021648971619 7.34467361166862 -4.2982877926761 0 0
-74.0654091945099 -13.9120912279417 9.56204460892616 0 0
-186.975923633112 -26.2412579388698 -8.00988369367699 0 0
-180.102086625074 -36.3680544520396 4.71744247617273 0 0
-166.265150488848 -28.3083792242841 6.95222810328451 0 0
166.901903280951 11.2813683619572 14.5329518370469 0 0
201.17161287962 33.1906446799991 -6.35608124729904 0 0
145.685612615541 18.3318183879469 -12.1093571587244 0 0
-83.360909673891 -11.7449616119331 11.255149048074 0 0
-177.152509080853 -34.2562113516566 5.56255175066895 0 0
-186.767197206149 4.87617820487657 14.791703322431 0 0
-22.6065524012238 -13.4295362122095 3.54297303883824 0 0
-133.20390436718 7.27461286733479 0.869458614952099 0 0
41.4283850393747 -11.3483436847878 -19.6693029641063 0 0
190.51804164933 40.7814945869747 16.772092996086 0 0
177.366330675975 28.2798890242793 25.4114122076597 0 0
171.218824821454 -31.2031438295535 -0.976210874248426 0 0
-216.992163393589 -21.8819733611677 2.93285048826828 0 0
163.139897339086 -27.081163318143 4.68486991924048 0 0
-190.665418252955 -6.30213920517555 22.7110590015172 0 0
196.772085746989 11.130400563301 21.3746857684562 0 0
119.283864848892 -18.2412388275138 -8.97695659163361 0 0
25.6924282690129 -16.3599278094629 -2.30020782929472 0 0
196.937572938585 9.83811562928734 26.2964247116544 0 0
208.922758039851 25.3338929290486 -9.09986352276321 0 0
-236.411801132708 33.2827709754897 -1.63011355716733 0 0
41.9694256881786 -14.643223101821 -0.363685368306859 0 0
-169.25501308136 11.949878524303 -7.06209626537246 0 0
-167.528697760401 17.080702184661 12.8590656943847 0 0
-69.3434145467953 0.900175211115596 4.05922335062909 0 0
31.353324437865 -13.2332035151928 0.943569677922785 0 0
104.58139736521 -6.68722679759094 -21.8738561833341 0 0
-110.43788367664 -22.8430203668342 1.52259880842066 0 0
214.444805903349 27.0107423079155 20.8830046892066 0 0
-197.385946161723 3.64766228282554 -14.2352992793956 0 0
-206.369625438583 -16.6007843551871 -11.1486191533855 0 0
-208.524838975058 20.2742070431249 -25.4766475783572 0 0
-227.466578080696 35.768159652932 11.8506171671783 0 0
-223.302943063215 47.4907329834808 3.84697384940012 0 0
-163.689232544515 3.530299542074 21.0661407235904 0 0
201.4433630009 -23.723387748455 26.2290996172391 0 0
-192.831058388865 -31.6772970287924 -3.19715397284959 0 0
-39.6556554749092 5.63697047398025 -4.06568552677436 0 0
-201.726443756227 47.6612127820208 -11.0074626737252 0 0
193.116216110465 -30.7712441550693 30.2615040742954 0 0
195.343053769254 -9.16376946931148 23.922417397211 0 0
-184.782550049841 -33.7798419318448 -2.88910266483017 0 0
57.1023474635776 8.74035707232773 -4.11445225529432 0 0
215.173609718705 29.7740248377914 9.94486306269789 0 0
-150.024381404166 -12.5892837068986 -6.7824096527294 0 0
174.546392006094 34.7112905213961 0.15818975757142 0 0
-81.1673289391561 -21.6327648668752 -5.85948308137251 0 0
-44.6578067619057 -21.1764893016969 -8.16941596169328 0 0
63.9460409657645 5.66258610886164 0.767225044646783 0 0
-116.541351800241 -1.36244194289349 11.2431358953385 0 0
-183.833139160768 -22.8757588779374 23.9886386781815 0 0
174.831581031116 37.1759193909121 4.46211914201154 0 0
208.558676753354 -24.0325144125128 2.39636786984613 0 0
190.509198539715 39.3687030096935 -0.911922724388815 0 0
-92.3201507731359 -8.91715121422936 -14.6254065263469 0 0
99.4557215817914 -12.5057322078338 3.2872406459963 0 0
-52.5320745639542 -12.0880093560783 -17.665953915754 0 0
151.507359625389 20.9121503765988 -8.31621541036611 0 0
96.5679397376895 -5.29704579407523 5.95693103941415 0 0
105.108908002451 -4.36921923315238 -22.2614351184445 0 0
12.9904157270421 -17.46827950607 -14.3573838587905 0 0
103.25973584692 -9.20029324517055 -21.1619515712822 0 0
197.499934956116 38.6420397257054 16.0954264219544 0 0
195.476004435491 -36.3671527708141 25.2357387690678 0 0
199.027218776535 22.3418831754585 -17.8377281578777 0 0
166.920960916733 -7.28474618843708 13.0987217432462 0 0
-205.178200472978 -14.243303622121 -11.4324435295804 0 0
-112.35988027334 -13.7076144819451 14.8406217391731 0 0
184.84468014418 1.39632002238817 15.753755723293 0 0
-129.76913181707 -7.10396757784167 -10.415178700214 0 0
185.587780755035 -21.1074396942006 -27.8734063724658 0 0
36.0480112559897 -14.8813956636424 -0.565204526512145 0 0
-99.3493239675569 -16.455487427751 10.7195629910949 0 0
30.1824426381635 3.96209349185639 0.897402876469785 0 0
-73.5170085779197 -11.5008123094162 10.416400355881 0 0
-167.707310960697 -9.28826001323986 21.9321179425254 0 0
141.735147861585 -6.92382458948397 7.51526190079361 0 0
156.92520625807 24.496708962669 4.64473831815729 0 0
-207.116701257123 -30.7479907354796 11.1996155460408 0 0
-145.026641580779 10.2332817363406 13.4363564224192 0 0
176.725411958642 2.31657553458443 17.0370111527466 0 0
80.8541148923764 5.78971073364884 2.07639183946142 0 0
-35.0544014371146 4.04565832289605 -0.680163646674975 0 0
-161.711341012252 20.0683710751427 13.5713398706179 0 0
196.796439760501 -37.3051886101087 23.0221880599994 0 0
-102.840063754874 -4.52257642021364 11.4604968027507 0 0
-140.448020796726 7.84668549668583 -1.72024378362761 0 0
179.450263138528 39.7668386713154 1.29398698738516 0 0
56.7107011350784 -1.61073955133317 5.38146748764357 0 0
-154.462708847104 -24.9903652604018 6.01425894460218 0 0
-148.393187153969 -16.575652862642 18.1115690671096 0 0
167.186547507399 -19.2008817816638 -22.446340655656 0 0
185.736274255348 -36.7229433494832 14.02733431973 0 0
58.5701563248893 -11.4103713381586 2.17465245651015 0 0
-232.004085560733 14.6783010286358 -7.10906300859009 0 0
175.243418969469 15.2861899538027 -20.6736109664406 0 0
183.546549169292 42.5727645044679 5.91372397301129 0 0
179.709190691549 33.7078515870001 30.7914130967311 0 0
-172.702467177075 -31.4291707262424 6.88720206023437 0 0
133.081832580414 11.4102325196626 6.05028193401962 0 0
-147.096013959595 1.94312312779928 -9.00646364482187 0 0
-100.187746520539 -22.1282841877518 -2.7106547437476 0 0
-91.161027809246 -9.51960890172531 11.3188414638853 0 0
-169.140463207587 12.6183851117115 17.8744882135762 0 0
-52.5466253590652 -0.116862142759798 4.16418199942699 0 0
-180.88623307604 -8.96157277309296 -9.54437324566843 0 0
-202.311430548316 -19.0012500680195 25.3995472275012 0 0
172.641513285022 28.3473055804485 -7.60240439037622 0 0
81.4596397145835 -10.6683718976714 3.24054159738844 0 0
97.2102933576101 -18.1139684659291 -4.53943443329744 0 0
203.295790979052 -8.84872762675114 1.81668699056258 0 0
1.81115608466634 7.27928148459674 -6.36777526746106 0 0
207.884258441582 28.2774849554451 32.8086622529156 0 0
-196.020856847012 -18.3877234987665 25.955503552628 0 0
198.022976721783 38.4646189890234 20.1636940657337 0 0
94.786282950558 -12.5826962475789 -18.8746293509752 0 0
-212.168003017212 1.18692212592901 -9.10587916622657 0 0
207.229481770035 9.3769873015347 13.4055399664045 0 0
-196.777335495591 44.0855972385137 -0.764164867213979 0 0
-218.295062806866 7.27966608675937 -1.28805905351044 0 0
203.161832148553 6.14217511247531 6.48235172323924 0 0
-67.0334037752878 3.31955854396734 -11.5728823601134 0 0
7.77655209718151 0.448303189002725 3.91155674460305 0 0
-111.204708506978 -9.36606464823376 13.2914917906396 0 0
-204.787697781405 22.2887745169292 13.7423264060176 0 0
-197.015131013323 -14.9649137557827 13.203483685639 0 0
-114.646696885503 -8.27612259759555 -11.890972125117 0 0
-232.376673071431 16.9073066750144 -12.246159343724 0 0
211.466941318473 13.4659671432231 12.5195921923952 0 0
152.426074602097 -22.2050513629608 -0.659774186187834 0 0
206.374163850362 -19.5760183250788 -6.60646609335374 0 0
45.7290475130284 -17.2832768101274 -13.0548831250821 0 0
-196.699453645259 -35.0258830577585 6.64892043177422 0 0
-115.95606626987 4.45078573896576 -7.22224835586904 0 0
-209.694328158443 -1.64250906901762 -9.93470302003078 0 0
-205.730951210958 -31.3279644944339 12.3189563495911 0 0
-236.092767731746 35.3948682543791 -8.64528229602421 0 0
-182.613442250812 -34.2992973636004 -2.3209772201403 0 0
57.2389578500282 7.10680029115883 -19.0496225469861 0 0
192.421099898377 33.7340792323448 38.6602415878306 0 0
-201.966109269522 18.406934735489 11.9162473811235 0 0
-204.429314770995 4.92538199338104 10.8793258479416 0 0
147.202675606798 -20.3898483732261 -5.83665429304596 0 0
-21.938569985606 4.98806687908002 -2.00074999525796 0 0
-235.517654339316 20.4153032570043 -5.60593776770363 0 0
156.479357566142 4.14733505786342 9.6085594954123 0 0
173.445356708976 19.9646797512857 -18.1676055169369 0 0
11.2907819825683 -2.96453823232015 -21.048995530475 0 0
178.127669734309 41.4760805800201 13.0240490453484 0 0
-134.775201966287 -12.973002858091 -8.1140133867038 0 0
-234.972925140711 38.8771509332136 -4.94687090965571 0 0
-178.019608453278 -18.7999654368295 -6.1857116280182 0 0
-158.645238224551 -6.26827618699593 19.971061832277 0 0
-217.883893705086 19.1902676478344 14.9472914399004 0 0
-128.834435800485 -17.4914565328138 14.9372778073667 0 0
-2.41771712868182 -3.21722255406233 6.07486965002535 0 0
-230.799990949967 15.5482768001893 -13.6188425711395 0 0
-218.310626517994 -18.8220868537533 6.86258130993708 0 0
169.223851436454 -27.1949958138734 -6.91620726617634 0 0
92.8111870612506 -8.1435865021366 -21.3500047043005 0 0
-32.2040146529515 -20.8044804488093 -9.25012166017181 0 0
179.131558796601 -37.5785807200235 4.65489351921311 0 0
160.870345334414 -24.5151881051544 5.98341318077564 0 0
206.940027684289 36.3318867628349 20.2828014748415 0 0
202.817356554034 -30.5237418605981 24.3851576044264 0 0
193.217781395062 -35.8876716273551 24.1153306415835 0 0
-117.371904954672 -15.1853269829523 -8.96142576330094 0 0
189.369682395617 20.8026797233652 -20.1690037778343 0 0
-127.547561592684 -13.2503461665585 16.0548300808309 0 0
-236.88318911143 32.3585162967203 -7.02026230316405 0 0
-180.861191259933 3.79792184613122 17.0133594405837 0 0
-166.307280173733 -20.4183547021661 -4.49741852186252 0 0
169.17284052731 -31.7480597113466 9.38246496002431 0 0
164.10573470404 -9.67059565026425 -26.8955707969923 0 0
133.185346863098 17.8343421067209 -10.6243869824872 0 0
114.368948764656 16.11383215244 -4.32238528576883 0 0
106.174479036393 13.6469205166279 -1.65884440297983 0 0
176.336063962312 -6.91531065860775 18.7911297637125 0 0
-175.850649625379 13.5545474417941 -7.97005151574323 0 0
208.463988989015 14.3537822199054 -5.05157509329076 0 0
55.2395913479234 5.24561908546617 0.561028986539 0 0
62.621167123545 8.90519923054391 -17.9301443448105 0 0
-118.880932982825 -1.47495431078703 -11.1462099879276 0 0
-168.31813013106 -22.3295668367217 -3.98015347795448 0 0
148.657149083702 11.9237847268755 9.24000341652263 0 0
-112.165614733936 0.221952069001545 -11.1524986020709 0 0
82.5904611191759 -3.33116781718506 -22.0686929337769 0 0
-199.550280378602 -33.9876229339329 11.2391606156164 0 0
-112.28444195343 2.67828840456306 -9.6434595363831 0 0
-132.904176064905 -1.97751713638996 14.743202030911 0 0
31.9718390665994 -0.244007192187637 -21.252483326266 0 0
-88.1320307568412 -13.1129733530473 11.4605904312022 0 0
113.737001472717 -16.3533598525867 -14.1169037425036 0 0
-220.516802582498 40.6190596666595 -24.0937777303843 0 0
0.00431147285486025 -10.905795429337 -19.8037767207289 0 0
-173.146488055246 0.934521374535602 21.3419318798822 0 0
35.255059060508 1.25599104511933 4.63551811712432 0 0
-126.876137750082 -13.5992609281282 -8.64743438175257 0 0
-15.7705637683087 0.403486577125802 -18.7417643623853 0 0
89.2208028199032 4.83383126912008 3.38400066398608 0 0
