"x" "y" "z" "f" "a"
125.803365082692 3.33310335029365 1.85653032145408 0 0
155.228241386335 -9.46475159634816 -21.8733749413315 0 0
-169.285316039638 -9.48329504329219 13.4572123556401 0 0
-177.979845027095 -11.4656920369713 11.1763819695777 0 0
-178.533170050709 -17.8740757867676 21.3090005642174 0 0
-148.340837160888 -9.31725901700092 22.1073410721148 0 0
-154.497510795544 -32.6872618098158 2.17034390574526 0 0
-193.651866585535 35.3132982900131 -17.0766453691837 0 0
11.9708983524023 1.63385286077495 -20.9418652314211 0 0
24.0075544573857 -3.12761323345789 2.55124652421222 0 0
159.688438918694 37.4619501067568 17.4930268327222 0 0
-95.0035407322636 -14.8366911243569 12.3727294253822 0 0
151.035295974449 29.3329838449187 -2.30343712728166 0 0
53.4857379804407 -14.6097197127017 -12.3047628629967 0 0
8.97086614124631 -15.8235414264544 -11.7367818778948 0 0
186.885991640615 7.512999972263 -1.9254456091098 0 0
180.705983221492 31.3410720593295 -1.54091356088435 0 0
126.090248785788 8.18124011760677 0.993902105894861 0 0
-30.6398743115589 -6.2017841435688 4.78117615581949 0 0
124.528783182926 18.2303982509908 -4.32439131463444 0 0
-131.27134962249 -0.604711515321099 19.050146383856 0 0
-147.760145188383 12.5780678525888 0.933960945021692 0 0
-142.00970780375 1.10423452051782 -8.6543145848757 0 0
184.779449673995 -13.9159324587506 3.79969914224397 0 0
-195.671076590414 39.619843435015 -11.2500128684735 0 0
-179.672812948569 1.15776149482058 3.51368223249337 0 0
-72.4587138418105 -18.8771881937231 -1.02954861324284 0 0
132.141258151223 -18.1966209792801 5.46888130104478 0 0
185.004411371542 -16.2926347789022 -0.0311199816841306 0 0
-64.6313758467418 -12.9916662007567 6.54550319603379 0 0
-130.128089108539 7.30924569017467 7.64752373455633 0 0
169.359890438532 -27.2323572039024 -5.62968675162792 0 0
-160.605911535778 -1.27993951924842 14.2646328811534 0 0
-110.65507239806 -21.056599388663 2.73167476896896 0 0
-170.58261739163 -29.0970289731666 11.7666239117653 0 0
-169.245113015227 27.6305834218873 2.97838274063841 0 0
-105.640613845858 4.35794793930031 -4.48163857512091 0 0
149.128523858589 0.655954983168844 -20.0152397674135 0 0
-131.778130141438 -16.1425731017608 18.2767594689435 0 0
-167.58794768915 9.24174362129409 -10.7169956287202 0 0
-184.928526433773 8.85802281229708 -14.1092621517527 0 0
125.05588815512 6.51045187190515 1.25098840617037 0 0
31.9972204761877 -8.65191147064196 -21.4274692741131 0 0
162.875146427949 -20.1203746045965 30.3203077007437 0 0
-156.293320730153 12.8328610706956 8.57509416396903 0 0
-130.484120995805 7.17616160015335 0.38460574881477 0 0
-180.010081285586 -23.3123004006496 16.8946216709668 0 0
118.344453222581 -0.997646985236072 -22.5683492479859 0 0
176.07351136807 -4.64913644344883 8.57672594828764 0 0
147.228923667616 0.353357505738272 6.79367552125119 0 0
105.563192238102 -15.4229626973175 -13.1160959710293 0 0
-178.294968324174 -10.8536393896656 12.8564342369265 0 0
-155.474210022888 -3.34063460827033 20.1593928214547 0 0
167.643558891283 -22.8898692432074 -16.9359013502243 0 0
148.450840141613 -4.24932445719863 8.65738862628299 0 0
-174.616021105973 -10.9315208131976 9.86202523393701 0 0
178.30359087553 -25.7504127375603 -2.5142776767234 0 0
-133.776312875281 -6.30585410711242 -7.67652646430114 0 0
-179.492654533023 7.0358329775095 8.19544620214997 0 0
26.7077528668838 8.05394754434256 -15.6740034866209 0 0
61.3421936297627 -11.7320344283652 -2.20347598284355 0 0
-166.305747553021 -27.9721678376091 13.5978139980768 0 0
-160.890237837088 -13.2737972878988 -10.2657129041391 0 0
130.469273292413 5.97565754419054 2.16226033111981 0 0
179.609971977945 17.5568385867894 30.4299872078883 0 0
174.903755250666 -28.9750902021333 15.0068134858281 0 0
-178.575500777224 -10.1168676009512 0.00558485037458328 0 0
168.851292568458 13.4242090233901 24.4243956905489 0 0
162.983821594026 39.733759911503 11.0099724572046 0 0
-181.648553175073 0.965727549738822 -4.46401484747428 0 0
-170.001244168841 12.0078072817764 -11.81384720509 0 0
146.249337911738 27.8862786418688 2.85094200394438 0 0
-164.231187604759 -6.92831206392439 -14.3983946475246 0 0
157.569306454784 2.42648710530089 12.2529872001719 0 0
84.9892492543444 -0.220153253454117 -0.0858314188835905 0 0
-96.6338450994584 -19.4923295811237 6.37945255253847 0 0
-130.698839222265 7.33775795553499 5.91991664986927 0 0
14.5501895210362 6.94406733058622 -15.8721032962904 0 0
-16.2354088086742 4.45577015615761 -16.4358973226316 0 0
156.902362070766 -11.0574435972667 26.5088139146941 0 0
-199.300408667814 38.193501411139 -0.303595520744184 0 0
-31.4118468745835 3.88334719485872 -6.85620540437673 0 0
173.802344234556 -29.955723692109 26.4208444971193 0 0
-78.4883331745254 -16.5345316725946 6.47182925946573 0 0
-1.53923951488493 2.55886892709407 0.740292439631636 0 0
-159.442918106591 -32.4565773630262 -1.85292928593823 0 0
-37.0174642916675 1.90859961635707 -17.222530107827 0 0
-30.1165072542751 4.32140573081474 -9.5030701820496 0 0
-176.090365765541 -11.181319388803 8.85562389859799 0 0
52.6441360429759 3.42205590757812 -21.5971241925277 0 0
137.415093503122 -17.9199401206236 -9.54946131955208 0 0
-173.920310116609 27.959995280939 9.71148154273527 0 0
172.913094560863 38.3415642849725 4.87034853380505 0 0
-83.5395114067815 -15.272560244274 9.36180029189829 0 0
-3.67976020573184 -16.4679510269532 -11.6527445105124 0 0
-170.280792476551 40.1198561603169 1.81446418789953 0 0
47.2584931285838 5.09969110272404 -20.6258773824257 0 0
-100.398501168771 -18.7502030315969 -6.74903718822403 0 0
-45.4331272656197 -8.88714243426231 5.2359109535601 0 0
114.376733509735 -16.4740171166377 -3.97082473629166 0 0
-52.9274448547751 -11.4853513658715 4.86971349168697 0 0
-103.087414090362 -7.75216587785351 12.1718519139888 0 0
-177.056806295605 44.2480204527924 3.34710606909569 0 0
-171.789950739462 35.7006643282428 9.89180643847793 0 0
-151.62570132598 -24.5472627674216 14.8707816639335 0 0
189.310307852161 14.1486320625241 -3.90040079140433 0 0
190.651192688862 29.0806379581271 11.4353981454102 0 0
32.6712279865729 5.68759475544106 -19.5718250053163 0 0
-174.905934413047 -16.8123036470096 -13.9325217469278 0 0
-160.127241755655 -18.9813755253022 21.8344550393889 0 0
43.0177518198544 -4.33802883899331 1.65567811569659 0 0
-136.311296139701 -22.6146385458168 11.3193737402621 0 0
-40.0522936732092 2.19835781410272 -2.10557329628378 0 0
-172.188870978214 9.13176170676675 -13.7415628410019 0 0
-14.1066375901158 5.00426736333757 -8.09877537053211 0 0
-118.978732964502 3.09055932268158 -5.78229119431623 0 0
179.983912317948 24.6632626758883 -10.2158630381498 0 0
180.648368998116 13.182142941706 -16.9530317917105 0 0
168.822171241869 35.4121549058417 21.9077627536072 0 0
174.039723051422 -7.33933865425012 24.6720394121922 0 0
-3.93532385023013 -1.38837798593695 2.83459740761549 0 0
-158.105453331822 -33.2677557241471 4.56416247317954 0 0
-173.326728729915 2.98277926898563 -12.5590662717364 0 0
-91.9902175376938 -18.0513040207101 8.03958404260878 0 0
166.6926757514 -28.998029341969 -1.83584904379265 0 0
149.394061665536 -23.8731742769553 1.95029424167636 0 0
-19.2686856686424 -8.43566939038279 1.52279059682253 0 0
54.458951383235 4.63954256241018 -1.44108006997214 0 0
-68.970868510387 -14.8932273838782 5.55187169836457 0 0
125.457294265538 -15.3163795785919 5.15202290637691 0 0
-179.846722235298 13.5091863198059 -17.1602953693065 0 0
162.389237417466 8.17898146986918 14.2137742776124 0 0
48.1430837020392 -12.8134265538725 -17.77728028936 0 0
171.457513894245 -30.188743943666 2.70753884832399 0 0
-172.803900635765 -26.4716665588484 -3.15135603728366 0 0
-151.005561479172 -25.3486620439974 -6.23816271972238 0 0
139.183813733328 -10.430795139027 7.24740704387492 0 0
169.912137744796 -6.69216487539214 -18.7888227463027 0 0
-144.018249339596 -10.4424757766979 21.1142408464036 0 0
148.406088047457 29.798127729311 5.68480338234396 0 0
-182.561942330534 -25.8658622786132 5.97350122087722 0 0
-68.2283711583744 -18.960350706222 -2.71660402459394 0 0
182.79324479077 -29.3661990709395 12.9404275431675 0 0
-165.660337285824 -16.5673509800101 -10.6984840837593 0 0
84.0832046945067 -12.8313108858711 -1.05848453022019 0 0
174.290954534878 5.0063409066889 -18.7229961083703 0 0
-189.879650513531 10.8828745237267 -14.3758671054068 0 0
-155.558409100638 14.2159611952154 7.52991583506006 0 0
188.89876385365 9.98290640820358 7.55528258511508 0 0
183.398508255935 11.7344999822904 22.4533218425589 0 0
-152.273929985154 14.7822226344847 0.166181084283019 0 0
161.347574915255 -0.888782921935975 14.8035943760368 0 0
-101.567887393559 -5.53961788191218 -12.0228598512467 0 0
-33.780016262792 -5.09313207618001 4.76781978861103 0 0
-186.68226157504 22.9346144740233 15.9106197820286 0 0
-61.7233191342651 -6.80841328246504 6.95903931456435 0 0
150.126822764019 29.2697676310531 -0.359485116205429 0 0
167.546863505078 12.4150516432306 28.4768090575789 0 0
-171.157435235621 38.8108415473219 5.9475520134313 0 0
60.9431803157103 -4.0123501319979 -23.3656883288428 0 0
174.455207479512 -20.8345781106602 29.5455948801877 0 0
-174.951581104044 -2.43242897143861 6.94298448292898 0 0
-175.46976157534 9.42932824963271 10.5752300679698 0 0
147.740109766852 -22.3375669824596 -1.96517405891315 0 0
183.864860689447 13.3362687587542 -13.5600056439077 0 0
149.920901115146 -6.56858301053711 -21.1639777807668 0 0
164.283306421671 5.21323212550496 -21.6936232947641 0 0
182.148219051471 -7.60763012301185 0.229280486535215 0 0
-198.11913672177 39.3050402094445 -1.91037404444337 0 0
-0.433732465815965 -10.3498250771415 -1.48007800507244 0 0
-199.165970695374 14.7412002994988 -4.83165744936537 0 0
179.914494173401 -26.3322465808693 24.7635286188461 0 0
-124.472159070209 0.26918174346697 16.3887144975111 0 0
173.346449635107 -8.13175366709322 25.8037198046874 0 0
191.444217413936 24.0194675955663 12.4198178419429 0 0
-175.11906598725 -21.2181668704865 -8.66741850189094 0 0
-186.980125801015 -13.5964072479832 10.1802105480688 0 0
123.960480248925 2.11519010198637 1.87349150072093 0 0
-178.512877070989 -22.0799360390259 19.0368918781864 0 0
-134.187711411824 7.41358913907405 22.0487869099688 0 0
-168.926661346931 -6.05082918335555 9.93536299488199 0 0
-199.028397580872 27.4121041878963 -14.9846885609258 0 0
-91.806476228255 -4.50603673636429 8.98744316519993 0 0
-178.05966031096 -11.5932633965301 21.2370310631472 0 0
175.94142055791 -2.72168057031916 5.95433382162212 0 0
-184.878219837996 45.6595547214374 -3.3966293690974 0 0
29.097190470072 8.39417829212124 -11.8335565735907 0 0
-180.07761911791 44.508218685626 4.0335478928108 0 0
15.9370503357664 7.27759865699347 -15.0811008514681 0 0
126.036540326459 -6.50215856377741 4.04325421609813 0 0
182.76330440153 32.5455184343797 6.92309762562102 0 0
87.9988766075033 13.6892946785464 -10.0240852704935 0 0
164.1719051017 -28.9227858095288 -1.86473917751493 0 0
-187.183104740365 17.7599139148223 14.2059672044743 0 0
-182.237148742567 9.7833161474757 8.71518663661984 0 0
68.7752140608147 -12.4438519279007 -18.8145155944022 0 0
181.687983650281 -5.90441226220478 2.71735782740267 0 0
-121.155298585471 5.62301634427754 -2.0975410612062 0 0
145.404586472184 20.3510216210701 -12.539223309343 0 0
-57.1174005248388 -14.2432952565209 -15.9669023269918 0 0
-60.2175556659462 -13.5051476999077 4.65882628025541 0 0
140.991424146234 -8.12795277519363 -21.5081759892889 0 0
163.941263139608 12.2368277949586 16.9922012494788 0 0
145.963203708415 -4.43418471707212 -21.0547221522205 0 0
177.884196058691 -26.8984577019089 26.5663869347909 0 0
-127.923644495253 8.82828303834062 17.2776682171164 0 0
22.1874439713015 -14.7894284166288 -14.5809348890078 0 0
-174.723339151736 17.0879395825187 11.5951437504897 0 0
-171.899216648189 41.8416551177692 0.942932513510785 0 0
156.64292369902 36.0038351147786 2.82296861325748 0 0
142.25473642802 13.8725869808107 6.11226551961713 0 0
39.2969671529074 -4.27441208017993 1.55692137202553 0 0
172.196044722524 -6.55566354959955 14.8593363623432 0 0
158.54331466966 -6.95176095876663 22.5576731503185 0 0
-182.458200220413 -8.79065626936069 12.3759236123263 0 0
135.769355322263 -18.6151773102274 -0.192218034691992 0 0
162.584991964247 35.2261752875325 -3.40606825464079 0 0
0.22153947292206 5.93215743731719 -15.836940631212 0 0
-69.2432519566084 -6.74659899785939 7.66779859851929 0 0
-128.886577579635 -11.7786512808727 18.1478896398288 0 0
152.276654452097 -26.3513978094633 3.05672511317515 0 0
177.707668590777 11.6595371403463 21.3307112217054 0 0
-182.293639994081 3.3838562742428 -10.6168363647988 0 0
129.542986323124 -8.20950958172944 4.90722930112494 0 0
-173.832024947044 42.5147431906931 -8.86048360538171 0 0
172.175730384384 37.0767108634925 9.58673398073479 0 0
18.4302626784197 -8.3117158329427 -1.1683971057438 0 0
-145.148942729364 -24.7122933586901 -3.9345386263525 0 0
-144.482621107488 -13.4104657862671 -7.00675063416773 0 0
-158.166798382309 -31.030856490648 -4.37738716893335 0 0
156.730099215418 28.1470678215498 16.971040166608 0 0
28.6715273852583 3.79473581259917 -0.985737097149641 0 0
159.471321483371 -33.2398263275836 8.44720962717669 0 0
33.6909733327471 7.94789555254362 -9.05371038545547 0 0
61.6975536253202 -5.55271060724711 0.621839188083455 0 0
-193.617814046049 42.9989115596002 2.12420454787967 0 0
-42.7142926814444 1.30757190586339 -17.1212096939498 0 0
-28.4123165496497 4.12585312227824 -7.50921429760267 0 0
107.108441408251 -9.93923457170546 2.97101658492498 0 0
176.345142548504 -22.8806350072419 -16.3305531384687 0 0
58.6412692688708 8.95528949768833 -7.27733887147349 0 0
184.774382182461 -23.5914661015376 8.22827201284864 0 0
105.848231794261 7.42472638406152 -20.6342779578595 0 0
-200.114665502436 35.7483699110301 2.59681065423799 0 0
-28.5268118275406 4.38925591480476 -13.100797837493 0 0
-161.994497156456 -7.59585265259464 22.2272026230293 0 0
106.793750555481 9.37606676252587 -2.18239490264805 0 0
167.935532395297 12.0915248597809 16.3479068960719 0 0
-115.988236264664 -15.4890184060097 17.4607679451346 0 0
142.534335042211 -16.4913691727718 -15.3721342299063 0 0
-177.402099958896 18.4220665655211 -19.4287799489979 0 0
-176.916170904484 -16.5177783972492 -12.7098404528605 0 0
137.416094692508 -16.842584019899 8.35500994793294 0 0
-200.294231051517 32.0293558442047 5.71261736587066 0 0
-2.38445647354846 -6.58366955539017 0.909176691901569 0 0
-194.729531673785 36.7605262960867 -15.3211432333944 0 0
94.9508023200436 13.8075952071037 -8.17105001631589 0 0
-57.1911700570166 2.73144432108329 -11.7789737269815 0 0
150.837779996651 31.0867181496677 2.97044254906979 0 0
-27.4491255266025 -10.3684457748976 -19.4374746040624 0 0
38.5338848297354 7.00433491578748 -18.7228005594176 0 0
51.5059499812013 10.4241674492731 -13.5027797936946 0 0
-104.970838376979 -19.8790378272494 7.40095908023986 0 0
151.692303491272 0.12509207677387 8.67711025379404 0 0
160.79417085242 -7.52731409609785 24.3413442202872 0 0
21.8776189126977 -14.4790362723268 -7.78505751329881 0 0
176.910520280793 30.7141790008941 30.6489710798025 0 0
162.176654506128 14.2337070396233 27.0466355943856 0 0
-129.193597008504 -22.084361634372 9.83287036695518 0 0
-95.6182767958052 3.37938444516867 -6.43453803103089 0 0
36.4328550525161 -13.1209964148162 -5.05908657507556 0 0
-174.757656360305 26.884673601187 11.3868537423666 0 0
-89.1353776800579 3.23511008619998 -0.998483844962171 0 0
169.968147380086 38.701344571577 3.57560167588278 0 0
8.71588158501184 -4.87763743207424 -21.6413607074885 0 0
139.662229099935 -19.4520829563026 -1.75083181214758 0 0
16.0076855875609 -3.54312808718277 2.57087000270317 0 0
75.3997583288301 -9.48142194759663 -21.902891241266 0 0
-164.842240540931 -25.8505857353285 16.9386182546251 0 0
125.079372305939 14.9876669945597 -1.01038899402095 0 0
7.47460703981888 -13.5178571755506 -17.7420690940364 0 0
-138.13171481727 -1.9519485389024 -7.66217978260176 0 0
-92.1542909546963 -0.293841323265382 -11.1960464546599 0 0
-74.237089059124 -18.7611746934462 -0.150510647464959 0 0
-169.263795061481 -30.7545481664268 5.01296594697631 0 0
139.212161016363 -18.8968931654334 -6.03887715916328 0 0
183.901382096687 -26.2762345178374 16.0034220964384 0 0
-185.320985665694 44.1897735474268 4.46000631641989 0 0
176.520609395342 28.8918335953712 -7.8082923959403 0 0
-127.467692636574 -7.35450888690771 -8.41042294320799 0 0
176.758438909889 -6.1187057798279 20.4538816349288 0 0
-164.828243814739 -14.3756516891566 -11.9759442888823 0 0
54.1372930118338 0.66182113124069 -0.258361983238528 0 0
177.676955912798 11.4370172830119 23.4228797517746 0 0
-138.865026899957 -5.37876023097401 20.2160463237082 0 0
-203.192104691271 26.3307114863148 0.0387136921024233 0 0
80.2215164886296 -6.09545120820957 1.14598454486714 0 0
51.7319538521691 -6.66887305999866 0.00614858147797311 0 0
-112.64753790259 -21.1729892564851 3.83650385193009 0 0
-173.333340171214 30.3982395253649 9.85486837517019 0 0
-66.8017016926981 -0.0731176805321404 3.03338057001597 0 0
-143.165074001745 10.2410225234901 17.8502975132428 0 0
-29.6876294029098 -17.9095164505849 -9.54924015405254 0 0
151.396397799346 28.3982949605957 -4.85092035365418 0 0
-174.213032786137 42.4827918594108 4.27952443955045 0 0
45.8953686283399 -4.60013453600553 1.43885520610551 0 0
-178.610169424836 -19.4370979156491 20.7085164072271 0 0
103.330401279785 -3.78129052405043 1.77819692296244 0 0
178.466550709276 -26.6783924285096 0.608596939334788 0 0
-141.62186821274 -19.1300353542351 -5.97553525103511 0 0
-95.5633667280454 3.91439399869008 -2.56955835588564 0 0
-187.008689363332 -15.9447748525349 10.3428955067512 0 0
161.024121968273 9.35278417866286 14.6951365533785 0 0
-156.708760367105 -2.35455474813471 -10.173389935125 0 0
-72.5209239440908 -8.45552775669542 -16.2895721830248 0 0
-173.854098375197 -15.5976206448226 -15.0224343339693 0 0
154.366307431449 -26.7555207450578 -0.666773152170171 0 0
84.6608230345498 -3.9017625310385 1.27688595269994 0 0
163.377974664229 -10.6438640280029 28.6408583547253 0 0
-138.7680187118 -5.74277228425383 -7.42487828561396 0 0
-172.059786464516 41.3360100159427 2.99338165078464 0 0
-150.996817274191 -21.9179972164072 -6.83697535574763 0 0
156.64269932286 36.0548014175186 13.7375289159884 0 0
-46.6568171105584 3.70496263535309 -8.99870791657515 0 0
-184.672372815542 43.8791948059489 -1.02646319179872 0 0
188.979131899914 10.5352439968865 9.39895771954471 0 0
-51.554206114957 -15.3709226043128 0.241581133105914 0 0
-12.6476328528369 -7.58876269468822 1.36957506563341 0 0
-175.541793163335 -4.75199073404874 3.81710392370111 0 0
-171.896684079277 -29.992254070888 6.38140761569842 0 0
140.664216591049 -10.7132669254898 8.05230086743811 0 0
181.949346747945 -24.8512886530134 22.4460350228824 0 0
151.550930217908 16.4460420621521 10.72119189424 0 0
-133.27817111785 3.29218116670804 -6.53489205242667 0 0
50.5530250086752 -13.2408610328247 -17.0574352007018 0 0
169.734607051922 35.1343311195507 26.8017199859657 0 0
-177.412881726047 -3.62428867688776 -10.3446182074029 0 0
149.41294916194 -24.8404610762299 8.59192257990043 0 0
-168.722202084526 29.4070578293422 -14.1382390052667 0 0
-122.704743098741 -5.0695188613687 -8.95629451421021 0 0
169.353895470166 9.09060099856744 13.008961448937 0 0
-43.9395916334595 -3.4796943390691 4.81983540583067 0 0
56.5681514653264 -5.02265949571069 -23.1611389871348 0 0
-99.1531657047296 -20.1753892788074 -1.895355188646 0 0
178.673382814471 -27.6208695878376 3.20118544596561 0 0
-88.1027806444 -7.65919958215569 9.82812063678571 0 0
153.651948460203 7.39594242869132 9.46728668275922 0 0
181.614415986763 27.232027172433 -6.60649752951976 0 0
33.0219454812975 -6.13420774947906 -0.0849178304205399 0 0
-170.338029129338 23.28433731182 6.71124075075864 0 0
-15.1692562949417 1.28381286105159 -19.7615011004986 0 0
-125.311945458394 -20.073370280678 13.7557677919353 0 0
-180.918458696743 9.20488989234438 9.32571710653833 0 0
-137.016872060443 14.6508577823429 13.4445185622977 0 0
56.5741527772725 0.909031052029145 -0.417147789037524 0 0
-144.082611365015 -26.1368404619901 6.08130387974875 0 0
-43.5819861449223 -14.4779709883119 -16.6376052442142 0 0
137.727057591104 -8.88730858259776 6.4353237768793 0 0
165.249960384596 -0.276305746310629 13.2644591869104 0 0
117.247736832029 10.499403184852 -19.1953897743415 0 0
151.971114690999 -1.50788359594212 -20.444872734245 0 0
-87.5671040282111 -10.1453977880352 10.9544452340225 0 0
63.2518961910587 -7.11234946471406 0.231108604125711 0 0
62.6686977537566 10.2708753085536 -17.0306912124324 0 0
190.78409466832 20.5358084283989 -1.96053608929752 0 0
134.700700368614 -5.43947620622004 -21.9382998423411 0 0
-17.9560397402571 -11.817681287001 -1.18994031383211 0 0
162.059750375895 -15.6552424505793 -23.9330211903017 0 0
-52.529856572561 -9.70840330481033 6.14972640303843 0 0
-186.239381500902 8.12796027785397 -13.0538649745685 0 0
-57.2056377912374 -3.57862435464162 5.99584809412319 0 0
150.881059808345 19.3547141614801 -15.0883000278505 0 0
37.1144126856969 -12.9292409949942 -17.8598029194248 0 0
183.135770960398 8.79332294776826 -13.7403322332683 0 0
39.838297005627 -3.1104272808894 -22.76444255973 0 0
-181.336416651816 26.5358274456648 -22.3162087795535 0 0
129.838785659898 10.4647548430921 1.32342686913895 0 0
182.94205509543 -11.7989021402829 14.0942521692455 0 0
-179.825750008591 -14.2440865947224 21.7630760788942 0 0
-161.306163352607 -20.4919668402275 21.1018127912686 0 0
-102.662061086704 -12.4682178873286 -11.2982109703372 0 0
-152.807908880425 -21.5514365498118 -7.02836265102757 0 0
-9.38179415267331 -5.97188754699899 2.22122329544513 0 0
-126.19558036781 -15.6013405432798 18.6682824373983 0 0
-137.29932643666 0.855646647024995 -7.74297753599099 0 0
112.671523953468 -16.2030761382954 -2.2287454468783 0 0
-173.970257796533 -6.74099446481091 5.27071385615064 0 0
23.2859743450778 8.04080375175423 -12.8585792464662 0 0
-21.9533387802348 0.829447035420981 -19.6338310415429 0 0
-110.085603816645 -16.1612677317435 15.6336900161546 0 0
187.130027122616 29.157263427586 1.34157621462679 0 0
-105.483141368393 -3.81720655984711 10.6525150374413 0 0
-200.348922049526 36.4995204683657 0.463757018260214 0 0
171.854041251866 -24.8520281358984 -11.8273299697847 0 0
-162.031055574746 4.30106279497734 11.7151517602322 0 0
158.228806481584 -1.83149034499711 14.1978679822901 0 0
-134.673307683064 14.4348178878698 15.8946122903705 0 0
-93.1315028596905 3.72938419277882 -2.50995629908309 0 0
142.554800059339 -10.0994168323709 -21.1525411761037 0 0
110.43757312708 -16.2447970032556 -8.68891665805586 0 0
-122.440309008047 -5.21586081033801 15.7103439225857 0 0
107.019741898931 -14.1959100574431 0.931418781926465 0 0
31.2040932668706 3.14110385046468 -21.0550350579683 0 0
178.734944300487 -5.60738838872099 17.6522013553658 0 0
-166.744952933077 21.079921961586 5.35439760627447 0 0
-73.3777983556945 -6.88631574836402 8.13001357392987 0 0
-32.1755818109869 0.378501019917891 -19.0708804605934 0 0
-140.310257266669 11.6818910430452 7.72778309949992 0 0
-29.5453276649134 -12.2254303425024 -0.148112383106412 0 0
150.452540255811 -23.5478005022293 -3.54029413807776 0 0
156.089633364433 12.9769275151201 12.3137207543804 0 0
-137.863592448722 -20.6142521144693 -4.95735092216418 0 0
-138.512777748526 2.90074732090949 21.2511074951756 0 0
178.416331879406 4.08827175534588 -13.8531810228579 0 0
136.93416036431 -1.08928536349094 4.1730846126031 0 0
163.978567964817 -8.76132762886125 27.1833150982016 0 0
170.244556836835 13.7891040119369 23.7586315783626 0 0
123.29509260233 12.0902053458988 -0.512376468920652 0 0
9.62766188853339 -14.068904602914 -5.98255702398475 0 0
166.581872376514 5.03103057364789 -21.4608211238458 0 0
-130.251823866671 -20.0315758887315 14.415542247674 0 0
-116.665578055031 -21.5102503035582 3.09872642935548 0 0
164.687043011589 39.6905951034816 7.52370083817903 0 0
170.827454378156 -3.07378224153036 10.4546408784883 0 0
75.5495049263256 -11.4009201562277 -20.3096178979462 0 0
100.566358865703 -16.0219053637115 -7.14517771966764 0 0
55.5389169792862 -0.797123911034199 -23.0026554099849 0 0
-171.791240119989 -8.98827534559827 20.6843177948563 0 0
-171.274932745646 40.099589715055 -9.33893617923481 0 0
189.494492481236 26.6412161530219 -2.25717841002615 0 0
-149.080191000163 10.9109091513338 -4.33029462176867 0 0
174.916596763434 -18.6824388562668 29.4042931182135 0 0
164.682255848818 39.5628133998253 9.8985615898916 0 0
-173.950145467049 29.6091042251175 -19.4705246486533 0 0
-190.410160583404 10.3915263396792 6.25122940883297 0 0
-76.7897721233446 -19.4149563334486 -6.27459500282196 0 0
36.4293173981986 -13.7829034022609 -16.2274005185232 0 0
-138.333489312548 14.7397277684757 14.1856420074029 0 0
134.413515166276 8.23603004503769 2.56133074266869 0 0
56.4554534431716 -14.2794709143901 -14.4198972063272 0 0
65.9847909363848 8.50885773208494 -19.2148651898997 0 0
149.499119815533 -2.18369154220331 8.41295379138072 0 0
-159.095511782662 1.43601787793953 -8.95233423325987 0 0
184.525958174286 -19.5150356220422 -3.41424064102172 0 0
144.451933214587 -19.5674681092628 11.2793221575798 0 0
165.94425658888 -21.304505162464 -20.5467459691249 0 0
-14.6373483896324 5.39677998229104 -12.7055810617676 0 0
154.785483957585 4.31512511159604 10.0921229552947 0 0
-170.609887976623 -7.91332923596956 6.42541432779973 0 0
-48.3568997752479 -17.4314371462895 -3.76337526079429 0 0
-79.0228351022485 -5.45845859219138 -15.4585070983742 0 0
21.9539078210537 -11.617864394705 -3.29442624986296 0 0
-65.8137736402728 -17.2750792034684 1.11637009224101 0 0
-172.13119010647 -27.3728996488651 14.7914369146556 0 0
-74.6859680292278 0.81503273084792 2.22703751573433 0 0
165.98400836797 10.6821010193216 15.3634379202158 0 0
-87.2318461254283 -17.4011395954651 7.83310975870121 0 0
-172.337376457677 -11.4669265241009 15.1168123606957 0 0
-172.130819130538 -11.0933666545974 8.68065555117502 0 0
-53.4362444103531 -0.246282805723318 -17.0058140144779 0 0
-151.973566854952 2.66004355630288 15.3735077990699 0 0
186.161702949854 9.23054204346212 12.2284567010936 0 0
26.1882887582659 7.09345868760929 -17.4053018223387 0 0
-197.738704009486 12.90282547105 -2.98460311883947 0 0
176.416149335524 11.924201269921 20.411087376078 0 0
151.040986820831 -18.4041637898728 19.3242269074516 0 0
-138.26730889395 -17.6827246429522 17.4644550056775 0 0
65.0403068977431 10.0619105699705 -8.10729841497448 0 0
-180.153665568918 39.8193051423828 11.1418608765914 0 0
-180.305931394817 -3.49607940224018 -0.832692573119107 0 0
181.601705671665 1.46311646974109 -3.13908089413054 0 0
-86.5522194344333 3.11158029053638 -1.05298824932081 0 0
154.604389466652 14.105567607654 12.0290475563877 0 0
160.152329180844 -23.7735319229005 -12.7682421278879 0 0
-132.504081565868 -22.0207061808924 -2.01449966423529 0 0
-155.323089900275 0.629485711296866 14.8947627851641 0 0
-128.649173665194 7.41939396937548 19.0487421268846 0 0
101.967167199451 -4.07958378159685 -23.2074469247721 0 0
-170.637205605513 34.6393041905842 -14.9762829014058 0 0
-85.4949962710489 -19.6884953110135 -0.933880365234617 0 0
133.908014921392 -17.0283464026564 -11.5136597539582 0 0
128.420990423785 15.6364971758461 -0.204009161507262 0 0
65.6831237881386 11.4816841606955 -11.1297968053267 0 0
179.542355823845 -8.27674291439389 -9.69282908654088 0 0
-189.939010453961 45.3094526043724 -5.18114169539508 0 0
140.330627740917 22.2136214593748 3.26214482118839 0 0
11.9428481050573 6.6707307747897 -9.61038398995519 0 0
-131.020653504791 4.26250889219065 -5.49582510071151 0 0
130.669908899607 -18.1505221434527 2.66531261614878 0 0
-65.3545236739512 -14.2682112754825 -15.1936794784852 0 0
-107.687096184801 -2.91285928296357 10.677333234773 0 0
128.816901374566 -16.7423531926901 -11.2068324187922 0 0
142.832515941272 3.31414679180796 5.06416481726095 0 0
-163.322782792018 -10.7233305279583 23.3092427026948 0 0
180.14137754269 -12.7129149005303 -11.758699563642 0 0
-135.579179157091 8.04233738430726 -2.79872939789169 0 0
130.538703573996 0.114013671607946 -21.7565242067988 0 0
-152.088302814825 -5.61960168142144 -8.8151866825592 0 0
50.7883406924001 -3.36823832632225 1.6337340708989 0 0
172.629005157408 -20.8479055447857 -20.3652176191693 0 0
-170.4584606246 32.92605300598 -15.9496305751586 0 0
130.390670045747 -10.4293859872572 5.70882961177491 0 0
166.136164968105 -30.35574697169 17.5287674566701 0 0
-169.130005211105 -26.1102961189306 16.4327068058116 0 0
158.908457973804 -24.8205078429776 -8.71759224241931 0 0
-154.525833057072 -31.2398143185892 8.09811320384864 0 0
-178.766053589407 -12.1692967997056 -10.1929186949544 0 0
-32.7539183443068 -13.9975703448685 -17.4352733810007 0 0
141.720234884472 24.251681153585 1.22843108384867 0 0
163.744807453652 -32.0231771874163 5.71871861294452 0 0
-25.5105365366506 3.81438203528924 -5.51245460462722 0 0
-182.87612334852 14.544458452338 12.6813296241793 0 0
158.01673277087 -13.3538251887967 28.1264466011161 0 0
39.3085666020123 5.92646053135399 -4.90530551241826 0 0
155.541747664223 -23.6593657311263 -9.95644298220771 0 0
-198.282876508225 18.8266878108655 -13.610420032748 0 0
-143.841862717576 1.09456665894438 -9.06930705161448 0 0
55.2484683398643 -8.9503369855892 -21.7348129384034 0 0
-39.4716596213463 3.90949437924952 -9.15336715770599 0 0
139.625338082825 22.6609081546522 -4.98284433984089 0 0
-160.828319651526 3.7749531560691 12.2487025628175 0 0
-104.455514675727 3.44872883345807 -6.14755961615964 0 0
174.203191166438 -3.65614711692023 8.88273822801535 0 0
55.9398124401329 -8.49558213500044 -0.634296709022847 0 0
165.114813165672 -5.21262006209575 16.9200667624855 0 0
-134.317117527274 -18.0925284317601 17.064252018466 0 0
-135.973224383109 -2.29385312669525 -7.69956957000304 0 0
-29.166039081373 1.00119186833628 1.1083790466548 0 0
189.03832082652 29.2745614437918 4.34632161845104 0 0
146.281664685375 0.259152732116033 -20.47574409188 0 0
153.276462196076 28.3413125725418 -6.78063932321862 0 0
-116.505838797314 -0.26448535590983 12.2293893928083 0 0
165.4138683665 27.7654344149324 -11.8198689505943 0 0
-149.82488290939 0.878482480991991 18.008248616552 0 0
75.8777786379531 3.71919664972484 -21.97713891625 0 0
113.392734468698 -0.798141107995944 -22.710047467423 0 0
-166.586303864934 -25.5986804401147 -6.44186826657421 0 0
-124.429749374778 -19.6587567092696 15.3725399324974 0 0
5.61089111545682 -6.02311978591573 0.844310068849425 0 0
176.98077787816 -27.9696132659642 2.70567415194241 0 0
169.360804069673 -29.9088601831319 2.06743402022312 0 0
104.848396048898 7.80646784489071 -1.80088957652915 0 0
103.454814361541 2.72255706308056 -22.203912071899 0 0
134.863851615779 21.5234450972542 -2.90248870674382 0 0
-40.7767354098369 3.56263402056534 -13.0634812986922 0 0
-20.4319638553604 3.57088555731934 -4.29163191588175 0 0
-89.4138439012688 -3.7100679671114 8.4261338047679 0 0
-135.892550209414 -11.8363923192408 19.0813795469724 0 0
182.515520558601 2.7633101212639 5.43729553380046 0 0
-50.9654355095877 2.83131762653384 -13.0650381163862 0 0
110.290397766299 16.5569272659495 -11.3695956385083 0 0
-121.722462951693 -20.3478010400149 -3.07842683010459 0 0
45.5277829640391 -13.1660552112105 -17.2642873643808 0 0
138.44941742974 3.51177887872407 -20.5307679661206 0 0
-159.438406727769 14.7780699411433 -6.34477854710026 0 0
-149.912372742576 -23.5492212570663 -6.31339237065717 0 0
-178.501483363581 30.6521939650137 15.4408243266302 0 0
182.20961249996 -24.4551390314427 -3.05608802414698 0 0
158.727211118876 -21.8867507119035 -16.5199005997139 0 0
-185.150075143316 5.70188933748523 -6.60807332912092 0 0
98.1676205163128 15.1106591226536 -10.2738743999608 0 0
158.334582171418 28.3141526995112 -9.58372758818352 0 0
-31.9195419781898 -16.801278811638 -5.23491734227902 0 0
-78.3713816042112 2.95432389336581 -1.72177671256323 0 0
134.075207624977 -12.4411996752698 6.82684540583401 0 0
-186.286008164424 -11.987858402958 17.5766555768025 0 0
-176.440434264037 -28.8758859742124 6.68448293469946 0 0
185.315433346908 -22.9615074297722 12.2212930307504 0 0
185.526033567539 -21.3253956155442 13.0805141440702 0 0
77.5370800477483 12.8660412681823 -11.6667926223175 0 0
-184.984630869892 28.7914855105495 16.4125385012149 0 0
39.6114404068314 4.26217367179313 -20.7611291363573 0 0
-31.5149327284758 -10.2518386713475 -19.3762788416296 0 0
164.721454433366 14.8777680658064 -20.4061240934496 0 0
-47.9290377522789 -14.151890912064 -16.6845661032685 0 0
-91.4144295074316 -15.718685991545 -11.1680740520759 0 0
129.637495493083 4.01487490212487 -20.9050729198255 0 0
-34.4647634771786 -6.73351610229498 5.07213801780321 0 0
-127.213831155911 2.11131116902111 17.6917460968878 0 0
159.850041026581 -6.49931206241697 20.0855198476477 0 0
157.068654887564 2.25396348721938 -19.8326511154619 0 0
171.411674472576 33.647837391254 -4.01947602018321 0 0
-91.5507161888645 -19.2421209274541 5.47229706503922 0 0
-82.2634489117181 -16.3419892530349 7.85181855069834 0 0
27.9017022441244 0.741524854512176 0.86404554176211 0 0
176.308239171231 27.5628370910104 -9.37704171513208 0 0
19.6428707868918 -9.81107187703763 -20.6492134068552 0 0
-166.080721838772 9.94206447555615 9.93342366277018 0 0
29.464333834475 6.52404447764856 -18.4527973598798 0 0
188.993036790431 18.7495760962014 20.1390602850656 0 0
169.588194178724 36.1760130022517 -0.754279832162354 0 0
179.842310683343 -4.85481963327603 6.86308230410076 0 0
-197.624027016257 36.7004719093529 6.66502783081658 0 0
-121.328103968176 -0.0776189220528484 14.8378264011132 0 0
138.581677209041 21.7312661006579 -7.10281346407544 0 0
-198.562098889492 22.2055552957918 9.06768598637452 0 0
181.85545373459 20.9329015634464 -12.3414147182572 0 0
181.984010427644 10.9305061156584 17.6336955757266 0 0
-178.006659878567 -9.17867740458183 20.4416573010197 0 0
170.533755236895 -28.0947714218792 -1.94752556787761 0 0
186.636925146076 20.3168589104474 -10.644016641299 0 0
124.85366110607 13.2083221285331 -0.354449027798283 0 0
-93.3683593356793 -15.6743686246912 -10.9469656616567 0 0
-183.263884865723 -25.4728873061433 7.11536835155418 0 0
-180.587265411627 -15.4583046209713 -10.2426744541518 0 0
189.234376833509 20.3900409218534 -5.80855500892274 0 0
120.030311466328 -16.8535674481322 -3.90505622098139 0 0
-20.869114790283 -16.7387397396037 -14.1269888515512 0 0
-44.6639174991368 -3.86585787252146 -19.3154633734461 0 0
155.996377493077 23.2053465761448 23.1635538997419 0 0
-137.27667944905 3.2662759384241 -7.438507885583 0 0
-167.5173401089 35.7108796008887 -7.84924130957069 0 0
189.272819917295 9.90750211854128 5.3512346402801 0 0
-158.970632817255 -22.474599833061 -8.28438353098181 0 0
186.834438515747 22.1304165625381 -9.38562763881776 0 0
-18.8452968186085 1.83175268706279 0.969140294881889 0 0
177.94971093401 -28.272295664399 4.45152011746772 0 0
149.530917334891 30.2772815355424 3.22690500049162 0 0
187.281465970147 16.264263959643 -9.87864561589509 0 0
169.834679936536 35.2528029525761 19.6210711260449 0 0
-61.7166430849151 -14.8761795220085 -15.1412165532128 0 0
180.472372036012 4.91097393720542 -12.1971608444768 0 0
-182.102032700343 5.29436710819076 4.57939797845788 0 0
150.082714823635 0.25164702304629 7.85042908962017 0 0
-184.285885364911 26.2285146301592 16.4410113874038 0 0
168.078612604103 13.8473053204178 20.3472656958328 0 0
-148.112925116414 1.76304437251881 18.2267135749448 0 0
-80.4228778974597 -19.459043285337 -1.67624024739736 0 0
138.197284686905 -20.3815644663762 6.07462105022493 0 0
-125.374946973837 -20.8090961042471 -2.71232017685499 0 0
-103.407178032917 -15.8076496459143 13.9717903628279 0 0
-0.837861423197744 -13.2476811756025 -4.0472928447686 0 0
116.657161862491 -15.8804915599311 0.558851316793933 0 0
48.7777405945849 8.14403056176254 -7.22548219089282 0 0
159.963970040789 -25.9442008441885 24.4805719241494 0 0
-164.660006270937 23.0107194951026 0.821120990009189 0 0
175.16834634049 -29.3892866720595 6.42094743560493 0 0
144.543587249734 8.35411802042172 6.60274761555506 0 0
-196.280899737009 40.5819595559726 2.77963561411249 0 0
168.570467223653 37.5342536055928 14.7796495536673 0 0
146.510887539481 -19.6795890227925 -10.9194016371146 0 0
-81.6119831968732 -17.6386090778328 5.85441015498607 0 0
-100.855122735528 -7.29046309617148 11.7334764647914 0 0
177.479392530714 -5.12807065809877 10.2894390953148 0 0
-31.0410150909773 -7.442772490499 -20.0523512151123 0 0
-86.0489374558994 -4.201177691448 -14.1213763446197 0 0
184.243758859153 -13.5265962499316 8.63811417370111 0 0
-157.221317294893 -17.8805550019862 21.8910633163788 0 0
-169.435025901221 32.5095057954778 2.25476676832324 0 0
75.3163192047434 -10.4996335371306 -0.307244692636111 0 0
3.06136203703811 3.26087625107665 -19.649290262647 0 0
144.466235171927 -15.8326200656252 11.3926245903128 0 0
-87.4112441141629 -19.4809111737677 -5.86955355806584 0 0
175.576397300546 -3.51282168256187 -13.1328891597893 0 0
-173.337213900554 -5.34278642336397 6.4652313310643 0 0
-123.143499577634 5.4403590433551 5.14359854603221 0 0
8.26549057229209 0.934405876394604 1.75278104636456 0 0
15.8006603775628 6.24047800603971 -17.5042016654237 0 0
182.965309327201 23.5624235192317 -9.51586741990359 0 0
-157.371770329987 4.10103542531245 12.7408637324445 0 0
-37.7782243019654 -5.50071958209983 5.01464504293448 0 0
-180.018894694817 21.0332275349196 15.2718669345704 0 0
184.875662589124 27.2274298666421 25.982075206678 0 0
-199.205323604613 29.1495560072367 8.52301727193113 0 0
36.58583428528 1.82736489783054 -21.7962079300108 0 0
-188.058565371729 44.4724994850918 -9.17759288058122 0 0
14.7800601543188 -13.0582041999341 -4.69662148394122 0 0
168.0461022321 -9.26941146902407 27.826372892569 0 0
-169.596134706544 39.8140877417292 -4.17219420077768 0 0
141.367524689257 21.4547970012815 4.45764503049734 0 0
130.220251209543 4.29399107938953 2.27995363694691 0 0
-168.906788791727 -8.67444762061169 -16.2214411812544 0 0
150.53939890242 13.5476716633846 -18.3096808449541 0 0
-153.714360436368 -6.54437557972196 -9.0165123878974 0 0
130.176527072961 -17.5550861978791 4.7180711408868 0 0
155.686793642013 16.1272468192885 -18.6987533307695 0 0
18.165215111755 1.30469035605289 -21.2219502315974 0 0
64.6869228523478 -9.33296789649148 -21.7293511922743 0 0
-31.8764631179639 3.0203294577308 -16.4240988201407 0 0
41.9258816346714 6.72251056570786 -5.79922637725247 0 0
186.602439067298 29.5542357826512 2.47200258432628 0 0
180.894906518678 29.2362745632743 -4.57110882193003 0 0
186.381028328667 31.6820961624199 20.4460659673986 0 0
116.861110406022 -8.18347725498955 3.64443473320261 0 0
-173.93480179391 -28.7231322871626 9.69681334509317 0 0
131.151566245405 -15.4999833538065 6.45024184715663 0 0
175.534094331788 -12.6245429828071 -17.1850844809405 0 0
-87.9789962175316 -8.87609074229715 -14.1586732788624 0 0
64.615941583242 2.27322335770575 -22.3322590995246 0 0
71.0335885527908 1.00018045029284 -22.8617262912931 0 0
120.31158437835 -16.8488114171431 -7.40343394820705 0 0
-182.796532707925 -17.8420669932444 18.4314437496205 0 0
79.0602541385651 -2.56862777241669 0.732583167468486 0 0
-7.59082030789654 2.61714179638149 -0.228453210348827 0 0
-192.65640428245 35.608313911814 12.0217109796258 0 0
-14.9980150782201 -0.846814740148653 2.91859133710811 0 0
-181.812488355267 45.337417342227 -8.62669109997179 0 0
-27.1340003842744 -17.8238602507829 -10.1779956123141 0 0
152.430852046994 -11.6561786466248 18.0919540096153 0 0
-15.7895880674524 4.45787777258834 -6.41978746495236 0 0
-54.6651650037328 -19.0114961275443 -7.07279052112019 0 0
-81.7719733567658 -13.9309299199885 10.3412720568966 0 0
-115.266264248503 5.71560836613568 0.359981704693879 0 0
150.871566342355 -14.6425561421113 18.3606994557439 0 0
-133.673386244921 12.7529539199399 18.494922811759 0 0
-162.32240559947 -4.08443549270369 17.5480509723259 0 0
-139.021512890361 5.86812132812828 21.5047190400437 0 0
-60.1989213287767 -16.4889693748327 -13.7015721679188 0 0
29.0284619810418 6.91573593408345 -7.50808476772598 0 0
124.639583158418 4.80641823672912 1.59371827258095 0 0
177.573588575717 -12.1521683456253 25.245348607283 0 0
48.6479477983695 -11.9186742682277 -3.22363963380155 0 0
75.0232407991356 10.871388494884 -17.434475647711 0 0
12.7284947655468 3.38035610698218 -20.0657990662898 0 0
-141.930677361991 -24.4835781886654 -1.87555761701417 0 0
-96.9578753054082 -3.70493533112252 -12.2816644109035 0 0
-150.793632509858 -12.9345667372516 -7.45227897732936 0 0
-171.624247370151 22.1635233594893 -17.4627502296158 0 0
154.367818343545 -12.3467574977602 25.4644559920837 0 0
-186.405244776386 -10.3324301131682 11.8298626281524 0 0
5.72161452426199 -12.2064102621487 -3.33410587042395 0 0
161.829046024508 -34.0250061514719 9.54503806280864 0 0
165.548528722692 24.7097695420176 -14.7104721477178 0 0
-151.08702080187 15.1137429340574 3.69583764704283 0 0
180.153450754289 -20.2741489179308 -13.4846480055394 0 0
85.7474896589894 -15.404907979496 -10.2718223829704 0 0
191.526659042077 16.6850820454018 11.0732818799904 0 0
174.3626188731 -23.1145285639458 -17.3690760904024 0 0
5.54022513469552 -1.49036283554847 -21.4654150299799 0 0
-186.146660860909 41.05673623456 9.99227454720846 0 0
166.566924720335 35.0445483545276 -3.85986451002379 0 0
-118.992380525495 -12.9658226409117 -8.94730258035806 0 0
-91.3787735049272 2.37826456304791 -8.43319013185276 0 0
-95.8551027522812 -11.7856018364202 -12.4565258668796 0 0
-194.935064792972 40.8848468181692 5.11351839053004 0 0
-106.145139443089 -8.55688763254944 -11.3835253065224 0 0
-82.9567056090215 -19.4657615968339 -6.02025406916016 0 0
171.146999069543 -12.6670931668624 -20.4311713324295 0 0
-165.872957199571 -31.913599250246 7.59552913192667 0 0
-61.4388256011859 1.24086089730949 -14.2406649430212 0 0
-26.4957113122912 -1.47377910294858 -20.172565196577 0 0
-168.422541429401 -29.5895639933472 11.8779282359157 0 0
-115.858516061778 -12.0976288893311 -9.52364607793092 0 0
-24.2270696023238 -15.7241724601609 -5.01743444509858 0 0
-182.605064382536 39.5373051732389 11.78863626352 0 0
-172.634333460813 40.9377891311457 5.03072148331777 0 0
115.183473038688 8.12825246649138 -0.655226113893899 0 0
108.218983921201 3.39994025612007 0.140024665897976 0 0
-159.525924874231 6.52028534887557 -8.86930627834564 0 0
28.0136361411896 -1.32126847843612 -22.1910044567266 0 0
23.807937993822 -4.57462918319152 -22.2064567231341 0 0
-169.765318822348 17.3540477784868 9.20296333685464 0 0
172.742036597503 15.6503973394563 31.7675332239734 0 0
-83.1233975874912 -18.811882238936 -8.36740227813801 0 0
-131.673801031383 13.2759121850477 15.388955364295 0 0
-186.684882570616 21.0656772921902 15.4709398692089 0 0
-157.86135557726 -7.08360337640643 -10.4555456412441 0 0
176.08196278075 11.4175725372003 25.952651645521 0 0
148.274938652669 13.4303921246874 -17.9675486878008 0 0
173.99179010616 -7.08238171902633 23.128940705074 0 0
185.487824261646 -17.7227064162101 7.58107000166147 0 0
26.927561064228 -13.157328203566 -5.23759028910638 0 0
182.265822285903 22.8617611839505 -10.6745603713768 0 0
183.761053774427 32.4389692573675 22.905012913307 0 0
-23.7251229547408 -9.40552487971444 1.34833524667447 0 0
33.3187932351271 -12.2264363976979 -3.96370938334595 0 0
-130.556726444518 -19.6185880467061 15.8171079868504 0 0
-165.638292759315 -1.75001957229583 11.6867544666733 0 0
163.934802098627 -18.0261632899315 -24.1758655201115 0 0
-174.700948232048 -11.5353007951109 11.1052018364854 0 0
-176.064255495602 38.9755059865477 10.3696803849238 0 0
163.312409669955 -26.2173453490605 -7.73792617528988 0 0
-75.4793772346862 2.59346396377751 -1.01165848551283 0 0
-195.473435959617 42.5970109474637 -2.12724929398053 0 0
163.99569542682 34.1469248247623 28.5444800425003 0 0
-56.6302836756373 -0.421201695530907 3.02554996428224 0 0
-183.99219078074 7.25800639588114 -12.9918071098661 0 0
-195.6469878259 40.8420852608018 -6.06188935997137 0 0
103.464663865106 15.437203492629 -8.86908374270706 0 0
182.961043874929 30.7634040842575 1.15724385529449 0 0
-102.350603796034 -6.16107203141557 11.4451625135206 0 0
172.25859125994 -24.0769755790077 -13.9935933959775 0 0
-33.9653159180879 2.73861535787974 -3.20672976037329 0 0
154.331415309515 -8.41628501906126 14.8765424686537 0 0
15.7886962916353 3.23702359539791 -20.3110575916812 0 0
152.377179486959 -11.163060060369 19.9183197301511 0 0
-78.0699981387811 -19.1182650811928 -0.473288843243801 0 0
157.454225383133 12.9017940352511 14.0753537149122 0 0
-135.602710451909 -23.430615558102 8.96042648691287 0 0
2.55347094695149 -14.8458702286388 -6.62614001499854 0 0
53.3912764844625 -8.04856010040127 -22.1606870092984 0 0
-87.4052040385788 2.42678859315672 0.842692013310934 0 0
176.42616800658 12.1023968869682 22.3484474929595 0 0
-129.220289390525 5.13314800285142 -4.39427475937531 0 0
155.454089770751 22.8954373403201 20.5698231218991 0 0
185.377373057123 12.0914112171176 20.8974294775013 0 0
158.728183235453 36.8840839369972 2.51370636167683 0 0
143.98661679264 22.5301420114156 5.73524445151352 0 0
60.5863285664488 -14.6789220578551 -8.22072803950411 0 0
138.74201694889 -14.5924916240239 8.72711450381996 0 0
-195.322090084723 43.2216830013498 0.405133905369921 0 0
173.227624363378 29.9162257364336 -8.00085979509365 0 0
-74.2433976938037 -10.140999172793 -15.7613698369755 0 0
140.597121383297 16.3383315326837 5.42256095830079 0 0
146.934051638607 25.8731665682703 -4.59394718401407 0 0
-153.87832494733 2.84543704931981 -9.13222386901684 0 0
-93.2932895633747 -8.52787849545385 10.89183340665 0 0
-149.838338854964 -17.8623405406892 20.2147270278331 0 0
-152.100499735578 -17.5513445355681 20.8877413220021 0 0
79.339083740339 5.1496743691559 -2.33855792010381 0 0
167.156262536074 37.6047144638634 0.692761553567171 0 0
153.754526851044 -29.2223621611689 7.32313731385961 0 0
-30.9005341613573 4.33364433064201 -12.1947566518986 0 0
43.8155729087677 -8.22489903043904 -1.05351493605514 0 0
164.034058963002 12.9178505980602 27.11837442941 0 0
-184.83897610455 -15.4740735488368 5.97910606304521 0 0
-191.103279993282 44.9827492096308 -5.00205090871058 0 0
-74.7461118332163 -5.15701886419534 7.64008037629607 0 0
77.9823789035984 -14.5364948565588 -4.74553131691231 0 0
43.2253166804041 -1.19505475533746 0.956244122985541 0 0
182.0548556258 -10.8799724260758 -6.58899043816431 0 0
-130.294351701096 6.47836792347537 -2.9933695860308 0 0
180.693223210255 22.8772286622918 -11.3115276965918 0 0
-162.110450775816 -4.88004849277822 -12.5946218960922 0 0
-199.466464450145 14.9815858168253 -2.73350958697277 0 0
172.813375733749 -7.28760915667066 21.7746294775974 0 0
-181.343456607382 -22.7866978242276 16.4848309746703 0 0
103.718893451173 -2.87192577327796 -23.1519643133048 0 0
-174.816262380044 23.1402489392841 11.4528712878268 0 0
173.679278127076 -25.1804291672646 -9.89288988028407 0 0
121.337601934719 11.8818546799113 -0.922963684641156 0 0
-133.733714112809 -10.8482608841603 -7.69648596134139 0 0
-127.835555396388 6.59791659450973 -1.2178125816345 0 0
159.771245972964 38.7392444524264 6.50547471169785 0 0
-182.668909702417 2.24190111098921 -1.50729927469352 0 0
-186.362192214801 45.3577470274137 -7.78455505776577 0 0
153.89649746996 -21.6780283392318 24.690963135849 0 0
