"x" "y" "z" "f" "a"
-186.837005272334 11.2530263404491 -2.99529599884924 0 0
-189.857532779886 11.6933492577484 0.30149488873558 0 0
226.409746648843 6.43606241323037 -20.3261868765455 0 0
-130.38956158125 3.21895080084055 -10.2077892098687 0 0
-36.3788849303283 -0.864634249462682 -20.699296113988 0 0
202.672660279005 -1.93094151006989 13.7618183724401 0 0
44.073995580832 -0.448945865816702 5.29938183795177 0 0
24.6687055888642 -4.72634032734673 3.88438130389157 0 0
-200.868452620608 -28.9374002963799 -7.47154131544639 0 0
188.842799855644 -20.3071234380206 -17.4760625897818 0 0
227.590831977369 -35.9848000025216 25.7089173501086 0 0
-30.2790346233365 8.34242310047302 -15.5934314552287 0 0
-124.18588378703 -0.554737215233197 -13.5105544239858 0 0
-208.603908430831 -0.463651468149394 -12.9575160772808 0 0
-127.284843418924 -12.8764852097497 14.5977508631237 0 0
237.204771085157 -13.3146924547957 -4.28910307296107 0 0
156.257265552283 -2.3106077976348 -23.5826115941345 0 0
-238.478385791607 -15.9412145184344 11.1558664465454 0 0
58.7439353620217 11.4303799148898 -16.4498907050609 0 0
226.058709036337 34.5000426053175 -4.14282110230193 0 0
-197.566531606697 -31.6151271122492 5.86309251495266 0 0
196.924639131111 -21.1942289372397 -27.7385074560469 0 0
-220.366023397747 -10.2010103301389 13.2631879408978 0 0
88.7476139790188 -1.91994965817973 -23.7889015501991 0 0
212.041305249552 9.42396261126201 20.5404976523407 0 0
112.973900790019 -14.1791815958761 -8.92953681632226 0 0
-232.457985289472 29.8470111067836 -13.8418069751461 0 0
-250.128404429432 32.7882671872018 20.5529020278065 0 0
-235.560377909847 -12.0874507661051 -8.51493737082993 0 0
191.309566450357 -21.4812404282934 -18.3110869263019 0 0
-100.284869381396 -16.6541789772778 -7.4552833973011 0 0
-225.046250920707 -18.8812873043331 7.31210839117674 0 0
238.834576623155 -25.6396179468527 -1.23230669523911 0 0
-117.198739775002 -18.9629099479133 -3.30451498745077 0 0
-230.078910289383 32.403905222261 -7.66040812615259 0 0
101.707491642514 -13.2764015662466 -11.1987379728748 0 0
217.673829401388 -30.5310361909366 32.5269383958806 0 0
234.029778975927 4.28084041882106 23.5215148811908 0 0
171.933541586867 5.38618517673491 7.16921196269832 0 0
-164.352038701045 -13.3257155670974 -8.2376556589492 0 0
-214.678795294191 -30.6971691525752 -12.1938150620616 0 0
162.050709201823 -5.69803351424123 -23.5032645128606 0 0
202.880993939432 -33.7615207774853 0.243028993253912 0 0
237.14977702402 -33.4843373937626 4.741147364242 0 0
-153.023013906578 -9.68801385025018 18.3868210705615 0 0
233.171723383019 -9.81542116668059 22.5753956094208 0 0
158.534722785997 -14.6532640968594 -15.4041032654119 0 0
203.030708153603 30.312594456228 -8.36705617888594 0 0
-198.213203267987 -18.1534738451868 20.7692318247958 0 0
-23.5980459994456 -9.31035787585513 -18.774503760831 0 0
226.03222293307 -30.3923634027123 -6.15701319825004 0 0
-241.991318144254 -25.2187208588339 16.2641217469189 0 0
-36.3422249834895 -11.5090349127862 -0.0169907786166126 0 0
146.151882154959 15.8656969006927 -12.4300244640266 0 0
-139.550820792818 -8.19203766242329 16.8105673668087 0 0
-114.726857152657 -16.432137115928 -6.97101990361435 0 0
-257.870562544048 47.157960817482 -5.51009427311087 0 0
-32.8076467976765 -14.7630239101705 -11.5826705045232 0 0
-81.285381635917 -5.36683099770569 -17.4232774766359 0 0
-175.555725341134 0.701730574671424 23.3643174115995 0 0
106.212440365586 6.18013899732152 -21.2898398960162 0 0
197.985848296064 34.1619840596729 4.31651618280534 0 0
-210.216081047819 10.3749843582966 -8.88456025351894 0 0
9.58869560616248 11.9825793874713 -7.0460555169464 0 0
-216.643191378953 -6.63333474715815 -14.9915223445865 0 0
226.361132711961 -1.84216245287808 -20.7285927412778 0 0
212.806441339247 38.7372864307214 18.664156270176 0 0
232.111172830131 33.8795898729243 31.6273643402231 0 0
210.952688603188 15.2811710724933 32.0370142105623 0 0
-84.3819101611792 -18.012911587919 -4.44210026197933 0 0
206.991692537541 19.3496940823984 -21.7071204989974 0 0
-144.91462430516 4.35089018486493 -8.35514724002982 0 0
-46.8615642525509 9.8281875062565 -10.8142398041684 0 0
180.952671390199 -10.0184159772412 9.13986550196099 0 0
225.243689133969 -31.982993623936 -4.06837117103874 0 0
-24.2047517947597 5.92846250349508 -18.540236361756 0 0
100.048574464173 -11.9710247448909 -14.9382013484124 0 0
137.87211518039 -8.90872258836905 7.08563752448955 0 0
126.554354925328 -6.99882976119093 7.24704507626914 0 0
-259.789088404174 41.7500980617596 -15.3812143668334 0 0
-76.0750956800357 -15.3426831807401 -10.9985622270723 0 0
215.098129904499 -36.9116871857176 16.7396262006198 0 0
-261.639153938296 30.4670419072337 18.0697990674887 0 0
234.301302622296 -16.420276779866 -16.9804255855543 0 0
141.048764917315 0.894603974207981 -23.2734151553321 0 0
93.6259566120132 10.2920008041208 2.27626618997488 0 0
212.834362530022 39.7810442018046 1.70916574119246 0 0
216.943610728018 -31.0215389200991 -12.3408172899714 0 0
-86.3606379073781 8.79615226828886 -1.26240663282581 0 0
56.9403405583892 4.36503001310246 7.30799681284391 0 0
-125.775747186678 -11.8671762318148 -10.9004788669358 0 0
238.382970575401 -16.0450623701914 2.41155641815421 0 0
-181.001000794877 -2.05162411514521 -8.87606672210642 0 0
-70.3022313200939 -6.96875781620683 7.96351963195513 0 0
-243.525060894471 1.32514319277417 -7.8035186977339 0 0
-79.7047906196276 -1.2830097334556 11.9785775367017 0 0
-244.79651215391 9.81072066547506 14.5309031689594 0 0
-128.27216157159 -6.1574348863992 -12.4958900614412 0 0
205.990540609077 9.83283469622766 23.8076798103219 0 0
-164.86289290845 8.61091607565671 4.02763770356458 0 0
-173.301503774755 -7.16800576509039 -8.45597763230107 0 0
217.030013890983 27.4740026399221 34.6532752433583 0 0
-222.979877746494 -13.3500332620059 15.4145926626425 0 0
-253.886896571254 48.1695132561529 -5.6058248382933 0 0
-107.257247535827 6.9983552611334 -7.8476272690662 0 0
-190.673067206688 0.0917823910867656 20.2972336777805 0 0
-166.248987598908 -20.3895323534317 -2.82857510862745 0 0
71.8999351786263 4.9915410876697 -21.7243078651537 0 0
218.398922988297 30.397094003557 -12.4881816909427 0 0
-229.203605031193 -24.4478083849433 20.1810988991053 0 0
78.9208385616242 -0.855291733757566 -23.4620471323477 0 0
190.305789778042 -2.79694010430244 -24.8984414131393 0 0
221.874078168423 21.5729391767788 36.5533559694655 0 0
157.237397318048 16.4960545305896 -11.4359293136132 0 0
-189.996882908431 -0.750710194834063 21.4265136740203 0 0
-156.419791807156 -9.93811018155884 -9.16702629913195 0 0
-125.437345462399 6.77401527965303 4.57603529475895 0 0
-230.525118846473 12.8055430254979 -14.4337545413338 0 0
-71.7828177965537 -16.883114278501 -8.79591299455041 0 0
-196.711534414972 -24.9402243591385 -7.71338251497412 0 0
-270.399967470632 18.402236982378 8.45605375201451 0 0
123.649104070776 -14.9825633035816 1.07591745430985 0 0
-246.470617052907 31.7100022059394 20.4378105648476 0 0
-82.2133043210149 -9.13986452286928 -15.9119290333954 0 0
-42.0755684486723 -15.29494794386 -10.6238269258094 0 0
199.95822952146 -21.1426230973204 -30.8496953572795 0 0
89.5303579510135 7.72953462569666 4.23303803771125 0 0
234.160779959789 0.594399114449449 -7.1547750757195 0 0
-269.961420944293 16.5121717627571 -11.5689256340968 0 0
195.97727967671 -9.57974377880798 13.4230505200494 0 0
216.745104314518 9.00676447632821 31.1963436972514 0 0
-271.191936183705 35.7795391582328 -3.45557719321417 0 0
-226.662858531635 22.705569288164 5.92427174695235 0 0
-223.904678380298 -17.1377757340557 20.6070117044558 0 0
139.236537227411 -0.142716981177485 -23.4904309898653 0 0
64.3377131711551 8.37977725434013 3.15583874636716 0 0
-271.16740497931 28.0860768954138 -12.4105384701917 0 0
51.1720329435565 -9.78394531678227 1.1521782267155 0 0
26.8193144410147 -12.6140836313859 -12.7674418348083 0 0
187.284863927123 -1.73305236108516 -24.2654018236809 0 0
-29.907898303761 5.24112901495531 8.23655351240826 0 0
233.959317859688 35.1053905782245 16.725412113553 0 0
52.6302637809726 -3.90812876189049 4.58450097588061 0 0
-62.9646131789782 -15.0512638797137 -0.448065245842492 0 0
222.610865831946 5.1474066792482 28.355307748496 0 0
-167.980326115934 4.490146174657 -7.71243161223116 0 0
237.642799191024 -23.8824606029845 17.9407334780897 0 0
-95.2573941772284 -15.7259836691516 -9.2759872190452 0 0
162.955022217417 21.427555869801 -0.228017014928073 0 0
-131.044734914978 -16.1576503587565 -6.77581612052498 0 0
-240.323388667476 -0.176322052586855 1.76337646049966 0 0
-218.688280759769 20.1034557778944 -2.15425117941065 0 0
-227.53971564039 -35.7776007877441 -7.38589124303237 0 0
-269.003085977853 35.3516440359168 8.212022877134 0 0
129.976592281357 -15.6186726386977 -3.01312490433243 0 0
-207.193752638571 -35.6440495500654 -7.97888506832829 0 0
89.7863758353344 8.3287476634999 -19.6643265542838 0 0
-244.004587154142 46.2469933234694 6.27135743858078 0 0
234.808994318167 -13.2073058556494 18.9467799845069 0 0
234.306412028122 8.01824925126179 28.030609543538 0 0
4.31890791947401 -7.29216171160678 2.6918258841537 0 0
174.457675732182 -1.50370307903317 7.37737207637808 0 0
-239.009437592248 12.792860994059 15.6554492797784 0 0
246.560892298884 27.2375386838419 5.63707446179002 0 0
-260.563330710386 22.5488021791613 19.1286662803236 0 0
-173.715096661476 -1.4950649483189 21.6449089780995 0 0
-233.656836143428 -7.61801375644739 -11.6947957716844 0 0
-220.548426757122 -37.4569679929481 6.65565301434188 0 0
234.813377093174 9.48472164173771 28.9797637340851 0 0
95.7258805158563 8.34938881618953 3.70257055707937 0 0
-20.5812327127551 -13.0680713691151 -14.6912891795474 0 0
180.470370498366 1.46943937354754 7.96301376959702 0 0
-194.807994477875 -16.9060615580825 -8.37823715983681 0 0
140.906721306196 -15.2196918703229 -10.1985283843892 0 0
-219.80748474574 -28.0108550269531 18.5126143084644 0 0
23.5861484862924 -9.75295408747552 -18.7588144073943 0 0
-239.725045218194 -15.9966664549224 17.5327775275311 0 0
-51.6454755907095 9.84822192717594 -9.74363281646585 0 0
236.968486853905 -23.7318295127961 -11.5214081900537 0 0
227.768107364142 -9.60346798391507 26.8350384254929 0 0
194.627865899227 18.2348311743986 -16.6725519278336 0 0
-77.5017329859466 7.95400619603295 1.6721246908851 0 0
17.9134820884427 -10.7012335818554 -1.40830137528836 0 0
-189.900157688714 11.4157371667742 18.759612677052 0 0
144.111031389901 12.1097519027391 -16.4348866182469 0 0
-139.560474163179 -20.3347519783498 0.425430596891423 0 0
-228.096738621831 11.719501540605 -13.4527289827724 0 0
-175.402908212666 9.48783952635629 -1.42022618404077 0 0
-4.77506186267964 9.96347990687283 1.18188453673327 0 0
-271.395604034673 30.8725488265214 -10.7250720331737 0 0
185.250386527283 26.7444850523115 -1.07753364707804 0 0
-109.225617679325 -18.6111221211054 4.84339735721276 0 0
-79.1392515175459 8.58998261899791 -8.57084861573692 0 0
-228.30925775303 -31.4107214577699 15.1995006521045 0 0
2.84375975362056 0.695803208836126 6.38170243595071 0 0
-235.251240503988 -12.8453520426362 -9.77706360219065 0 0
199.511015298376 -1.65080252100137 -26.082522203736 0 0
-218.905532337917 -17.8090628004824 23.0340018876591 0 0
-88.4428976332595 -9.25647366762153 9.75922111653086 0 0
6.44224925377005 -13.3788602387969 -11.5310415889155 0 0
-29.8373506930341 -3.12947284958942 -21.0296488881585 0 0
226.208613902321 36.0786184946421 -1.59868997592173 0 0
46.3175461099856 13.5292103045158 -7.12295917666656 0 0
-100.437521526253 -8.51433436056311 -14.6596419952725 0 0
219.131277963565 -13.9559473352121 31.6184992507882 0 0
162.005478477404 -16.1609106968008 -11.3046341055542 0 0
121.60740613542 -10.2892073543212 5.68834144031491 0 0
-183.635767732587 0.338213401400693 -8.97569417091762 0 0
239.358881328258 22.3958498346871 29.1943293047606 0 0
229.586920979296 -36.2656953058966 21.6861576785115 0 0
-240.79866893305 30.0542530709309 19.2922218146544 0 0
-186.503122034361 6.92902966176236 -9.54781778676483 0 0
-244.32156308298 5.28923755403552 8.62361063040107 0 0
-243.72360528962 -19.1269900147209 4.84782151021915 0 0
188.139325373176 -11.9693391390764 11.5027347528048 0 0
-44.8135967232309 4.87134203751096 -18.313914846017 0 0
246.191321581075 29.2104462829359 6.67959570171117 0 0
-136.987517786337 -11.4971563061452 17.0605233799216 0 0
-227.948249654294 -4.16029686865838 9.52174268895149 0 0
232.156447352755 -7.94191051848724 12.6549397284357 0 0
-77.1833843004508 8.08978934249302 -9.91570780471044 0 0
-182.469801771563 -3.44366379222293 22.7402379151164 0 0
-253.89828284617 8.91580406737164 13.3124839273877 0 0
0.275428275927179 9.87119259519033 -15.1776974910612 0 0
-80.3650601691531 -11.1994761807437 -14.7860607447167 0 0
-207.674269639913 -9.98468893761521 18.4778037484548 0 0
87.717085385066 -5.79613094182983 -22.3980658098279 0 0
65.7145106015791 11.0897385525059 0.575477724365084 0 0
237.216883287214 31.8438569777466 -5.04879877263819 0 0
-241.705308960597 -27.6918791806852 13.8952445388808 0 0
-166.036989610154 5.96838719536072 -6.44099049088497 0 0
201.663444252579 30.9127008924949 -6.66860411712612 0 0
-122.643362798207 -9.82519355904994 -12.1732676966957 0 0
176.076644917037 14.5874393069666 -14.3522659380622 0 0
176.006113013609 -16.9028691621297 -13.3855040351601 0 0
59.1332249575462 9.80433950546014 -18.3297457819802 0 0
-53.1307322111607 -7.52097741262229 5.20890275212169 0 0
189.00445195673 29.7441310360219 2.44978820470765 0 0
81.6266807813362 15.5705839395627 -8.77194634587393 0 0
200.454849288234 36.0508322086441 -0.339024217514152 0 0
-3.15182922229248 -11.4775091766032 -2.36470605528123 0 0
196.619919928891 -22.3096366277234 -25.0315950730726 0 0
-235.352680782971 -2.96339477174801 -12.5789569228165 0 0
190.58988046328 -2.41637304922558 9.85507127545501 0 0
-18.3854134949021 9.26225920989144 1.58396851133786 0 0
-119.279211222872 -14.2878682398881 11.9386275302282 0 0
-120.100783986258 4.53381351935982 8.34427153450692 0 0
-256.884311557211 45.1924035184059 -4.02710885664159 0 0
-233.389589550951 -9.07648380152657 -11.9150380168959 0 0
133.953473999807 0.746599805449406 5.81916599285892 0 0
-207.253319621046 12.4951009687199 -6.34730233538896 0 0
236.609670204256 19.8370082423281 -16.4205218022202 0 0
96.0120922318156 2.61569587517673 -23.0744708279964 0 0
-158.597574408218 -6.35713855167958 -9.63186373131529 0 0
-220.268774857512 9.29794353857857 -11.1875887443196 0 0
229.504803007525 37.514759998684 4.82878258650906 0 0
218.276914014898 -35.2570903910873 -1.15956550692334 0 0
-232.910534951499 -14.423265758864 4.58443883441612 0 0
-235.92843800261 -26.4112848153962 -10.7384008146995 0 0
237.376605426002 14.3399145128183 -11.7170866312065 0 0
-267.274236989505 21.25442927574 -17.4719055260576 0 0
219.304700171332 26.9868764711175 -16.0403369459732 0 0
215.818044791384 37.7909377130641 20.8066444325059 0 0
222.107667381748 -28.193615099257 -17.9198370073238 0 0
199.016784358051 0.0911787963399247 -25.2996137704615 0 0
-51.639830871795 -6.68218960316232 -19.0900375645064 0 0
-262.619993371923 9.5532471464533 5.78200845582821 0 0
-92.3866159701889 -1.69395778644574 -16.782498798119 0 0
228.200945369872 -36.2105733273977 22.9461483940908 0 0
222.495510150562 36.122112833702 -3.21145102872527 0 0
238.894652069235 -28.6404295620149 3.068317867792 0 0
55.0223172345215 2.1549972971287 6.26524902792255 0 0
59.2614370762014 -7.80442313360008 -20.3178422438315 0 0
-137.161763476188 -19.5909057007313 8.68413255203819 0 0
-173.419732129739 -14.7558365954515 18.3991512344896 0 0
177.892549197171 -10.5684705188984 -23.7596017857675 0 0
-218.819469371486 -25.2145956660952 20.7012586728332 0 0
-273.146621699481 30.6538112837398 1.09437964557385 0 0
215.152665097984 -32.6926607462208 -8.09076592695964 0 0
217.347420600373 29.7315501692175 -13.3904777829483 0 0
-52.8921308927904 -16.2564661443271 -9.34574652871872 0 0
-31.7573808735123 2.07933847779565 10.1164685017841 0 0
-179.280895414787 4.57409385396257 25.6439575412453 0 0
-41.3533373198036 -7.16436726942437 4.39645254613599 0 0
237.771268613778 15.3200254536565 29.865041434189 0 0
-220.317909897725 -22.2912745776757 21.8512266899868 0 0
-239.344568658467 -5.6749238223306 -2.80357565687847 0 0
-251.664630407741 40.860853411018 15.7926093509304 0 0
118.69648345131 -11.0130978324617 -17.5964372605633 0 0
-243.107648381123 41.2062375948258 -17.6208055489056 0 0
107.198885926911 -10.4005104040398 -18.0766155413401 0 0
138.440693711579 -15.5085104016112 3.20490820727803 0 0
-62.7735475749304 6.61315840238856 4.45410935763964 0 0
156.815151579871 -16.8801667886745 -5.75807434746422 0 0
234.521416696492 -5.83029557472935 -3.42100053409262 0 0
-151.339511125177 -21.2094051210466 3.18860831346306 0 0
70.6830433593327 -1.82774993247721 -23.1287905888866 0 0
215.217892512041 9.00276950358074 18.4954164644855 0 0
-218.111803961993 10.3853495333032 9.74154771859832 0 0
-265.642566152893 30.0752070586993 15.339068134893 0 0
-230.185499886888 16.3318659600901 10.8840531180806 0 0
236.430289500087 -26.2869813327 -11.0401293603222 0 0
-18.1077605688862 -9.73829612197249 0.887055930653825 0 0
174.574078170487 -13.6407081624903 -20.5567346853375 0 0
-63.3269835072742 -16.1637693490839 -2.07536607085094 0 0
-271.893024416349 34.5189922177049 -0.665179139942895 0 0
129.826384376597 -11.5776075579557 -17.1476068409422 0 0
-237.428032316089 -30.520029044471 12.7858013261249 0 0
183.568153272734 -10.0578700142355 9.59959854943238 0 0
217.284169558532 -0.641569256658245 11.3994196821294 0 0
195.177556260042 -20.3350474427739 15.9579294967417 0 0
176.762840046509 7.13641189653821 -20.2155604945953 0 0
34.9031879424574 9.5551314643558 2.11333216029083 0 0
-256.595917313697 10.0298252314152 14.8666132550766 0 0
-255.177703528081 47.1936308676971 -7.72566241580305 0 0
182.791950416017 22.3688129804209 -6.52622973108287 0 0
-158.455464265009 -10.1552550286119 -8.92459869239347 0 0
186.4568790037 -21.0168097462296 -9.80276267651451 0 0
-51.9192049107888 1.89296278571475 10.3652946800008 0 0
123.172392844619 13.6702237230219 0.884607899277589 0 0
218.431803176302 0.091800258033333 -24.8489839639366 0 0
211.555966260902 8.13205342897122 16.8068792625705 0 0
176.695845598059 20.3410666768307 5.6681151870314 0 0
56.7491066869755 -0.486509609920818 -22.9206199882458 0 0
34.21123751909 -12.3646288771164 -6.24000830998034 0 0
236.256425108809 22.4268441263419 31.9452912589251 0 0
-189.319603665703 -25.4904583913828 12.9369643816852 0 0
-240.056254087134 40.5211313799388 -16.5792822141895 0 0
-158.935487062458 -20.3117169465855 -1.52279893185829 0 0
233.32331664873 5.7475656389885 26.4944633999524 0 0
-259.49507803514 46.5976807646264 -5.10693717854908 0 0
196.250852812418 2.17182450804737 10.8710063744325 0 0
-227.476684571716 27.3460152580782 -5.83737576216114 0 0
-28.7094181051058 6.22298065220629 7.09319974626961 0 0
-119.440677665479 -19.2527246391112 6.21837223672776 0 0
-262.456364805481 36.167154740991 15.1893435583361 0 0
224.722007138873 -8.60431071230545 20.364431737879 0 0
5.17900448038428 -13.550799670043 -8.72423988456327 0 0
-237.894266382443 -7.24988537017798 -6.29212192529163 0 0
240.676895570179 12.4300513596378 24.4532532227323 0 0
-144.517901556835 7.25125281894099 4.98669060922753 0 0
223.464043263869 6.65681605974654 -21.6766957234848 0 0
196.123746488183 -30.4157013238898 4.23290085204778 0 0
83.6852482326794 -10.8660184780249 -16.4525080649487 0 0
-241.02480125248 16.4445461183857 17.7416930904632 0 0
242.812020992582 31.0914086269663 8.50448283429641 0 0
171.352058527972 22.9135116440358 -1.53622499081204 0 0
218.909108042124 23.2771919913111 -19.8781031056932 0 0
226.774842794151 34.7408070080489 31.5465784227928 0 0
-252.125524071058 46.6480985279629 -11.5658359776654 0 0
-234.426315718048 -9.42718444660276 -10.1473094541078 0 0
-113.314030198786 -15.0596761089642 10.5696792497738 0 0
183.525639614719 -21.3465577150657 7.9151453805489 0 0
150.380520934043 4.85295693273093 -21.6511828552618 0 0
-207.425697012172 -7.51320367411224 -11.074603311697 0 0
194.800491014924 -25.5546029267556 -10.2827128476179 0 0
219.755399328781 17.5115945944507 -25.3813451684914 0 0
161.589052603144 -0.0194315530205128 -23.3671113420818 0 0
-142.938260576084 -12.5488881304761 16.8150406014349 0 0
210.577771203208 39.5699570026866 15.3848920290361 0 0
-252.277953190844 10.3827707617959 16.361911641039 0 0
-255.752892201503 13.8677132170833 -21.8746944350673 0 0
215.77296714546 32.8157670061531 -9.02552316284073 0 0
124.803005752044 -5.39416421164381 7.41828006375291 0 0
206.20712094262 28.7503644620836 -11.6274756591299 0 0
61.2773413030584 3.41565728225449 -22.193154323282 0 0
206.795671573969 12.7925334350397 -23.7507865723387 0 0
-39.5517850583269 8.88183522924588 -13.9128932934201 0 0
-204.368072723469 -27.4402645226625 -10.1697238174573 0 0
46.4650980438923 -7.831187765997 -20.3344812933227 0 0
-247.043297378275 29.154806044356 21.1080742966552 0 0
-80.5558828285411 -6.91889749350249 9.74875831428613 0 0
-66.5725131546225 -4.38191819453644 9.33460639426951 0 0
-165.760571952488 3.0665695237995 19.2915235345554 0 0
-63.1232401254873 -5.6431870870964 -18.721751579243 0 0
-221.642301477347 -0.514564351539301 -14.5954311163143 0 0
226.917533757407 37.6211563240324 2.47286468802803 0 0
236.904356621825 2.6994712309567 12.7547861290299 0 0
224.299472787398 -35.8881586496522 5.82852981753016 0 0
-243.204821483326 -25.2986540141134 -3.31687450915066 0 0
211.035593047722 28.4462956417394 30.7943843450137 0 0
-194.615508389579 -30.1994907916706 6.54743382164312 0 0
-179.056109920462 -3.72572789534797 -8.73828863539461 0 0
158.447972372525 0.426613972581096 -23.2679453025226 0 0
-18.1904179030114 10.3419974745009 -12.4865206721572 0 0
-92.3887277510706 -5.37253037681736 12.6458455386367 0 0
-206.116908910073 13.3855589562792 -4.60121313747382 0 0
9.96841445489599 6.16147938757323 7.89689905000953 0 0
-234.796820522928 -11.0772535184361 -9.64534963742803 0 0
209.598335221846 -30.133223589407 -12.7492729907623 0 0
-220.319802599998 5.38218730759762 -12.2414693398434 0 0
-235.827123925271 -10.9971225270738 1.32217656909385 0 0
205.770148363262 -36.348988529431 13.0467001554954 0 0
-80.985190632716 -3.5233017582453 12.1001805862967 0 0
203.990851949063 39.2568735636134 12.9414346507754 0 0
-73.9147306741544 5.97985122235958 -14.1286637987152 0 0
207.93170256686 12.2037217522016 29.7081381105696 0 0
-98.6394399110263 -16.545028079419 5.51728689573763 0 0
-190.937168196449 -3.36138908123991 21.6477858380886 0 0
127.023125328268 -10.275546775234 -18.8015118050955 0 0
-206.023383922385 2.50462932268567 13.2774128685177 0 0
-177.981754728637 -17.6816520019648 -7.24346890915369 0 0
168.421089482461 13.0728526645079 -15.4607064492018 0 0
-232.670316574041 -32.3193814801172 12.563074348662 0 0
233.640675067315 25.962412743143 33.7236842715824 0 0
219.590634949942 31.0411240041027 -11.444047114411 0 0
-198.931154797648 12.5422218352668 -4.30138548904633 0 0
-256.833686544487 6.93051433954249 -2.73428334118946 0 0
-226.065711403982 -18.2164734080197 20.6364081946682 0 0
-144.590731448968 7.35144528587347 2.00940815494515 0 0
66.5970259112583 14.2300905690632 -5.60018609956603 0 0
-228.530198358055 -26.5885729869851 -12.6413694595048 0 0
-220.291806041261 -3.52717217886087 11.6154684669056 0 0
-153.026743535219 4.41473265101812 11.7716332275414 0 0
226.406888390943 -6.75671510693297 8.27893959499129 0 0
218.156629585868 -6.1209392857773 18.0357489098545 0 0
-224.137443377429 -16.7902299887332 7.30922407918114 0 0
148.180229213392 -14.6626259441342 6.35832184309748 0 0
165.984542134125 7.19617032740858 -20.1573478547709 0 0
-58.1127061217853 -14.6589913538031 -0.614523438957216 0 0
8.36467158193833 6.28411868656066 -19.9042578373134 0 0
194.165726660061 -12.1959127284163 13.9813733323669 0 0
202.234062599726 17.272439166499 -20.4378338749489 0 0
-271.438472038814 33.4439308491941 4.4517485498545 0 0
-245.213302618595 28.165560097903 -24.2567531834359 0 0
237.319318870756 3.10382055481352 4.717522327114 0 0
182.215539702664 4.49349205214836 8.3619665481702 0 0
173.449274328417 -8.24151931286188 -23.7723050001762 0 0
-237.480922310456 24.4195095003776 -21.332608530904 0 0
-98.3330450177969 7.88668647451672 -6.99146225141089 0 0
-7.88007587053355 5.98373125028227 -19.454793270766 0 0
-239.782195399205 2.82593517382585 7.18418078231218 0 0
-172.050046496536 9.12823788127171 2.18021432189126 0 0
-262.874603203945 21.0181266804842 17.51890168074 0 0
205.0078728215 -32.4320525864504 19.4132569057742 0 0
202.214926544686 37.2249398433818 1.64221546110219 0 0
45.1661904544476 4.26478698509148 -21.6784314693733 0 0
43.8448462117992 -8.79552321475049 -19.4017383386345 0 0
-208.909974206297 -19.8282449066949 -10.1972301766656 0 0
-230.230582114632 -6.11556434162726 6.30707643936996 0 0
37.4446957040472 -5.91225295670084 -21.6667545994593 0 0
-10.4111260085842 10.6990169538349 -1.69645337614058 0 0
219.104291442371 39.1662205170337 11.1702372303557 0 0
-34.3118550029169 4.9097140454449 8.45297305318548 0 0
237.717130532777 -31.904078950229 3.23931097821536 0 0
-100.529874843543 -14.7260708079544 -10.097255722042 0 0
204.073391083933 16.3310739460376 -21.6403339623519 0 0
-238.10465435853 -14.386646035114 -5.30680984758302 0 0
-231.137413099482 33.6896105883842 -9.5228490918622 0 0
230.943802456278 21.0797196026169 -19.4860212371911 0 0
177.450653237216 12.868400395941 -16.2282921522916 0 0
-226.449717469745 -17.510188649499 6.45754630163656 0 0
-50.1279344647215 -11.9364750454496 -15.5203275275602 0 0
-172.824577383067 11.4924913964182 14.5843742221041 0 0
-265.259139175401 11.7626204900081 10.2909473107747 0 0
171.751452240961 18.6820905691533 4.22058425922823 0 0
-154.170858900365 -20.0733892053418 -1.43266454416518 0 0
78.4032610596266 -10.8331142351991 1.84619174499017 0 0
-237.796822346492 -24.9325130477191 -9.45871010210153 0 0
65.3346137752682 10.7809242744755 -17.4602456304296 0 0
-146.182325654959 6.56598189764474 -3.62865001743299 0 0
-225.07403835285 -6.18991070932329 -17.2064446979173 0 0
237.335490378964 9.41181614939588 26.3256555521401 0 0
-94.1819141221774 2.21662159275643 10.4726354291303 0 0
-187.009145835877 8.81659698698084 -8.27467551283962 0 0
232.742983957035 35.2484462670499 24.1581067992479 0 0
-142.146477967067 -3.33693109172247 15.6757286646852 0 0
-14.8184475129355 9.12746409009872 2.22967450024003 0 0
210.390620409683 -33.022265065285 -6.82355983049703 0 0
180.109545775151 4.2824253166385 8.08128686793216 0 0
-219.813614623954 -36.2450295016859 9.49162023074488 0 0
-251.012362873448 15.1658573537337 19.4983299007727 0 0
-225.676611201553 -36.5373981226907 6.19475011361134 0 0
-197.479425000732 -2.7721160097721 18.9748197769235 0 0
222.371118057072 8.97562749119155 16.0826411511536 0 0
-273.619306786971 20.4103067507592 -2.16910717438695 0 1
183.223366731884 25.5919025135278 -1.89503760430873 0 0
187.229857742121 9.0865878289491 -20.1283762210907 0 0
138.522468557331 4.67995520891197 -21.9680659338434 0 0
84.6573966252614 -12.8443045332639 -11.1893557148957 0 0
-26.5082411049368 10.5573937848162 -10.9994820440634 0 0
194.553633800156 -25.2910870803712 13.3378561882621 0 0
239.105645616199 -20.8211003331637 1.92625621618484 0 0
-235.60408330784 -19.206897129174 -12.8130714619696 0 0
220.034526746171 7.10904891392722 25.3810470521597 0 0
187.250889600386 -7.38420778748198 -25.4860313594584 0 0
-182.022472287458 -3.80898763708553 -8.66955135005057 0 0
190.089617666976 -24.0713702645154 -3.84771015193037 0 0
-221.655642547825 -13.8406544383993 -15.162447881939 0 0
233.034925940013 -17.0204365449545 -19.8297131779287 0 0
236.088447684779 -22.9253969426772 -14.1766852353539 0 0
-199.643485707645 13.4287675257566 7.95610894217348 0 0
-212.668810853505 -29.6254898316475 17.7290310326849 0 0
186.583282106441 -16.3771888885032 11.6480756072759 0 0
-237.359846766535 31.6434937902276 16.87520248977 0 0
198.925386013498 -8.06444390329995 -28.3861637623752 0 0
228.767216411332 33.8939618105637 33.2038254433989 0 0
198.390556647296 8.75107969269416 12.6140886952436 0 0
-252.701332320735 42.8989022507079 7.44489682130519 0 0
176.02468652524 3.82006955502817 -21.7082553641185 0 0
198.860856510458 20.4320203141532 16.5179085229935 0 0
-45.0638466331039 -12.0924160455686 -15.6484566795075 0 0
-245.979546099361 48.3654550107709 -0.932318857022613 0 0
47.7006716239902 5.58666498202552 7.31186325760643 0 0
-114.972509563342 -13.8108212193581 11.717803129511 0 0
245.840655939598 30.0572556578991 15.1297560986226 0 0
124.644649637547 15.7119474786985 -1.22342348542521 0 0
-7.54240253884353 11.2836854734991 -9.59348719229822 0 0
-59.5350852413432 10.086813935183 -6.57580957312063 0 0
-156.604713253431 -16.1885464105927 -6.73876781806135 0 0
-70.0797829222024 -7.26484044833643 -17.7117431009086 0 0
214.967517214815 18.8961609429766 -24.1192397042977 0 0
234.906370922632 32.6664995510675 31.7535563041916 0 0
-112.789997545858 -10.6318646603245 13.4501081111041 0 0
182.093251143626 -14.1982848885158 -22.8490476609306 0 0
187.388306940093 29.6910548509169 6.08042606936115 0 0
185.498390795334 3.20211635431523 -22.3273574472374 0 0
-184.922142229115 16.2157620747021 16.0616764345092 0 0
239.473057720704 -24.7758073634816 8.08355881980628 0 0
14.5443874027746 -9.68294305826739 -18.995691150853 0 0
241.936295903439 13.6806211718081 -4.84266556630878 0 0
177.766344255956 25.8751068610517 3.58659968472561 0 0
208.677557347912 -25.3497146943717 32.3594490082147 0 0
180.058356337447 -14.974553792805 -20.8469894558431 0 0
-102.320551836345 5.89302956324558 -10.3924390872094 0 0
84.7044463455755 -13.2591830247119 -3.61939915129942 0 0
-232.842768714538 21.8729147074834 10.692445900864 0 0
246.799588560409 26.1289561986666 8.21967397483845 0 0
-223.277455199828 20.0020329547986 -7.3189750810443 0 0
129.42207115703 8.22263566478199 4.26786441348953 0 0
222.609357003966 -29.6067282538493 -13.4173043423627 0 0
106.765464642156 1.82393236389702 6.02693384319465 0 0
-203.740887728183 -4.4256266233776 17.4698038846249 0 0
39.9522539426626 -12.5431285696893 -10.4662017190951 0 0
-60.8783791159383 8.36374305024111 -11.8758412062832 0 0
211.55098584325 -37.6758998894818 2.76390327331953 0 0
-233.717084667931 -34.5572724649263 1.16750867404774 0 0
53.4585608730406 -8.50018279795995 2.48169826006002 0 0
234.576996530057 -36.8854646168181 11.1740870715116 0 0
-237.045795948845 -4.44157716951146 -9.19259979708851 0 0
-202.702405281169 -29.6203190006149 -8.34583542343463 0 0
200.431104112721 -30.2806876542416 -4.18452674857913 0 0
-32.1057981531357 -15.3485756691685 -8.90982633587683 0 0
-271.247756254047 18.0202994117523 6.33154910250835 0 0
198.089665983915 -0.620344169916753 11.7258485694374 0 0
-262.142860904238 12.8778119617755 -18.1863509949561 0 0
-234.071143964844 7.44474244482055 12.9865691065741 0 0
213.191523721116 28.5108140706621 32.5420883620481 0 0
195.003426256578 12.1495789474205 12.7261528718852 0 0
-192.043690158631 -5.97897636463355 -8.5939861056665 0 0
-20.9151793830076 -9.71669727389547 -18.5594331122885 0 0
-237.654634784336 43.3317347625546 -10.0574945426833 0 0
3.75348898866366 1.59859115646989 -21.7316239995422 0 0
-265.65180595336 39.7187291847579 -12.2892063405794 0 0
-39.7668850612025 9.9047120378438 -11.5819681066879 0 0
-235.111216524185 -20.1778467847937 19.9792451912042 0 0
-238.968778730124 24.8511459585244 19.0580612497512 0 0
-146.829225592894 -20.6179179121348 8.68168411912073 0 0
234.308621243975 24.7241906111505 -14.0273076627456 0 0
-102.261689952273 1.48075197376285 -15.0793789440456 0 0
228.22123523456 -36.1689833944139 20.845415390962 0 0
-241.613190192509 6.65567614826256 -15.7232871581284 0 0
-68.8109770236161 9.70839522217183 -6.73716885830065 0 0
137.20965761688 8.33624900528067 4.23653850847593 0 0
238.849320431074 33.6997119652088 11.6884520277539 0 0
115.983560511127 -0.743964815214531 -23.9801538515436 0 0
-71.4427919125909 4.8601033911744 7.15167930525949 0 0
-250.124345476403 31.4555321333624 -24.4608328876584 0 0
246.305164838467 20.6567271005598 4.96872576377243 0 0
-237.594159956312 -29.6208186802714 -4.55638129478872 0 0
237.651706948825 33.8419387992514 23.8476602704905 0 0
218.86133474592 15.5108052388458 -24.7712430130329 0 0
161.439773699165 -18.1131451083227 -0.880528873192323 0 0
-27.5222155101215 10.8817398725019 -8.45139902060337 0 0
-36.7848908320344 -11.8802257084444 -16.0526400750531 0 0
1.25392850203586 -4.38542429490243 -21.6871859102652 0 0
-178.842365182713 11.4769414938759 11.7908478015221 0 0
-135.053303439627 3.75902519354582 -9.30155171697786 0 0
-121.693939525941 -5.17921892551726 -13.4511230874137 0 0
-158.71209077123 -13.9675116021224 -8.22229413702273 0 0
35.0980439989097 6.41510162698195 7.26073904089572 0 0
-92.3703889416967 -18.5486324224077 -2.3290555251815 0 0
-196.868850126192 -12.9534953698699 22.0229048589274 0 0
-7.54207823655161 -10.7938635359468 -1.18570603220612 0 0
-196.225730651298 -0.146368679283541 19.1842340188538 0 0
-237.269666314617 44.8898815143615 -1.00479519966273 0 0
11.8641170965415 7.57780847671495 -19.0691021572358 0 0
-19.9788164805819 -4.54166345218306 5.095699161833 0 0
-113.780962280959 -17.9729098193186 7.15130655676055 0 0
9.80125255175308 10.3914041822402 0.643194476048903 0 0
235.484244559404 34.2468262115876 22.2657295877014 0 0
173.608035125643 0.850116297936838 7.2415790432177 0 0
-0.177131071944257 9.52348500332426 2.62125389445392 0 0
186.550238337408 -16.8857248089575 -22.0752214012975 0 0
-176.170988655726 13.7506046094901 16.1540791646334 0 0
71.7414157050922 13.4398407332604 -3.05546049582257 0 0
229.023087622293 6.49183104743752 29.8647681583259 0 0
-56.9086933305613 -10.2436776114904 -16.937942068372 0 0
201.339388273531 36.4871971854188 3.4246656281177 0 0
-39.297538605385 2.15000531114786 -19.9373065258418 0 0
97.1336679043448 12.7896135567639 -15.931284597884 0 0
150.554937097792 14.6058106344827 -13.9723663111921 0 0
150.245918161733 -1.52630461905771 6.24102978449666 0 0
-238.562313121025 22.8900617439138 18.5012138815094 0 0
9.28447656199595 -11.4356702452409 -2.72818760570382 0 0
0.788278889939935 11.6530000450457 -8.14686658356518 0 0
-93.2199527494182 -16.6724714731008 -7.98173729226643 0 0
162.206629428879 -11.3512198992737 7.23362529712804 0 0
-176.978214609318 -15.2859178301947 18.6584979840279 0 0
240.157405114866 31.2318537552979 27.6392333704844 0 0
-139.965249053018 -19.067688721026 -2.51587752562447 0 0
-127.859924547084 -2.1447688569022 14.3994337566684 0 0
-112.330686572206 5.78117754335793 -9.34429848417257 0 0
158.641377411194 -16.1803416116794 -10.4517700483911 0 0
246.275881062271 19.8221184718597 9.87434622221133 0 0
-236.813435498965 -13.6949044308383 -6.83338900805105 0 0
204.793879958255 -26.202889441722 -23.078473976427 0 0
207.150093321722 15.343371707174 -23.8587761236507 0 0
-160.168699245573 -7.1358013733688 -9.38838732553345 0 0
-80.1296373506417 -16.8088040757222 -8.53733025853536 0 0
214.500545047644 -33.3789564258128 -5.91297397045528 0 0
139.248051216451 -14.4125721323352 -12.4611306537275 0 0
-225.341960256538 -35.9240616288317 -7.5888443953969 0 0
229.804703408602 -1.07005316611673 -16.267831914988 0 0
81.7356891672548 -3.44110136440099 -23.2572455851281 0 0
-193.947635967224 -0.751218110894517 -9.23261272781339 0 0
-243.976953933609 9.80002728931535 -18.3812621944024 0 0
136.709200535674 -15.4668860568819 -7.89738243053926 0 0
-253.209488807405 6.05865402541892 -2.63622119576294 0 0
140.398574572396 11.1783891502538 3.22124577959467 0 0
241.684590416462 25.8812070874138 -7.68351899726308 0 0
239.711289651899 4.8162435708248 9.74349175043607 0 0
-185.1046818984 -20.6744270189 -6.84909233078693 0 0
-243.549070739151 17.0314053649065 -22.4526432289194 0 0
-147.488197573882 -6.2721583466835 16.9535383743149 0 0
-195.168808355299 -6.01266979835796 -8.81647219542819 0 0
-254.328148096897 7.571286985068 0.708045180539601 0 0
-249.369173134027 43.0065261771951 -17.3745647635809 0 0
-89.2161129425768 -7.64721485432001 11.0196424205852 0 0
26.4855917477094 1.82294453266318 -22.1131564236704 0 0
232.635716690142 -13.2932493895278 23.2519557967928 0 0
103.813746697657 14.1139083641082 -1.37141543709525 0 0
-204.723951947824 -7.68641804997611 20.8095521259128 0 0
-239.319260553212 -4.74198415586583 -4.79374104681076 0 0
-225.315314471315 2.89407588192051 10.9885533459823 0 0
-253.517048349316 26.3891070902297 21.5332136910841 0 0
228.96731643517 -34.8984857983746 12.0692794279807 0 0
244.507337391399 31.5597793104187 11.2315049784775 0 0
-217.116522783875 -23.8196134561654 -12.3277481422502 0 0
-252.667900648586 32.6492760126653 -24.0301150802047 0 0
203.62723017708 38.2213153924165 3.16666883476822 0 0
225.553550386009 -5.29754977542665 8.09461625532389 0 0
118.951579473989 -15.0188783278544 -5.95125648526076 0 0
-196.901511387582 5.34018220418388 -11.295309855781 0 0
-225.375217259392 -33.6168183322044 -9.10751225685597 0 0
235.937575466252 22.9864925878552 -15.7096630043387 0 0
213.653703612886 5.99749272503482 13.6735098969724 0 0
-53.5556901644188 8.53672350386845 -12.9991274059157 0 0
227.040979007995 -3.65066338153321 1.27702562986767 0 0
-175.541386966761 -22.5997326327395 -1.02884854342098 0 0
-233.325239431383 -17.9343834068569 9.07575032815939 0 0
-94.7672222039765 -4.89557639115431 12.8829295826296 0 0
-244.626645930085 1.73231215898563 -5.56780575029971 0 0
87.0818885973914 -12.0063251433928 1.23868875627378 0 0
-237.984120818444 2.06595551025554 -15.3568857868575 0 0
-223.955323948123 13.5299147680009 -11.5019397099567 0 0
163.872218852732 9.17971034515095 -18.8294883394176 0 0
230.893346510913 -12.1617904246519 25.1949601722992 0 0
-162.403888225398 -22.1623900259268 7.99089237361875 0 0
147.948042716588 14.404940039107 -14.2406978766401 0 0
221.69436240449 -10.3723059112648 29.5554851018677 0 0
7.08115359165206 -2.59128053584133 -22.1224735153253 0 0
-108.946017169126 -12.870145548543 11.3945623829668 0 0
19.6891165318058 -5.54218196187563 -21.7543156850372 0 0
-57.4245630843888 -1.77847379730145 10.2445164620819 0 0
128.144720835561 -12.6912908256857 -15.0852005690812 0 0
-265.967263193486 8.63976662689704 -3.95088283906009 0 0
221.024557204401 34.6586473967393 30.7663211671028 0 0
-42.3974976538174 -11.1157871519977 0.92187977549183 0 0
-193.265526615268 9.53310816430947 15.6558646560039 0 0
-175.595559594108 -23.3586900715026 10.4718970641078 0 0
21.0256965555369 -11.9287687111129 -15.117890413576 0 0
-272.045476136576 27.2850687736676 7.35096307173514 0 0
241.08129396706 6.74421631199073 7.75359916231448 0 0
56.5378632001717 -6.9746553621561 -20.9986739563819 0 0
-60.9886893212685 -16.0120241895597 -2.35273098995203 0 0
-218.708155976558 -7.44032260915928 -15.7882988701631 0 0
202.192930685078 -5.60331895315082 14.3687847402482 0 0
-206.138568773501 -28.5188504221097 17.6916477243551 0 0
-139.600145872614 -20.5543930021649 4.77721255608308 0 0
-224.480524100945 -26.8244330021711 19.0292030514961 0 0
-246.31902088051 3.17360296799935 -4.9359028483247 0 0
-219.542999952471 -21.5150461325562 -12.7666567379832 0 0
95.7287330865225 10.4528377956361 -18.063231504581 0 0
-203.945672111616 -34.9918665752968 7.54796608043931 0 0
-250.877341519134 7.41538270937525 2.64035621956591 0 0
230.349910125013 19.7387562812184 -21.0332201000321 0 0
-258.811586253597 42.0172124844438 7.2116554502592 0 0
168.634564275183 11.9298804944168 5.38402954795971 0 0
98.2470455046155 -0.0358310502556737 -23.7726005633192 0 0
204.250578384509 -30.6268169621482 21.1792608660657 0 0
221.179852074474 -22.6505716204096 -32.0484767938731 0 0
-228.010561490691 -15.2729837096439 17.1056991118699 0 0
-118.41587996549 -16.7600945911239 -6.317490245028 0 0
211.430969085132 7.53396783812786 26.7347936887562 0 0
-250.495966104091 6.02788050688284 0.0374160341983002 0 0
-235.642223520234 27.3325451448299 15.0726257657202 0 0
-179.799482500485 -22.2140226081144 13.4824707499902 0 0
242.389492123078 8.70653845696332 10.8773630655762 0 0
235.785687431315 -8.77175060539932 2.94650209565921 0 0
32.4806621748479 12.8691483121286 -10.6663945943401 0 0
234.373223351994 -23.5180250135649 25.2545592023089 0 0
-232.317969426585 -9.57771770585416 -13.4494642655058 0 0
-122.685069264652 -16.338560002601 -6.65519579370761 0 0
-171.228945938249 -20.4975512838818 15.0990438859426 0 0
236.491788504065 -29.9058744540486 -2.05898528185182 0 0
-198.162930551981 0.312179180294227 18.0891028654162 0 0
-267.771127896808 22.78747488536 13.8188628762066 0 0
206.054040478396 -22.2442441166173 -34.5442045671412 0 0
-252.684823716522 6.16276243697811 -1.10425424166167 0 0
196.984713454633 -30.7969830715197 10.6729213192544 0 0
83.3910306436743 -8.18831670890333 -20.3913309314726 0 0
9.82719795138571 -9.60840886488244 0.2610364451987 0 0
39.9910889023591 -6.03385715065691 -21.5876610815367 0 0
-252.613015950518 17.4735636836668 -23.9691254034945 0 0
-247.44997844788 48.6378967821418 -3.286219211667 0 0
-236.103691550797 -9.07381618830545 -8.15391359223647 0 0
-100.317602190645 2.40762154560834 10.261810597336 0 0
244.592088681592 20.6708562810868 -2.22697175007076 0 0
209.52982273671 40.4806717653695 11.5242827464097 0 0
-207.816252781825 -37.5903059765369 -1.22790822752795 0 0
-24.3028233503886 10.9559896607506 -8.58633654675 0 0
-238.697659057175 5.68593632423025 12.459210640952 0 0
-118.447033701405 7.88989914384815 0.178319518757989 0 0
-140.838639237264 -12.6564595861262 17.1542583991699 0 0
-230.059694462141 -35.6283715876146 -0.508933575484038 0 0
-203.59428478601 -24.1495406926149 -9.685922606728 0 0
194.802045335141 23.1748364451279 13.6876858675552 0 0
211.696126740401 31.2281108095114 -10.732996746009 0 0
-220.199100471903 -32.8755414762692 14.1249927066665 0 0
9.35300686430637 -2.47896629277286 4.75071043752468 0 0
-228.100294834202 18.4111680992837 9.19581088962794 0 0
100.604997380246 16.2593527560351 -5.30719846792674 0 0
231.398079538719 -36.6058807696598 14.1603522288164 0 0
-135.677317979676 -13.8446548572251 15.5111431050569 0 0
56.1974019145362 7.02208834087921 4.81959993474684 0 0
-236.456422772808 17.1707455368551 -18.2480136460722 0 0
232.094321634946 -23.9923984911503 -21.0316214753409 0 0
-143.0684437905 -20.622485831733 1.02288801501001 0 0
-185.637926299513 11.4380779669701 8.73370930005197 0 0
-262.751208611005 32.993452990231 16.5654611867143 0 0
-63.9028321659676 10.0203632911623 -5.79133588242156 0 0
-185.338067411985 9.96971251460352 -6.87237605734709 0 0
95.0932700901357 -13.6472944900192 -7.7481763322703 0 0
-159.363759403494 5.56866633427621 -6.63757868276159 0 0
-14.0757392085838 5.64712385958657 8.36767698690346 0 0
-258.989195411881 18.3200333939076 -22.6034254395312 0 0
-89.9300604838568 -4.212344491828 -16.8554263931242 0 0
-45.6558616933761 -0.828625865642805 9.56683345868176 0 0
230.661083945019 -30.3802303102202 29.2285529458556 0 0
194.18609085791 -22.6361309407857 -19.8987453261746 0 0
238.734954169911 32.716648941615 27.325955401396 0 0
229.980762711625 26.867713823829 -12.9443821295817 0 0
49.2792005021512 -1.83006999232559 5.14177351011011 0 0
240.850329943505 13.3296418353861 -6.39779470934196 0 0
138.331342447875 12.8782449760752 2.76125044301214 0 0
-89.3867421291976 0.711587648687698 12.0713973385219 0 0
200.970085720623 36.5387069487086 1.44647041646569 0 0
-76.914014939975 3.3837394458847 9.1840089912859 0 0
-241.293459007276 19.1518921373185 18.8967167458526 0 0
192.013697336356 26.102209385188 -6.52887430982829 0 0
192.683743131358 4.05049052614584 -22.5561342297626 0 0
64.6955445190157 4.74615711323966 6.42170550017728 0 0
31.5966330169692 2.38439664519962 -22.0420111563059 0 0
15.2609001019254 7.55493144431755 -19.1742333890977 0 0
214.435314753669 -12.9976768523284 30.9647179652758 0 0
240.132278801411 9.13128762427022 21.2970926168924 0 0
26.0328629270527 8.92236260855585 3.26196879386559 0 0
207.71226402799 -38.5629800410212 6.73774134732233 0 0
-184.959238136321 7.74668776139076 -8.32803487046615 0 0
-79.2996058788228 4.32405017108874 7.6997761165929 0 0
204.652641807358 -5.03971001776598 15.8674636769751 0 0
232.152930941062 -14.7003706304258 -20.4635913651391 0 0
-223.109553656858 -6.61907986384197 -17.9491212369766 0 0
55.1935570243829 -3.75924999605892 -22.6247543950543 0 0
238.203057807401 6.47467911927182 20.9138614660402 0 0
206.897851922638 -38.6319165825768 10.2438333659549 0 0
-193.186238430715 -1.62439647820187 19.0266307300866 0 0
227.154029383539 -9.47567375086255 23.1994022721166 0 0
-101.604834005127 -17.8756263947004 -5.38315725355961 0 0
-258.199792208387 42.8026417865739 8.97294405664901 0 0
205.809227853441 1.03618599603238 15.4511983158816 0 0
-146.275480051692 -20.0261580049347 -0.551578069602973 0 0
220.005268368053 36.7430088254549 -1.26055081540407 0 0
-199.44109289162 10.5827322527924 -8.54726887833556 0 0
219.266926632256 33.4370749234648 33.8944051357035 0 0
-224.753898749943 22.2211219681917 -6.51373679736131 0 0
-267.16685925187 28.9170320568582 14.2031381992908 0 0
140.615351579378 -16.2163583777836 -1.46956279257365 0 0
-77.1762393633024 -11.1536436874151 -15.056434886489 0 0
51.7920301864843 -1.35786799834227 5.38587562134023 0 0
127.142678958037 -15.2260655148709 1.11375220059641 0 0
-99.0759036874177 -6.35030652079597 -15.5264272400037 0 0
105.309999077078 0.447123746249876 -23.8279835958196 0 0
228.626377864113 -30.0335311298535 -8.38643640680557 0 0
196.158030941692 14.1212524552146 -19.7153264270375 0 0
-272.439693155082 22.6847613470327 -9.6737443308294 0 0
-204.498962208787 -2.66393169446647 16.2595101587365 0 0
-164.891488375241 7.50179401316066 -3.53923419802127 0 0
-272.003390706242 33.4130568036812 -5.41252408465034 0 0
-127.963797731991 -17.79539502576 -4.6156864975462 0 0
-230.323559339788 4.74986456591658 -15.3518059321329 0 0
236.24469788739 -12.9161040262771 12.9122715402616 0 0
-92.8170639561034 -17.2460755160587 2.72805611094686 0 0
194.838096467538 14.0428660903805 12.6168195814323 0 0
-146.962810948331 5.68048420402217 9.31948839452776 0 0
-246.340095908934 25.3403420970355 -24.8416214517924 0 0
186.995779539979 15.2035341149284 11.2232547475262 0 0
238.503605617284 22.2147639336274 -12.729027357998 0 0
36.872393192553 7.28184167888565 5.37123161747028 0 0
91.5517970520201 -12.9241605053668 -11.5162924302842 0 0
103.504592508114 6.10236384217215 -21.2483894400108 0 0
150.112406340552 17.2176366454068 -10.023010975657 0 0
-181.923488340096 3.12904589040194 -8.7868292290516 0 0
25.5782193341687 2.22316965269766 6.3768532257755 0 0
-49.117356795971 10.1952744655889 -3.86592873718835 0 0
212.702302144911 -38.8755763006599 11.6840179774468 0 0
91.5319309585629 11.7638906486266 0.814975156699815 0 0
-250.570830274281 11.8192959027521 17.6128207439033 0 0
204.745742311364 -24.2380641798777 -29.3647052494149 0 0
-191.727384553954 -0.825605798867613 19.3678047099644 0 0
187.696932503742 -9.45187650982253 10.480947012694 0 0
-26.458487353638 -12.9658911248299 -15.0096101794414 0 0
-272.2431848523 33.5290393193415 -2.91701708484202 0 0
210.577647160147 -38.3789050689822 12.0460714654598 0 0
-212.004350368991 12.79824539877 -7.5610046731649 0 0
242.908987509532 11.6450039979276 17.8894994510406 0 0
