"x" "y" "z" "f" "a"
10.829802227877 -2.59043544570458 -4.82934531746915 0 0
208.283278577376 15.8677110964875 5.48498319923977 0 0
151.273435635701 14.4972897367314 12.6552207314393 0 0
4.5256801557515 4.64097748155036 -6.32060331932545 0 0
175.448393197822 -5.39687242485358 -22.7552698972296 0 0
-177.425835290372 45.8104607266498 9.69663994131363 0 0
37.7359614874584 -15.0586224475335 11.3213668905515 0 0
171.868390022653 27.4745431750798 -4.18803650754242 0 0
169.364220383049 -10.406190700019 19.2555214206474 0 0
137.586025649329 9.66479244794356 14.9929636202111 0 0
64.7093206363315 1.93907978963555 -6.52092702000317 0 0
-151.153196662201 12.3366662184885 6.17045593139576 0 0
-140.266503434889 -20.2104706534466 -14.0309703324727 0 0
-157.849946586307 -5.87371877793566 -20.5931562912927 0 0
78.9888924238407 -3.55771661697224 -6.94788751416187 0 0
186.057318120061 11.6949801177851 21.2320765845048 0 0
-185.395207365866 21.2119284854585 -17.3173546123781 0 0
-171.369574920914 41.480174152838 8.57005918158574 0 0
140.320100947742 14.8116629870178 2.31715331223914 0 0
-175.21117270167 39.8129698984438 14.5196919986577 0 0
-166.581909301111 -5.99020464062267 -15.9582755787538 0 0
-102.196503039396 7.13285701075315 8.80510034592429 0 0
84.0550685496016 -6.22370771755842 -6.09689457986573 0 0
195.555215847377 35.1493352550812 -11.3177762228584 0 0
-155.268813763558 -30.6680577483782 1.36423268698311 0 0
-174.497760461665 -13.2983914676839 15.0712619901898 0 0
179.253943786342 16.3676703392677 19.012341192478 0 0
-84.3949627320255 -7.53829805193876 -11.0739853209567 0 0
-132.674505148143 4.10193804258003 -16.9079584912812 0 0
-169.162566900359 30.1579821706894 -3.26118709823498 0 0
172.26098407159 -23.1282251479368 -24.9266197914822 0 0
194.613482921099 23.1781707146657 10.770171633113 0 0
205.592266693239 24.3420167736876 7.17546667389121 0 0
-21.319704921537 -8.73315884517645 -1.36818736035311 0 0
205.974060772657 11.4065181921502 9.15213615163393 0 0
41.1503515770633 8.10112007348116 0.971073222721244 0 0
-132.256136926794 10.5262374317271 6.68503852030786 0 0
-172.503610470869 -31.8401083586491 9.27299762541121 0 0
173.230172657599 -11.8256336528598 20.2475731430853 0 0
-178.02156349265 33.6960607501289 -17.4227032976786 0 0
-68.8795011947335 0.876718456605993 15.6097245483633 0 0
-157.124032790098 -28.4338840845243 -14.0073657502612 0 0
169.168776205712 -10.0650957413384 -15.9309529272229 0 0
-129.317387508044 -18.987766145742 4.7717474713004 0 0
39.0599923805375 -13.4826988616307 13.9881291943803 0 0
5.40573129842899 -10.7348997106905 1.90490785938944 0 0
194.02413002003 -20.3206449119473 16.200028091769 0 0
-133.967802624192 5.58848955278463 -17.6934725237293 0 0
-113.681968988046 3.79197742192191 9.45020550803955 0 0
-139.570511914954 8.36348067323792 -8.29959046874095 0 0
199.306019632653 20.7357454923466 11.0216818400757 0 0
-112.815961188056 -21.6414522084451 -5.15130566703832 0 0
-26.9763315497928 -16.007401343345 12.0433618219184 0 0
-44.6421160134682 1.29171820500359 17.5644853086838 0 0
-170.414655305507 -6.59894070509332 17.4727706128069 0 0
178.584642028057 34.6396143203687 -12.7858519617763 0 0
7.90189848983403 2.54901987212574 -7.53453174308785 0 0
-35.4842461239487 6.46911148794346 -0.540161715687337 0 0
-170.264078893306 10.7891351162318 9.93334668522662 0 0
-189.970437507098 -16.0043252300841 -10.8967717494729 0 0
182.096734376451 18.2031352447636 17.6934975862194 0 0
-156.945542906712 -0.847011729731406 10.1796569332293 0 0
199.284536099408 -10.5455373279573 -12.591493074577 0 0
-140.024536096841 9.99002981654489 -18.1496204147685 0 0
-205.680531574248 30.8885572238358 3.61175999353595 0 0
114.632455638589 -15.816977741021 6.85334574075274 0 0
-63.4113712044468 -4.45532620202223 16.4001464559052 0 0
140.830255631313 2.53907803330274 17.0488884527714 0 0
-175.114209791367 25.3657015046869 16.6158441542203 0 0
-165.339408675077 -30.1548290878135 -11.2635308239731 0 0
-127.053965317083 -14.0016941637849 8.65666457762932 0 0
-171.569176933771 -33.0274669720517 4.66654414938514 0 0
61.044079543836 6.04892322151742 -1.64032989286283 0 0
-52.4951411984361 -17.7505213856685 5.74638459365287 0 0
-27.5477187758924 -14.6572721187362 4.52617953363896 0 0
127.911139311047 14.2857137553198 5.03535720536833 0 0
-163.098541741145 -31.2690986049226 -11.9048446201085 0 0
197.973993466864 32.5029182331514 -2.06220549566223 0 0
180.270248779992 -26.0767579904449 23.9429494113896 0 0
-184.121606045878 8.29011190806815 -7.5137413499647 0 0
142.351029513963 8.27529601608392 -3.18746572433749 0 0
188.402170282358 -29.5239710658953 11.510041086537 0 0
-163.253435748963 17.0717662354086 7.09061714941348 0 0
119.330588790219 13.6709875949979 5.36341823735324 0 0
200.405132312566 -28.3378480459154 -21.4834860508476 0 0
-196.600106153921 33.0085739915191 -15.670811587166 0 0
-177.377448498653 -31.1650785512544 -5.31053656097422 0 0
-144.847479021853 -16.5448932370288 8.04748389407486 0 0
28.0934022147994 2.01179258058875 -7.78105288447467 0 0
155.93567041597 -18.5507970803139 14.4471623855717 0 0
-153.470974280647 -26.8988291216055 -14.1841792866772 0 0
-97.7307824632662 4.10187426833452 -5.22749589819425 0 0
-73.8773763297235 -1.2865850571577 -8.28608821341229 0 0
-170.496333142761 34.5444758804834 -6.31873227153089 0 0
201.55897647194 -24.9413537353658 -19.9337073331178 0 0
80.5919025889818 1.41285289819213 18.0457030415881 0 0
188.259281443246 -29.300042517958 4.38835345756365 0 0
140.818551734849 -3.11656843043437 18.2641861042706 0 0
-187.171462095764 -15.8418973975101 7.68734269153392 0 0
-187.277743717895 17.2541921013304 -14.7376977731004 0 0
6.94094279556567 0.375565118700898 -7.64866002562238 0 0
31.2831443076856 5.76096901724209 -2.2712205844813 0 0
210.402169452835 18.1254602114941 -4.66447185117705 0 0
-177.270964930073 44.0992892731088 -11.3850235801095 0 0
180.83847104743 -11.3267105275219 -31.9094296221589 0 0
167.036579155366 19.9479216288436 11.4483192595938 0 0
3.26662829211656 3.40878952189567 -7.20588351829746 0 0
-150.641603240406 -24.2022463272535 -14.2531659474034 0 0
185.061991957054 14.3764427998337 -24.8027742585971 0 0
194.695641752691 -27.6798824968023 -30.1642166354733 0 0
-142.247314693519 -1.18143239203104 -24.375171162318 0 0
7.9166014446712 9.35412242190778 2.2240598061519 0 0
-99.6463733802191 -19.288560922316 4.0965450306909 0 0
-150.912262558589 -25.7639457964703 -14.6555249728547 0 0
-202.702717321592 21.4740054220551 7.07179588242826 0 0
171.53322987828 25.8944499993434 6.09498590280684 0 0
-71.7462957862172 10.3774669233566 6.18394864173129 0 0
145.869316252399 -3.24941003130452 18.1417159380836 0 0
-164.55275949549 12.7326917956701 -9.92531638480263 0 0
-179.681463309107 25.6534736719028 -17.5323909991608 0 0
-27.4001956358196 10.6283384026214 13.4108523266473 0 0
176.830130876618 19.0866976477651 -16.8674486112034 0 0
193.83469808507 -20.426572556233 -32.2625540974424 0 0
96.2487875003737 -1.29222547976729 18.5180977924194 0 0
-107.00528338099 8.22881549683911 -0.792601630875646 0 0
-69.9351115285084 -14.4400024985273 -5.01974014165351 0 0
-62.9890527222585 -11.8040794254222 -5.38200322434119 0 0
-198.782272524533 18.2671555664292 10.6116847668614 0 0
-159.984952147178 -1.30914941043855 11.5316136326039 0 0
-171.613889034022 2.87344400610107 10.7182647136613 0 0
-175.791583947022 36.7141083763728 -15.4051280107743 0 0
-148.337934792534 -26.8413082378168 -0.682088801492217 0 0
-189.908679762176 12.5752004190415 -9.09888320032967 0 0
55.1477989842049 -11.2900462859287 16.4923350097963 0 0
154.641339997448 -2.41616590903098 -7.47207176755157 0 0
179.017016757103 -19.8299605232821 23.1926730152423 0 0
-98.776502263775 -7.88578020166779 -12.1020978005565 0 0
97.1955523944817 -10.284675255209 17.1885219838233 0 0
203.074860970594 17.3977880541973 -21.9347400393871 0 0
-189.962774204993 44.7015951710746 -4.32031388348327 0 0
-161.73154911714 -33.6096894659496 -5.63771826748889 0 0
169.619716758663 -22.1810394446638 -17.6123012343407 0 0
162.333129328697 -22.4483602218152 9.6239839612497 0 0
-125.138803220697 -0.937756520603569 -14.844282265049 0 0
-172.047573066702 26.3233603884548 -8.31928796584961 0 0
171.694527426027 -13.6704283651558 20.5556220399082 0 0
192.646534385331 24.8650800129409 -28.8894005252559 0 0
200.642407182353 -14.2234054647087 -10.2954497574397 0 0
126.824797434251 -14.8525183774622 -2.97192249422562 0 0
192.263741663305 20.1978770113893 14.1880222204904 0 0
81.5426015309259 4.00045894258959 17.3815188680816 0 0
-0.500857711812635 -1.08086179060578 18.7411840386086 0 0
177.025333292695 -27.3592812535974 -24.552416898891 0 0
-201.533562175873 17.8236975874184 -2.01746252684468 0 0
-143.260872166676 -20.6315382231146 -14.6588502246344 0 0
-145.915326496089 0.793330545180494 -26.1492932572244 0 0
177.221850337014 3.60594766502355 -14.1884734419578 0 0
184.866861604092 -28.8114618267476 14.0201290358701 0 0
194.311563101212 -14.0718581756979 13.3979632489709 0 0
192.435495155157 -5.56348648289793 -19.7506914105803 0 0
197.000999578288 -30.4701094172782 -20.2591563993243 0 0
-199.635940275627 28.4559964966832 15.1508442253154 0 0
-8.0902967877132 -5.53072868274772 -3.13030475691981 0 0
163.613392903209 6.76449285610028 -8.33620736470174 0 0
-196.755541263408 46.2623037535475 3.43925236594413 0 0
-161.772258260522 -33.0982508242541 8.59450909423497 0 0
-159.215441497941 -29.8802989216086 -13.4130098935978 0 0
-38.4877111321032 -9.76066741156669 -2.12979732681549 0 0
-134.251786871736 -18.6718164167846 5.90896519239235 0 0
133.086542222819 -11.1903416879586 18.210856313679 0 0
-180.747987864977 -24.4204490551206 10.6056010742809 0 0
-72.8662291369808 2.11442199535472 -5.10399568298097 0 0
-176.99452902024 27.1666538009737 18.2821526570319 0 0
-120.86634566512 -19.1551145674449 -13.7995528083656 0 0
27.5471681063638 -3.55488787505275 -4.25135377062687 0 0
-205.399643584825 25.9730952437696 2.79506491927899 0 0
-49.5314960476905 -6.85058935369256 17.2474400463683 0 0
168.283680733152 12.8591285847325 -10.0213918368811 0 0
-149.126957792072 12.1615013450162 5.79060030856646 0 0
-146.263004869629 -8.3147663607617 -21.6436883674247 0 0
14.9124367904917 -3.91595045400902 -3.68929790226237 0 0
54.110331291762 9.05822653924017 15.40464080479 0 0
191.212137138643 34.6577519601919 -0.285818425298102 0 0
88.6217152169682 -15.3095736821124 11.9703602528462 0 0
31.2686620948639 -13.8170912875188 14.0439288859305 0 0
-172.202745569586 43.3025763149769 6.97630527744402 0 0
188.465223385138 -29.3930308805166 13.3028208882724 0 0
169.882695064477 -26.916207050033 10.4974612162914 0 0
103.735614075256 13.3874099985493 10.9488237878811 0 0
-52.3418515080388 4.32207594291958 -2.71411702703914 0 0
-117.827941614501 -21.3749429627996 -7.73019074260976 0 0
-173.21850522477 43.7672078851107 -7.5807067598184 0 0
-186.974926790578 15.9063466944087 -13.5058082007675 0 0
-161.983472460001 -30.5074534603809 -13.3853757286579 0 0
-59.337118478827 -17.1475730352967 1.46130908489427 0 0
80.046478350776 10.7853583285597 3.71317189251962 0 0
-127.457586501732 6.47417637788922 -6.77376365458008 0 0
175.877273520987 30.0209641145711 -11.7661689782487 0 0
203.188650680786 33.9126515223236 -8.88100813683896 0 0
170.296867522348 22.5736637728247 -6.10278698794116 0 0
192.061627810085 27.90557006164 -28.7200279437397 0 0
189.323566571556 -29.1878140773101 2.44021322153295 0 0
170.286560734797 -4.50801118646087 -12.8385716937753 0 0
149.67711824117 4.97356209471235 16.4720566162605 0 0
190.52351931197 -4.08202499776763 -12.3560671681005 0 0
-183.23569177467 -12.4956268458756 -5.9744896595804 0 0
192.868512729439 16.8380115635556 -26.1266655279212 0 0
66.098438965769 -6.59271283374165 -4.41119949381386 0 0
-182.814372386965 33.8501832695393 -18.7631556395965 0 0
195.379125902069 -11.36892206486 -26.110880086778 0 0
-171.829111729122 16.7417924186926 12.3923461959292 0 0
208.771645646379 23.4552262671499 -15.3159159748286 0 0
-179.554556726144 -28.5577945279837 -11.7710866540855 0 0
-143.568720849882 9.2126000021468 -12.6225511046589 0 0
192.518376951678 -29.6045961101854 -16.0895279277751 0 0
185.093325436455 36.9928194642993 -12.6235582327115 0 0
168.068004585517 18.5612457403143 13.194893879699 0 0
-81.7781269366042 -4.79031968219309 -10.2685402923558 0 0
135.594376489686 -14.8703582305457 15.7703208966948 0 0
177.237217878776 -4.93399915665636 -22.4928680443238 0 0
-181.587004359314 -10.7719860941925 -4.89553832871966 0 0
137.000271412382 -2.64043963737055 -6.32043502361501 0 0
156.258556552396 -10.6002855967604 -10.6845192314531 0 0
137.051614039098 -17.58878085601 6.09371153174852 0 0
-137.916119931864 6.54073468478591 9.6229789002041 0 0
-57.6066938456706 -18.1064093794768 6.6192421609833 0 0
-165.373504100831 -21.5558838230154 12.5109693310129 0 0
110.638669361821 3.53279839120773 17.9085831984942 0 0
158.491534233378 3.51380207863553 -6.6058200455162 0 0
172.727662647029 -5.16447965096122 17.8295801135748 0 0
83.0665083272649 -12.1312596457215 0.0846080999230896 0 0
-150.957811245801 13.5986158479273 4.1810595830128 0 0
188.36805636931 -21.8375424012524 21.0132121999115 0 0
111.361740249341 9.49532774302304 15.2306186248789 0 0
77.1052395791028 11.3185180538004 4.49644785412356 0 0
111.046641640748 -2.31738976064323 18.6563220818757 0 0
174.584871676801 33.7582494257937 -6.30829492938645 0 0
55.5325561046661 -1.36324234233626 -7.06805277388066 0 0
64.0478760502638 12.7114372520439 7.41958137131228 0 0
183.870330959356 32.0357568913003 4.93371644839557 0 0
-174.377649960028 -6.67139128158505 -8.61695253547446 0 0
92.0550461127344 -12.6903319318783 15.4548403718734 0 0
-147.069897671476 -20.3476190663907 -15.3930009495149 0 0
-74.9493760067614 -2.47730332260939 -9.15194934951436 0 0
-190.383109971466 46.1674734812772 11.7149844179079 0 0
173.343030012056 2.47108673921405 -12.153771973065 0 0
61.311895968007 9.19030009168076 2.13611842846258 0 0
-164.825293485069 -29.1199139197024 -13.5452965508834 0 0
168.10739734187 18.3062259709249 -7.49608592142818 0 0
7.54517594438593 7.38672809309065 16.4080929731237 0 0
170.815547527694 5.38983932654912 18.829468597446 0 0
40.1461864143606 -14.6632704834481 12.2354554547885 0 0
-84.0484266347101 -10.0908182908102 13.7825769857028 0 0
-40.6863870643607 -11.9004907565834 -0.677195536981151 0 0
184.085892708099 13.0627793363084 20.8018926529724 0 0
-195.127534905415 15.9744338765117 -10.5151532662281 0 0
-100.532483301176 8.34686601212795 -0.0687258807368998 0 0
-138.600782290062 -14.5135719991731 -16.1781010967236 0 0
185.670862566869 -33.0883575398983 -11.0652959277775 0 0
178.196368630345 29.8454435531472 -17.8287147705848 0 0
-115.195019975827 0.251578142119863 9.14177575082028 0 0
187.498251303561 -5.57776687921334 -25.4559867168496 0 0
136.722139703364 -0.621539978970971 17.7707341058764 0 0
-195.661270915157 12.9469792575701 6.14326657913256 0 0
-143.427148786313 -4.85097747793699 7.38735254661104 0 0
189.013771143517 -1.26438340607044 -8.12617117177661 0 0
181.779065193382 37.4816558422628 -11.1598023547026 0 0
122.382144099189 6.79731748959358 16.5020206760732 0 0
-11.1434428362349 -9.49836574474508 -0.0262744686458821 0 0
-141.219941363164 -24.8443018679369 -5.17350694274565 0 0
-172.207901885276 19.5030344253949 -9.82281860843448 0 0
-193.916529720559 11.8751925665467 6.38082406167767 0 0
-191.496754599505 10.2577842237973 5.08494723707826 0 0
-38.6540423750009 10.3177770991346 4.07939886218566 0 0
58.4327100404497 4.54444154162853 -5.06036450300576 0 0
-156.045302473994 -30.8535864547758 7.41131690312994 0 0
20.6671438129056 -0.901792228484075 -6.86307750537996 0 0
-158.230525069788 -10.0631946441384 10.8109890748977 0 0
-182.440600974514 27.6295588878592 20.1791452887374 0 0
181.985362625453 9.46102583567994 -14.4186537902396 0 0
133.541155200151 12.3748072226272 13.3824653745098 0 0
-88.9626833380912 -5.52008497675409 13.7135979360241 0 0
189.096200709635 29.9427407956358 6.85106270514491 0 0
-13.4538914835426 -1.00930349797426 -6.43069618021044 0 0
-37.1022140852292 2.85638673362992 -4.44311379289025 0 0
-155.197686310982 -25.906171374286 -14.950822850461 0 0
86.8848477212404 -4.32631584562186 18.7246938281431 0 0
186.444028578872 36.9745815456794 -23.975833884877 0 0
19.6120396338667 0.83325338012019 -7.72960297133316 0 0
185.944038112712 -28.9234613016657 13.1046858228823 0 0
-103.449682492742 -12.244823443664 10.8673598250478 0 0
-163.414522159552 -23.4896969251958 -18.7705788160226 0 0
1.63861581532924 5.15935632008901 -3.53542240175919 0 0
94.9816991475071 -14.8295893640454 13.1895347032769 0 0
-178.890732560235 -29.1343840816966 -8.60283815276394 0 0
199.751273810182 -29.418740521078 -10.0379163581011 0 0
-143.247475590874 -24.7273826560125 -8.34042894948166 0 0
-158.212512963534 -33.1208771261957 -0.575803656674063 0 0
199.214458912727 -27.0672567557065 -25.9735249276949 0 0
-192.435846507218 19.4977453623383 -15.0729444625563 0 0
-167.619544484879 -22.4218516771359 12.4459978980606 0 0
72.4179479674985 -11.8286769191903 0.864080149135071 0 0
188.981984156951 37.5950894727248 -18.3271208444604 0 0
-93.5000768330603 -17.1507760179733 -8.53240133224469 0 0
-75.6572906428907 -9.0420366202442 -10.9283816202736 0 0
-63.8090010581724 -13.7598433988304 -3.93051157385898 0 0
194.170688391029 34.4580630716001 -5.08690402159486 0 0
155.100364020519 -3.1181013906889 17.9828345484782 0 0
201.070617653846 30.1749955248565 -1.86215421807794 0 0
-110.763818166062 -6.98702270327597 -13.2533866863467 0 0
200.429893914951 2.86731812514323 -5.18574235141639 0 0
-202.782965821561 21.8827005944946 -6.09976840144068 0 0
-35.0004180249367 10.3601605985258 4.02608798393854 0 0
201.090484813715 15.4800470046581 14.5937667283057 0 0
15.4431361490709 -11.2877270470832 2.70884153134594 0 0
-101.849139330003 -21.3172295035203 -1.15440672642537 0 0
20.4188045760141 -4.58215806372892 18.4216453157421 0 0
-166.312563916037 7.66842787387885 8.74517508914895 0 0
-187.214253889935 8.87168340289165 7.45030592555207 0 0
6.83899896075184 -12.9396781816457 14.896820307768 0 0
186.037564674717 15.2735114219786 -17.6272637873981 0 0
79.8408617570855 6.45278323919308 16.5349513693967 0 0
196.507627155878 -5.51082376515064 8.5507836747867 0 0
27.2182538568549 -6.07602545668177 18.4024882268292 0 0
187.362185417731 10.4956171512583 -13.0337555317833 0 0
-186.847664707703 -14.8887100887354 -0.715058702856859 0 0
-158.073967754808 -32.5850146712513 2.06767702418674 0 0
146.697180745914 -0.871088449689105 17.5340226556762 0 0
-174.152235857467 -23.7262903363546 -18.7376244461706 0 0
-32.1908650030154 1.71624688415187 -6.16168485188262 0 0
-160.423153513918 15.428300676484 7.02408279188667 0 0
208.037746042041 22.0167963617751 8.06305540897427 0 0
195.706238460186 -27.7336769961456 0.791641836421032 0 0
181.70283583168 -33.4471378698355 -14.6956437512902 0 0
-164.457638870803 23.4654575526244 -1.47093528086082 0 0
-145.169077182945 7.365731248286 8.8432831510087 0 0
195.077621989953 10.4318899103779 -11.3251808098623 0 0
186.332728544173 31.9819230137859 4.87083152682722 0 0
144.494702304335 12.1425974996639 -2.00184643152036 0 0
104.357145445581 -12.1595781948021 -3.61332804371813 0 0
-102.906331615772 2.87201581044799 -7.12729192240073 0 0
28.5298615241332 -13.9215206587904 6.49388353347928 0 0
185.105739164636 -29.3449649077281 12.43199107437 0 0
-62.9165825632169 -14.0758195921393 13.1786118411838 0 0
-33.7871002797874 -8.06830973148673 17.8296477039575 0 0
-68.5296412783764 9.812072535855 9.77588246192541 0 0
206.604115048074 20.3180448190875 -18.9856824065454 0 0
131.789316321898 13.00996151174 2.38698480945645 0 0
-166.89657912222 14.3663761087555 9.36910529880917 0 0
-135.77319854927 9.16187926631172 -4.82642859729344 0 0
-176.033063022904 -32.3055617431292 -6.12670323593815 0 0
-55.4123089519504 3.91155079470992 -3.15230184955704 0 0
-174.014272804864 -29.8005859163886 3.24809431170455 0 0
194.91942617105 -1.90858188609386 12.9959534449104 0 0
-137.726177325196 7.57665600906913 -8.7805543983919 0 0
177.655951635681 29.9945290889006 -14.7632938158564 0 0
81.4178894482416 12.7276799391476 6.59101279150756 0 0
-148.799168173779 -3.76903792076798 -23.8706068370611 0 0
-148.032001315072 -26.1709856570035 1.38265749940105 0 0
-28.4340832535412 -5.01605632818493 -4.81020332058834 0 0
96.6018903440061 -6.77182233505651 -6.89028118855913 0 0
-161.186521315839 -30.8571581872391 -10.6849708974748 0 0
-146.275000490524 12.462031939493 -3.83125469329884 0 0
-34.7414707197236 11.4973340472035 6.63645131740609 0 0
-187.787314828335 46.9621615580371 -10.6935999224609 0 0
-1.46491874645477 12.4480498785106 7.83739863464662 0 0
-37.7206232736814 -5.7975102287574 17.9168484649382 0 0
173.94851502018 4.81248091619214 -11.6616126640797 0 0
-179.150556984615 45.3150928487346 -10.9957502949341 0 0
57.4596476277465 12.6612958063671 11.3264231381915 0 0
193.926260358098 -6.0535567655714 -22.1689582499326 0 0
190.677263253355 -14.3277775960717 -32.4577469437223 0 0
164.883555186925 -8.01092680756539 -12.542769530708 0 0
172.891878102953 -29.606812675312 -8.59427456072249 0 0
179.922341694051 -31.6838098725106 -4.73168383032585 0 0
34.4011133966023 5.39289325427745 -4.89949143141856 0 0
-43.3005269731086 11.3265819762867 7.413008463734 0 0
61.3075954927074 -14.0918755846907 5.81652598896817 0 0
-178.422452330169 -5.75087690814107 11.7788951009008 0 0
131.253439310466 4.14967295912848 16.7797359410394 0 0
10.9355013066509 4.10057862888348 -6.73546262220512 0 0
98.346620997473 13.3434717169093 10.8930530715108 0 0
-119.876530559338 -9.53327005190168 9.74910654039022 0 0
186.191398516858 -6.19892216180732 -26.924008952215 0 0
158.925231495297 18.2500992172051 -2.09814935052471 0 0
-99.6924348991817 -0.512867140579436 -9.10553875087692 0 0
158.390814948866 16.9077410362284 11.511124479287 0 0
-168.613336852666 -5.87688097063403 17.2144500692321 0 0
184.032216470189 -28.7230769524862 15.263615518505 0 0
16.3747596472433 -7.80414295947922 18.0661963377069 0 0
-133.846172861078 -22.7809081995537 -9.4638900581404 0 0
108.983495446255 8.7251145935927 15.7345311179866 0 0
-45.6369157953543 -5.34142362203064 -7.14656046407216 0 0
-34.2197079948364 11.8187103820199 9.69669286828519 0 0
204.431991311261 33.1954246485745 -7.79160561231379 0 0
192.378219218535 15.2102267193003 -19.2887233635704 0 0
32.4876646056761 -0.878193231701493 -6.40608380457984 0 0
177.877906472107 -11.2854336291905 -31.0142402845758 0 0
191.445048267028 -27.4063346169895 -31.8708217690679 0 0
87.7273348794128 -7.9413699916221 -5.44527055997748 0 0
176.155012808532 -2.30697891348941 18.0782604697019 0 0
-117.216624662488 -22.0343954119519 -3.39442806557789 0 0
-75.7057623180529 10.01863898516 7.23432655521782 0 0
-190.705588191854 11.172665937572 -0.731375304327267 0 0
-1.04091840741016 7.42988188387551 16.3434333315499 0 0
-155.26752840098 -32.12778147964 -6.52672668197958 0 0
-79.4062734359344 -5.81731980094759 14.8008901911449 0 0
147.867431535232 14.4260617573439 -1.30249729181961 0 0
175.010907994952 -26.7649694094911 -23.0274324871712 0 0
-95.7270612148598 -17.7213315841697 -8.48837270285359 0 0
-176.149306876369 -14.8471155431001 14.2241349969484 0 0
-168.510908490839 32.1218202023415 -1.21937882534595 0 0
-183.542832528446 6.65438545830084 -6.80179141588555 0 0
-86.3344671929097 -0.805407645462423 13.604242914015 0 0
203.110524330282 21.1633463040324 -23.7383156855651 0 0
190.823325973029 -30.8744882515197 -11.4742345536151 0 0
-161.69975248233 3.03617014871306 8.61706429500209 0 0
-188.406799429782 46.9004073657314 11.1705862424037 0 0
-98.1019107067103 2.25552770939608 -6.76983134881429 0 0
180.090078327864 6.50264257643344 -14.2065795275516 0 0
39.3246764988612 6.99938204496737 -0.340113746418481 0 0
-69.3957435316906 3.65923359361533 14.0066414842326 0 0
165.436650579254 7.0139122034553 -8.82088662139179 0 0
45.2916199262941 -7.78635037228462 -1.65524065391331 0 0
52.1243663251009 -12.1647188568199 15.8782306978062 0 0
-114.43650616525 9.75599394895244 4.80151585508562 0 0
-137.331900734743 -17.3657542273669 7.2967319771041 0 0
-95.074786687359 5.61664807124342 9.73131588929421 0 0
-144.44291825925 -24.8794862036051 0.335701541514861 0 0
206.439353994947 26.4172460322252 4.20717273395753 0 0
196.847332551284 -27.6181700388535 -5.95949127021375 0 0
-15.0269384024235 0.62361045792212 -6.5583319928124 0 0
-169.421889886345 40.6564250491723 5.00477670382979 0 0
-92.6206041638677 -18.9756101876733 -6.23308321661547 0 0
181.020447330614 -4.40901491752674 -21.7047242177128 0 0
-181.093828882096 20.012180604038 17.6347515429616 0 0
196.648017479878 -0.683683659547569 12.6327230725411 0 0
-177.760399141525 -26.8627164486634 -16.2839365405594 0 0
177.734400580192 27.7308652261432 -17.3205021199721 0 0
-200.388566138677 43.1969998251037 -1.9084128137568 0 0
-184.629351112031 47.6216057966251 -10.2342835719699 0 0
200.776682260813 -14.7860386443407 -14.3665392344657 0 0
-152.862474646507 5.89544750385965 -20.6312447657234 0 0
193.10688958371 -28.5967911146731 11.896116570567 0 0
-138.122844489822 -13.6036815971927 8.37785198950221 0 0
95.0656338503502 0.189235280091217 -5.77671676811809 0 0
200.586158471579 12.0547210227668 -11.9528751410446 0 0
172.73959469914 28.8955329447947 -7.25801856613293 0 0
-174.704199605408 -30.133062818933 9.77868689028724 0 0
202.945741680777 3.82747818324555 -1.22573186375836 0 0
142.666173266125 3.85021576697419 16.7555935913721 0 0
147.200220093228 -8.66886051272896 18.7352986161226 0 0
-0.433659584438478 -11.7744646126267 16.2123745648795 0 0
167.094051555564 -24.0013644715683 -10.9841010056659 0 0
-175.440177000347 -21.068419360464 14.4750150807642 0 0
-182.56033736183 0.162110296538277 -2.6759283133052 0 0
-181.078994434905 -25.3877364851012 -17.861809293881 0 0
-115.622348643063 -7.30824888578553 -14.0176466039982 0 0
-158.213655311907 -27.227534388804 -14.8343795785223 0 0
58.9454302631372 -10.5762249164476 0.483981406174634 0 0
57.4230666134991 5.25640929530147 17.2444581788936 0 0
-186.697586311079 -22.0306615802998 8.51444657207792 0 0
73.3540880445541 2.04551971142598 -5.61135998415144 0 0
165.760365861974 -8.72630102429073 18.6699110585128 0 0
161.63107140093 -19.3107687478961 -10.9245961480505 0 0
200.433311631728 -15.6657789521663 3.68359991475169 0 0
-78.5404892728775 2.46812657107231 -5.07986776034593 0 0
-122.415618936479 -22.3642952370346 -4.43734762423547 0 0
123.886453260346 -8.1645377849278 18.7183416175224 0 0
150.800010637497 4.23390270652764 -5.41722255421835 0 0
188.178074550985 -28.7883051626704 -18.8490577412708 0 0
181.585757355156 3.28029207816235 21.5410862365658 0 0
83.4426555771774 -15.6149533442078 8.20990743981895 0 0
183.839720589431 37.7607795984774 -8.29923472606429 0 0
25.0756188769515 12.7319848983981 11.0230677976331 0 0
193.361809453306 -6.04085767640373 -14.1349693095857 0 0
-151.320987240846 -27.2215370879621 -13.2042956455932 0 0
-105.707861961488 -19.8087491233266 -8.39056690561314 0 0
-94.7170496140224 -15.4988866954222 -9.55131905170559 0 0
-150.012381308975 1.466792899852 8.98000568205343 0 0
-174.850704872198 42.5510567051196 -11.1046558662862 0 0
194.278560714668 35.0649828843793 -25.102075237054 0 0
150.200926477813 -18.1420526044396 -3.86516192107051 0 0
92.7401376299163 -12.2410273846217 -1.48570377132026 0 0
-98.1411951939284 7.99837662197954 -0.834536007127433 0 0
-95.4407555978439 -15.9229432081981 8.86952007868241 0 0
157.469641747708 19.4221648169292 6.22421354911777 0 0
170.703404073923 -17.7656637321109 -23.9782580991202 0 0
-91.87713344149 -1.16104396594502 -9.11835362714601 0 0
-183.023011680068 2.05970760926426 -3.82944913627644 0 0
-171.567806149539 25.7614478653183 12.7184717662518 0 0
-149.606777843533 13.7563481888342 2.31265125532553 0 0
-177.243113612741 -31.6471117201629 -12.0021223110132 0 0
129.216711175099 -12.872493705638 -6.3872023662916 0 0
94.4472877048382 -3.48663691209088 -7.36312884843649 0 0
155.834744929666 -12.6840316835652 -10.8758365095091 0 0
-5.51474872723319 10.7170538057145 14.1123758153734 0 0
195.746051071809 -28.8197653879357 -27.7017169179177 0 0
-6.79753175000409 5.31057210581706 -2.70549473563688 0 0
116.009209344183 7.97975660966129 16.0845287058539 0 0
-121.638958879471 9.20126939277123 7.41607639625764 0 0
25.6735837418501 -6.72199519184248 -1.73566009054897 0 0
160.602329585449 20.1484639056128 7.03120824401931 0 0
-183.609304158948 -7.64844870230557 5.13214704895304 0 0
51.0830235593282 2.63195825757303 -7.03802808064275 0 0
-175.756529627266 31.6730246940342 17.9477480654471 0 0
129.144223603721 -11.2292460244025 18.0425927376393 0 0
-195.048386672121 47.7617707366195 -1.76349242350311 0 0
-190.540806148455 17.7429412422758 -14.5552260812525 0 0
-180.708255442756 38.2019307644241 18.2484331411616 0 0
171.347419646702 -1.99746674622331 -12.337572038553 0 0
-125.627067801862 -21.7026063130987 -11.2572360097743 0 0
-181.078716571015 47.9224750883007 8.62607772955318 0 0
90.2333857684807 5.15513782968742 17.234477670222 0 0
71.2345359971484 -1.76410674709593 18.5233870607625 0 0
5.7134657512729 -0.251213901552408 -6.94783704749785 0 0
128.8664122496 -11.0249023108506 -7.80589358734563 0 0
-175.236196919731 28.7962314544855 17.3429855633251 0 0
189.903743742979 -2.68759944637971 -8.32081010480594 0 0
147.79870077111 -18.1353463250906 -1.19823741792549 0 0
174.65551468078 -16.4618660002059 -31.3935589441187 0 0
-132.673235512934 -23.2614176702226 -3.00897366812519 0 0
88.4299898129495 -12.201290969967 15.7262340453926 0 0
182.815263474244 22.6363807015659 -25.8610228307432 0 0
185.594753931426 26.2016888441635 -27.596263765216 0 0
119.39166165306 -13.7757351691753 -3.30622193125003 0 0
49.7668944828457 -7.30777303953877 -2.39363601639311 0 0
-195.210095719065 47.8541021616244 -3.46619628149446 0 0
-129.471043298745 1.30265478547686 -15.9922346426621 0 0
-148.056038379126 11.9286496643539 -18.7617593385664 0 0
65.2491238770883 8.4966058082896 15.517223084707 0 0
180.738728689276 -29.4731620416724 12.5161525544329 0 0
177.622898046306 -27.1502473292037 19.6783703230474 0 0
148.305067603979 17.4686956275349 5.61004329812893 0 0
198.062081567299 -5.78013576011949 -6.26811137943433 0 0
-142.055028480425 -19.8273646033078 6.37735049038977 0 0
-159.98879096569 -29.0149160725654 -12.0813167443868 0 0
-29.5271266425279 10.5029004421918 13.4086157841422 0 0
181.158762227683 37.0426738598006 -5.03917135260438 0 0
-150.655409775598 -7.27748651600032 -22.5459231692553 0 0
209.042161222941 22.7091598903834 6.05308482520324 0 0
90.9946576573135 -0.0258301366724094 18.3466946751881 0 0
-179.068091993323 -19.9306545386582 13.8942826624749 0 0
-61.6298653505859 1.24621571599046 -5.60127905746111 0 0
-172.139729272416 28.4636591461988 -7.61867317066306 0 0
-2.67892240879269 3.19066763873367 -6.61640529889762 0 0
-189.550688650879 -24.5776059731448 -4.44466021024704 0 0
-74.9857351271268 -18.9531929150488 0.00204099473461945 0 0
-191.870904481849 46.3025576650024 -8.68603583817293 0 0
-129.795959707413 -22.9252014702303 -6.36836686323133 0 0
-182.292315014648 32.389505412812 20.1999655218169 0 0
110.013716533447 -0.248174790949811 18.4214547684215 0 0
167.971633488673 -5.43757490535475 18.0210368983486 0 0
173.583759593745 32.3685636887113 -5.45629695242215 0 0
193.716688811223 12.4703169611365 19.7469640772412 0 0
118.204507651017 9.44853437683115 15.2982270856776 0 0
147.039075404532 7.89372569158593 -3.9442813753695 0 0
63.7752205994101 9.92455199520353 2.87207164699275 0 0
164.101263186533 -22.669222197206 12.9691171202495 0 0
-163.224989513196 -29.7162668177976 9.92117935747525 0 0
191.582608429883 -28.720046562771 1.03422927438237 0 0
-8.31970627272637 4.16506455073479 -4.28605863593075 0 0
196.795147489361 29.8071368134652 -27.4053749529367 0 0
-187.542018660342 22.5780272835662 19.0203873614527 0 0
-192.628951199871 44.2449144269948 -11.4524624204069 0 0
68.0187840575396 -14.192505360148 5.51855810838845 0 0
50.8036943187359 10.4988899135689 14.5141574008076 0 0
-185.235648775248 -22.168281788942 -18.8549624314603 0 0
-136.230408697857 2.23414042976282 7.93095381769632 0 0
-159.471650309938 -33.3833514452317 -4.28399349585278 0 0
-69.1075472367409 -6.52998235411894 15.788559689078 0 0
-20.3776276825517 -11.3293882170672 1.08275536308856 0 0
-119.712104900276 3.5801281672515 9.59938444442509 0 0
87.4556480741785 2.32091825051795 18.0829092547945 0 0
-137.659718618116 7.22811751160152 -13.086120329482 0 0
-107.491371818273 1.04182546131245 -8.81877826850858 0 0
179.061233936305 -7.87116596566977 -28.8831669960042 0 0
-153.813736136131 -3.85492188426222 -22.1740818693673 0 0
-69.4212471076579 -5.03003198055552 -9.63644824537659 0 0
-170.729611579873 -32.9505667709039 1.74325645044138 0 0
-58.9623949502672 -10.2417889908237 -5.629353152814 0 0
-28.0718289694061 0.332230256478977 -6.63086660765063 0 0
-56.1851272012349 2.18713994375882 16.3986349048165 0 0
-170.719393222555 -32.8389000842343 -0.0154042957888858 0 0
188.880835198244 12.3616399863196 -13.8573586229672 0 0
-155.784357687879 -9.19388639423534 10.2898651366069 0 0
-110.129613834467 -1.26067965598834 -10.6972775330631 0 0
-65.8597984302012 10.0371389959914 3.38219937362301 0 0
-117.663400965918 -3.41718113476087 -13.3982305900902 0 0
133.977350103993 -14.8928538335395 -5.07122244769301 0 0
61.4775413149336 4.85477733888049 -4.22242683487971 0 0
-107.930366535826 -12.7833634457834 10.1864687474119 0 0
193.34859002294 -5.03044094793846 -9.05041167713659 0 0
123.83963957353 13.1968680878708 3.94869228997619 0 0
-201.461863630864 18.3745912310744 -4.11718935249039 0 0
48.6603483874656 -4.80681882082165 18.5470500398444 0 0
-163.393879647164 -26.255110160748 -16.5302740799701 0 0
-172.53965717539 -32.3329494623634 -10.2616365330073 0 0
178.571204361787 28.2138284890713 -21.3663899666108 0 0
198.938515775181 -10.2547905136559 -14.6549886801411 0 0
183.608221060836 38.512427146749 -21.2975221024791 0 0
-113.903085306153 -1.39207420598231 9.62844325477719 0 0
-172.712924313005 26.8298809387049 14.3305550707356 0 0
74.2864560448482 -10.3454288256761 16.8726380860998 0 0
-170.780672336403 43.4145426779589 -1.04315544715476 0 0
-187.031844737056 48.3140159085985 9.05407187773825 0 0
208.723894123145 30.212559746789 -8.68311404576836 0 0
-63.1861305252451 -2.59382458514973 -8.58934662438834 0 0
-179.864645681942 -26.8611481871246 -16.5607768609126 0 0
151.244547185531 17.7499076720914 7.10701887078632 0 0
82.6782197910353 -12.2533878630028 15.8183510712766 0 0
-72.1864393410192 -5.63410249575734 -9.91708916862551 0 0
-162.355100364495 21.6653935527512 -0.447153170774559 0 0
-10.7088374817655 -15.1849933855055 11.9979752275493 0 0
-82.0772717050087 -13.5248744988042 -10.1323624377005 0 0
180.465427166058 -29.8909300537196 -22.412769074895 0 0
200.560459104868 -11.4704541666351 -5.16478333767497 0 0
13.7899231303863 11.3439961813013 13.7650554636288 0 0
193.146381855941 -1.8989130678135 14.5107252008167 0 0
23.3083798406471 -9.69418854724457 17.1970526970738 0 0
189.401887934107 14.1024849773681 19.5536236064727 0 0
174.103449324406 -18.9975205421518 24.0518643323587 0 0
-172.507740827111 23.0164560064772 13.6276267246759 0 0
165.943122000631 -24.9889064280952 5.64784008313785 0 0
-137.073376570625 10.057640559406 -3.72115105841433 0 0
88.1262524213122 -12.5749561178611 0.176342749946567 0 0
181.956987445649 11.9037550019056 21.2627796540851 0 0
-202.013170488089 19.6678153446074 -5.08375904782809 0 0
-83.2669464339529 5.18337185939147 11.448318360822 0 0
-200.457726628231 36.1194113045206 13.1457521041903 0 0
-163.559781819705 -3.76771052848152 14.8198741766917 0 0
-122.550935133469 2.78826092823116 -9.7444423579241 0 0
-184.285415067082 35.1609208905183 -18.5823488136129 0 0
-17.5451940350736 -1.77306149866802 -6.20845528805531 0 0
-114.883178334507 -13.8993224279965 9.14849135228436 0 0
-147.319894121811 -7.63654336462472 7.57883663707207 0 0
-146.106533467944 -6.8542493134956 -22.4740290112504 0 0
-177.3528958617 -4.13450039349795 12.1719480731667 0 0
164.371560988345 5.00172630245438 -8.22320873841447 0 0
200.140241121064 -28.0022251111258 -6.83349967286617 0 0
-41.7963665303574 -4.55946197380711 -7.40689675447493 0 0
-61.7170907247544 -17.297299482776 9.04607797007425 0 0
-190.568895282268 34.3347229004162 -18.0725116670978 0 0
-107.663404138773 -20.4449484774473 -7.41624749216098 0 0
125.153119276239 -12.1800983391007 17.2850873492698 0 0
-171.514066434224 37.9711427663231 -10.8399762304256 0 0
-152.162472003675 -28.8295934235437 -0.0090344121326866 0 0
125.989824931694 -16.6685519755129 6.11036822923792 0 0
-53.4893657300458 -15.2079746286952 12.4446530364268 0 0
-0.191246615455006 1.99459076339408 18.5313140752298 0 0
-48.8628808106118 -8.25426338286849 -4.85662837076794 0 0
198.99081188409 -27.9825746786675 3.64648681138104 0 0
-187.377623356803 21.2427618216538 -17.278507648593 0 0
63.8807366197777 -13.3888528405832 4.42348402011504 0 0
190.292705359734 26.78793075058 9.28210143423083 0 0
38.3773480008665 -9.28900550396645 17.3639287171139 0 0
-202.089625391543 32.0526500715619 -10.4245107017272 0 0
180.450923610938 8.53736713660144 -14.4051974831316 0 0
-184.390621615609 -9.68045651562296 4.48345584496182 0 0
-183.146598153008 -22.213973801736 -20.6599229990488 0 0
179.578303096527 15.4935158177169 -16.6760981342351 0 0
164.6367748037 -18.6542391023457 -14.8145081413333 0 0
201.026536451044 14.1105681739817 15.8515244966991 0 0
-44.1853298977779 -2.00397398955485 -8.03133866449901 0 0
-106.807925377809 7.33596791993427 -2.65832177737973 0 0
-181.046620640281 -13.7396498100624 13.5560211983221 0 0
170.556802570114 -23.3149375010708 -18.919616440628 0 0
167.049149766488 -25.5784751430024 1.46883046015599 0 0
-180.044062201096 2.70170212237714 -7.42834495442117 0 0
-182.819647480358 -13.450556756456 12.7509044486773 0 0
111.917111410502 13.9334364298417 8.1781954607509 0 0
-173.468153213034 18.0944795529005 13.782819734224 0 0
-160.933345535991 -7.18974897596466 -20.2021511761114 0 0
-156.291307953933 -32.1723074489385 -3.66027607822716 0 0
-29.0156486566572 -12.4445161629016 15.8042736133641 0 0
163.116062478045 -20.3620013381225 16.7684027652342 0 0
-150.336898042585 -28.0383096604422 -5.87594822605568 0 0
168.829159297274 -17.9170952733847 -18.0937739254217 0 0
-173.026054853665 -17.7005245709297 -21.4089003134956 0 0
-174.368844007131 19.6275552716845 14.5882850153091 0 0
26.6225940217266 -10.1390696961191 1.22135728792992 0 0
-147.713679732832 -13.861697888796 8.31445675357944 0 0
98.260549490685 -13.1558772901273 15.172940955899 0 0
-181.58659717428 24.8962767971955 -18.1275119970234 0 0
195.022594046387 18.0622487095053 -26.6188067136006 0 0
-168.045151581452 -14.2449466122411 -22.4416039944517 0 0
130.726874712664 -0.169352755453908 17.8632664906688 0 0
-184.231654218503 12.1689437878855 12.6135048693861 0 0
128.010984982785 -14.7822284759191 14.9525364141675 0 0
-117.121413357855 6.63055474692989 10.6945269569973 0 0
-84.6796508228173 3.37307227108173 12.1221373678116 0 0
-150.882859696593 -20.3523021279233 -16.5297378506217 0 0
-159.89701215462 0.895530053217366 8.93548799304029 0 0
-171.45872302668 -17.1382956745059 12.968782434169 0 0
-180.695408094886 12.149325778002 12.5716712503176 0 0
138.271283174331 -15.4406655373532 -5.8460197052723 0 0
190.172915975415 24.6201130859296 11.1905868942324 0 0
-105.724688881422 -20.6137012990655 1.95303994330465 0 0
148.015271669181 4.61001301350173 -4.99337579484547 0 0
-130.684679356531 10.8331096639285 6.17073715134629 0 0
-85.0374548498725 -13.7351747504193 -10.360094944653 0 0
-174.981604600928 -33.1137662459921 -7.55198158357365 0 0
182.56497186518 -29.4891437305262 -22.9651895308438 0 0
53.9035001952476 -9.32494545311818 -0.670254613300302 0 0
208.255411899013 30.091624896751 -4.2446183475227 0 0
-45.6619487971271 11.1456115443403 10.0100303657515 0 0
114.330058390612 12.9560904321155 4.54353415250571 0 0
-105.604902757053 -12.5339730727382 -13.8488400313847 0 0
-140.922185449055 5.31198747631279 9.59737971285444 0 0
159.585570554499 -20.2744089672843 -6.28720665100423 0 0
92.7875155632317 -15.6342225680679 10.9723019394045 0 0
-184.481053992122 32.9473534794317 20.367038144204 0 0
58.7723790322056 1.40727404709822 18.1955123171795 0 0
189.053717916784 -31.5271400888701 -7.69530802224472 0 0
-91.5496377733999 -9.16985612652054 -13.8587883168878 0 0
189.237164641064 -19.5027355580799 19.8009572537618 0 0
175.055226095707 26.7148634027261 7.85560511148733 0 0
-122.994199654279 8.61054145942159 -3.62422179151752 0 0
164.098441516029 17.187021603592 12.847609234378 0 0
-162.685104516735 -25.2565850235838 11.1938788091333 0 0
58.2535631646115 -7.1593533249587 -3.25111803940236 0 0
-169.751313445857 -31.6159414446891 8.42664180496 0 0
197.853419475544 -14.3717790911701 9.04729200700407 0 0
-169.574569561659 -30.7004297680932 -9.7931245151808 0 0
151.352387915606 -17.9320539511788 13.7222130635705 0 0
155.157868881727 -19.0467860168796 -4.9598578968828 0 0
-182.134023979517 -3.2586890283496 -3.19719924687284 0 0
190.656623952061 2.80724874395271 20.108294819102 0 0
160.371995068965 16.4991791898306 -4.78000811391839 0 0
186.004359957138 39.1019688280145 -22.2027998752032 0 0
-152.852221326839 -25.0790345341977 8.3051630993257 0 0
-183.146534270318 -24.5020455351133 7.89360686218349 0 0
62.4105918847371 0.158113641456952 18.2885072483449 0 0
-169.093729665337 28.6972451436108 7.39382937625202 0 0
29.3131708440214 -9.05374199816789 0.199788918043002 0 0
32.9168881402609 11.7258599054789 13.4089175516055 0 0
54.539782083606 -4.78106848513614 18.5511707894417 0 0
-82.805292964247 -9.36820218040414 -11.5761321707671 0 0
-174.216611182304 5.36619204076828 -10.0510091153822 0 0
208.020718911812 29.983245217989 -12.736599998912 0 0
-141.600600610049 -24.5412702948789 -1.49247384667006 0 0
-102.472861360068 -21.1568026737502 -3.67790854538354 0 0
-153.285787588655 -30.0838797897733 -5.84759386703655 0 0
151.749434310528 5.46785787668667 16.4665145540258 0 0
58.3814802570841 6.82695003640666 -0.45229057185121 0 0
-196.739198235772 47.2961763407671 0.871391979661901 0 0
-39.3560577520246 -2.87908492599902 -7.86214557071943 0 0
-183.008920590179 -26.8867982762537 -13.2304999158693 0 0
-196.996007239332 43.5427241640759 -9.16262589419229 0 0
100.866191052929 13.5680992856345 9.75075357037614 0 0
21.8143394322414 -6.91653711488803 18.2345551726133 0 0
-176.647405272068 22.9283637604852 -11.6659302905882 0 0
94.978856830873 12.2482558019817 13.0812213766699 0 0
-74.1813577898371 -6.45848596609563 15.2941860786054 0 0
-172.491541757059 12.1384215024879 -10.5788684088713 0 0
-163.698730998462 -30.8989187185881 -10.7007753736625 0 0
-196.11722216807 17.2981766863612 -11.1065964688554 0 0
198.383146077728 8.84214889544534 -8.55962458440229 0 0
-189.351665410285 -25.4150452113889 -2.4830380025723 0 0
-162.934254580311 -23.2148843468463 11.7544851382105 0 0
107.608321810805 -0.11414299431842 -5.44190506309525 0 0
-155.584587069079 -6.80717752084532 -20.3678247910666 0 0
-153.100312791673 15.2323198989014 2.63692315890305 0 0
136.329039485878 -7.96442482069477 -7.68845620502364 0 0
-10.2123393786024 11.2552289108756 5.19165625081554 0 0
131.241139755124 -16.0781644768787 13.092447040652 0 0
3.15859918971968 -8.07405904313855 18.1771072354999 0 0
-181.515684447916 49.8948922645253 -0.625013152253848 0 0
-196.778158625008 20.4460402315974 -12.8688954894401 0 0
-55.6966729708741 9.87410924086592 11.62868761471 0 0
-130.683183148835 -21.9205438033683 -11.0722146577456 0 0
172.531773038508 -15.1992288029378 21.2524625079022 0 0
152.934232798775 7.10502102374434 -5.15237098806581 0 0
30.9059740228669 6.84867998753509 16.8417129590371 0 0
-173.771295128457 -13.4551951511913 -20.6048728628305 0 0
-7.06427601718757 -0.0446885962884197 18.7681419002226 0 0
-139.589005391511 9.55589301800358 -14.5552050806266 0 0
159.423700468431 -18.028074593501 -10.635049471712 0 0
107.002465028134 13.8086545631651 9.11731812450387 0 0
-101.481142009862 -20.7228969848644 1.95328002181654 0 0
205.663943205253 16.0981214282238 -17.7362091751343 0 0
64.898640434723 -15.4451175761419 9.55551539525451 0 0
-76.1935037172076 -11.8060386902732 13.9162488274749 0 0
-173.242704827833 42.2667428960248 -9.64654262629511 0 0
20.2891282651002 6.68104113106624 -0.975507166602696 0 0
188.149281865252 25.4920852969966 -28.5815145362085 0 0
171.414656939899 10.6185576192551 -10.3601339286883 0 0
198.525971367922 27.2910668498601 -27.0270869526698 0 0
173.837548130191 -12.9067112632722 -29.3204093748781 0 0
-174.621910492836 -30.9064381805373 2.31348138925842 0 0
-12.4983246465965 3.54550037616482 -4.8597421054962 0 0
172.922979999336 -21.5771258666729 23.0571691465277 0 0
-121.282043882432 -22.0169552561236 -1.78594615192879 0 0
208.737342213248 17.8431609646695 -13.0689580986633 0 0
-87.9562695392308 -12.6231373289932 -12.1903130397339 0 0
52.7261381692485 6.61554706617344 16.6462901279808 0 0
-159.264075849959 -10.4663419575084 -22.8811170548039 0 0
-187.506911854496 -22.4726519973993 -10.5073021938874 0 0
-99.5351018957339 -3.50220769886549 12.108510675074 0 0
96.7570698635964 -15.2325274049855 7.18831034406131 0 0
-153.976186062958 -4.07483764856953 9.55741846310246 0 0
-61.2459052699156 4.29701861600148 14.6245384164511 0 0
16.7418982517841 2.98883193620815 18.2606773727734 0 0
161.52253192885 -22.2166288061279 1.8094145162993 0 0
40.6631043523828 -8.06584437121659 -1.13197002072035 0 0
-184.504248583143 -13.0269013420821 -3.62414288523609 0 0
-22.4518759884207 -5.21867200248737 -4.24994527028876 0 0
21.8668533991964 -11.693763853959 15.9119428719433 0 0
-132.323238769488 -20.795658968949 -13.9169012285971 0 0
-162.315473035331 -18.0413514668135 10.6092382051173 0 0
193.989174066784 -7.93685340967892 -24.5348700928513 0 0
19.2139968816905 6.65067592950688 16.9289150137828 0 0
-52.781821879199 8.97321904704089 12.8194139560742 0 0
-42.7293857129656 -13.7443737489969 0.804559990296059 0 0
158.438173404752 3.69790237963799 17.1039495169447 0 0
-189.131061520538 -14.4382977773385 -9.63117147412535 0 0
-111.099593311205 -13.1735734635653 -14.3423197867972 0 0
-137.522890900665 7.58935660737535 -21.9390206436488 0 0
-144.858335749146 12.125793137772 -2.09466514075033 0 0
-175.528874833123 10.750960876182 12.8927337718188 0 0
-128.190113615027 0.0588369411878755 -15.7828976357957 0 0
6.94972751274257 -11.1305457523746 16.6057130789819 0 0
-117.831943850157 -19.3828891622949 3.45732942601912 0 0
115.905066067782 -2.11299746477605 -5.91054144636013 0 0
38.2047376085182 11.4175727019818 13.7419898137728 0 0
5.89000495087581 -8.43674254448247 18.0383668788304 0 0
-194.683889052691 32.2597382443775 -16.8245641521168 0 0
198.606923232745 -6.56389242145986 1.73386074567785 0 0
16.1994820939316 -6.18006231699416 -1.99647534929656 0 0
-115.981765568823 -20.5153026289297 -10.2964905638158 0 0
-105.418280453809 -1.88373758059221 -10.2692803730127 0 0
9.52806304646007 -10.5431983750549 16.9392612988192 0 0
-155.365659445631 -7.04655580229926 9.92511452747351 0 0
-76.5754634603964 -1.11861777392774 -8.21444553065381 0 0
-166.098759910948 3.27708693662512 9.33430746573444 0 0
126.078155543577 -15.7351488461396 13.0088636494784 0 0
