"x" "y" "z" "f" "a"
-41.924065097904 -7.68033976933387 18.2827805049731 0 0
121.403560114856 -19.6141469593167 0.0542147555898243 0 0
-20.6762093287093 -9.93322081062598 -5.74097400795266 0 0
12.8340717616647 -20.2969979146589 5.97639142641889 0 0
-202.023717647048 -21.8579929007179 -11.8764411758225 0 0
-193.79946427624 1.82941175207541 -6.62884421001629 0 0
-17.1409465431303 -17.4028574387706 0.0885197152673205 0 0
-161.422929168709 14.2683728096263 -19.5745531101448 0 0
65.347702234925 -5.97776476693229 -4.0366850216235 0 0
77.2425976777672 5.47663996138153 18.5394225058014 0 0
126.961254378138 14.3601211934089 14.3901055581891 0 0
-197.559554504274 -3.57636449038004 2.96090602134511 0 0
-208.571318720946 50.1861014305339 -2.81209614647154 0 0
-158.711997314306 4.36504751379181 10.0985220241571 0 0
127.202740361774 -19.1431827655471 -2.50486244698751 0 0
75.72309382996 9.50307219666505 14.6290207927688 0 0
41.2404250719238 4.8982944252344 17.7613399552595 0 0
-22.3492737535337 3.98399575988267 12.9977666031065 0 0
-99.6319362276174 -0.506135685022921 10.089981407883 0 0
-136.077606748455 -5.58678341898114 7.13938419999638 0 0
-198.000186808334 -7.66604655428356 -1.78986675725116 0 0
16.7092887558226 -3.55392628514767 20.0236506220011 0 0
215.822074261224 11.2499133904149 -10.6482535666564 0 0
-186.755556071204 -3.73772225666246 -18.7527365725081 0 0
-3.84983701578407 -4.61566562831705 -5.81701833087288 0 0
185.687723952021 31.4328240840751 -14.3354148071703 0 0
201.652384448022 -9.58021001465085 -29.1888377758227 0 0
145.269666124304 19.0592682855173 7.37729313310502 0 0
127.261477156254 -11.1639994947859 -6.30171851539627 0 0
79.3773011188037 5.37714882594677 18.7043331101086 0 0
212.100636728012 -11.8128079126838 -23.5857533679848 0 0
92.7190516314777 12.1000471962299 11.4408254896284 0 0
-190.68896967141 46.4148905074915 14.6136477177073 0 0
167.286837838496 24.5475990060228 -0.661939541534405 0 0
194.214997987351 15.4671013316543 -27.0348509063083 0 0
-55.4114570529136 0.168007264120183 -6.29882975134872 0 0
190.569457343702 34.7589421229109 5.71515069484123 0 0
-67.6552215676497 -11.5400388988627 16.1445868971007 0 0
-181.828883287145 -29.666487131052 -11.4026566907586 0 0
-214.745532146792 48.024330603765 4.74362549207396 0 0
-107.405956444519 -4.18233038481782 10.8081105418944 0 0
191.048514954816 2.19511309692912 -14.6583694999029 0 0
-170.287920504426 -0.098216017668163 -24.9973555979575 0 0
-71.0094158188601 -5.30839306183292 15.6993834068663 0 0
-200.805962948805 -13.8177569314723 16.4409218587836 0 0
-47.8625091384701 0.644281404624297 -5.09870238436702 0 0
163.06369074385 -9.1793299632809 -8.98991652258722 0 0
176.617510518672 -23.7090560009575 7.15604207895094 0 0
169.649240596227 -23.3736309512498 -6.0881380096182 0 0
-209.392601557026 14.7791143425352 0.522562929742346 0 0
-117.970021593734 -0.444596824080133 8.27187588791541 0 0
-174.360784473583 -2.11020442445093 -26.0736026742782 0 0
212.087802716673 15.6820029561941 -18.8766420348094 0 0
-207.849332042751 12.4258563376991 10.826894640558 0 0
210.52059868097 -10.2059725956707 -24.1320663745456 0 0
179.915141662265 -0.912682135851228 18.623814425714 0 0
159.285991875402 -19.5566440882986 -8.55718133500832 0 0
186.342092428243 38.0539833102445 -4.80602577837353 0 0
-144.4341838879 11.0359463796423 -22.4765093281563 0 0
166.07117806999 19.2948724939749 13.8688329002634 0 0
209.463738140615 -4.79800195219435 -9.98553233890703 0 0
199.98720440797 -37.0526431517162 -14.724581392926 0 0
-85.4816604919809 1.97315353930095 8.9436530482625 0 0
213.278564879311 19.3083260285575 17.8126995372007 0 0
-101.170525338563 5.12802466879127 3.4497340712005 0 0
215.712938429457 -21.4837384865377 -25.5333254585001 0 0
-45.2657804355511 -21.0009277394875 12.4386559195772 0 0
-92.9359327999358 -1.37441774002135 -9.83547222364668 0 0
91.8640750324155 -9.42406580015705 -4.72245704765398 0 0
-185.683225569858 5.41676637958334 11.1095665424506 0 0
11.4255496610935 -19.1741524778404 3.54121366005297 0 0
-213.622870933337 46.2222406281781 8.19972277939645 0 0
-177.467367771715 24.1904893464497 5.67954118545536 0 0
110.447883461371 5.41657055446741 -0.434589385726078 0 0
-145.45048224276 -20.0135850233849 -18.4489625134133 0 0
187.821015423965 36.3181801998531 1.0932074090443 0 0
54.1670297661015 -18.7481629041188 4.88509407571308 0 0
12.8706598456175 -4.708973305619 20.1133761726645 0 0
211.727743668549 -22.3829080783127 -30.8590197351664 0 0
-205.230172338883 -15.6192264935281 10.5778104399241 0 0
-61.323891589261 -8.92681082367366 -10.5424664898664 0 0
189.812570335311 -16.6714701069699 24.6290515909587 0 0
-126.670660435316 -22.7364732443145 -9.81508932659571 0 0
-131.170223503672 -2.83338451959896 -17.8631073745256 0 0
183.646818711169 -13.407722078871 -20.8820821359147 0 0
-194.242108312895 -6.19941046363768 -12.1734488010543 0 0
-166.231544572771 -31.9549362135689 -9.48038469561215 0 0
193.583405163558 12.0847745006648 21.93359012733 0 0
77.8725050386667 3.24511852300224 19.6025245825484 0 0
-198.598139457591 44.9940797976881 -11.7883557914522 0 0
203.38871992199 -5.11763609266304 -14.8343006321096 0 0
182.065429447517 -27.5714950663731 -14.8341264269115 0 0
-120.85539583341 4.58886604260693 -10.904861357721 0 0
183.686233216552 23.5308337677855 -18.1464017178807 0 0
-177.152450368757 -24.8444439436256 -18.5636986778499 0 0
58.0141832923805 -0.0117806955618189 20.1608959368341 0 0
-47.6281975738549 -15.701478261104 16.4432904914674 0 0
-131.344161361361 0.887917392345696 7.01153776417176 0 0
-170.011290468687 -23.7761237004429 7.56030144033026 0 0
177.867779550845 -21.7675836464875 -15.8863406832356 0 0
55.1004485443578 -6.20060498968118 -4.26318202946428 0 0
73.5555880613247 10.0749183123964 10.2892541587046 0 0
-101.203862882289 -6.61317354636631 -13.2589971590155 0 0
-198.404028648896 -7.12302797573768 2.06028705141022 0 0
68.4359923510743 -19.0021248653426 6.96101903033039 0 0
-66.067181070258 -21.6459424708645 9.70310697438593 0 0
10.6511313826803 0.621917772808876 -3.41928013926659 0 0
178.022685073118 -25.7134909913927 -10.4363356748926 0 0
-209.400899510449 15.1143119277392 14.2956785720537 0 0
-29.7688549771331 3.4623372053282 13.1260107809219 0 0
-37.6118032755453 3.63151824128318 10.2161536819666 0 0
-148.550340507029 -23.4793865744608 0.381793427192779 0 0
44.2909510456995 -9.12578512891612 -4.61827230020382 0 0
11.1910664598544 4.32132546235168 5.25878440374468 0 0
71.3601250730271 4.37701178863044 1.57877767329932 0 0
199.797028473536 -4.76154096014015 21.5232218289926 0 0
-194.334298821192 -2.57505670042188 -4.41785564223225 0 0
-102.179608096172 -12.7085040022906 11.5826394477985 0 0
47.5692970521795 6.23491233740035 16.9881641424123 0 0
-189.804297384687 49.2378677010427 3.15240155518033 0 0
-168.491991962146 -21.789411188079 5.7617817289157 0 0
-176.697798272417 -31.3903715644377 -9.86801246230099 0 0
-149.262804053122 -18.3347686159914 4.38007486625804 0 0
-184.562490515034 -11.3355872248455 14.3765939303009 0 0
-16.5571293386719 -17.2367011716987 17.0796471000305 0 0
-138.1253396478 10.9512958882658 -14.8281767296331 0 0
152.792197800373 13.682012374388 -2.13964135963972 0 0
-183.93376520025 32.8064708307909 -1.03661704660965 0 0
-190.799253060698 -27.709663051142 -0.633952948893241 0 0
21.6329861815798 -19.1160520330873 14.0576580343565 0 0
-190.780079907754 28.0347295568262 -11.3988854601754 0 0
128.049721778933 12.8150203366958 1.69553280124306 0 0
-184.523417687402 36.9186749859072 -1.55526749670098 0 0
-38.5802942077489 2.53190656052629 2.8167120015615 0 0
220.402306504577 33.4235855967802 -0.102934263275272 0 0
205.641280073582 -31.5290576468612 -17.8628525648244 0 0
-73.8567607855739 -13.1236756669399 15.2234921954391 0 0
-107.931967992252 -10.6901216230988 11.0506100386687 0 0
143.223749530675 -4.02629729857425 -5.17413925777264 0 0
3.45243704236369 -9.11616985291091 -5.3784882103898 0 0
143.874167777609 -8.09874942687771 -6.462979902485 0 0
32.8341299559601 -13.69598838453 -1.20807298914217 0 0
188.043720363729 -18.7669616059171 -29.7372818253499 0 0
136.707292379419 -19.1236480097055 9.54027446638033 0 0
220.021700662303 29.1754042455797 9.1373768095537 0 0
-61.6816682938286 -2.1727182365321 15.5788685849089 0 0
182.217040241687 -25.628669309015 7.87175974225346 0 0
-139.029055259776 -23.1514418995182 -10.745810725563 0 0
-178.375631749398 3.27961358135448 11.2486473554655 0 0
43.9699206325923 5.89971510934114 17.1266650508294 0 0
-179.651063088688 -22.9983534681577 14.8953030017906 0 0
-199.657664349303 -8.77510420785385 -12.9127136676975 0 0
-147.53005200002 16.5860199378078 -23.4483423497881 0 0
134.609870909907 4.93160004511794 -2.38500826692655 0 0
202.740223076658 6.49060898326097 21.999399170369 0 0
-163.237621134846 13.3415976162197 6.59696474549515 0 0
179.557151790582 -23.3406293935366 -16.3672895253117 0 0
-49.2349947722496 -0.162152205934155 -7.95432053205196 0 0
-204.512102105271 -16.1417661779604 12.8210527048149 0 0
200.952401167899 24.0303895208864 -31.8704581400748 0 0
-197.59866029721 -1.4685755055929 6.62943220660701 0 0
214.554378495679 37.282929306086 -10.8504704901082 0 0
-149.730258482539 -24.3086288237802 -10.7440402357144 0 0
30.7981988292507 -6.00548748984253 20.4686200453316 0 0
-111.203783220834 5.70905563476056 4.20613248066944 0 0
-82.7774339981528 3.69619452392771 4.97401902798995 0 0
-41.9058423954373 -17.6863275943187 15.653878932787 0 0
-196.117621936748 49.6532316881883 -5.50981812088979 0 0
124.144775521598 6.00684832366824 19.3177877227873 0 0
173.316673187049 -16.1108566060575 -14.9087372039696 0 0
-84.649089547279 -13.0597307651663 -13.1581577551981 0 0
-194.364818112483 0.459593792531754 11.5386975707606 0 0
197.767925864007 9.87614680795869 -14.3980579912171 0 0
188.282773453734 -0.184076982766336 -14.3167466748309 0 0
224.613436315001 22.8110951312768 -2.20646782918486 0 0
-179.747507871898 4.43076121167822 -13.2542992661343 0 0
198.868953161265 39.139664593916 -20.1352134745681 0 0
213.766199574324 -24.1182490781233 18.2754457384399 0 0
102.463480682001 -19.2548432711761 2.84873792515914 0 0
-194.487872143907 -27.2205305598124 4.6382321809463 0 0
196.161593803478 -9.11277961214003 -29.216166393673 0 0
215.295136363867 40.3754155351693 -15.8125025045003 0 0
220.479581082575 32.5428187313722 -22.3781345483109 0 0
-199.128775760095 -9.05970421428165 3.00097668845498 0 0
-68.8895931176341 -4.92006264550553 15.7968833663361 0 0
-185.265009502533 -8.53206173730812 16.6211686444112 0 0
-77.3806138026534 -23.3981616738478 2.75276275062781 0 0
92.8921666213007 2.41083896593593 20.2670346889814 0 0
208.178600392489 -8.62193510733566 -23.0142076920288 0 0
129.167782307054 -1.5993660849005 -3.78804422673594 0 0
-110.315649174485 3.15107847229766 -9.48489306116567 0 0
-165.243290523495 15.6692113976704 -9.97462578151072 0 0
-185.582095310079 -1.8119294004697 -13.0429348212825 0 0
186.56176185233 -30.5993440660376 -5.16184768294088 0 0
-214.512529637135 19.2754778583953 -4.23297420170773 0 0
195.50370594843 -29.3724134487548 8.6292608338459 0 0
-81.9349422359656 -16.1200846774509 -11.3806652145087 0 0
217.113838121745 6.50321694789514 8.41436241341568 0 0
-183.124643928258 31.2842529126183 9.85665841750125 0 0
40.1638352722135 -19.1303281380216 12.2087096369413 0 0
-104.710505582947 -23.0347014479286 0.74331958733984 0 0
-157.724251704329 0.679019354706971 -24.2815047699821 0 0
-199.250580011751 28.5717088003219 -16.1775914085255 0 0
48.6509015244797 -13.5404007015442 -1.46149571707886 0 0
30.9882666246424 -1.2621583752505 19.8694849111469 0 0
-174.087125580632 -22.6773218512715 9.45376448457872 0 0
-187.535874425716 -5.1163650912169 -13.3097743771076 0 0
-66.8004229009518 2.99940412276158 1.09531326893428 0 0
-176.306378744971 -25.6715178872322 11.481599362461 0 0
45.8695535867505 7.23255488294949 15.7243773640312 0 0
-150.840373968131 5.3752088562117 -24.2828424888552 0 0
115.804152899097 -19.6457605070278 6.04586839146511 0 0
82.5058655038267 -15.9645709938434 15.6642214807883 0 0
210.673850448313 -8.89614298921681 -16.7519136856151 0 0
58.7153474133835 -9.80866039218323 20.540212572023 0 0
117.727207327827 -0.302754044947524 -2.95697913237971 0 0
201.72612997481 31.4215189285181 10.1817869732837 0 0
23.0127499706321 1.78908161894925 18.7636768876115 0 0
200.09927316719 -25.1127978434041 22.6667276949149 0 0
198.197824732212 -34.804652665802 -6.1379115089439 0 0
-91.8738459967471 4.32679195450717 -1.00645580860693 0 0
221.061749166048 31.7418520837733 4.75285137798438 0 0
-110.401865549857 -22.8724294355769 0.483794815105351 0 0
204.693976932558 -32.8727127245821 -2.38504926698271 0 0
-175.290965572311 -8.09251113517708 10.4404752208943 0 0
198.681017064681 -37.2033545758248 -10.6653605326015 0 0
-158.754856460954 15.3843624219331 2.32126482506944 0 0
224.42310929324 29.84165123656 3.37592060087825 0 0
199.082595948476 -28.8172813711559 12.171729650704 0 0
-193.14260592954 20.1202600770488 -11.7131473477563 0 0
-143.304821691744 -7.19256135638401 -20.6256772292078 0 0
-203.778601624102 -12.8815428094421 -4.93717599811338 0 0
-167.927716970711 -5.38484653982831 7.19481142069241 0 0
-42.9033965290737 -13.3270061004756 -5.60390190659155 0 0
-212.48324927504 25.0211702196129 -11.8268006588656 0 0
150.053242603319 -0.687969688360443 19.8950861169971 0 0
51.6230251656477 -1.38814037655276 20.2916412781609 0 0
-63.7220500778711 1.58647580674181 11.5464946978802 0 0
-193.248931712913 -27.3331020832461 -9.09449461349022 0 0
-14.2184434818824 -0.510432450192047 -2.93929160279229 0 0
215.775203990245 -33.8112262112893 -17.7055579109868 0 0
63.5968141140591 -11.3701033429039 20.0128193044041 0 0
217.018405898579 30.9016434319049 4.5734349490747 0 0
-92.5467926140676 4.50822189556401 3.20611334137296 0 0
155.508681772484 6.97859134668333 -3.85815123107117 0 0
-110.866218081087 -1.2679747579461 -12.4759090288191 0 0
-171.088980487336 6.74984739509325 -16.2695332296202 0 0
168.927262304798 -11.5206885342543 19.8558282639911 0 0
-84.5359394867768 3.15050722370931 6.83265179500958 0 0
-33.1646493442328 3.3540782160196 12.6775713466113 0 0
224.04419895984 23.9633564022555 -13.697308020695 0 0
205.894774687206 4.84620976937578 -7.82964364440969 0 0
212.674897747144 40.8426581147174 -19.165577585144 0 0
217.231465741068 -13.8780025683949 8.03295906052437 0 0
-217.036902743872 21.484131551819 -5.05445982304092 0 0
-8.58259801521809 -7.17446879143578 -6.36019580626643 0 0
-183.44635556052 -4.94995982526403 16.9682607059181 0 0
-183.20719314898 36.6715958469801 2.05354023936326 0 0
-200.631842703341 -19.7603374202351 -19.1081615614805 0 0
-97.036336892333 4.86878278775583 3.19690418425875 0 0
-198.960990504719 -6.69978307203604 8.72967170474621 0 0
156.15657494829 -9.34000498267615 19.890677995345 0 0
-156.585512955591 13.3512431340565 -25.2246586893696 0 0
195.14878653095 -7.67339791358751 22.766839523271 0 0
-129.270329140336 -3.79730744362832 -17.5850584331921 0 0
-106.947660272269 3.17416077738308 -9.02628731282292 0 0
-128.578097460614 8.49483020211739 -3.46341461629436 0 0
-192.616665236305 -28.6062939442201 -7.52401930119882 0 0
126.973191352778 -16.0072006218383 -6.06716057451511 0 0
165.039367870665 14.9685745320253 -4.93831839489707 0 0
18.5533694631305 5.98706001711033 14.9113333477062 0 0
210.419097600174 -1.35697490359078 13.6922302078817 0 0
-202.912419200272 21.7558178620394 -13.5664536042611 0 0
-180.159114124644 2.34175975216426 -14.9507624477926 0 0
-196.890021430796 45.6086807181634 19.0212624871501 0 0
-118.999789136089 -19.5242580265537 5.83125597813964 0 0
-185.948368399392 44.8778537806435 -1.3225288336818 0 0
-163.633018649114 -10.2682914422442 6.04407451534258 0 0
-55.9891029531626 -3.85190339172203 -8.9080250117819 0 0
224.027162635883 19.5960403717186 -10.268545615263 0 0
218.224874342526 29.9416457435944 -26.6782566179961 0 0
-42.5482481211518 -22.1139311148494 10.7915250810357 0 0
-162.549388231609 -7.66138920433517 6.02136436292746 0 0
-182.165092465571 12.3688307292779 10.6621385248775 0 0
185.746641900117 -26.0378114295075 11.5334132500473 0 0
146.292244343248 9.03709566108299 18.5654655783117 0 0
-190.947946577192 39.5356654002628 20.5321515511625 0 0
-186.02591278459 36.2032375291133 -2.90341384811489 0 0
89.0203170299914 3.96622167296373 19.6461174538381 0 0
219.186971046592 28.717154818527 7.41309301429247 0 0
105.370122547268 11.0239616201135 3.67289669677243 0 0
-203.205713018359 -7.95646321008486 -18.6109172840268 0 0
-47.3225709598274 -4.01516236994514 -8.35692447645511 0 0
-203.664066089042 -20.0653239245442 1.20138067638879 0 0
-201.345716694637 -7.65578503555101 -16.8536689725626 0 0
-190.687821103439 16.9944125146893 -10.7193094195842 0 0
-12.4148740693117 2.51077450858629 16.4315744675824 0 0
-220.668671869638 26.8799275058871 9.8190466293836 0 0
-188.589576710404 -9.37170620636529 17.0844332329388 0 0
-193.125692075355 22.2159497332945 20.5209511969497 0 0
-52.6967879557552 -9.00153695545915 -10.002195729408 0 0
-201.237833472895 -25.2407154250937 -0.769119429417316 0 0
15.7354123220153 5.15186336374449 15.9965376137215 0 0
184.623430555695 32.861154475682 -12.1852268934753 0 0
210.135095216836 27.1415640924081 11.4089578730011 0 0
-163.140509243153 -27.2136323658877 1.15983234619036 0 0
173.544029402746 15.0248530077747 -8.8677486820362 0 0
-32.937542453963 -11.7920290155397 -5.37255012662972 0 0
-170.791089330244 -26.5556375774915 5.87273018713031 0 0
6.2430718522354 -0.489834030478251 -4.52896443264217 0 0
219.152697867409 -18.8775467325316 3.3422919828811 0 0
-29.9970974180031 -1.99629063691674 17.8847753944314 0 0
208.920106802183 22.623924891334 -31.7206653891293 0 0
-67.6522869548907 -21.0549208699282 -3.72864280349878 0 0
-190.41980460835 22.7078416365121 -10.96360562483 0 0
207.949531356884 -33.8328092677061 -27.1353067445464 0 0
-197.141022702668 52.9501560315053 2.69546293942685 0 0
-167.832946072551 8.55743927051343 9.46711357700951 0 0
-180.41126651756 -20.2371907684919 13.2552529683563 0 0
-156.910861618198 11.5082808252285 7.27590284394164 0 0
-178.167482039213 17.3592537036362 9.44900356305222 0 0
-185.732417760557 0.568429667527106 12.9364110056382 0 0
-192.827850373332 23.4764629077027 -12.3978001591784 0 0
-104.810728564953 3.81896175041223 -7.82861906095705 0 0
173.605889852528 -21.2651161776489 12.2556999917956 0 0
-189.287243970392 7.24985655557907 -10.1083144603357 0 0
-218.75701851852 19.9735962767415 4.37705253792808 0 0
-39.2119314828873 3.67269957425246 9.12919658806024 0 0
147.797792333742 3.83811695306728 19.5047914949209 0 0
173.260211474465 28.1337494952061 -1.55385849405579 0 0
148.808368191294 2.98527394146952 -4.04077706579765 0 0
-120.196352009944 -1.02511282796676 -15.1589016270913 0 0
-39.2417904686204 0.725105269227601 -2.34112160907295 0 0
100.498853965166 -5.45107213523361 21.2478746264751 0 0
-205.093597721208 21.9795383834682 22.0416305709812 0 0
17.5148213843712 5.21177564446154 6.85502626449544 0 0
-98.0184697275492 4.0916841185751 -3.8515751661252 0 0
-191.184107430745 48.5464094354834 11.5664975220586 0 0
-172.944758510793 -18.9306356604977 6.35285312511827 0 0
-202.353750057087 -6.67951378926313 -18.9876768130698 0 0
-23.0887983001295 -2.82119701904342 18.4871140731113 0 0
212.753397402317 -30.4857546691135 -3.13889020265819 0 0
11.4203790103202 -9.76790977097251 20.0488295358395 0 0
-200.041093857714 10.2867452801232 -4.34472308652554 0 0
159.677454488455 20.9955005175761 0.411852752742689 0 0
205.845991642093 15.5005869073807 -28.7566686794618 0 0
22.6053492975449 -8.62238697274746 -5.68406725954081 0 0
-173.190374920433 -20.2327937873814 7.76890741896089 0 0
-207.151073370104 29.4666956053195 -15.4419049995386 0 0
-88.1492887389467 -9.76198081931957 14.0238993008057 0 0
-28.7674505183908 -22.5965342429273 6.72988952408786 0 0
-125.85072020948 -0.657493050103912 -16.9991807321746 0 0
175.853087349544 27.6110097894823 -5.86225349981947 0 0
-182.408978304356 -30.5339986777975 2.01290093245086 0 0
172.158761823788 24.7644222932358 -4.49890976741314 0 0
-221.050757302367 27.8056644262786 -1.3203303129844 0 0
178.909471784259 25.4996309791174 -13.6892074221651 0 0
-90.8165280362821 -17.105775878808 11.4837257949484 0 0
210.827451939409 -7.59344003849556 -16.0901783609943 0 0
184.41214667135 29.463777701646 -16.8581976686896 0 0
70.5497476900476 -5.82486028409637 -3.92101374995589 0 0
189.301035395445 33.6257065656938 6.67001384205469 0 0
75.104137929412 7.67318857872942 4.7079749216522 0 0
-111.847646663351 -9.96803894050712 -16.3657150907169 0 0
-175.167121313444 -2.74035429519381 11.7639439696977 0 0
67.2313821971357 5.10021024079003 18.3814678577345 0 0
151.917857630478 -15.5929215847272 -8.70029147529476 0 0
-52.3649900358097 -10.8956509849006 -8.95192929022294 0 0
167.74666861945 -22.5727361019675 -8.29618445445229 0 0
-188.468550278704 22.583918058464 16.3029076860358 0 0
-190.783041886049 -28.6339705453309 -2.56331508939398 0 0
-158.29298578056 -1.1844964703121 7.53139287165155 0 0
-184.427904306829 -27.5641788960403 10.4863304549875 0 0
161.542122056651 -14.6062431712091 -10.403079800136 0 0
76.5480853411125 -4.79417295213819 -3.58801570363249 0 0
-190.006688741802 10.4908488102272 -10.2996614478789 0 0
190.119312002349 19.1111668721929 -23.6441512746944 0 0
-40.1497785308697 0.891689606071428 15.4401530950016 0 0
-198.581704908858 13.8320740572928 -8.82352238981623 0 0
-51.3174058884342 1.86992895427395 12.9535332811052 0 0
-181.169669885875 29.0412898364225 0.705162654730791 0 0
-185.791217634267 0.065067555454882 -11.4920151832861 0 0
-129.508475848322 5.46972752417352 4.92094384129535 0 0
-35.6615967131705 -15.6855453290913 17.1481146289885 0 0
41.4830263988802 3.2162399327362 -1.39376950388191 0 0
203.525130815708 -32.1350460488168 -0.0636051323246533 0 0
143.354454051564 -16.871787343705 14.5232406268968 0 0
-184.2953498754 0.682227805196186 -12.638778512797 0 0
201.116746087763 -1.43534697636128 -11.7504576735886 0 0
205.662849131753 -27.5758971195555 15.4736796375465 0 0
12.7514169973808 -19.2267031787086 14.7300887806922 0 0
-162.446891019319 12.3891384454475 -17.5264852022941 0 0
98.795290776601 -14.8009857571011 -3.77116790979072 0 0
-156.890604264035 7.26374062999626 9.49455542768584 0 0
-139.197809500554 -15.4479989401317 -20.9380320172786 0 0
200.691861695841 -27.8936934362507 14.8560667426594 0 0
175.034766098248 29.4661831900293 -1.825550785435 0 0
-163.882212267167 16.2830090744753 2.90076915118288 0 0
213.519878736044 -18.0591973721653 -27.7407432137051 0 0
-218.038906347611 38.5485444914301 13.4462669583182 0 0
-181.724908956253 -3.50030818506088 -26.0814087812693 0 0
37.0885565297774 -10.0914976301652 20.3146692067489 0 0
-38.565646239223 3.57169665035967 7.57635996029503 0 0
-218.133591967983 35.853795210663 14.6213268017089 0 0
-193.350263337621 -6.55777620040285 11.3666701893489 0 0
-61.5554158355197 -10.581664869388 -10.6657531059057 0 0
144.923595435387 16.5915903731714 13.7951207486666 0 0
84.3462142473388 -15.9700853647136 -1.56068797798125 0 0
-202.50428211967 50.8971261618607 1.26462758791063 0 0
217.732824162778 -31.8793795641447 -11.9885543375867 0 0
215.078924134073 10.7939445883686 17.0919419617295 0 0
112.5078658496 -14.3451419450314 -5.26442113998046 0 0
-215.580742657583 33.4914731887256 -10.6271179517191 0 0
-16.3165066333362 0.912464618502914 17.1651759499804 0 0
-199.513311351853 -22.2620156840624 5.96104263535593 0 0
-99.66641433971 -16.4190290593522 -13.9152323584098 0 0
48.8630463630837 5.33975426014723 3.97995962012183 0 0
-185.023658986387 -32.3112390086272 -3.92260453072796 0 0
-50.6260386402778 -5.84638355964221 -9.17715408125417 0 0
102.287687383596 7.51439008147081 1.42107385445394 0 0
201.614749086663 40.6981780863326 -24.7144266897588 0 0
109.29328831579 -19.3905826694439 6.91117208382264 0 0
181.506897099577 -22.5670678229467 15.1967562129126 0 0
96.1556152485653 -4.72736497478356 -3.58417415456292 0 0
153.703276650071 -20.2788991368675 7.65947733615125 0 0
189.532135968769 -6.99739702196496 -22.0153339427872 0 0
199.443623107338 40.2678467828783 -25.4334468860575 0 0
177.868858898818 -0.0842169661012795 18.8631864691618 0 0
-197.576126744307 52.9897180509877 5.15525689757458 0 0
115.38136807557 9.3759770870373 1.1628092845537 0 0
-65.3193979456953 -6.15986918299991 16.3621871774829 0 0
-146.399764881655 2.94474490325818 -22.0718705480099 0 0
207.628290245681 14.1224744723861 -27.2716249606323 0 0
-129.645520021881 -1.2260227391143 -17.4395356121857 0 0
191.971884237349 -16.7757327018741 25.8223897302122 0 0
188.823448325663 -7.86798422616785 -23.4214673528039 0 0
-114.154211250269 -10.2790350563213 10.1723541174938 0 0
-46.1150697884091 -12.6809359412087 17.653299964491 0 0
95.46772190789 9.81603030763905 16.2310516479026 0 0
-87.1215264325433 -23.4766423280187 1.2025802213629 0 0
187.536410805575 -21.8965135125516 -29.4184542900387 0 0
204.994339592761 39.4321902788895 -14.0122731262728 0 0
176.151140241218 30.8379341533665 -3.28033878146625 0 0
-147.765674834289 20.478458287621 -17.5792551277173 0 0
-196.673438657343 7.20258743281812 -6.70868120428066 0 0
153.126993420315 -20.827647224794 -4.00992676790184 0 0
79.4507665782562 8.88023454976678 15.9952063575224 0 0
-205.178232548963 -22.3221524641688 -6.3742674167312 0 0
131.071133299124 14.7299523236283 2.89683878420323 0 0
-221.333347059257 26.6489212381862 6.68343350943251 0 0
-202.30135078494 -22.5148450643058 -3.06097355045339 0 0
175.658808849133 13.7779695469224 -9.21589348497249 0 0
160.481136062537 -21.722864225519 0.264259435483946 0 0
35.1007314961804 -6.4307290301244 -4.86102295176812 0 0
212.8775545134 18.2951343324875 21.6593682556302 0 0
188.871716367247 40.763978097522 -12.7969712387075 0 0
165.31254496421 -21.2892156579439 7.21593742397337 0 0
-153.827411341 -8.70254373858354 5.46870154111986 0 0
-146.356539822878 19.6402981854175 -15.8829596153698 0 0
-110.974350138733 6.34573153490095 2.4064926904451 0 0
-146.77243703678 -23.3330444518754 -12.096471483972 0 0
199.806605260757 -6.90149885352495 -22.3845520289873 0 0
-182.026892591931 30.893415744582 1.85312973655408 0 0
184.023065105911 23.2161893517704 15.4299057634607 0 0
-178.384616809681 6.48070572984992 9.43264184323552 0 0
203.795754539295 -6.95771754539611 -19.07793226302 0 0
8.6223664910101 1.56989447197518 0.161013595518347 0 0
-197.744629285804 -5.82535124530444 6.73935814526997 0 0
-184.189313268636 39.0041981104646 13.3180400230875 0 0
113.876715840074 8.8739390440466 18.2260837199822 0 0
-188.409187127587 -25.2458013115918 -16.1686303585747 0 0
-207.803828558387 48.6170515706014 12.5647633482596 0 0
-44.1215833104233 -0.273600891384998 15.9567419210348 0 0
176.466103923848 -2.26375660835382 18.8470784638906 0 0
54.9376614615832 1.40881885710125 -2.62072295862668 0 0
218.698203939182 38.1278079859147 -21.6449669733286 0 0
141.485621326202 -13.9613388299231 -7.52896285101495 0 0
-96.4666599190432 -13.8799273882602 -15.3360585338359 0 0
218.930172248589 12.7538084138381 -9.94130197905907 0 0
-187.413757596205 9.39629073038716 -10.2746765108678 0 0
85.1957878382455 -18.0303832120311 11.5767806160057 0 0
-197.990424721591 -19.6991519197851 -20.5205788474592 0 0
-205.213268431048 -16.5452257465013 -15.1907589061033 0 0
188.457703549854 -3.68352866308669 -17.1343640996439 0 0
189.92457646542 33.1596468409485 -18.2797881466846 0 0
183.360985906262 -10.2323610724953 -16.6451028318562 0 0
87.3683671002555 -15.4400458951761 -2.29542987591005 0 0
-198.41808677239 10.036095839922 13.3447906193077 0 0
-119.048369192142 -23.3382587378367 -2.08593624316614 0 0
118.420264236101 8.97996498997646 0.659147450466339 0 0
-99.8460153064378 -22.6264046398674 -7.51253015947913 0 0
56.2336452507565 6.60145689572447 5.392268756065 0 0
92.6111065953749 -19.1931469101908 4.5026286174231 0 0
199.624574232021 12.8333242049214 -16.0134087524864 0 0
-73.8193733796047 -13.8164559072414 -11.3353790878395 0 0
153.586004728709 0.303804128161927 19.7008260412164 0 0
183.580640942497 -7.48150134876876 -14.7847360676639 0 0
-115.124422130167 -15.3680937151026 8.95313260976262 0 0
17.3798170851982 -6.25214186064652 -5.52288413829885 0 0
-10.1975201601056 -18.3069662531282 16.3600177411938 0 0
-161.417338658281 -15.1899698589007 -22.0624471256547 0 0
223.309256895083 29.1568163487221 8.83359837793579 0 0
103.178808480738 -19.3914137467922 5.6196455968494 0 0
-182.016478057283 5.17649204844444 9.70984117184451 0 0
179.367657829187 -3.54734101724416 -10.9872410834159 0 0
-69.5054764639917 -22.8120999208537 -0.409230594668468 0 0
-191.880089492354 41.7446159891208 19.8573365043338 0 0
13.6981037454577 3.38375698405321 3.15496349387788 0 0
144.940094118117 -15.6797416821883 16.1564428462821 0 0
-200.586974377836 -11.6013578712108 13.8265222952697 0 0
57.4200767791682 7.59234436586247 15.9447874722732 0 0
-34.6082563808867 -5.91524063102915 18.48819698489 0 0
-189.653935573814 -29.2052925508222 -0.364799265460607 0 0
221.79003238754 38.0014992738518 -13.7806923720335 0 0
212.911728888457 -1.53742146119229 -5.47578398209823 0 0
-197.18627732038 47.2712417677734 17.3710990504889 0 0
-183.914483724103 3.24199255367607 -12.39145162465 0 0
46.38875907456 0.153359642442116 -3.29032581628581 0 0
58.170257038616 -2.38792404016501 -3.3708356560899 0 0
-188.047307046354 47.6818078646008 6.81092300802911 0 0
123.988461707284 5.50087768623479 -1.43275983024494 0 0
188.335879413795 39.3939408517042 -5.72792679021685 0 0
-5.27126887646479 3.45898180008878 4.44924847532699 0 0
65.8740894806504 -11.1167710726365 20.0683873161724 0 0
174.166723210931 11.1447530505939 18.844756163993 0 0
205.042332561612 39.8925971515364 -27.7888154946567 0 0
218.046036738292 6.62811687804951 5.77475779878819 0 0
56.2844173187705 -15.2084553417679 17.3086200842544 0 0
-88.1830208994996 -14.7736521012183 -13.3147708452512 0 0
177.263319847134 -17.4214007704338 19.6938179736899 0 0
-45.8079043193114 1.17339927150373 -2.09584041799232 0 0
107.828996984838 -13.1252339816273 -5.20682931524327 0 0
-188.481530293215 39.4267260600278 18.5767037822177 0 0
192.870205423665 37.13754021996 2.30980938841233 0 0
21.9276935081495 1.95979319207223 -0.175243789736447 0 0
-53.3879603845316 -0.553152578399119 -7.90967351205447 0 0
-87.8458171501611 -17.1584821570279 11.8640254739818 0 0
218.978169976152 -16.4689351191272 0.39028708346609 0 0
-133.93565931307 -14.4732205919327 6.52896661783409 0 0
219.939465088675 -23.9811079861065 -12.0686478713565 0 0
-185.925274274964 -4.9886478601324 -24.5810609178746 0 0
-135.916779474444 8.51282049183843 0.74439105156026 0 0
197.507068703308 38.5809974637348 0.699206427342226 0 0
-135.383432781794 -0.765053114120066 7.08045685330592 0 0
203.148416004585 -24.868626128915 23.8141276416993 0 0
-180.963954765954 4.78864416665549 -12.836284539067 0 0
-136.377078254676 7.99589108803366 2.94161107154547 0 0
110.013380684138 -12.5903767755084 18.5960774633395 0 0
-172.438555961515 3.58798092450551 9.38143632115095 0 0
-123.04153308699 5.65807232217762 4.53170882379972 0 0
96.3135004435921 11.3646799389367 14.365868837102 0 0
-140.856016325674 13.3892184606456 -16.7805041034641 0 0
167.641756997594 13.0505988326572 -6.01470701013023 0 0
163.351242876722 22.8444648591785 0.633741250626447 0 0
-182.891633190342 40.8790198082081 7.65812308485189 0 0
-197.382739479898 36.2408771761971 23.9327870566451 0 0
134.680939605268 -6.96358549003596 -5.43731753876517 0 0
-199.604223343291 41.4402854116626 -14.1831539501103 0 0
-5.23250893296639 1.33602956887022 17.9475991570149 0 0
207.169945272904 28.0063716926372 -32.3190798417909 0 0
-96.2852991882144 -20.3979366885808 7.86567812239178 0 0
157.697515037429 15.1337478286794 16.2786875863334 0 0
-77.0840254930315 -17.7940560117318 -9.84017683805273 0 0
196.213561908014 13.4463533513475 -19.0835769923309 0 0
31.4454599538886 -8.87069664513805 -5.14387952316134 0 0
-11.0397496539286 4.69870480229371 12.4321974631193 0 0
203.0792891931 -9.2027539517386 -26.3900478590711 0 0
219.609697780278 16.2124172736266 13.1021272696602 0 0
208.457657512813 -33.8623247697983 -10.0058679545082 0 0
119.02994888706 -15.5070389441973 -5.3993288765057 0 0
180.7666077712 -13.1334848861934 21.6295125322486 0 0
53.1248497438212 8.20586431648579 9.373761678033 0 0
-99.5677214397563 -10.1134679013331 -15.2327479473762 0 0
-156.341230057124 -22.8588102807942 -15.441399926649 0 0
10.1653279549781 -3.47877811384798 19.9139239334747 0 0
219.55732364825 35.5092143688753 -7.90829871469863 0 0
-175.511784896161 -32.9419170155792 -0.970732740918203 0 0
211.365307045753 22.5098447240706 15.6610961769415 0 0
193.342229974983 2.52967991904283 20.3933985846124 0 0
-157.511645102494 8.69389792886429 -25.0039234317019 0 0
-210.52836221322 34.9832408084254 21.8100413534547 0 0
201.355951346737 29.1459688525148 12.7454258532974 0 0
-168.13951855474 -13.9485049174182 -24.2294444063906 0 0
216.712099640825 39.5759069281728 -14.5447040456856 0 0
-196.019768603978 43.7775702916876 -11.9670415856421 0 0
185.093850065829 -27.9111836569456 2.33193550948684 0 0
208.046866921137 39.168459041384 -29.2444490213403 0 0
-30.9862451797816 -8.73048543891462 -7.89838085775569 0 0
163.177715289116 -22.12604999892 -4.68492956520932 0 0
-158.88352679234 2.29608147171846 9.39856243241804 0 0
-8.64119937743113 -21.6030787488965 6.15042084654402 0 0
-200.395298897264 -23.0693713962303 -4.47403442716015 0 0
-12.9715300954221 -1.20196207084904 -4.56723419382539 0 0
-215.573613168555 16.2291085771158 6.90422716770288 0 0
224.447876093895 27.7078052228697 2.48512510048811 0 0
-106.597184561657 -22.7795556375279 -8.23469124809462 0 0
-171.443836193814 5.33197688020204 -17.878363679823 0 0
78.4803800847402 5.92427608682119 2.4121656783755 0 0
180.693048367085 -3.59829982743213 18.802463009508 0 0
114.134077416456 13.9693747795133 13.0781323993051 0 0
185.147296701568 0.884427259395935 -12.3546550306163 0 0
-104.000168012213 4.35298405100318 -5.26331332965436 0 0
39.1064513908748 4.46405998585863 3.31940770841531 0 0
103.644257043672 -15.4308695070069 -3.9131416911615 0 0
-2.1107304919386 -2.05813511934828 19.2612015639644 0 0
-129.729851059495 -3.73799214719261 8.00270210122933 0 0
-29.4675674436343 0.174355032457455 16.8985664342897 0 0
208.994854871309 38.1569447287341 -8.5176292545363 0 0
101.543994638485 -14.0234288554089 17.4576502026589 0 0
188.776311064909 -29.8792318737149 1.23119578776543 0 0
-14.0859714738182 -11.7833065355316 -3.7075362025965 0 0
196.887107486495 -28.4421631689924 12.9786988070668 0 0
-190.260070161711 -28.6132625200808 7.86787290843809 0 0
-188.984776659205 26.7171108371241 -9.7999865455325 0 0
-110.669278841657 0.20974092578078 8.48426737262567 0 0
43.6143141805079 2.66892201209464 -2.11536128786783 0 0
-161.393057901968 14.1603624842312 5.27929688857997 0 0
-31.7066446114335 -22.6867191994056 6.91592130273892 0 0
75.7795706788701 6.41962291703543 17.9013012571651 0 0
6.03657071035194 -14.1344143575927 18.9364949171486 0 0
124.145298561921 3.7799987480286 19.7247500249071 0 0
219.763320240564 -25.4674868059086 -14.2658597840493 0 0
-101.437268360433 -8.71404277800577 -14.670583963591 0 0
85.5109568785878 10.2140364377462 14.6754174854061 0 0
-184.436506315948 -1.1922444186225 -12.4368865436521 0 0
116.904932516782 11.948581352442 16.0322943630092 0 0
154.112864996677 -14.6803284788899 17.5431115183508 0 0
-170.133860737238 -7.43634805240811 -26.5855215272554 0 0
-111.318054145286 -16.9249066765108 -15.5577573249357 0 0
157.050543142069 21.2662759522813 7.4090852060293 0 0
-3.23741257656897 -0.709903309285454 -4.88113346646194 0 0
-125.828945658988 -14.1972426436559 -19.1773963543964 0 0
-161.725447226432 -4.87395094607807 6.28957897005533 0 0
-125.250702631094 7.84098600339963 1.66947750482981 0 0
51.8051403652551 -8.63679093459677 -5.1259851987585 0 0
217.460496557311 -32.8426891022876 -13.1110859231849 0 0
-129.698985521299 -10.0314343434631 7.80135409307718 0 0
200.273600416231 -8.67943610511034 -28.2468190412838 0 0
-80.4891681943393 -11.0263936477661 14.9187337894438 0 0
-82.9838181643403 -17.8513311595161 11.9899409082279 0 0
-144.003399256297 -21.204344842199 2.47151154315447 0 0
-197.792057705947 2.46654960477932 -2.47205205015272 0 0
28.2155438050878 -14.8903525086892 18.4470878047602 0 0
212.345069017441 40.929177159377 -21.2723100527956 0 0
-158.08015744297 11.2962756956004 -24.5454858187213 0 0
-177.548720759588 -8.34918836806535 11.2105259350192 0 0
-201.904766554402 19.6421978667172 -9.63386820096769 0 0
-132.281256511812 -21.2856364274921 -13.2505616881293 0 0
78.6134936742338 -4.40165116735116 -3.50776171598567 0 0
206.023623806773 40.885067509451 -26.0836225603486 0 0
-191.364891415121 -27.6018011589498 4.77316360736606 0 0
34.5338807399908 -15.0018480883673 18.2609737868541 0 0
162.573249011404 14.7593047237721 -4.09763390314237 0 0
184.978732046129 -31.7373175132298 -13.3216065721505 0 0
80.6614213490484 9.98397780184932 14.4936021275043 0 0
-193.1748856007 37.4207266957447 -13.7648832146005 0 0
199.200355680443 30.317638779079 -31.3184082410511 0 0
-82.2707040956568 1.28507902894897 -5.96417713497248 0 0
-195.744633389113 21.2802397464008 20.7829975803754 0 0
189.554090194945 -6.40015762943472 20.4734370762466 0 0
177.792711700794 2.34210642026831 18.8627678105505 0 0
-168.937073194556 -25.7486321673396 6.7838066023237 0 0
172.765896807241 21.7192365468011 12.7264009466292 0 0
-186.240798373621 36.8792384379518 -5.1361564077617 0 0
-165.42986598883 -20.8946452291847 4.91631908157342 0 0
220.146103421041 35.9980089526798 -21.8773557628462 0 0
2.19222055021666 5.30796440385634 8.68047977325742 0 0
199.627748992246 39.7899383429525 -2.14915416778403 0 0
-203.648941245881 39.4767234671491 22.911709220718 0 0
-83.0514134133526 -9.60051177485754 14.6999424763184 0 0
-107.102463788454 -13.4360037553153 10.5862577859959 0 0
177.661284170968 2.90947352436742 -9.14086280553475 0 0
129.14883003329 4.91624047708811 -2.05721301503697 0 0
-171.920338143115 15.9505938906137 -9.40464600029202 0 0
-193.080808223155 51.056752996891 2.73145284922823 0 0
-82.6061965974669 3.55112602356442 -1.15530509473454 0 0
218.187358834745 11.1456851318435 -8.75555497491168 0 0
218.349023594859 21.6660742953727 14.9277828392358 0 0
63.7011308109062 -9.87415507039672 -4.33892180351751 0 0
-67.5590401366194 -3.27184819221662 15.4591751675174 0 0
224.016994611186 25.0987951172003 2.79966628517831 0 0
-156.569988983322 -0.146631223880449 7.36998266227021 0 0
190.941736771192 21.6164949561787 -24.9953420130599 0 0
-201.009407250972 -19.4167831303221 9.84654018557828 0 0
-191.030074793483 -21.5141819438747 -20.0943673058208 0 0
-166.842090427125 -22.5810517636968 -19.2589277071148 0 0
25.8556827490903 5.89881941841429 7.37948482994992 0 0
209.845861926896 38.3327967898551 -13.9339535068096 0 0
160.7572714608 15.0677423803225 -3.52279596199294 0 0
79.2504139914701 10.6644224209326 12.0639780026824 0 0
140.121130181456 -20.3061504754576 -1.98537471977806 0 0
150.294583725405 19.9106668332556 5.23847397833259 0 0
175.351966428512 4.56319193190493 19.2276703079106 0 0
208.118670223703 -32.5676840937414 -29.9744272230176 0 0
-176.13309724477 -17.4900014460578 7.18965492205596 0 0
126.586385056717 -18.6049729591492 10.6308203605581 0 0
28.3352572747048 -9.62401964015265 20.2600055585986 0 0
-201.553263855033 44.7970799295574 20.0246735821705 0 0
137.408164625331 -0.899163797747356 -4.01487524296046 0 0
184.064477959419 -3.12811267187905 18.2362183300588 0 0
-191.722399409339 3.30511042119178 -9.12383904673239 0 0
-45.5126509523746 -12.9623127913327 -6.22424129387799 0 0
-198.604940603826 20.488471543222 -12.7739663559398 0 0
73.3481371853809 -7.91676679848772 -4.56552479766396 0 0
185.420550385586 -1.38645073922082 18.7408283094132 0 0
-200.256912420406 11.8376646901397 14.1548283891133 0 0
-123.206113674878 2.47053176912192 6.54866750737084 0 0
-186.700670624776 36.9422932466398 -6.94168420482219 0 0
83.6914302275647 4.16166460557744 19.4424102400159 0 0
111.560404341293 -10.4856954061531 19.7383574441156 0 0
17.8365831824885 -7.19848311339166 20.2943727646474 0 0
189.229013981211 -22.3566597132569 -31.2124652656592 0 0
-6.33060151281333 -21.8819850400995 10.9457633183763 0 0
96.8785263004441 -9.78768625413174 -5.12555987908575 0 0
199.795102022115 -25.9573815631347 20.6124915337926 0 0
195.320337295062 41.2147952650357 -10.1392999433019 0 0
-217.248518117156 21.1732704070034 12.5797005987011 0 0
33.7852062129063 -0.368128246996936 19.6952427239294 0 0
-87.9788796446784 -0.292726856186004 -8.99574817936867 0 0
-109.16028548556 5.64400383971859 -4.93565949026734 0 0
-95.029091879611 4.92372309361328 1.64785409537312 0 0
-187.732719073366 27.652290715284 -8.83976207672677 0 0
-185.633516957436 -22.8971742181015 13.0460849354236 0 0
198.131323147914 38.8885970505929 -28.2102233389584 0 0
-81.1161140608802 2.69679195094774 -3.17680579555965 0 0
180.825858643389 -5.33156281154764 -12.2187733673537 0 0
-182.09053872179 25.6530176522216 -5.09120191794758 0 0
-187.384878994488 44.8592574929303 -4.441889741338 0 0
13.6005388931162 6.03251509216179 14.0229284373518 0 0
-57.0149749327719 -10.0146478344883 -9.96935893656398 0 0
123.231682085122 -18.125142438328 11.6052252881306 0 0
-45.3800305822047 -16.326797488888 -4.01836205994417 0 0
-31.1083394484599 -0.458391928569368 -4.17885094026443 0 0
215.927399203878 34.8764994444978 -4.79588473697444 0 0
144.100980973437 -10.2652620568847 -7.00784449563266 0 0
-211.465074864219 14.0814939834184 7.59530722320889 0 0
173.842737215764 -1.07798493297957 -8.49627790468823 0 0
171.746934414201 -18.4792745696886 16.4793628673577 0 0
156.630360662112 -16.1581296456896 16.3220203821351 0 0
-188.163543440433 3.65389026348369 -10.3597013679737 0 0
205.95123493988 14.1964080644644 25.5435554078041 0 0
222.138625368443 37.0739965998058 -8.69176278824748 0 0
-207.248181356466 26.1943320129035 -14.7216015072847 0 0
103.745404974855 5.0728532321645 19.4723822392312 0 0
196.831165890456 -2.12645565224173 -15.2544493790364 0 0
206.730515767407 -28.5111497925705 11.6436598326659 0 0
-10.5975934951358 4.22515994072648 6.59585021787552 0 0
217.620061169606 -31.3534259955196 -14.2817300490058 0 0
143.254494739394 7.82094155167148 -2.2888119687298 0 0
195.117539346354 -14.07004289795 -31.5717850191483 0 0
120.207492265627 -19.868284114583 5.08954480595051 0 0
-202.360341274466 49.503959067219 -6.36990345118784 0 0
140.097982537438 11.2101834711343 -1.18073349855881 0 0
117.08575211838 -7.61523113018053 -5.05481188887767 0 0
-144.296767186207 -1.59140034783319 6.36538259457508 0 0
-207.247755885636 11.6818089796526 5.82149420977933 0 0
-181.929164156447 -27.4410570127762 -14.5674789407224 0 0
201.178303831759 -30.8583322087002 -32.0588341593306 0 0
-22.2877328708066 -1.23581330124886 17.8925417741049 0 0
-159.9322170762 17.5018678827971 -5.55559217393551 0 0
104.784057401285 -17.0633534064121 -2.581405234441 0 0
-145.645511820151 19.0863150479712 -17.4023913238614 0 0
-203.449041492789 -12.6218814626753 -2.37905122042146 0 0
-200.586030702036 -12.6107811487313 3.40405312673664 0 0
214.665648478621 -4.1798469838831 -1.03395786760739 0 0
-194.068132881431 -22.1622009575204 -18.7089691599368 0 0
-175.541022149054 -19.235865758 10.0439480604371 0 0
-176.419453799603 -20.0893835941658 -22.0159506316002 0 0
125.447123620821 15.6898064272229 5.47768337497644 0 0
-142.954197030401 -3.96231767366112 -20.7246481055104 0 0
-154.100768096508 15.3969416760052 -9.31925794802928 0 0
-138.461608422744 -10.6737530447025 -20.1765378579739 0 0
210.495572001519 3.97698056828581 16.6440145761306 0 0
-182.815451142105 38.6977360916423 3.24063334523851 0 0
92.1480419837938 -2.705614173697 -2.89500928200038 0 0
-162.32088992066 8.31446605583844 9.33584372519361 0 0
-6.21017291717216 1.98901869970447 1.46098333842649 0 0
183.929900798007 15.3609265971107 -17.0228020756696 0 0
168.108025492106 -16.007905163208 18.0473910559626 0 0
-115.869136659711 4.91234279295637 -9.23447628063656 0 0
-200.079562298843 52.0598230505271 3.15614241358473 0 0
-200.365967706779 -24.4720873969382 4.03680039428451 0 0
-12.8615515637477 -21.7092713688904 12.0755804620505 0 0
-185.090154056945 44.4666585657797 5.10584533920986 0 0
220.669909974543 16.1106421775211 -13.7318864935419 0 0
-154.979471238725 -21.3263520171273 3.21941159967996 0 0
77.8818929950309 -16.2004024479582 -0.829365526754439 0 0
69.6264705118496 -12.5954970032131 -2.7943964428542 0 0
150.559121113487 1.7476132608242 -4.3634066879983 0 0
143.264500597138 9.62670695541903 18.3949890748843 0 0
104.219298743919 -17.5331293234692 12.6527353082167 0 0
198.189027143652 -22.3944404448658 28.4066206913502 0 0
-201.131448054563 11.4815882357554 -3.44836555630146 0 0
-150.479260876115 3.86553303730205 7.92466150175717 0 0
-160.318450607794 16.9708026817303 -0.695122290055968 0 0
187.339445464461 32.4518175978501 -15.0458739130507 0 0
-20.8768282886286 3.17974665241526 4.36804366209935 0 0
-184.73048575198 -31.9808910809626 -9.30331388974726 0 0
-166.374290058853 -31.6148709050739 -5.09531468948961 0 0
-184.477577773458 -20.5764629781302 14.7212735350411 0 0
-144.980854741836 -5.86820276792171 -21.0621739666729 0 0
196.404998187487 7.62177819405363 22.6594586733674 0 0
-162.789675959402 -25.0153898644265 -15.6761179479794 0 0
-103.148023546757 -21.4487339364343 5.32209234190822 0 0
-205.526034399358 -18.5864519084969 -3.85914755041489 0 0
185.161376591255 -26.5890901061489 9.11872714824964 0 0
-64.8352925480509 -22.4420318150581 8.10037838520229 0 0
-188.787917245438 -28.6454981232158 4.57427525423941 0 0
-136.661598085192 1.0793294821943 6.78464988832636 0 0
118.01874559428 13.2541905424841 14.691517436744 0 0
206.808509991667 -28.9848453138971 9.44763613891471 0 0
-121.247545936808 5.77209601250743 -8.48870753002653 0 0
-42.0149550226482 -7.88508486395644 -8.66707272232076 0 0
34.3828782154614 -2.43730101867115 -4.18438032152514 0 0
199.676989201376 -26.7235154555068 18.8452275629519 0 0
-81.2404284882066 -0.0087461754206941 -7.8640025041373 0 0
-111.435458401883 2.53812448475027 6.86736381177749 0 0
144.199456567926 18.7293849020836 9.10684858797588 0 0
207.991495491175 -10.1564138314107 -26.9399056714692 0 0
-203.309712901234 -22.1958986224001 2.9007521838949 0 0
41.4099077492307 -1.66412722061982 -3.58060524898674 0 0
217.678607824651 -24.6553559792266 10.4935900079299 0 0
-203.393934502361 42.9011571868192 21.0775373635299 0 0
-200.071306734276 42.4447867415955 21.777950598033 0 0
-196.927401722586 -17.5877760661294 -22.3355392197329 0 0
99.9820963038331 -17.9020395436758 -0.689653565877442 0 0
196.780107902527 29.3509029811473 -30.3280564288599 0 0
206.324511066853 -8.3259946240628 -22.8257282061332 0 0
-111.70475035426 -22.3854501301694 1.91336184305716 0 0
-184.523947040682 -32.2980956726654 -7.73990441583699 0 0
205.231153589972 10.4093920281178 23.3380921018678 0 0
209.044644868045 -25.5100138758378 21.4867685901365 0 0
-140.094243176149 -20.7292203538913 2.81252134834966 0 0
-179.755381138694 10.9185095498672 10.0775330793113 0 0
-21.8038128376222 -4.95272007733002 19.0325085273258 0 0
-156.878974605403 -26.5884544656472 -2.37042821912223 0 0
-209.387544595507 16.4404249957834 -1.49898466157286 0 0
