"x" "y" "z" "f" "a"
64.9893512963391 17.5396145739579 -13.6305730264495 0 0
189.649973098994 25.1486765134626 27.2305790677916 0 0
192.761600053477 -41.4062369006169 28.0179534363198 0 0
-189.923755086603 26.6880119334373 -3.52802500148534 0 0
178.903909377261 26.0058013434583 21.8740465123789 0 0
-112.10244029443 22.5082629771896 -9.82740186107512 0 0
185.917623104329 22.4533830973415 -13.6633604620535 0 0
47.269498810303 -3.01578796514368 -8.94425027092487 0 0
-46.7754283994202 3.67469550421667 2.74691786189839 0 0
-75.9104767201379 17.0289075422529 2.25232058062005 0 0
-130.462717025247 -1.66973176669698 -6.19936488199891 0 0
168.094350163419 -16.0406536174422 9.03525500169189 0 0
-38.5823216977836 5.51344461286902 3.23878674451142 0 0
-162.282855243112 24.2962337099555 18.1248225558678 0 0
-216.743729531156 20.2312164358818 8.97240738490616 0 0
-7.27336128346337 0.770193975817925 -4.05613963088662 0 0
3.90481132621072 -6.04955814289298 -15.8377716298458 0 0
-193.623007879504 -48.0140039442532 -17.3674233174394 0 0
182.917741239719 -28.3896955873721 -11.1773496596088 0 0
109.188554682458 -7.21733077087482 -4.8889044917561 0 0
72.8723885255394 -5.73442532787162 -8.98510709822058 0 0
147.248151431226 9.28184106477692 -22.3309217034789 0 0
106.246705555547 8.24394312147132 1.34165268255782 0 0
148.18136451198 -1.52149676169789 4.03506510221317 0 0
148.792329981042 14.553038604217 5.66989604614644 0 0
-177.81967445954 -6.32717600532064 -5.46047932832045 0 0
-177.547784074154 5.0535301309682 25.2549905758832 0 0
-213.123251890748 -53.1460683488869 -14.3616266016918 0 0
27.3575347778317 20.1744340548827 -24.3007820286582 0 0
-183.910389526483 -18.3498355261275 9.31506437325772 0 0
-204.2750508957 9.2615451440373 -7.00556060047071 0 0
201.553248780766 -11.8667244755933 -17.9603572939495 0 0
77.8749471343086 0.968859792574728 -1.7665994728446 0 0
-216.468418480956 -29.8741654773662 -19.4624921108781 0 0
194.130336717682 22.6273437402718 -12.686065780134 0 0
211.994858895021 -14.554015016578 7.70954974546106 0 0
-151.257822960322 -5.76572156591609 16.3737470325071 0 0
-147.405490335239 -4.35442385338458 3.29936942095354 0 0
190.808603704427 -42.9604610479651 3.36495463477653 0 0
-22.7367346707081 -2.41800044489977 -9.93231521317569 0 0
198.312806994006 -12.7818128866159 -20.1665426954683 0 0
-129.849360693054 0.760013960953449 10.584192573932 0 0
172.413110017796 -28.3719211734035 -5.94196825446792 0 0
-210.483768511379 25.5614746782435 12.7999468665013 0 0
-142.425270378516 0.843246362764402 17.8515129367699 0 0
-184.830670202857 28.7251885145726 -1.63591146028469 0 0
175.864545738895 15.6828939955297 27.3697193498885 0 0
101.957441541543 17.6083056001965 -17.0011611872377 0 0
190.693686860796 25.3437942610031 -4.10327327488419 0 0
186.572897515539 -16.7521684810887 19.147223258585 0 0
69.6394769817553 7.86253466930451 -2.10346377256548 0 0
-210.278620487592 -17.8986338703599 -12.1127666215344 0 0
-224.283632523535 -38.9892864445234 -9.42976683807749 0 0
-65.0963665494967 15.9251098089095 -22.3574235529496 0 0
-93.8379554185458 21.0631192079398 5.06446831040042 0 0
182.727826217865 -24.9796605012041 -14.3026602113948 0 0
-70.4571930789381 -1.0152744780751 -3.73372569265233 0 0
-115.045661193824 16.9851930972145 -12.1159562054402 0 0
194.374571477491 -33.5417489177281 35.8673670512038 0 0
25.7669594644657 0.831816104890028 -27.4684374779129 0 0
185.069428667002 1.79740754342433 -20.520989283105 0 0
208.225169577604 8.70044688767051 -0.0147936054767567 0 0
13.1007343928712 -1.02239188788664 -8.61622395131715 0 0
-205.002676669067 -54.1475777836877 -3.45661191403359 0 0
-218.991862738261 -27.737943463033 -15.9370624114466 0 0
176.997052031876 -32.4304678927721 17.0250435137699 0 0
79.1497589463355 18.3336489285797 -17.8095329871288 0 0
-193.326645547525 -5.46594106929855 -6.32990133834607 0 0
188.712012145579 32.509595261625 15.3312985207698 0 0
-189.454518837123 8.99705475212576 25.8788435963465 0 0
175.344039866481 -22.0223085044087 -13.4578902017773 0 0
-180.608314732327 -19.3827925201428 2.55419785042999 0 0
-167.967107045914 -10.8143560013995 11.9933546263769 0 0
-187.174645251635 -17.7764110236909 -6.21063970178203 0 0
-133.676049657727 -1.65563779974302 6.06207504653522 0 0
-30.5043776699843 13.0341074440374 -26.6621662637378 0 0
169.935307831729 -15.0869564008047 -16.3841186446097 0 0
204.613690181698 -37.219145655084 9.95126081760393 0 0
114.825845907683 16.5061516753663 -19.9687387926479 0 0
206.314462338649 26.8688271900651 18.954377611377 0 0
-75.0088100308286 21.8330853643839 -18.2016231028242 0 0
170.96602440904 22.3752678164361 2.99034516388496 0 0
63.1288010502784 2.71704544953319 -0.173231083865164 0 0
179.237967724476 11.5735306884219 31.8759622910326 0 0
-50.4966073344575 14.5201577330728 -24.5150854665144 0 0
174.199117308352 -18.0909260773899 12.2902367962839 0 0
23.447268103496 11.8454868712997 -29.4668602546041 0 0
-37.4064798627554 -3.49700968382542 -10.8948551814533 0 0
-171.717952053313 25.3309079681342 19.2232868115905 0 0
111.940788460274 -5.00903574201968 -3.21718633371083 0 0
-188.263864815099 -6.97524596099843 14.4094955626363 0 0
-175.902829061315 -3.12534653736199 -5.5650577577042 0 0
-152.612051902417 4.02811076564874 -4.59379746150584 0 0
173.846206408305 -28.6307572282488 25.1101149003927 0 0
-207.21508480097 -23.5404756226312 -20.0799995859467 0 0
175.367705646611 -35.8477017216841 13.7959706298254 0 0
-182.2963173643 34.3205273114629 8.84389572804489 0 0
182.862605346177 -17.6978122921066 20.8687814713338 0 0
176.827660141118 -17.5154970298771 21.5905290814559 0 0
153.621935779451 18.2182283355021 -0.100981910612966 0 0
-48.1199616236037 -3.49059014899267 -10.2060930306299 0 0
-198.734113332876 -8.30267905697958 13.5048129450834 0 0
103.533941626259 -8.34267706010422 -7.13868336566957 0 0
17.4496913105068 14.6461361520297 -28.4839492304858 0 0
144.949378417153 -14.6843180522868 -16.5655999894103 0 0
203.356702055772 -19.0936297925892 31.0620677362383 0 0
37.1093776452741 20.0753639990328 -23.6286255507718 0 0
71.2715680645907 1.2406994593807 -1.58123906908927 0 0
-121.638256319947 14.3422551228297 -11.1510963187617 0 0
54.5891294842067 18.4875116464411 -14.4386084503545 0 0
173.863384870094 -27.8948756089523 17.9193997542552 0 0
174.260779204188 -19.7938315874529 13.8832217878028 0 0
214.691480652403 -22.1212553703814 6.98305070043611 0 0
-217.800295543835 -21.0779076337007 -7.89828442739476 0 0
-185.584257278476 6.68374149470305 21.9120578405929 0 0
-129.952976879321 -0.0737075540133622 8.62989300458218 0 0
206.665692740711 18.0363566636738 29.819557711515 0 0
-135.231203237326 5.76841056368493 -7.7398382517367 0 0
194.735466993279 -14.6421854826655 30.6245841897388 0 0
48.4318432378415 10.0629703716643 -5.38635795426365 0 0
189.153175710787 -42.0168310631427 2.0365551267327 0 0
-188.587046994116 27.4666408253032 -2.93614116741836 0 0
-191.808149117445 14.4779498843005 28.9155705196024 0 0
152.297645789668 -22.1513459497617 -4.22807073959324 0 0
172.330558799026 -24.4738995963663 22.3265988517535 0 0
196.059111558293 26.4898181787672 20.1000732795325 0 0
195.501070991914 8.62187819330085 -18.9809336110265 0 0
-156.938937017718 -12.9146913908035 24.9806877741967 0 0
93.588921547454 -7.30502959966213 -8.09176471564247 0 0
-175.654261563267 28.5571119083478 3.45895070987196 0 0
43.2162685251685 1.0343645726866 -0.940613043324292 0 0
-31.3871665567657 23.986801740117 -20.4592546114183 0 0
-202.732979172452 -4.97614485472835 10.1848751672106 0 0
205.76281652359 -5.48530810541719 5.19043849559032 0 0
-207.413565560559 -55.6450337934487 -11.7402236947978 0 0
176.530832953953 12.2197579878098 25.6117149790966 0 0
14.421259207719 14.1255540661903 -28.6642506209384 0 0
51.1296599402968 -5.38693162105329 -10.9236832789201 0 0
153.240405967232 -12.4975993044756 -17.221385252109 0 0
31.8156758699252 8.5629678668757 -3.9382612276055 0 0
-180.721157827906 32.4724402414938 15.656172292921 0 0
-79.8367729648332 -3.80789521126098 -12.5963878336996 0 0
203.457343465782 0.951101901280453 5.37382170722159 0 0
-195.867160502555 -24.4363309010117 10.1986719916774 0 0
186.89391246856 -0.0521634817610992 18.8937486138541 0 0
-35.6054035686421 25.5976922812106 -13.1069295971971 0 0
-16.6564844038946 -2.90348701332373 -23.380626934816 0 0
179.942621670283 -36.5232168726369 28.3687569765477 0 0
-181.90992652538 33.1575781641531 14.9503948524478 0 0
165.889424938765 5.22831294828355 10.2496247425352 0 0
90.4248504878292 10.5704571958769 -28.4384054007401 0 0
28.3480476097988 -0.471925585666173 -26.8375248538286 0 0
3.71266834512154 16.4880048325186 -9.43386824441514 0 0
-157.995438255463 -5.79971483797582 1.59559518168409 0 0
-203.722386744033 29.4369974703263 15.9232376823901 0 0
-216.457049030763 18.3958277084962 3.23962617819406 0 0
214.427597140104 -30.1873731285559 16.0083367720351 0 0
98.8109897014146 12.8478628776323 -4.45730169708294 0 0
114.193095866886 -8.8248021197859 -22.3964411011412 0 0
-194.686699263671 -46.5497021778114 -19.3213291248679 0 0
-112.6251390765 15.9504913232634 -12.973254688916 0 0
194.49538487398 23.3170505805287 34.8795908634643 0 0
-76.3661406186736 9.85094116127844 7.12904807719905 0 0
-42.6561763612152 19.108948727999 -5.81962287241805 0 0
-155.85457839538 -0.610830322275351 26.8725127763302 0 0
149.056383959002 -19.6041264618094 -11.6757111166444 0 0
-185.786523153818 16.3872587434104 29.0904835129609 0 0
192.800001420584 -40.4225981200626 33.4136400924783 0 0
179.768722359887 -7.93616678059277 15.8410631710746 0 0
-154.62890628784 19.0566253669783 -3.04390793774378 0 0
33.4943018800589 21.4176562873225 -19.2130362735994 0 0
180.287952907796 -33.5386639263689 -4.98782002790841 0 0
-184.248208919274 -22.9119201753006 -1.4912546604354 0 0
-199.570186309832 15.358869607753 -4.64834697351488 0 0
-44.6623892940027 11.3366836884724 -0.868337841527083 0 0
177.198073634385 18.6411132373992 31.962922201017 0 0
111.761241563459 -4.28058507371827 -24.5246753641928 0 0
-78.191236739924 1.25148751336232 -18.3398166927643 0 0
27.7346577787312 21.8150090626112 -20.2884671085733 0 0
-222.878667670057 -32.8989662705282 -12.6464021187468 0 0
150.556425994581 12.025548947446 -20.8855182545544 0 0
111.44720805658 11.3479960089501 -0.813334263627656 0 0
62.4879852025259 13.9905858650389 -8.80243347290745 0 0
-194.538944216118 1.10361854073692 16.8987944308155 0 0
0.791587039340369 -2.3958247708392 -10.2630761081303 0 0
131.226105616562 -8.78285122679708 -21.4007019900054 0 0
136.380862724296 -0.584456331853416 2.33082221428571 0 0
212.777407443658 -34.4101052333465 6.52105843326027 0 0
113.34408577095 -13.2158763500681 -17.7618560407252 0 0
-193.594452066134 -50.868154303227 4.91713760693144 0 0
155.70258295795 8.83835294318286 -20.9412516921025 0 0
125.439561322443 0.937258550481457 -24.8736342149141 0 0
173.485302318483 -26.9055747365858 23.5278125760316 0 0
-74.8662576220534 27.011471848431 -10.2772424872577 0 0
-200.800090602339 15.1727999208791 28.2066970775054 0 0
-194.585049947297 -40.8800187609229 12.1126699223052 0 0
-37.2344656482178 8.85451058895187 -26.110923104919 0 0
147.845475988479 4.25676504944533 -22.3072463113683 0 0
-38.5657018054657 1.74117583749611 -0.910160465303771 0 0
-122.271960755851 24.8374805821922 -5.08082802387755 0 0
-188.763938039211 32.4369926238405 0.57485340926335 0 0
32.2594178669307 -1.9291991208865 -8.95246945542734 0 0
191.513035969414 -6.46092535382989 -19.9031989038947 0 0
-168.92083595311 16.5723564183736 25.9259340132973 0 0
-197.435238869189 -9.24656663955333 -9.9877047077132 0 0
-22.0188060127684 13.4873481105181 -27.2841089560802 0 0
-112.629350390905 25.297373729562 -6.69850308848112 0 0
30.644482358834 21.6428269026509 -19.24033183159 0 0
-36.4590565121785 8.43533172805532 1.07543701103368 0 0
-195.277969205284 25.0953878662018 -3.53565202934891 0 0
-13.8973157390268 -2.4920222598815 -10.3564342339992 0 0
115.545987407896 -3.62196216286141 -2.08401016715709 0 0
168.203561518873 21.9012995587657 5.84944808520941 0 0
43.6292006721214 4.81204098079927 -29.4558435870751 0 0
-176.835390087776 7.16661883661969 -3.77397959744907 0 0
177.618133739227 -39.7572846254579 8.39111723690013 0 0
-156.013205027625 -5.44453720663835 2.19013875642427 0 0
28.1890533097091 0.766537624219642 -3.1280345693979 0 0
-212.869425468439 22.6819713853391 9.16010816843167 0 0
-184.944923288731 24.2183089956205 25.8791080966017 0 0
211.310584587299 -26.2683333331076 -7.90167715912294 0 0
28.4951811641973 6.80247119549009 -1.78974478944702 0 0
203.684961404624 27.599458391628 29.0253074387421 0 0
67.7815592417971 9.66617833615284 -4.34531688289108 0 0
-148.966249884868 24.4035851691675 -1.04633733107724 0 0
175.12484134506 15.1936734239005 24.5649524635823 0 0
-157.632731524706 -7.15026786792955 13.9960051766364 0 0
176.316519638186 13.3643489517978 27.0698143625798 0 0
-201.062591195476 -22.9327962110049 11.2124832530239 0 0
204.813138251275 3.25810776447804 15.0706384226169 0 0
-151.116396413916 12.5954030781395 -4.26825981886794 0 0
-189.562746071011 -43.7398928935236 -15.9521847000682 0 0
210.16661468134 -10.9581380292806 4.11198550878321 0 0
-166.51598838411 -2.91343451544947 27.9730282636435 0 0
-186.708904454955 -33.2902870342098 -8.39535643772343 0 0
-222.991371011136 -27.7914779189716 -7.16526289916167 0 0
170.048355909829 22.2001153600818 12.5636236305924 0 0
183.892603640573 20.0439819009602 -21.0397296169551 0 0
172.540136325421 24.5900437976238 11.8105252165299 0 0
151.694037534511 -1.34665153325838 -20.6323723795227 0 0
64.7827409780131 3.67886619791409 0.373961618289491 0 0
59.9619500856979 0.353926429875348 -2.66323571942472 0 0
180.252303039227 -15.7955161190172 27.143207558461 0 0
-146.984853448405 -4.45804424976305 17.3465596383576 0 0
-190.782644910735 -46.8060461706033 6.31669452671111 0 0
-100.30077847618 2.61507623357488 5.03903985640451 0 0
166.322173663532 -5.05455073401147 7.629179168221 0 0
197.90233983929 -5.32102515457666 -15.8317928745422 0 0
-183.381335841295 34.594367665479 6.77296831476872 0 0
-138.117441953667 -2.10110666143799 6.98997861805353 0 0
172.764534377168 -32.2391471331773 2.44636676874379 0 0
-186.459103893241 -34.8213985810453 -13.2571666476263 0 0
-172.135497358974 4.71338618077268 25.9949640963938 0 0
-68.5904540760001 14.5867557022987 2.16477031646604 0 0
116.236933407802 -3.78926838671304 -24.3305567062015 0 0
-214.270991794114 -22.7246014967104 2.75613009045338 0 0
209.59840071695 -21.8167839752963 -7.60498387753352 0 0
-163.199003183062 26.9953265110831 11.7301529872359 0 0
-222.954378559567 -30.5742481222111 -11.1902775310194 0 0
-148.452375201173 -5.18314965190919 20.229113185218 0 0
-195.724897793803 -52.7463447144725 4.09717639348083 0 0
188.438922087813 -17.8824382137097 24.4260303144575 0 0
162.383138471689 2.20375014637154 -19.4456767293517 0 0
-13.0521171732861 8.86169995944672 -28.1285273492808 0 0
-185.112347076402 -20.7335093611717 -3.41135340490917 0 0
-87.8881563885971 5.47072603556345 7.14841903932959 0 0
-4.37844958155214 5.4922927398073 1.72225930844903 0 0
-38.6625594736182 25.9290429993081 -14.8672271074357 0 0
-203.618693385799 -8.48632117496824 9.50867259905158 0 0
5.59603786554615 -6.46027048139463 -17.5927304912076 0 0
109.746642765351 -13.5268369708823 -14.7381518857407 0 0
-128.748475714867 14.9720409028086 17.1679906455001 0 0
-189.809945477026 -35.485980864534 -18.290404420837 0 0
-187.535748864606 29.5551442927017 20.9467391167694 0 0
142.205450701148 13.898693088434 -20.8748896118896 0 0
-151.841484144718 0.56553122116871 -5.05407722892889 0 0
206.643494688218 18.1274723492764 -9.68053182660151 0 0
-211.31310847998 -46.3286785508054 12.0677127914663 0 0
192.981633974933 -40.4453749002439 22.7695513300796 0 0
-19.9895736138017 -4.23251627751223 -12.7205607713864 0 0
174.28899770621 20.0105850603624 20.856594088712 0 0
-142.627847521939 25.5935587524108 12.6333825208336 0 0
-209.462345008108 9.97852086985696 -2.47513406846664 0 0
-37.3578706657318 -4.29648358090506 -18.4224709782999 0 0
-163.382252747448 18.0224042888431 -2.22163062252838 0 0
195.495614172685 -40.4067944174957 17.384470973469 0 0
-62.7212538105622 2.76323533481776 0.904014202786922 0 0
-74.6381049986149 6.55583120089929 -20.3665020243721 0 0
77.4922279845812 -5.61259012543882 -24.7161377587645 0 0
190.38724513809 30.0621606914894 9.46744931309594 0 0
192.984395859463 3.92542732374883 23.1884065189143 0 0
-163.076324273561 -11.2654739880025 17.9565190821409 0 0
160.625673099485 5.83955097013399 8.79701115766498 0 0
-62.6999685816063 -0.111100905935722 -3.8400580230389 0 0
23.7621743209793 3.61896790608627 -28.6721376383475 0 0
149.879367048828 18.2371183588289 -3.94565268731451 0 0
-195.619168606241 -55.1459331168336 -2.32271968823825 0 0
199.813960403898 -14.6655431236687 27.0992339872031 0 0
-172.063871332169 2.83311875344911 -3.31639737060786 0 0
197.043076983481 -6.68528741822084 8.58164519272528 0 0
-201.071875483288 30.1698125743972 2.81516383687865 0 0
214.163411865556 -34.3669814514708 5.55582675807687 0 0
-224.898379869142 -37.5986107814896 -6.92999622599439 0 0
177.931987223899 9.52329617183581 27.627237887842 0 0
-183.735164559432 10.3744841872914 28.4940988044878 0 0
195.55081711642 -16.0986646753479 -19.5589389462438 0 0
175.529960734363 3.68025757639334 15.0431230080734 0 0
-191.593797941085 -49.3490066173815 -13.5631405718634 0 0
199.602723199915 -14.9522876825575 17.4551991013102 0 0
137.110195495463 12.8538243460025 3.85278503486656 0 0
141.754827013922 -1.68360618068445 2.94838177812082 0 0
-158.652734876766 4.31846336883236 25.0450197762739 0 0
-124.22622366893 2.82380476420757 10.9107465842615 0 0
-194.209271794864 15.7874407265659 -3.88110309229154 0 0
149.148493465966 7.1190288645376 -22.1776907076167 0 0
181.460942683615 26.7809226090153 21.4602830839241 0 0
-177.42007192823 -3.03213027582852 -5.94187182632316 0 0
-203.191867706624 3.90055677220871 9.71140082441276 0 0
144.345429155169 -1.30637297643612 3.46136685630463 0 0
200.164355117603 5.84537153801592 -13.7927421164815 0 0
-208.478973826269 4.27833793214833 -0.00659630276216529 0 0
-195.45238452495 -53.4746116241654 2.40066069607353 0 0
184.718149151237 -16.8548960216443 25.5695520711789 0 0
184.355078695883 -43.1258019155505 7.41966038051792 0 0
-184.929043288746 -12.0055061196662 12.7791385925852 0 0
-224.847692853395 -34.7288060429959 -7.21022822234306 0 0
184.557417753678 28.0156546289522 5.93066163426145 0 0
177.37418596305 14.6563434133349 -20.7114629683505 0 0
179.535643119161 -38.22929610424 19.7374919718 0 0
91.8646929818161 17.5053758504875 -20.4381647921893 0 0
201.199249334445 20.264655153735 -16.1643030646368 0 0
166.056997843317 -16.8336675946048 -14.7306494890231 0 0
-198.918245752744 -0.607781405892002 -7.30816383475503 0 0
-197.5201619243 -7.01600793293561 -8.88163130577835 0 0
176.482636921645 -28.0028139724221 25.821521700581 0 0
-12.2833143982612 20.845836765538 -23.9860915368088 0 0
-82.2614751929862 7.22596551364154 -19.2003413472703 0 0
-175.211649267176 -3.52776065839595 20.1130156204797 0 0
-96.2762366752652 3.94040452393087 5.77768629344961 0 0
91.8646592301941 -0.974020982040123 -26.7536926327089 0 0
182.434968751136 -0.533232763755739 -21.3688168748125 0 0
34.2023632796164 8.55471293455721 -3.95181818739957 0 0
-192.405763638914 -35.0043505694585 6.41395179226792 0 0
-193.29530158663 -34.6785244421829 8.02054085294551 0 0
-169.404814225927 -9.37247035070486 21.4088154166354 0 0
-89.1578033432894 26.5723188334333 -2.80326966287113 0 0
183.377730885161 -12.6924488099796 16.7786764515488 0 0
-205.554444162941 27.9279244030269 16.4030205522532 0 0
-212.276077304267 13.5832413062817 0.106687736256832 0 0
-116.408790226071 -2.0937791313443 -8.4971496879658 0 0
-86.140169365051 4.27662361822871 4.88956045958932 0 0
-144.862190609708 27.4609194916661 7.07691359005243 0 0
-25.9714738334778 -0.447737948711799 -7.05778915248249 0 0
183.759494663379 21.2270860222173 -15.8400228644644 0 0
-71.0382109711329 11.5822315323109 -21.8402737211899 0 0
-199.416655375955 10.8475672284545 15.6880826698433 0 0
182.932333071518 30.6155009150514 18.3493131842762 0 0
-89.4823264050491 25.1303051341945 0.0543270393055963 0 0
-211.79158523277 24.4665473276599 5.68759497887099 0 0
208.398451538013 25.4160793501331 8.29530644534886 0 0
-24.2507795081766 24.3083966339664 -12.2248982480466 0 0
63.2002532645356 6.35146399293478 -29.8067991976209 0 0
-151.799393143602 -9.63494307799087 25.476863450617 0 0
174.788349277959 -32.3142638326502 12.7945082001026 0 0
-215.058780331145 -21.0087608630864 -0.663564293371869 0 0
-145.635028207366 19.6011891427419 20.5483412534771 0 0
178.27575034397 1.41540079032049 17.8290033141874 0 0
94.4769035416262 -11.8143945970654 -15.6787381982119 0 0
202.523931152019 4.61382738052457 24.5824456434783 0 0
129.539079618047 11.8531234900841 -24.0544014002918 0 0
25.8657731050018 -2.16693460733206 -9.5400620643372 0 0
186.768542772433 -15.2282199314882 29.7146103230992 0 0
-140.036598796055 0.367885987115009 -6.34585926012314 0 0
-207.729052542903 0.182794186435637 0.305656291161729 0 0
-157.423235456838 -6.20506010665008 4.26063677718657 0 0
-59.4473075431672 22.3941519943776 -20.1056331918853 0 0
-86.1483289274995 19.6900022281336 3.57595968425062 0 0
187.434248710214 -40.2684039080002 0.471966646388827 0 0
-80.8516593667033 0.491183194600655 -0.611403714757217 0 0
-213.992119277241 14.4723731135777 1.4833999146121 0 0
-160.130404028325 -7.04872745760592 8.15852006295827 0 0
-191.466218423762 -35.3560766190699 -19.790564303954 0 0
200.370690993335 24.2845323797963 -0.431360718696134 0 0
2.51739627860857 6.09854140909692 -28.5411994248878 0 0
87.0650633507028 4.59911962269761 0.72628080428288 0 0
-172.5960204723 13.4253598024228 -1.84887217764013 0 0
208.349845143248 -32.4637647261564 -0.573980629185329 0 0
185.621839606446 26.9845695852893 1.76512880114959 0 0
106.310530172851 -4.12133854358931 -3.53583562197078 0 0
188.718567688551 27.0351914931398 24.9549417704026 0 0
-153.87947778741 11.206712537571 22.9352734817414 0 0
-82.2658055946065 26.5396392924406 -4.41343756648953 0 0
87.8053936519048 11.8178907573668 -4.67596195514593 0 0
-224.932416723453 -33.5663470501426 -5.25496785657287 0 0
-130.309122654245 12.4712434496251 -9.12611152911875 0 0
211.325834672891 -15.6609098908583 -2.61553080230867 0 0
-193.791773346226 -43.7214011637156 -20.1863957193121 0 0
-15.6216378611112 -3.30390624502988 -11.3443391112809 0 0
-161.81965529978 -8.25225943872346 3.7177251144185 0 0
75.1491824982407 -1.18589826163438 -27.1684224899061 0 0
-192.042250313591 -8.77395482552499 -6.63779017835666 0 0
56.5039004841854 3.58840938464349 0.710452351948557 0 0
203.200251732527 -31.3296778877952 33.5174065647773 0 0
1.82632552223821 -1.26129637552503 -8.81221407722009 0 0
-151.789751358441 21.4573808837904 20.3225552509088 0 0
-26.3835034684051 25.0711250420675 -18.3578816236706 0 0
173.028835968047 -9.66527026412366 10.2871276810147 0 0
201.7463724888 1.81334789715611 -9.21234309924145 0 0
175.463161773988 -16.2380301918075 25.937086068593 0 0
174.07847186967 -11.3453903225144 -18.2027887674674 0 0
-216.094466026668 19.3119488099691 17.253324678399 0 0
207.422752427232 18.9425810583262 -7.71278169996363 0 0
130.332533820797 6.55765126875499 3.37959365397294 0 0
-144.994264283016 11.9760737928953 20.9357179531056 0 0
-120.098057664229 24.6494539439775 10.0327514892467 0 0
75.4756719215181 -10.1197653747603 -14.4960572840052 0 0
-204.85910470928 9.54913188908106 16.9424824648228 0 0
43.4462430969407 19.4239496268047 -15.3226216366048 0 0
198.061755253251 -8.06532047098544 9.4504306551634 0 0
169.16109740199 -6.78222918776254 8.65027723101336 0 0
-214.456990277547 19.0993450443069 1.7440829333605 0 0
24.0210935406515 0.0803520751937281 -6.31476317927883 0 0
169.383178069513 5.79703480121941 12.0626504452098 0 0
-132.509531144317 18.1147782720655 17.230438376678 0 0
109.190383461202 -12.4538555503302 -10.681259184891 0 0
207.834140799962 22.9510346387582 -4.60713069437766 0 0
169.844778897607 -23.6280497973504 17.8777739485692 0 0
-189.181193564396 -34.6490905757743 2.47982485263858 0 0
214.630555048181 -22.1956104926821 3.68888104149024 0 0
48.5176011275574 8.13130411790709 -29.9274180430749 0 0
-180.104413029002 11.4483919100663 28.37827300315 0 0
-82.986361695557 27.114447028847 -7.02163190706815 0 0
-15.3867412671461 16.7434026854804 -7.75492964321174 0 0
-203.751628275362 -52.432541519065 8.67616288035411 0 0
126.304815618485 -15.7301822414129 -9.02681227418985 0 0
-56.4415267565117 1.46417008611151 -21.437681662704 0 0
181.290618755786 6.99877365281726 30.0678298658285 0 0
-58.2712018521011 3.76818089821494 2.89701291188655 0 0
-220.446782050747 -23.8880843711364 -7.46215574701816 0 0
-22.4707312041648 25.2595731441538 -15.311061751685 0 0
-206.447779182277 -9.22069330608539 6.56175051583139 0 0
184.878378807901 4.86987999336861 29.1538206340613 0 0
-196.108483518216 -5.16044687725346 14.3368652877611 0 0
-59.3514178084713 0.838548319574684 -2.78069190897622 0 0
22.7450326730697 16.3476195111381 -27.6150596769544 0 0
200.436203026834 25.5712480106834 3.65426700317156 0 0
131.565097291608 -0.723762544817407 -23.6897260814645 0 0
179.887994058013 -36.3224807334578 21.2507486668647 0 0
-192.950696107109 -32.5890655412978 7.71943417458018 0 0
-183.985308439953 -8.06706615116892 14.6097119526217 0 0
-198.632147158926 -53.6598687609958 -4.8157186131561 0 0
158.696910064953 12.1310993060596 9.82892539352249 0 0
-190.762045778159 -42.6629845434117 -17.9514088045452 0 0
55.3857855349562 13.9595793505932 -28.1871220398938 0 0
-21.4334944499337 4.90967811400581 -26.6172492390126 0 0
55.2066382275681 0.924572382739186 -1.74314520082526 0 0
22.1255557744553 22.1625981427741 -20.2723529903152 0 0
-187.870325757902 -3.58139880930883 16.1422326562225 0 0
171.84100254756 14.261616292814 18.516830001375 0 0
116.931205528784 -8.09644068227867 -4.09313507041443 0 0
175.912022123109 6.6611202254258 18.0414959007158 0 0
83.6480686693689 13.023370403939 -27.5597660784545 0 0
-189.653121118328 23.6139348823381 25.9738906541932 0 0
174.360781142533 16.7630086870662 22.7595837732982 0 0
197.001524372028 -1.23235127652691 8.25970152547372 0 0
-173.839640813952 4.67649388657151 -3.45528181707742 0 0
206.156574865141 23.4880806918822 -5.85079698657376 0 0
18.5555831036266 1.5536046580439 1.14723142876925 0 0
-197.83525949672 -43.5886759034354 13.2763748603682 0 0
8.66703446121334 5.32323503799008 0.834601857582538 0 0
-207.468049937831 26.8824396430203 15.7761234507471 0 0
127.987934390696 -12.8585054195103 -4.57522974223435 0 0
-205.013630583677 -33.107148306108 -24.2676643925166 0 0
-41.1895572789866 4.60197299248918 -24.3957289278932 0 0
-135.725132599191 14.6527992006799 19.387468169996 0 0
170.372032993351 -16.4537468320695 9.82940160289064 0 0
212.05110896005 -37.4177734306174 14.2391084963264 0 0
41.8921076214695 -1.98343870963706 -8.34643368086749 0 0
-32.1129478694258 4.77224015408851 -25.4977732042741 0 0
-63.7675560972112 23.2676215070512 -18.7405626275755 0 0
-192.376216462937 -50.824259848403 -12.3049641695602 0 0
19.7100165707768 8.83911196805692 -4.06871586627864 0 0
191.507112698803 3.27017908311999 21.8260953925942 0 0
-161.769852302169 -4.03839834204168 29.550200682525 0 0
-89.6728029599088 5.35017208816658 7.13271348621558 0 0
188.459995261491 -21.5685753555713 -17.5187739360129 0 0
-19.3868422110908 -0.676787403487545 -7.86220261389983 0 0
-149.024740147937 -4.50465005358137 1.23942889960519 0 0
-162.169065405517 -13.4771573340993 24.0243053554982 0 0
175.292690199785 -31.5153015239475 26.3871976961981 0 0
203.658666235525 5.66092971353772 23.8530484194695 0 0
204.144695405662 -15.0974086336972 -15.8333822819018 0 0
-197.643966073848 22.9463147176307 -3.75023749297841 0 0
92.8406433321006 16.0993637657278 -23.5637517481909 0 0
-211.464997335023 10.020978888367 2.61017966446141 0 0
-76.2845170273336 -0.292936160588187 -2.05034966318301 0 0
135.246152759612 17.8230542872327 -9.5436445865874 0 0
180.272508218756 -2.85829613958509 -19.0557928021075 0 0
205.687549789438 -9.29523563623921 11.3316362951263 0 0
-193.647337597463 -5.25335220252491 14.4727222228359 0 0
-88.5181659436303 19.3253068682826 -17.2989588479449 0 0
-207.046213849887 -53.1584673424195 7.61352088854574 0 0
201.211533519181 -31.4539210834144 -6.74852807605524 0 0
-48.4519039597728 4.33403065230384 3.05230353958362 0 0
-213.825279736774 22.4735760035133 10.7834652201993 0 0
45.2159549886917 -7.63680880359414 -22.8956799309196 0 0
-25.5501776925729 9.90326648640065 -27.3275901980924 0 0
74.5573308928362 5.58206982841943 0.766166857338467 0 0
196.025563822427 18.9967093669352 37.5063302612289 0 0
-16.6638098967382 1.79653452231055 -25.5256400195239 0 0
19.6122014568581 -7.40642360562082 -18.9330504802216 0 0
185.420079471088 0.872582788987979 20.8112204271657 0 0
189.815854209277 5.21265252126576 27.6162284200596 0 0
140.658723864016 -5.64789905807932 1.36711425232859 0 0
172.556384205032 -4.31963898682551 10.5351500274159 0 0
17.5341090519502 0.651712188995697 -2.37112887619748 0 0
203.563803170435 -18.7693276541834 -16.6262523041122 0 0
113.553132914543 -4.08614274850261 -2.58873696020957 0 0
63.6631402413997 17.2851523354692 -24.9898135418789 0 0
-201.041873344135 -15.4190126198014 12.1930955125325 0 0
-201.929183958231 -18.0116026737224 11.6538706344939 0 0
198.889685500898 -41.6993290622205 28.0493156523415 0 0
188.912050067298 -16.9876332304864 26.0687685460202 0 0
-99.1138910304569 25.9955844535126 -8.43373020068651 0 0
-35.4762132285296 10.7594801234856 -26.4476043982545 0 0
-181.116217021999 31.1759783484139 17.1736873542563 0 0
175.905130480773 -37.0793028250424 13.4117065282447 0 0
15.4329844681724 -5.50718320144269 -13.3834917517336 0 0
-175.314111711884 -4.9758690222893 -5.39502142209337 0 0
162.164627178949 -13.6822314758985 -16.3158405893676 0 0
139.629928999032 0.758712674958444 3.28730408435408 0 0
193.153362381829 22.7857123524249 34.769757181869 0 0
77.138586754412 6.16058583319185 -29.3588179574874 0 0
52.1539703608062 16.5781194434349 -26.5613801389929 0 0
31.784790121095 3.69234949425154 2.57641230232553 0 0
-107.602705164126 0.120205249576602 3.53505691061318 0 0
-119.084506172069 -2.87750672241118 0.291695775741673 0 0
-176.812413517764 -5.85072006114683 -5.68376493479175 0 0
153.138538928945 10.1639086322391 -21.0931338341576 0 0
103.531330057282 -6.89623678986832 -5.67745217750692 0 0
-21.841270749906 6.96092365196087 -27.3203118884398 0 0
-102.239949256275 24.0268051675567 5.48012531423939 0 0
163.817825691823 -4.64393635514273 6.66227138512546 0 0
12.1517094698586 -6.98516257445683 -18.963540644561 0 0
159.624154974777 -12.2837435129723 -17.1184276584541 0 0
-110.359679615914 0.452701288115577 4.29892802764416 0 0
159.987360124026 3.61631698131493 7.85496290945252 0 0
194.205962742049 -33.9287698548278 -7.18948472030094 0 0
-107.977404282338 13.788379370413 -14.5252623234216 0 0
-6.59284734268298 24.0718922900915 -15.1916505801835 0 0
-70.2207183719215 20.5782908803268 -1.32934765030684 0 0
69.941724116546 9.99858472786225 -4.57326430939543 0 0
182.380170334652 -40.9761887650319 3.17682229877483 0 0
180.127240720444 -24.276706430911 29.9871757644221 0 0
121.290881731593 8.16005645109302 -26.3026011574716 0 0
136.982641597106 17.64650474762 -7.24383098417046 0 0
-207.349220017754 -31.3872550116661 -23.8382587248502 0 0
-98.5573219855532 23.1140587333654 5.01066667535428 0 0
-2.85848488188919 2.0670027254227 2.18179189245692 0 0
-63.0113707957318 6.18597937738625 4.64286788401735 0 0
148.417482548494 -13.268003299942 -17.1686694321718 0 0
-169.904849926993 -12.017993380774 0.186826426708421 0 0
-196.494036483136 -54.519244361368 1.32374420543227 0 0
182.445592605886 -22.7875542126956 -15.7607461955365 0 0
-88.6583880866993 -3.93217259101791 -6.84452995511899 0 0
-95.9750677703255 16.4513118184418 9.02577163840006 0 0
133.509452636875 -0.931041355116977 1.75697140594176 0 0
203.360343421562 22.8799667541247 -9.37634204079171 0 0
190.271122517699 -16.211534485826 27.1373931382838 0 0
180.477191975664 4.52747831909596 27.4994914282614 0 0
157.094792674196 9.46074591191129 9.06191145861617 0 0
-209.456178604616 8.84489155346961 8.54808521073725 0 0
203.42610218989 27.3497074699489 14.0326936761715 0 0
199.771562539595 27.7215294614153 30.7704074247717 0 0
102.821228113953 16.3009480427642 -9.20673592543486 0 0
30.6326208452983 19.0329328414833 -25.455254638737 0 0
-206.995752089847 -55.6634645468467 -4.25351306810829 0 0
-199.245205743921 11.1488731793163 26.643908925564 0 0
168.444973418928 -9.6433067173025 -18.081617262116 0 0
-199.685810437157 -9.25931414873554 -9.97764458315187 0 0
112.307466392046 -10.0019441361542 -6.54296392488519 0 0
-36.5097454063109 2.55023173200368 -23.9738762387621 0 0
-45.1439842343341 1.03940367804894 -2.79533931711629 0 0
-80.8157209379209 15.2605656770212 -19.927755785061 0 0
-201.231578869888 2.17579644717269 10.8780448610692 0 0
196.745345030658 -22.7537875555658 -15.8041728054003 0 0
-166.165287342697 8.48582312590226 -2.04323828354399 0 0
22.8365463169255 11.9100600184826 -6.77045346780147 0 0
173.998559392806 -17.4839381473757 24.3713080489336 0 0
136.751412539182 3.44264389418234 3.55071316354089 0 0
-154.915363532667 -5.40331569019087 4.58283593520733 0 0
200.497890122815 -17.6983728802356 -18.0153654839515 0 0
-73.6384685537098 16.6687100681738 1.94776123204799 0 0
187.042673649391 -41.4259781077878 28.2769344363754 0 0
-190.772669759851 -39.8896777740954 -18.902032506412 0 0
135.185562236695 -17.2792327419256 -6.97723915788095 0 0
-187.914961466916 20.0866585504607 28.0399973626054 0 0
-77.9010842466633 0.952917339663625 -0.316847773780829 0 0
-26.0597635022189 18.6047269060306 -25.1396868658701 0 0
-127.365854206083 -0.450739453251545 -7.94761393098196 0 0
14.0569862709112 -7.052460022688 -17.4240812887144 0 0
-50.1491365148454 11.9258494421807 -0.331743262913208 0 0
-174.907912946617 -2.49846463367673 -5.03311178698116 0 0
-35.638410583345 -3.00307967742882 -10.0606818507576 0 0
-97.3458423089267 13.9027712726184 -16.8340016353776 0 0
125.52956927726 -7.02626813384577 -22.5859029894753 0 0
55.5404925040226 -9.09181414526287 -15.5083704396661 0 0
-162.618039666587 -7.68315112574336 1.09588951826309 0 0
181.593492379771 -25.9656378080981 32.0120496695053 0 0
-163.770994385291 -9.67951782877054 13.8745678885381 0 0
177.382983537756 -28.6774448363552 19.7512098806654 0 0
-81.2014595789014 19.8343654077611 1.80738994183901 0 0
-196.85580892446 -36.2317298190275 -23.1735351759193 0 0
-149.274310659942 -4.9308190329031 16.3125970269555 0 0
186.004814896275 27.900066151095 23.4865876929944 0 0
182.809616344348 22.233735799921 33.7980733840195 0 0
-189.617471874844 -49.7496611176071 -8.67315977126728 0 0
169.538375259928 -24.758914669386 10.3046238443865 0 0
-166.074882589139 -11.1695353049673 2.06231437344194 0 0
-137.680863190316 0.457102877993275 -6.70024204831506 0 0
146.431079923355 -12.9364944496532 -17.5714961691835 0 0
-15.1825979858845 22.9099314029787 -11.9382945960329 0 0
161.335535889863 11.0501152759556 10.9859630768936 0 0
90.451625625071 14.569830109398 -25.6822910729062 0 0
80.9110255628425 4.5219539480134 0.651253517281222 0 0
-203.708055570182 -14.4150285807493 -10.9282557744921 0 0
205.921832651059 14.9979069289655 29.8386971808252 0 0
48.4486711078288 18.9617280871118 -24.3507318772693 0 0
197.687176334992 24.5803188995883 -3.29639705430774 0 0
210.525081292934 -21.0758268633855 -5.42874924666536 0 0
-146.294456140287 17.3080368078522 -4.88752724198458 0 0
-193.618409141844 -38.1996318668323 9.20605470666245 0 0
1.27561183309971 -6.18290208748281 -17.4944950516099 0 0
76.1264635595226 10.1597637587587 -4.28780534263833 0 0
169.49489377531 22.8944059816021 8.12490388895965 0 0
177.841656062486 28.8493054095781 18.7721472408207 0 0
-54.3734772276304 25.6788598826608 -16.2015628677419 0 0
174.467310808802 -1.61776370457714 -18.0317240844319 0 0
135.225431369785 -16.9962835661612 -13.7944287379412 0 0
32.8178470528849 1.24576111409974 -0.201024243338676 0 0
57.4609379473827 -1.22292434205305 -6.13076543766199 0 0
-58.8480009908894 3.0579397191664 -21.5104973778321 0 0
-142.805936134353 -3.24113622461082 6.45713600899405 0 0
-188.058827941907 -47.5354145345797 -9.41082554570292 0 0
-143.146204755071 10.9697846030491 19.9994534794825 0 0
189.342548167317 21.8802889270174 -15.4269533739525 0 0
98.5158713364754 2.02764662320565 -0.357224975503928 0 0
-215.468172487577 -24.6531481914425 -17.2444737484931 0 0
187.182733307745 -4.05387652621468 15.4877645377904 0 0
177.205269876044 5.64567000653255 18.9516696268765 0 0
-161.557858787924 -12.4945441759066 26.0544734253534 0 0
-196.76154824692 32.2252736143703 2.52566222542255 0 0
167.828065022386 -28.3511197321977 -1.83476109037984 0 0
204.349083645313 -17.0778818997508 -16.2582406868453 0 0
-207.273882114399 -20.5539739426787 8.66779723226239 0 0
-200.309860235045 19.3146187889323 27.6178581463659 0 0
205.722436868089 2.94843560416511 1.03053200404867 0 0
-196.925692549133 27.8561925641976 22.5496037748135 0 0
202.331215685134 29.5646752418872 24.1312691143698 0 0
-129.971147997542 10.0512317410657 15.9570415908838 0 0
202.811458028162 26.0514104346894 8.54131325087022 0 0
187.748120264953 -19.408973074327 33.7941956747113 0 0
-101.993149698185 -3.70206528787955 -5.34036225613664 0 0
-181.207226617219 32.4123515603373 5.93415906666158 0 0
210.036947122212 -16.5031578060054 18.6965769717466 0 0
191.450000395371 21.1089865039 37.0244175819568 0 0
-186.106100810825 -39.9094691616527 -6.93760279930878 0 0
10.5642967775003 6.38259795599097 -28.9620074769728 0 0
7.46394598759512 -3.45394606553594 -11.3630697000185 0 0
177.111173123939 14.5562181173074 29.3724009266564 0 0
-26.1655399662754 12.5471324349519 -4.30263121820352 0 0
194.412185794151 -5.09401269625344 8.5469346669677 0 0
205.673925638053 -30.4120818500366 31.8324195086997 0 0
-191.723436889857 12.2991483101281 28.3480876822441 0 0
213.338678862127 -26.245525365977 19.2386435208305 0 0
115.965908360262 6.09995141053623 1.85907215704058 0 0
23.287472191911 1.04597166159613 -27.4931325115384 0 0
124.094749634833 12.1989879615044 -24.529685742189 0 0
-164.399229627818 -5.74901644494124 29.3884969074701 0 0
-8.98612258453821 -2.67414524109343 -24.1742633418312 0 0
-212.809816731367 -54.1777985310061 3.44332513373119 0 0
-147.064989984414 -0.291003581616998 20.6304286837103 0 0
174.849032902908 -32.5743552483051 -1.58569186472627 0 0
196.98680982407 -34.0264717736858 -6.5002198191369 0 0
65.3050375981945 10.5797826016934 -5.43025685016708 0 0
-154.085632760153 5.48187847541001 -4.06715092026207 0 0
204.879917331744 -17.5146701068515 28.6169817180029 0 0
44.4986047393475 13.0659591188721 -7.83299568579599 0 0
204.132338276469 -24.4862061762801 -12.5313215029134 0 0
203.850314073942 1.99068243139431 18.828740321041 0 0
132.275121004877 13.9051521772345 0.982291059578122 0 0
202.741505417917 -33.7638415157572 -3.26402317059638 0 0
174.052266979952 22.1415524584967 -4.02838482502741 0 0
17.6958092692891 4.98526153571273 1.68685262972986 0 0
179.493258665358 -38.9513052746048 2.93483263337514 0 0
142.206124360004 -9.08966730799721 -19.9939203314114 0 0
4.90526729228843 20.8707606954539 -24.1203764563647 0 0
153.280717986231 -19.6100056515062 -11.9207930566531 0 0
-120.018451169685 2.67042593502424 -10.0867001402919 0 0
193.688060021981 -0.540361835891235 12.3934642588196 0 0
-95.1548858282841 26.9254195205769 -6.39866458693126 0 0
211.976993011698 -37.8679489449073 17.076908858263 0 0
70.3325121715517 4.49576890169902 -29.2184058081747 0 0
199.32984444044 11.4287270753868 34.0135824490967 0 0
182.417174896359 -17.8540598825155 29.2789008058297 0 0
210.419212500607 14.5129231878941 8.37329717246003 0 0
180.934867844329 24.047878642034 29.180904165962 0 0
-210.194528973421 -18.1067655009563 4.13265297510513 0 0
-62.5627132156125 -1.45689091983528 -5.54918619404468 0 0
26.6434364946661 -7.84587176197668 -19.809235288574 0 0
-83.4901833662172 18.5078881772529 3.62005103583209 0 0
198.21940713017 19.1610889332955 36.7418869532143 0 0
147.721024456027 2.19161121466321 5.16931171715843 0 0
-4.03968577474042 14.9512868013785 -27.7370025532472 0 0
214.41639655099 -34.2622889347588 14.3192282182025 0 0
-179.674645902686 -2.01943772052053 18.9259547129091 0 0
-213.085027495888 23.5504295627068 7.25193941989351 0 0
23.8111011143657 21.4880184421188 -22.1769604905156 0 0
-147.631920813253 20.2853740757019 20.6183358685076 0 0
-211.97532343981 23.1754242708211 17.1969746528476 0 0
-210.595432254685 8.82591135851808 25.3320109428563 0 0
-193.765062661336 -28.0046579079878 8.77874657839265 0 0
-134.375856779638 20.9971539363448 -5.63614214486329 0 0
-192.879948782361 21.1149281260279 27.3086599565367 0 0
50.3237987425803 -7.48092070852688 -23.3458996826302 0 0
25.7212793082829 18.2369722757371 -26.3553194129238 0 0
-136.60137219722 10.4477324839659 18.0560402894175 0 0
50.8275916879025 6.3800825517379 -29.8182379874394 0 0
32.9844359833189 2.24987408134163 1.37051029926521 0 0
-206.830315950617 -1.43941564881355 -1.49257570068162 0 0
20.9358596277764 2.75346010816335 2.1504201481771 0 0
171.051974921003 -25.0442970809327 11.2351961649346 0 0
68.8110830155565 17.0941424707078 -24.7630938112061 0 0
-172.070838899956 -13.2440345967767 5.56147791373434 0 0
58.5415038916904 2.9228834884125 0.28929798541578 0 0
52.3833305441289 4.15101999712141 -29.3419666869159 0 0
-220.289779985928 -27.5000629838967 -13.9527675320441 0 0
51.449464894959 -9.31214773843281 -19.5644110586519 0 0
175.874812732978 -19.589665716705 -15.4118977244969 0 0
171.845328542651 10.3267304826205 16.8307510466426 0 0
-99.9964014997508 4.08633786751494 -14.5572427641579 0 0
210.3184185283 23.6779931643164 12.8211218117645 0 0
-206.89663060222 4.04922317514382 -2.49123672758834 0 0
206.982253157378 26.1196447526571 8.21033445563373 0 0
-201.717913724194 -52.5333394377886 -6.97314535345553 0 0
-176.055077684452 -13.9752308970663 -1.03425589558791 0 0
-177.05834141436 -15.6855284955791 1.33403222867068 0 0
-2.97587504306402 0.308306858385087 -5.70381592818682 0 0
127.469018534453 3.59397923240283 2.30410365021853 0 0
-91.6727361354305 3.06340272053755 4.09812991526186 0 0
-101.045945398859 -3.61349916766522 -8.28995542412658 0 0
53.392465665684 -7.66886403654546 -13.0543656159578 0 0
-38.8273510732411 0.354795274179844 -5.04410486004114 0 0
-66.2068922589385 10.9605893492094 -22.591022396469 0 0
-70.2823071114282 4.23392503142474 3.99213564787581 0 0
-4.37617466901389 7.77769661838666 -0.811468233335329 0 0
203.842507424343 27.3636151930506 17.6566001809334 0 0
209.424518056707 23.0887974979756 22.4283954438902 0 0
-190.125363768874 -0.5439920768137 17.2195047869112 0 0
209.179247749262 -16.9903948884681 21.5439074211783 0 0
-11.2335440622403 -0.576269653750991 -7.76137088186538 0 0
196.488745550041 -31.9919701885558 -8.75775156359067 0 0
-166.516718006251 -10.3316680766091 6.58133965450471 0 0
-137.506869250998 12.7547646788831 20.3506775945265 0 0
172.1471566389 -25.2331594840923 13.0501461291818 0 0
-8.49674448075449 1.31771500600907 1.0904621560656 0 0
173.004274618375 -8.11072525841274 10.3398145878859 0 0
174.591690631759 -8.43384046168102 11.2582575211825 0 0
-206.920183318052 -12.1460776729479 -6.76687155122195 0 0
-114.7580255933 19.3561363744375 12.4475931040601 0 0
97.374948904426 -6.73847744193927 -6.82210833799636 0 0
-156.687600480864 26.1061553840258 2.40650323017549 0 0
162.753289433842 -7.7541709806336 6.15422945323566 0 0
20.0349767035304 4.82620769216497 -28.9182027295056 0 0
155.241209472389 -18.7736418135646 -12.7172584030955 0 0
-55.8782904985899 -0.410129228243545 -4.97800582084456 0 0
207.198740438582 11.2369471515317 -6.98719625537355 0 0
112.920188313369 -13.8785987220517 -15.6293082810626 0 0
-103.488400391724 11.8800677568917 -15.5513286565272 0 0
-189.937720220377 -38.6421566035514 4.10554289571653 0 0
197.687187501835 25.1524861059636 -0.865804756989302 0 0
-207.107767925584 10.3684272318942 17.266922493912 0 0
-11.7209076690008 15.9494593185085 -27.0334927010319 0 0
49.7067305152203 -9.23751967049217 -18.0426608844804 0 0
86.8442338851237 16.3334584419606 -23.9996120396424 0 0
-174.500649152693 24.2581764914539 -0.582206535095964 0 0
149.649139910434 -21.2307414291434 -4.57087211056024 0 0
173.320469597259 2.49185851095321 -19.1640734908548 0 0
76.9370609232769 -0.476625967618175 -3.2184701172922 0 0
-157.057133090906 9.54353755796276 23.395094141244 0 0
211.205889939551 -34.9919421579486 8.47765925037033 0 0
-164.939819367775 27.2214769781963 5.37959366996433 0 0
-1.06867618600113 -2.75573732540218 -10.6521266946557 0 0
79.0554834801667 4.26648675242585 0.458873158030091 0 0
156.528876508546 -7.24915192032389 -19.0262370303418 0 0
-37.7610388468439 20.5839540740777 -23.4391343402134 0 0
-188.840056723537 -14.7216997111204 -6.78315743893574 0 0
-139.968750448663 18.6197163584436 18.7343362249149 0 0
108.313061961169 -3.52646639665111 -2.99716741201967 0 0
-196.072950437127 30.4285825992762 17.7420206375479 0 0
197.073762067159 -2.96366416261693 -15.0678077143165 0 0
179.149120066465 -39.7636183998685 6.09701346407924 0 0
-2.32620612444498 23.9520233623669 -15.8574541464335 0 0
-66.3269740661546 7.25596964236429 5.36464483538892 0 0
-180.888815547072 -11.4756754286401 -5.0638709642857 0 0
177.256507916307 -21.95915360696 26.089593297317 0 0
-174.110665456282 18.4664940920677 26.3499764442309 0 0
189.31923370659 -41.5750303445844 19.8180983251398 0 0
138.717337955647 -13.1745684861082 -1.45116645367623 0 0
15.4188709674171 0.642512206952238 -2.44188941508055 0 0
11.9826249604998 8.96840716773871 -29.3330539862616 0 0
-203.850436341079 -5.06031718365023 -6.36437034719286 0 0
204.962150979126 28.7234812335515 23.5306474552014 0 0
-55.9753954786023 8.99187336541251 3.69475233485578 0 0
-168.47207781066 25.7802201008089 1.37094904226979 0 0
-193.906801885913 22.9111011114811 26.2832626064198 0 0
-106.359236632232 26.3881599744711 3.99815878737336 0 0
-119.842677404465 16.0115946838543 -11.2507792803684 0 0
-216.344290498196 20.4168613084895 11.8602813184162 0 0
166.798842549098 -13.702206517937 8.19731339009795 0 0
-162.898338544726 -8.44043159851207 29.6467040192646 0 0
-193.368374524852 24.5994490766615 25.1186863381757 0 0
71.9443904863835 5.09133861271798 -29.2851495943246 0 0
-213.040399067295 20.6838840841129 1.7862484398109 0 0
9.94633507863328 17.892713157464 -26.5284701376431 0 0
209.503525038317 14.6781330248513 -3.68748797576501 0 0
114.815780968181 12.4718329561628 -1.46710510863234 0 0
184.045497180124 -18.4104042782837 30.8566041270085 0 0
-100.948358267603 27.0315816175093 -5.07775560515625 0 0
187.699079441779 20.3132512987109 -20.6855587297825 0 0
-191.470935190923 -45.641013843531 -17.0886847591444 0 0
-197.082600989501 -11.9660797984711 -10.473244847825 0 0
205.257769326605 -10.6459206093255 -12.4726616222509 0 0
150.534561681392 18.0474632745325 -1.34587761125214 0 0
164.583067684455 18.5632772414964 10.875003350565 0 0
20.5120147677556 -4.10255428081624 -24.7399980633428 0 0
-190.374964096387 -24.8651757159169 8.07402178746876 0 0
