"x" "y" "z" "f" "a"
-161.144261693824 12.1716193146769 -6.82044635050605 0 0
105.215251341425 -12.4393275716232 17.4617399106902 0 0
-145.187522816311 7.11661326988815 -12.9679803379316 0 0
203.097974619544 -13.532202078643 -25.0168680383342 0 0
85.1549211066742 0.441411672694335 23.5609874329365 0 0
-9.2272752850154 3.62172956544287 23.2080994114013 0 0
-185.027990816656 -29.3712168870724 8.05821048918873 0 0
-222.168778930327 42.3155969002992 6.64270404248633 0 0
178.708376660297 -18.5587128251324 -35.0041499040676 0 0
200.820333295959 -7.54038837369851 10.7083179692899 0 0
-148.239834990219 8.4474046236144 -5.82767071320879 0 0
98.4265067670184 14.6847811870666 15.1684284862168 0 0
205.555432699829 -32.5961347069295 -21.8251403166702 0 0
195.708166281155 8.59995381175985 -11.7481949380424 0 0
-167.888766101375 -10.7219738967491 -19.5583869833723 0 0
-229.327729803367 6.98695657571613 2.6183158582637 0 0
119.435106805713 -16.0548069972753 10.1988603412056 0 0
-136.201394211618 6.37388264729028 -4.26896129344316 0 0
-226.553544940947 7.27298120193917 -10.3129322830556 0 0
-218.588180904404 26.9489853123049 18.75878422394 0 0
71.3334267937858 12.9390300953675 10.6274783935774 0 0
163.865552002329 25.3136593283511 4.59715263962394 0 0
-52.1370421264117 -7.85170190731102 21.3369847506043 0 0
-113.982592680527 -21.8112219936249 0.9785075413442 0 0
204.841444029452 -14.2822629106285 -20.2996625726636 0 0
63.5442897283488 0.360879864962853 -2.06743485612499 0 0
-185.392195581417 -10.1358893885592 -18.5326437577542 0 0
-195.752358925085 0.0125999105774927 9.85256269313694 0 0
54.8809261475659 -3.40082511248246 -2.07625553545601 0 0
-216.927254594707 36.9181101665866 -17.6436006719542 0 0
-170.616439616087 4.50311699651006 6.94972028491991 0 0
13.9096698570037 -14.1277822105435 11.7003855552568 0 0
43.4717013021767 -11.8036074397358 6.32256189689841 0 0
143.577610643791 5.28439604375158 -4.18680663931555 0 0
-223.738993497344 5.80624949375497 6.87986707836579 0 0
138.241986073642 7.57731725106443 19.899299188568 0 0
-45.9022570452711 -17.1954489458918 8.66203410155562 0 0
175.947898710051 -20.3795008799656 20.9870409586118 0 0
196.275789728933 39.3050411598917 -26.0402456008325 0 0
208.062607008143 1.72837868140471 2.19674664751647 0 0
115.504645463354 -12.6241321699622 17.7012071352727 0 0
-37.4404859222403 -17.0555637827556 14.7536523094694 0 0
150.952482131145 -19.4092001434161 7.13532894001912 0 0
-222.288118243547 7.37627007717792 -11.3557386538895 0 0
-56.6252753017267 5.11214313273944 17.0863369974037 0 0
137.43186471342 -0.957852385780939 20.9588341273478 0 0
173.402815330145 33.5626954598442 -3.96370579945488 0 0
-184.248297518063 -29.82418884498 -20.8016713364902 0 0
-0.443179915224694 5.59697795324076 0.583481761330541 0 0
138.707142119302 -11.4451465543837 -8.09983392544186 0 0
-196.812563265295 16.5655532996048 -10.8100784569347 0 0
-189.912979439274 -11.9229100965105 -15.7670045453065 0 0
31.0073977830617 6.06889273810493 1.67060911357579 0 0
129.883055999432 -17.5441472280099 2.76844584431867 0 0
-190.430300528916 20.1956373992519 -3.77865281987949 0 0
-30.393981350467 -0.45636022170927 23.3478316439591 0 0
166.308613159314 25.2290950965988 -6.80828442830441 0 0
192.447629869044 -11.1129877456321 -33.1827557154255 0 0
184.086761700158 33.7635091601843 -25.372387909971 0 0
102.060319886909 -14.4425516654858 12.4880388646443 0 0
-11.7085961650771 9.64080843744274 12.7007526818331 0 0
172.303832465791 -25.1352345820411 -25.1003752812223 0 0
-125.939860235923 5.34228816384129 -4.73690264935488 0 0
-202.531472643121 8.48720991775919 12.2883757516103 0 0
181.313441513141 32.0008136739024 7.87628132174274 0 0
-159.104778902671 7.68615326282479 1.47625104927694 0 0
173.322292721951 31.7971491443008 1.10986645709664 0 0
193.001958250113 -17.4581381797248 20.7195913229773 0 0
212.120072234329 8.93352751178363 -2.01091867384153 0 0
124.219833609591 9.91909361788274 -0.695005795535767 0 0
-231.9326694635 37.4349120153895 -7.8800868300211 0 0
-213.893066214893 3.0651817087256 -6.66421667629437 0 0
-143.757762677258 -23.2373694949489 1.07932839038844 0 0
182.655116995853 38.6299366628557 -15.6495015664261 0 0
161.400170739178 -18.0117634012999 -15.0010929172481 0 0
-197.102137216394 -18.4648982149629 -16.961422180849 0 0
125.300564490505 8.1157338353855 20.2535594249705 0 0
-120.544333424629 2.13902986248972 10.0448255634796 0 0
-143.042379004508 -20.062321837929 -13.3105351069171 0 0
151.347638482425 -0.559413820301894 -6.80381694418768 0 0
197.619347280523 -9.88235279732014 -29.0308811783858 0 0
212.583676222775 34.4792179324998 -19.4291590667858 0 0
-102.246757979132 -7.1587559014742 -8.10334108828683 0 0
183.139415441197 31.6665543190949 -25.1401483051991 0 0
177.440516257155 38.5552995353818 -7.65099656139664 0 0
172.684276385332 -15.0578547393453 20.0373338426139 0 0
186.538634826066 -24.9642013133856 22.1262539667403 0 0
-206.19683802028 37.2035917317189 9.52539191591069 0 0
-149.635347754976 -22.7580166382649 -14.289387989413 0 0
-194.362658467933 16.2567898656787 -9.97797223983803 0 0
175.225265066094 37.1592472768767 -8.13030515202755 0 0
-193.137618484543 13.5530003592663 -10.4493343547906 0 0
46.2657980881272 11.8174444368126 15.5726675114132 0 0
-202.303205925899 35.5435612538633 -10.0786310623827 0 0
-153.333885700155 -22.4671739641716 -17.1008803122819 0 0
52.0162315481259 5.30650662638886 23.0800802778126 0 0
-172.093487547065 -23.4681528893778 7.0181016919243 0 0
-37.8702772250068 -13.8836392425806 19.1513275196473 0 0
52.8921529200465 -12.5473827691197 17.6110624505595 0 0
208.437294756805 -26.153709153118 -14.8884335372063 0 0
-118.345362466354 -17.0757574365037 10.9102039974346 0 0
188.052097748205 35.7576073793772 3.68288048890349 0 0
-213.047129314549 17.4804599235279 17.6695567296847 0 0
202.99809997087 -32.9491901295955 -25.6758473887479 0 0
176.763386700352 23.5759530356079 14.1258368903052 0 0
-228.393720204162 9.94275313845273 9.55307615678236 0 0
141.754142157896 -11.5925013349749 19.1887321905509 0 0
106.629759349809 -15.3449092192369 8.62108329118281 0 0
99.3668470702533 2.27418927916552 -2.14062088158672 0 0
174.046341275021 32.6992125270504 -0.364600447396839 0 0
188.877485336853 37.8334350094958 -22.7761168390961 0 0
-124.134193173936 4.00992809713534 -6.1042191759815 0 0
183.952490851112 21.324775926046 -26.8729307735966 0 0
176.316874286817 -10.5184680196849 19.6304229966144 0 0
80.0265711860253 9.57488407486746 20.649769448307 0 0
179.724040080753 32.5911702424332 -14.4966566216461 0 0
-10.7577275222736 -6.02652803289197 -0.183250202943662 0 0
119.833370536463 16.9412552062886 8.14440252191011 0 0
-207.813229153342 -25.3092932836833 -19.1946554140746 0 0
146.679493031268 20.425860437492 5.12282117765204 0 0
-151.116127458833 -14.1096931328647 -16.6011044881112 0 0
-127.90308416267 -15.5973596517886 11.0666517611529 0 0
193.340657414718 27.4606143503075 -31.9558372744453 0 0
126.693063057393 3.66072570717327 21.0847441933154 0 0
61.4823310296327 -1.10252797923526 -2.37569798194218 0 0
-177.856824288623 -21.5815157966285 7.69991648283491 0 0
203.270345691118 -14.0852100269174 10.8997468206757 0 0
173.584109628453 27.3069934100144 -10.5414434383306 0 0
72.7933284393941 7.64105119089489 21.8552517382448 0 0
-116.347056696077 -20.3736401978083 -4.19833159058756 0 0
17.6214168302027 4.56234504841917 23.3176985861773 0 0
-109.423495250489 -1.99779206086022 14.6059482862332 0 0
171.090834595455 -27.1334083542987 -0.0761029531428101 0 0
-188.615030004651 -33.1197590274999 -17.6445713127044 0 0
102.30374587973 15.6251382815581 11.8049695012194 0 0
195.162112952513 -31.0995239746243 -23.2434774801923 0 0
165.29158469633 -15.9528145164442 18.7805753246975 0 0
-213.531246687097 43.4042609952542 -8.41925156278247 0 0
188.989872919276 9.96150997229776 21.9653347611153 0 0
-184.567214701773 -39.3088783620419 0.593261818034492 0 0
-128.351083691297 7.13051491733669 2.32439298546993 0 0
-194.974851460487 -11.1130910713551 -12.0608688465243 0 0
-163.127871657971 -27.9104680185085 -2.14966428716376 0 0
-233.216686754224 30.8346636863362 9.26968018983293 0 0
140.717484540479 10.7736587820927 18.855490271077 0 0
12.178575893801 4.45824606832023 -0.176844371650961 0 0
-35.4189153521852 -5.64521372425532 -2.49395118840179 0 0
3.42234459757 -0.123370878945499 24.1677694689453 0 0
72.7545921356895 -0.169142213423283 -2.25210970383344 0 0
87.0102599509513 -2.82595765406918 23.5402235228579 0 0
-182.453763435189 16.3511355628744 -3.70770463693392 0 0
-181.59771506614 -22.2576224841728 -24.8028638113169 0 0
0.238065653442767 -3.7774031109198 24.148704212068 0 0
-195.236650747379 -14.213987396075 -10.4173133049596 0 0
-91.3350736385328 -12.5900370650974 -5.07522573838073 0 0
-34.7169967188306 -3.750684429109 23.1811610875279 0 0
206.644232209007 36.2339211197002 -24.29978914732 0 0
-124.623121881867 6.28135883451806 -2.62009396477691 0 0
134.353024683744 17.6138306810391 4.14769687225973 0 0
167.80654727856 -17.6682632465514 18.531350808107 0 0
197.507024848377 -33.0916183010219 -11.0626645835282 0 0
118.236179476256 -15.2072462259362 13.0719196705578 0 0
-115.428570660229 -19.0747137446316 8.38293982687679 0 0
-29.9645457456773 8.76097120076137 12.2341933628744 0 0
-236.914165662052 30.7908495786787 -4.28048958436529 0 0
-151.76312388436 -5.90893809330601 8.88073352003743 0 0
24.7251940461235 -11.3021378955598 6.42408745928091 0 0
192.904306565393 -6.04464210673358 17.2033710242296 0 0
-201.97984177187 32.7160278967104 -12.2528633509133 0 0
-196.866925646731 20.149922798902 -9.4079017473535 0 0
189.59091970882 14.8473696798882 -19.976100002129 0 0
-74.690018208903 -17.3754241085353 13.3799405427728 0 0
173.844097812286 -2.039027947102 18.7248340298452 0 0
-137.993141456829 -2.65183935002882 -12.3451368369118 0 0
-86.6494890457328 2.64707377577089 14.9002687334725 0 0
172.238985223602 -29.0678699816533 -22.7767736188362 0 0
181.500978611937 -33.5775701431512 -21.9960117535032 0 0
-107.381085488802 -1.60368447171358 -7.61572413294881 0 0
214.430742648068 14.266680326373 6.60117808063613 0 0
-200.762144333358 -20.233835879638 -25.8454263648356 0 0
-171.061934343592 -30.5441285936179 -16.8510113389833 0 0
183.122609096893 15.5403410789357 -18.5875664664023 0 0
164.323316119846 6.38676099499372 -7.36329098061023 0 0
72.2374727524392 2.11040878091716 -1.61261604110093 0 0
-221.270940569059 43.0396174799355 -3.14280173100419 0 0
210.239770487006 9.69003606232164 -9.30622617191352 0 0
183.454652912901 39.1002498405608 -2.90866827428402 0 0
164.580117657106 -20.613440518313 13.1338293390488 0 0
189.087573595677 22.0341467740676 -30.2185236339401 0 0
-172.928011237932 -31.3571840717922 -16.9518192032112 0 0
-176.660782911728 -14.4396017564488 -22.9293537191653 0 0
-65.602549199453 -9.49708729343245 -3.0590982944255 0 0
205.184440871088 -10.845027606353 -12.3181195243734 0 0
208.494536637409 -22.5088965109584 -12.7690250958545 0 0
-221.883373365023 28.3105954855559 -21.2900296234897 0 0
217.237189368948 28.7271150629421 -5.50443896837122 0 0
118.193604343235 -0.460920075987964 22.2560003277371 0 0
-127.061036484483 6.22135593650425 4.91127472097475 0 0
-113.48363288068 5.10372658367766 8.3259125076829 0 0
38.9962421870254 8.09369477954041 4.19242288998436 0 0
-205.778699460203 -15.9158546053312 5.00120301338604 0 0
-108.690627754198 -8.6831692546742 15.3527576337412 0 0
128.383411829308 7.03929107003354 20.3776689676414 0 0
-206.177746666225 -18.9224795819591 -9.78221267064131 0 0
-219.698462112836 20.3828267520775 -21.8288993381021 0 0
166.449734991306 27.8444994814637 -5.28891280103984 0 0
142.142367939603 -10.724820376257 -8.65720052376929 0 0
183.43359473966 -3.54627533742964 19.0967401155618 0 0
164.807820438029 26.5199432340941 -4.80780794236489 0 0
184.800263257843 41.4101761303297 -11.0548800049726 0 0
-179.456317220764 -25.6196199549047 7.37062846094689 0 0
62.9040289540207 -2.43944931621715 -2.45122299599489 0 0
-224.896969292985 5.41757815545736 -6.7731764279788 0 0
-132.688575926527 -10.5277503475644 -12.507352399547 0 0
163.930127855826 -15.7413517971465 -17.1801376583181 0 0
172.098051904563 -2.49151859250675 19.0124816866844 0 0
194.007172485956 -9.28614173381185 16.9635792365361 0 0
162.116156382911 -19.5048646086321 13.4955987638501 0 0
-201.389428431954 -26.0501463633416 6.03055218452543 0 0
-63.2159126013205 -3.54482513130152 21.1707366133007 0 0
93.6521274368533 -6.92586072828497 22.3117449374317 0 0
170.57745467621 21.3284969819187 -9.94309443495266 0 0
-168.798415943534 6.72318477133463 -13.139118698143 0 0
173.27418054254 0.986338809816994 -11.9826647540953 0 0
201.205761350461 -6.58365138522758 -16.2988365122593 0 0
49.0769834871815 -6.43302407386488 0.489842416384523 0 0
-174.610765366438 -7.91855193375472 8.67221940663867 0 0
-208.93284808245 -9.88318343261848 0.299307825885258 0 0
-22.4684034602849 3.58281986244642 22.712142940685 0 0
171.960940053914 -20.853367287125 -25.8366378214286 0 0
-230.633273182239 39.2074662569096 2.19642477061649 0 0
212.788557398987 11.9629792718481 9.87225311630385 0 0
-120.271331287594 -6.27097039344902 13.7561079777386 0 0
195.41951024373 8.43881870484109 23.4353469649879 0 0
75.3584220189416 13.2357389638849 16.0058828140116 0 0
-194.727320243994 -0.717814550858251 -13.0619231224428 0 0
60.5536498926029 8.06436426481238 2.22799671200513 0 0
-204.963192424612 -33.1006289117474 -2.4933480020642 0 0
196.075695295672 -32.3217450072469 -4.85015053324638 0 0
-37.4525707005158 -5.33663880470255 22.8160780773979 0 0
1.84299449609262 -15.443690179407 14.3399884246378 0 0
-131.488071033663 -6.29504640951469 11.9126215715166 0 0
41.5622016384666 -13.4459584196307 11.3604622022724 0 0
-205.924531997998 -12.6667118196635 -6.34292160789853 0 0
-99.2478658032243 -19.2361560994796 -2.08094475713543 0 0
132.318423089824 -8.62393554121432 20.7207885665725 0 0
204.561918703102 -26.1240721310262 8.60942777582589 0 0
176.113858176112 27.7344780480342 -13.1074228988682 0 0
-216.951010535366 15.7507755002715 17.4687074292746 0 0
-183.655641504196 -13.3934839883058 10.3350412698279 0 0
-197.264269407083 -25.3479562031517 8.15970883033395 0 0
170.697382442625 19.6070929167354 15.4436830871448 0 0
200.911751422422 -24.006251684485 -33.6704934866167 0 0
193.663431835435 -30.312065567693 5.85643258609929 0 0
-215.173082323105 43.039252297625 -7.30197014243899 0 0
144.661688798782 2.41400353784171 -5.03247687152545 0 0
189.033914078198 -7.33164867400883 19.1532483814322 0 0
-218.957292063098 5.68191184542626 -7.81367925625933 0 0
-176.428379680394 -38.1920571391388 -5.80011122824019 0 0
-26.1487172249598 -16.5318263884862 14.842955292211 0 0
138.185291675191 18.1969597530775 3.73779112694498 0 0
189.811661557618 37.57007668018 0.857697491590451 0 0
-25.7370549741736 7.59982311436722 6.08534979528758 0 0
107.544366839367 -15.4388043641875 5.35379683055057 0 0
-17.7818026594339 5.73731462125206 1.0613236726417 0 0
204.801435192205 -31.6356967150561 -26.1768714003841 0 0
-207.102437582519 -3.15271890837628 7.13022410791231 0 0
-227.841782529169 29.1436695324898 -18.7872037073476 0 0
192.22338902496 36.5165888879728 2.28159221064854 0 0
-114.984425435629 6.40657737616614 5.97029412246699 0 0
-143.13487021169 -9.05122184659632 -13.6666720406783 0 0
98.0680861113035 -9.5257241790935 -2.25839233878423 0 0
201.961123682752 17.6148185854802 -28.6903253786197 0 0
114.333435813242 12.6760659185034 2.48040422250188 0 0
-122.326237815809 5.67762788505919 -3.33784589205017 0 0
-208.81304334786 8.0577420506392 11.111532363515 0 0
194.842091637148 -28.833161452943 10.8313775943794 0 0
205.05766960013 -28.2712603894083 -28.534301908147 0 0
190.065544517311 -33.36821521041 -21.719923779118 0 0
209.995363127281 5.58268723459604 6.73621311842362 0 0
-148.043467028093 -7.91017169633064 9.36372180199881 0 0
155.525800333024 -20.5997745816482 4.61100211875016 0 0
162.208201218052 -15.9788761865629 -15.8922613029589 0 0
90.502398770273 14.3635012252505 9.72247571099755 0 0
204.926337758473 -2.80624821232139 -3.12784685823045 0 0
-121.779251190677 -20.4561904164477 5.84968861133804 0 0
188.218131417078 -4.42059315353233 -21.2494668540626 0 0
-202.132625382404 22.6872336116893 11.2059772837062 0 0
-97.1945952241635 1.15509977910105 -5.24715326660027 0 0
-232.619509401331 13.5968336715765 -11.8466309431512 0 0
95.708587175627 -5.12890199571935 22.9188806990917 0 0
216.663369351805 23.0998650896393 3.40345967662673 0 0
171.594648689895 -28.1630677800677 -4.28012825145302 0 0
-228.12430934738 9.80314777677197 -12.5602854763739 0 0
-208.686587210197 -0.71134793478772 -7.44674745244619 0 0
-223.255690643491 4.23440015820922 -2.59089448129971 0 0
162.091583139605 -10.0586242638158 -13.8237748134596 0 0
204.818059185235 22.9599384721505 -29.9081905706881 0 0
-22.6196499584626 5.01193844181568 0.00595482457993614 0 0
180.357799259044 20.0952013581707 18.5197051186102 0 0
-96.4997169229448 2.43099968303843 13.4856623099706 0 0
-32.1067413789462 -3.98738799557296 23.2664755658473 0 0
35.4325547685552 -13.9013069884393 13.6721617833015 0 0
184.484734985268 -6.35456878543811 -28.04844362512 0 0
-6.09214676559998 8.97731788227422 9.22027742054054 0 0
170.209331589252 -23.2146536140972 13.4141498780198 0 0
-105.507985365311 1.24603550265024 13.1969968867504 0 0
202.673476252313 -1.37115399505761 11.6546808315561 0 0
187.443528739239 -5.40932678075309 -24.098776486254 0 0
150.142024479551 -2.44550000152619 -7.34012149032508 0 0
191.532430405727 35.7912828997542 -29.4760075353156 0 0
-167.190503479084 -30.2942746380216 -8.3860607845063 0 0
152.278438574732 -17.2060217592374 -9.95154198132228 0 0
130.630860244679 18.3056331897472 9.6158330420505 0 0
-128.532167605086 -2.1669008031569 11.5721482571431 0 0
138.905400683508 11.025864203441 -2.11671485988929 0 0
203.283479603068 -27.9036693703424 7.36083693198241 0 0
-167.798754822856 -30.5798654511958 -5.50528167688086 0 0
-51.6392259026216 -10.1194041191762 0.393260465265772 0 0
190.75654438929 12.0365436071496 -15.3262598154037 0 0
7.3014178409047 4.6597800144117 -0.0884730000070289 0 0
100.635631195165 8.34422480024001 0.923147582640536 0 0
136.954184718462 11.0359601744659 18.8264109269925 0 0
120.522661705146 -10.1674729357754 -5.79210255766117 0 0
-70.3851733146571 -10.2015928461084 -3.53610694578601 0 0
120.387004595899 -7.5325862679981 -5.86933159414811 0 0
-146.140749478651 -8.12888587476548 -14.1828422970615 0 0
174.749766320336 -31.1795221382865 -6.64898081337694 0 0
-229.662860871997 7.71868337257252 -7.9795478484481 0 0
-69.984804234807 7.41055885613599 5.13079152696032 0 0
185.109973764392 27.8923431242075 12.214098150874 0 0
-164.627498325165 -22.9571897412903 -19.1232986190267 0 0
162.589418551746 -18.470263737768 15.4295349732777 0 0
-90.4247719063 -6.23573046906863 18.0607388108822 0 0
159.942783227806 -8.99454214006131 -12.2279987665869 0 0
52.6586775897038 -10.554404078017 20.5044507171416 0 0
-58.7622044564592 -13.0278261313679 1.17016536818837 0 0
-135.271716428337 -16.7957349044618 9.87834431663205 0 0
23.259998807203 -12.3072069808991 20.1597664329464 0 0
209.827557026912 32.3921594505734 -4.72921961753627 0 0
-203.875328926098 37.0387086534518 -10.3062672813279 0 0
212.861749575146 25.8441835802779 -22.2716730089031 0 0
15.7997566155704 6.82313093653673 3.23682493364006 0 0
174.904483447283 27.4054791527135 -11.8975775569964 0 0
-140.634706081312 -19.2727185516414 7.89438796406492 0 0
-68.5476528717164 6.29129800045938 12.7049295707051 0 0
168.694863033034 -2.15089055492945 -11.7249007616633 0 0
-152.678729044138 12.246040249321 -11.2797951719811 0 0
30.2717199111212 -6.10297016897353 0.848636633521009 0 0
-168.85236046817 -30.5090375887176 -13.5070108850053 0 0
181.305149177459 -6.08961066378896 19.0075950739392 0 0
-55.6442121544865 -16.0824276409137 4.836122753629 0 0
152.098179382563 10.5994194373945 18.7669235195702 0 0
215.100181394773 16.896933927582 -10.632573805841 0 0
-194.483254190664 -37.2015256016186 -5.20755228780349 0 0
-200.747720381349 23.2181902616386 8.73732279100493 0 0
-180.249618344755 -26.1448959954492 -23.024118221067 0 0
-208.701720000366 -29.9566454935229 -6.77615162286841 0 0
17.5087846020787 10.6971108260078 11.2504411557277 0 0
160.319693558758 7.34709439675824 -5.86459305346702 0 0
163.873113848633 16.7997685230875 -8.65915437310454 0 0
-194.044024760904 -17.2373221390815 -20.4985548256087 0 0
-199.405343825561 1.38709150459349 10.0830660477427 0 0
-158.834885647268 -26.9543747354732 -6.8021100899271 0 0
-191.779040059957 3.39772891451949 8.42812108395626 0 0
-189.703281334937 1.42568980356713 -13.2784300964799 0 0
184.954283279071 34.4551791623841 -21.6313086191494 0 0
188.214209296222 -35.7594997564339 -13.5827213455128 0 0
207.568076398085 29.2716437044359 -28.1820127172585 0 0
165.257483332554 -24.0157367059914 -12.4127247863807 0 0
-153.697045094994 -25.5129572056235 -6.33887483390701 0 0
186.675485827908 -28.6849865805449 12.6517780827617 0 0
166.646080370872 -11.7361024401467 19.7052280711186 0 0
-208.082145451363 -15.9015794117791 0.936751678151553 0 0
-213.425898423382 16.1348445685767 17.2806331970064 0 0
-123.629349687367 -10.1202744492238 -12.2802428350419 0 0
200.530477511674 -17.8869856214974 -32.6863752031079 0 0
-126.620815451966 -6.28544199322036 12.7173483137897 0 0
174.298367882904 -5.94354893007462 19.1749906386642 0 0
171.844033645242 -5.50828705855171 19.1676843781882 0 0
-47.1791984841426 7.45070827963531 14.4158108601056 0 0
-99.6643418489406 -15.2462439833192 -5.31219484205602 0 0
-213.774503676222 39.0087288620539 -15.4266330465078 0 0
-202.195023133716 6.49420047847792 -13.8601486220667 0 0
118.768773476351 -11.4073672251292 -5.01462538865651 0 0
171.050035352925 -5.39718540030639 -14.6725466855508 0 0
81.8961310687719 8.19519113567575 21.4585778717452 0 0
-206.553507217089 -19.574499217695 -11.6741998632323 0 0
-206.547122623893 -32.3489487567021 -7.33558219944034 0 0
-154.709944089051 -1.06947495978057 -16.5982204794027 0 0
-167.579134240236 -0.754359636285823 -17.9507699842325 0 0
189.091700084223 -31.8951858121206 1.84275619250833 0 0
-203.704759462976 -33.4047147584976 -13.3887524155007 0 0
-187.639848058044 7.91021493227489 -11.2887811157251 0 0
-58.2146673808116 -16.6684366964441 15.3605507326971 0 0
178.032928714706 18.9769800389791 -15.1680202766661 0 0
184.009171193428 -7.8895147803958 -30.0112270876931 0 0
109.503238198545 -13.767426356823 15.359062763936 0 0
-196.089777889067 13.2455798771386 -11.7565596206054 0 0
169.214470596707 22.4678504529762 -9.0006820073914 0 0
206.572755787491 -29.4686601056005 -24.3616746000114 0 0
-194.211182537228 -38.0995561418697 -1.97708076875384 0 0
-164.522164857839 -21.0030019903004 7.38038609830752 0 0
185.921211380943 -10.7447819941715 -33.2862435484705 0 0
207.057869422318 -21.1051545813282 5.98461751791496 0 0
11.4733346332421 9.48247107337456 8.66425536953381 0 0
-191.115123394473 -10.580078065545 12.0762154761722 0 0
-228.849951272807 19.8363360675229 15.021920875977 0 0
176.143658178264 5.3404455574521 20.7870263324185 0 0
135.876888940171 -3.25793585793165 21.2064658578809 0 0
-150.240119292367 -1.34212145803804 8.44733884333171 0 0
-208.499321850948 -19.8560604533715 3.77756697479679 0 0
161.771222642206 -23.1946426844991 -5.38363431893633 0 0
-171.095271389537 11.7462059971143 0.000808724861871624 0 0
206.267398303059 -10.4330202956396 -8.3438084025474 0 0
-231.386636884747 27.1759002800388 -16.6607942319313 0 0
199.440736052093 10.1028583656161 22.3360951196536 0 0
-201.503059903491 10.053743345578 -14.1899386238592 0 0
-212.114210720803 42.7562636484921 5.92045311754877 0 0
-165.925282132585 12.4189484856657 -8.68647620781119 0 0
186.444210341755 27.9420134078914 -28.8698492075127 0 0
186.263509718551 -34.2119282733913 -4.85179672223786 0 0
195.178870743965 15.3561713225529 -19.9304407936014 0 0
207.628780180287 -14.7625547765027 -8.40211264549404 0 0
77.4801159402282 7.74766780578889 1.81925420761202 0 0
176.638921157215 20.9394009265616 -14.1074053973443 0 0
-31.1182662132239 -16.9739988990814 12.9103615724754 0 0
-226.251212828591 6.7710160362204 7.06559853024266 0 0
167.274965358794 -24.2150146989978 -16.5211422273106 0 0
44.2410830517435 0.77688645806773 -2.26515182041675 0 0
-134.329355243813 -18.5804826157884 8.68281148400783 0 0
-236.122948626405 16.4501758634248 -6.85423752853835 0 0
169.078997191154 28.1297911512806 -6.97805647993041 0 0
68.8148154114628 -4.29680261931668 23.7445332010599 0 0
-80.6707043035055 1.74683778870153 -3.69760254871518 0 0
-104.527342699124 3.35695370448042 11.2533180044777 0 0
-200.110006947394 -16.7748561823728 -21.6104622623863 0 0
-178.403640567818 -14.3000525653653 8.5708840340082 0 0
135.405213588022 -16.5370418526254 12.6493069053349 0 0
-208.956035408277 -21.6759853477403 -19.3920019670565 0 0
130.837454381157 -10.4404722679314 19.9135010040649 0 0
-193.584615695831 -6.00280490428774 -13.0937866149131 0 0
213.941505058033 15.0587911748592 -11.2001640012622 0 0
-188.6937105495 -24.140231644799 -24.6478145678082 0 0
198.635989290508 12.9548808576184 20.070243521756 0 0
-72.7074644483582 7.37001540216111 5.07886100685448 0 0
200.05374639036 -12.1592012963311 -28.9090747885756 0 0
-75.1360214401938 2.78499216497264 -2.61899198570838 0 0
-157.368994614898 12.5597889946718 -15.400466989228 0 0
176.429356901362 -32.4115046253986 -6.99012429647141 0 0
-95.7414772858608 0.201668894529315 15.5940996154896 0 0
178.019400043436 -31.7985173056167 -22.0099929572033 0 0
183.432858541512 -35.6392987058401 -17.0404353931059 0 0
-195.015347921204 -35.6597278822566 2.7161930259352 0 0
153.398400705147 -11.7891210073828 19.1800223200922 0 0
200.898340901709 38.2643964181794 -15.2943812675573 0 0
199.984387367072 -32.9875354052041 -25.3904604039035 0 0
-154.35662692473 8.37398155517631 0.297693568612292 0 0
-208.459975488813 35.283113678517 13.1424729795123 0 0
-157.020013892631 -24.0273283664284 -16.6744093357581 0 0
-82.9908681732036 5.93123227337753 0.934530959468195 0 0
43.723840170731 9.13748055364548 5.57722257612953 0 0
16.7191712559131 5.42780787362725 0.983599722178221 0 0
179.208431736943 -34.8921696932241 -15.3180326019714 0 0
-224.2135925444 4.95615946575646 -5.61712898001103 0 0
133.905612840394 18.6751857415307 9.20727196599734 0 0
-147.869289786226 -23.2379478065563 -12.4586398158449 0 0
140.610551234907 -12.4875057281024 -8.41962787340051 0 0
10.4756147056076 10.6377273525648 13.0679847209758 0 0
201.753222332547 -26.1226898018239 -33.0452956551094 0 0
121.566731659901 -14.0451166334848 16.0161384235869 0 0
177.823720020777 -11.2886045674031 -31.2421455999973 0 0
126.1786592475 -3.65045824892874 -5.11554252708995 0 0
207.4622387992 24.2083374466668 8.20897929738115 0 0
-1.79201965973776 9.2781610910456 18.7245828381267 0 0
185.540448033411 36.5881500405245 2.55284370716823 0 0
195.872346923404 22.1087718024238 14.8839864130523 0 0
178.99784422103 -18.7637025593747 21.6590532828668 0 0
-156.101689496101 -25.8325316261598 -8.76696979075433 0 0
-165.887962952827 8.25191411185394 2.71483830955338 0 0
-212.244643840743 13.3423603383717 -19.0354983166202 0 0
106.436272327713 -14.8153080546299 2.52404459574912 0 0
-134.416841481727 4.49850306254155 6.5938225015344 0 0
196.079744672949 11.7932797492113 -13.7445064387691 0 0
-206.763670601738 5.68967185385807 -13.6491655744622 0 0
45.2407915426009 -10.9322891772947 20.4824813032564 0 0
-235.218967268703 13.0053624091972 -1.09103991218687 0 0
35.8754478315635 -0.644441746761962 -2.28095770123972 0 0
-207.001597632851 42.0572747533415 -2.9148546640552 0 0
-187.791535817819 12.6857942892636 5.40981844206762 0 0
180.882278619267 -35.4769325307136 -16.7733424562785 0 0
-124.243301624936 -11.1040651910532 12.8104806908221 0 0
181.5606076937 -30.76283250889 4.46174301309162 0 0
-91.6954122071487 -11.0749986015866 -6.12815026447408 0 0
149.575577271866 -18.5969941599349 9.63942446140438 0 0
-208.216355103103 37.8581907844026 -13.978654271258 0 0
202.910553852303 26.421266424149 9.03503557813282 0 0
-191.518801689006 14.6158958972051 6.8334760868482 0 0
196.614500803573 -21.8303845838098 20.1532666881263 0 0
-103.753763214267 -19.1322131923247 -3.32021276907886 0 0
-104.868859937626 -17.7219345852392 11.0632769746926 0 0
-204.345137880091 -12.610682104288 -7.87053004334863 0 0
37.3252314606216 -4.78596410792853 -0.552540221336859 0 0
-161.511434447379 13.0305468578127 -14.406283805363 0 0
19.4174817270424 -11.5244263071968 6.83141528528386 0 0
210.580586987989 23.435200311974 -24.9567913719594 0 0
2.85000855482025 -3.41620165600658 24.2245202919606 0 0
197.320703824316 17.5037289866695 -29.9022624230592 0 0
191.777666868803 -7.38273986181879 -26.4182280275105 0 0
-132.526902292412 -14.3851535742155 -12.9149101064481 0 0
168.128290854517 2.670860256359 -9.1451395362431 0 0
-44.98996671363 -16.9198762405525 15.0917011918214 0 0
177.802719894649 6.48929529184509 -13.3792517308207 0 0
-5.49117444019073 5.87386924923397 1.37632726319063 0 0
169.613726486055 -26.3277882549838 -20.1054959600487 0 0
209.552049973783 35.3389774510357 -22.5240935472941 0 0
35.4284016550336 -12.2140322608756 7.6201270655222 0 0
113.815247131236 5.58431434935559 21.3360261242161 0 0
-204.122089728788 10.9207150896796 12.9153909457331 0 0
-177.711019774959 -0.49900335820294 7.72059598364039 0 0
-197.405757089226 -17.3581766713897 -11.4646544873558 0 0
41.4404807397043 11.5850576433763 12.5940866457155 0 0
133.681047108037 -3.66235392485876 -5.78626960243237 0 0
67.6108528727174 -1.77989904970453 24.0535560281187 0 0
91.6236507162225 -0.749884284814322 23.4443275310628 0 0
187.65102442429 -32.7324069102091 -0.788367970235078 0 0
-213.760093298423 8.34859876160466 -15.0773844402687 0 0
146.028513030193 0.259232230548915 -5.88837297955131 0 0
-153.781052602175 5.68630578606977 5.47132512832275 0 0
178.617186258854 -1.791708101437 19.2061220226773 0 0
110.396731652813 -12.0257668482184 -2.88016990223475 0 0
42.5703120346247 5.19677102759291 0.401101133098048 0 0
-206.909686380911 23.3831712569383 -19.687521509805 0 0
-49.9116521270858 -13.3705300353972 18.9628374247685 0 0
174.739820182867 22.5636140366013 -12.5633463385019 0 0
-181.288195101577 -0.413456986316891 -14.3885700273037 0 0
-209.992977203149 -25.0758284827011 -2.78196133816814 0 0
32.4504128724783 3.60152141677513 23.7461356155254 0 0
133.843565868815 -0.362298401323492 21.1984922683476 0 0
-208.628110600052 -29.5629194223759 -10.0280313286973 0 0
164.875180195353 -13.1398417484394 19.6468890785163 0 0
-140.549128308575 -14.9534752391158 10.104738290042 0 0
188.990257563696 32.5446907201934 7.51795961906682 0 0
136.736071163427 2.04441917131857 -4.47392231898886 0 0
195.85489092325 -23.1455150627033 -36.6449582510418 0 0
-18.980603187264 -6.61774663491676 -0.138704134521192 0 0
-170.816639484019 12.2572504490117 -7.69072710131105 0 0
75.7999155931237 12.3506280412987 17.9516346848662 0 0
168.293143593076 -26.0254204852742 -4.19639112100744 0 0
-120.740875686804 -21.8011630136136 2.65706844778025 0 0
-179.46496128091 -18.5878567259727 -24.3759795956217 0 0
-19.4536589531464 1.6342545943658 -2.62160400103112 0 0
144.964028444242 18.8907179946002 1.92016369059027 0 0
187.363936704798 15.7027802034617 -22.8407538845169 0 0
-174.688032781587 -19.8524797725543 7.5372797441086 0 0
-111.669346797655 -21.6591789023634 1.01035612591607 0 0
-79.4754569532344 -9.55156990279649 -5.494860504785 0 0
-207.049349328219 21.6131249978012 13.6801486393982 0 0
105.042331513309 15.6748038173694 9.71264909709082 0 0
201.068309466937 -19.1961267523371 16.0156780956903 0 0
-99.154293741104 -9.04523143297373 -8.19494998509029 0 0
198.17973040812 -28.1703368232116 13.9514617439306 0 0
166.372456535336 -4.46250256733939 18.1112640273983 0 0
-149.206104242934 -12.3796266164956 9.44278750743364 0 0
58.802346617235 -3.2796550352284 24.0669833549259 0 0
-21.0453125113555 -14.0755188623385 19.4271933755493 0 0
64.2180362096427 8.43942688033188 2.51743725939955 0 0
210.572488253577 7.52379622284783 -4.88381360978136 0 0
170.224407399171 -15.3002798317452 -21.2707688639647 0 0
150.84711928865 -10.4962307431364 19.6914423874723 0 0
-42.3263588834123 -16.0603950615863 7.42944983595122 0 0
-187.120095245937 -3.22541600942942 -14.0012931872813 0 0
184.504848382606 -22.2464123499967 22.4378053993744 0 0
-170.971260997763 -31.7588099157925 -2.1359422532666 0 0
-109.544448046188 -2.25837970619907 -7.98248154476715 0 0
145.343741745483 8.72170000486712 19.4100478704215 0 0
48.0409707544256 7.44760905701322 2.88681819113848 0 0
-154.034155933091 -21.1698869109466 -17.8891961049136 0 0
196.491944394208 7.52214439743297 22.9525339167178 0 0
-201.46338889367 -35.0803764714895 -10.4243203689665 0 0
8.67927874031105 -0.605722687868013 -2.38601441686271 0 0
-203.681844227549 -8.71369820492741 -8.03453501311988 0 0
-27.9811324894939 4.00249629943283 22.1415261087922 0 0
-191.244887853369 21.1034280179283 -1.07218406597403 0 0
-62.1057326152712 -9.84938776850812 -2.0061858005819 0 0
-8.57883440455432 -15.8134442603201 14.4299239855904 0 0
-111.071308355325 -1.03241720930016 13.8673359638057 0 0
-56.9314100820713 -18.5878858943306 10.334102133006 0 0
-34.0323207035763 -9.76513367664283 21.8839690975919 0 0
-147.078261113452 -23.0122437823217 -10.8200723456215 0 0
-70.0552976406175 -12.229251651582 -1.95461508377971 0 0
0.447270026999726 -12.5678486675014 7.9367454150778 0 0
183.170452131805 -31.7972302125501 1.93284496120422 0 0
-186.87847874791 -4.43862411979841 8.50638596392743 0 0
-195.446435198455 -27.2813557054723 7.86646327408042 0 0
-204.482775887332 19.1694319416262 13.5248497615813 0 0
154.660555060557 15.6095128027714 15.8103055214776 0 0
160.460600896548 2.32554881128168 -7.1088645589353 0 0
-208.386893884286 33.2884532806152 14.29381691756 0 0
19.5466922832433 5.62580558904018 22.8643525978758 0 0
-184.564313024941 -11.5267455048987 -20.1638694363969 0 0
191.046394964713 21.0874805047123 -30.858241218852 0 0
195.318746705021 -33.4961695380434 -8.74135653964284 0 0
-99.9261284670952 -17.7423921299186 -3.99341648427295 0 0
-203.695803607467 -17.3683863136619 -24.1694709695337 0 0
-230.828792196462 9.86623897877899 6.27049027946143 0 0
78.4905386693748 13.8359632728283 13.0844941571296 0 0
-58.1514946205611 -16.9796385008654 5.3842328182032 0 0
-110.113226072493 -4.23986325435903 -8.34048905784917 0 0
169.424229796857 -8.05887438288403 -15.6286091627986 0 0
198.260219793992 39.0421886167359 -25.9738921637446 0 0
15.1834119883654 -5.2710623548267 -0.141517049104544 0 0
144.995937881856 10.1268828379207 -3.23445439467821 0 0
-205.692470199313 -19.3271958483705 -13.6239151143843 0 0
180.232486358997 26.9762439389363 -17.4129339950556 0 0
101.995501301706 -0.475463664614282 -2.82211323641275 0 0
-46.9160582376803 6.82507031858073 3.75547519547527 0 0
-204.59467527829 -18.326376642492 7.34024168097976 0 0
198.646383042548 -32.5509723403616 -19.7208697756846 0 0
-133.260649686274 6.01075642319974 4.90855876603729 0 0
163.642364412714 -10.855821455822 -14.9666163139086 0 0
-96.4461091727539 5.68541619225536 -0.279703612018553 0 0
182.038405064217 -1.57161552847384 19.3937679201792 0 0
4.4857297532577 -12.3111082179577 20.8078311905835 0 0
169.660979989404 -27.3118890831363 -18.0047838599855 0 0
-92.3341792595798 4.50088477481835 11.5371540419118 0 0
-194.004743814071 21.2175771778528 5.60675982436113 0 0
209.817634842532 29.8191315567036 -0.213809343666062 0 0
185.459324594974 23.2195375620356 -28.2303170333861 0 0
-209.522865588768 20.5629791614118 -20.4823152664264 0 0
178.914997077061 25.6400628736072 -16.1703788655434 0 0
-208.585208739858 -19.7268434295427 -6.54014749964865 0 0
199.228624132934 -0.0351481419077801 15.9526039792793 0 0
-163.04709689715 10.6788330365697 -1.89500113398913 0 0
-177.898644122567 -37.1101332252108 0.969269575483723 0 0
138.932814341288 -4.67390503169456 -6.65307364261697 0 0
27.7233401118248 6.0234897113526 1.73045742141559 0 0
-183.215901854729 -37.5095103369928 -11.0301220745695 0 0
204.235524587664 7.19107281976702 -9.20767836113748 0 0
-158.391985696211 -0.907235781750086 -17.4054615198427 0 0
-167.328260092508 7.45190072762234 4.4342634208196 0 0
100.880203486587 4.18213592559435 22.2746812509296 0 0
139.872431432902 4.61297458781239 -3.98416523830724 0 0
94.5144511669602 -13.7444616953714 3.33297076679034 0 0
202.042548150578 -13.8185146900221 -27.8348556721651 0 0
-182.657383572267 -15.4607207651989 -23.6260065212343 0 0
-175.330255409894 12.904238124972 -6.8817197085235 0 0
179.113837325515 15.9367755482385 21.1390845045413 0 0
190.177744645125 -27.7474679175174 -35.8189424311739 0 0
177.09827628824 14.3103312677315 -12.7426914774664 0 0
-194.434650502459 -5.60015473403248 9.80470904630814 0 0
135.759432048258 3.02162219163655 20.7677167923671 0 0
-68.1641542755975 -18.9742392859386 6.22500099037953 0 0
168.342875071275 -22.7147882263036 -19.5713446071359 0 0
-85.711511735993 -6.79771445375433 -6.37739106898578 0 0
179.929957345932 -29.4235360988189 8.64167031108169 0 0
195.967938040624 38.539821586704 -22.2875123451703 0 0
178.467897018147 8.17987293986151 -13.4444720289354 0 0
216.003939261813 30.8913279525906 -5.96927331006232 0 0
-12.9157691467893 8.85416784692903 18.8051104520277 0 0
-198.599892856129 29.3362926229214 -0.121792580600787 0 0
8.86498840316607 -7.10280405046999 1.80922023058925 0 0
-36.2012138488264 -16.0118194186448 8.51795121906349 0 0
-189.769841606089 -1.39356081049592 -13.6001253224664 0 0
37.9491405599594 10.5881176864174 8.92196744201884 0 0
-205.802662430378 -8.02509768319316 5.56615790256179 0 0
-191.434671882271 -22.2716768641825 9.27811219763134 0 0
186.909303153632 -1.94408277589035 -18.317718586955 0 0
-200.807221224556 33.8387726062276 5.98681605743701 0 0
-211.072814215664 17.0906287938695 16.9834734987159 0 0
115.55131503163 8.92687140263918 -0.210617893014594 0 0
81.0090627417161 -7.2931161505339 22.4106695118389 0 0
199.364906356654 -18.973999399938 17.5759011575529 0 0
-28.0285422422755 -16.4870390941367 11.0804912209312 0 0
-100.960255616457 -1.06752132548231 15.544564203248 0 0
90.9792291074683 1.00253552634595 -2.22456774056726 0 0
-117.523950637016 -20.0218655127489 6.63227483827538 0 0
-232.43104294735 13.3948178305604 8.257418139155 0 0
-207.347413820309 -8.95191497753108 3.77190822594221 0 0
-49.3545871113565 -6.43555217432564 21.929324975529 0 0
92.5752278573356 14.8852014621751 11.9901007580154 0 0
-25.9782807478314 -2.94220522129363 -3.49070348874699 0 0
-216.532298822126 1.31218510502794 -0.844891103511261 0 0
-201.249397793943 33.392839163628 -10.116506516149 0 0
205.433840516854 -14.059307881363 -17.0371737677065 0 0
190.53467978283 40.2824677756558 -13.0141375679843 0 0
12.0934527968263 1.29299847229852 -1.82744307058273 0 0
-211.49158307259 -25.6903725849985 -9.90791406509023 0 0
74.5487659081664 4.54794919667494 -0.577126994604143 0 0
152.073176922283 -18.6683251093447 10.4353118718097 0 0
32.4474887630478 8.01607381503189 21.5479071503015 0 0
-96.2107954345209 -9.69541373264173 16.7905937587547 0 0
190.586979140983 -35.1073898146184 -14.8176143484251 0 0
214.062577412184 11.7890128198878 0.925287758326623 0 0
-145.985074330893 -1.04550143353293 8.83848873106801 0 0
205.976093174077 13.642193755377 -16.0410169615599 0 0
-42.3555659364869 -17.6554493892101 12.1844732751081 0 0
205.724405960463 -8.83862568245197 -6.97703353491728 0 0
48.1729812845945 -9.56658935671331 21.7163930330425 0 0
179.523460350944 2.15945955950907 -15.2676355338645 0 0
176.3414401775 17.1611691783867 19.6167195212962 0 0
162.113567440499 -10.7611683734031 19.6055680548893 0 0
77.3312332842148 -9.1869980513589 21.1079847417642 0 0
190.380316339929 38.5059545419967 -2.05081748653901 0 0
-201.981036173443 30.8290860930486 10.0993382442026 0 0
-200.946692877155 26.6542060352824 -9.84334180122626 0 0
148.469687402763 -9.79278582471849 -9.72931719591498 0 0
-115.953760220783 -21.6904380207658 2.49598492944959 0 0
182.406675033357 16.7971388850781 -21.039493609707 0 0
-23.9623918671739 -5.67966273184769 -1.7191639179435 0 0
-209.920438707097 -4.17453006134039 -3.03680335820856 0 0
199.923496210222 29.6794034129317 7.63075425066365 0 0
-21.6003480034124 -9.78661829972494 22.3266375834027 0 0
154.877926280383 -8.02729663901074 -10.327629225794 0 0
-175.996576996894 -9.92596520036278 7.92420338537535 0 0
174.697945159532 -11.3538349051725 -28.9271821600888 0 0
37.4318567084758 -8.98383173267734 22.5737854041249 0 0
108.692987638705 8.0451831241449 0.00031199493620656 0 0
180.83964598267 -1.91960146661732 -19.5949619081007 0 0
192.46736556256 37.6166061828257 -28.085311766706 0 0
174.338407281524 13.4991907090187 -11.5221895957683 0 0
120.063715493242 -16.1038107830328 0.930567775955574 0 0
193.266076320504 37.9579830809841 -3.69389908934166 0 0
-192.361560230209 3.53998334852548 -13.0293873189797 0 0
-71.1088282140745 2.93827867706644 17.1764821110377 0 0
179.59997311332 -0.219251361813461 19.4785149073343 0 0
-215.784575444657 44.6239158518553 -3.41209335298907 0 0
-207.609115892972 4.6955140606986 -11.9274063782961 0 0
182.499167691713 14.5526590549702 -17.0374303654961 0 0
208.545400762676 8.30814637881734 -9.82897626519855 0 0
-90.9384193767249 3.29308189376109 -2.88654207177701 0 0
-211.476996481113 28.1448465976903 -21.058959807725 0 0
-195.570238928663 6.61291993687343 -13.186673565697 0 0
157.570093320337 -5.77401733390448 -9.80704527452743 0 0
-187.758217280499 -0.4247291035863 -13.7008843152913 0 0
-135.034807020047 -21.2719352469007 -7.07387969920487 0 0
-123.751145441891 1.07618741889976 10.4764982408586 0 0
-140.886027691626 1.38672276458694 8.30285124622295 0 0
-229.585726030017 30.6705565619739 -17.0973717433246 0 0
-73.2237101923294 7.54530525418722 7.46009093443165 0 0
202.862296173105 -15.7377165544359 -28.4529834405605 0 0
180.696934704078 -29.2758766320892 -26.7817847551976 0 0
188.360999935568 -9.15498816933625 19.7893492801948 0 0
-14.2844121807144 1.62809165037029 -2.22561619702948 0 0
-198.883965795138 8.02352820312918 11.4366717687292 0 0
-216.575889091496 41.5657237994816 -12.9600346426166 0 0
-197.915536379747 12.4521706518349 -12.7888091444518 0 0
-224.327928305759 17.3307737125629 -20.0644955582168 0 0
-210.074509661273 -23.6027692277459 -5.59003314889047 0 0
-92.3802923718016 -12.9080610466626 15.9692172691671 0 0
-50.1123506034579 -16.0093654012567 5.89807910735314 0 0
198.00744742043 -9.49415251708195 14.1502857129412 0 0
119.046773750832 16.1307325003422 14.304155732264 0 0
91.5074234203593 8.89440309068476 2.00320641379792 0 0
146.318675091783 18.0851939186435 0.132682979186585 0 0
-197.841478770492 -20.3579695632014 -25.6535420270862 0 0
146.28719285105 16.2527342177941 -1.31985444852777 0 0
-213.046852994073 24.6606151596365 18.5721888278328 0 0
142.450911004328 13.805569210735 17.2107488607434 0 0
-178.847922084745 11.0933236448979 -8.68031936141744 0 0
-138.489586199445 6.05448837280862 -5.64392855753014 0 0
205.819007862802 12.01983404812 -12.9860216345956 0 0
-222.992384452321 43.8357453961756 -2.31288313386778 0 0
200.234340067738 -10.3520497775115 12.4791037098388 0 0
184.06261644867 16.5776508270967 -26.1164613895471 0 0
-72.6295316241354 -11.1174734534173 -3.28400839225593 0 0
111.641374693599 -15.7620113228688 4.15852451592002 0 0
-179.824884937047 -13.0955123270385 9.13504917420192 0 0
126.627595685251 -6.25391263524354 -5.92090713905831 0 0
101.641849644387 5.12412085076603 -1.10334177168559 0 0
204.116105082637 1.34114792658289 13.0371153286789 0 0
183.518034706968 -11.4783866330993 -33.5755248290053 0 0
-188.803243718808 -27.2275342451547 8.30868369431553 0 0
191.888139876193 -4.39987582961767 18.1288325560798 0 0
210.941277047993 7.04472787711032 -2.0934790205115 0 0
-133.804024344642 3.9284146152563 -7.38138540900823 0 0
-165.605223895728 -27.9799235781556 0.511889144308929 0 0
-207.356047317722 -31.8235329669101 -2.33355596932733 0 0
-138.792379652471 1.09156199538149 8.68547268305069 0 0
80.5625259057241 -4.87448371815757 23.3464357139394 0 0
10.4756275198418 4.79116959479157 23.0939772513168 0 0
213.374371606937 34.5005698121353 -15.3428345623049 0 0
3.30720902820412 6.80197345674787 2.93531348939235 0 0
-202.441207881796 27.9228045209188 11.8307299001331 0 0
74.4765498672303 -7.93511420689392 -0.258897979052692 0 0
40.7218458334973 7.72755082169277 21.838034211162 0 0
-154.241127213499 11.9711465491864 -15.3296438187504 0 0
33.6764400248269 6.23799132325915 22.6972748336391 0 0
61.253519985536 10.8679927291568 19.3745569371617 0 0
-77.9583921779273 -12.7620289747952 -3.3911677453922 0 0
148.018859512594 -6.85471019739655 20.3666699045493 0 0
139.971835405354 0.213619227769085 20.6958772415632 0 0
-163.016338802571 -17.0482601664552 -19.0545945964678 0 0
-152.255321803381 7.45074707243298 1.77654722475175 0 0
-192.898019850607 9.2254586069401 9.21248316184362 0 0
-188.348016458755 -25.6611299049984 8.42146964321285 0 0
172.609929373897 -28.8373205432122 -3.08523317337069 0 0
-232.54305502403 11.0671246771504 5.00322723882481 0 0
-45.5416185799941 -6.56426795392114 -2.52566662442939 0 0
200.639647643688 5.41647276424249 19.6154445906928 0 0
24.9752236307643 -0.498919969885409 24.3461346989087 0 0
119.063673569837 13.1936204518826 2.04947838500212 0 0
-198.135896124185 25.4726971272985 6.36774536792404 0 0
191.888383845695 -34.2065048808352 -8.98531066550118 0 0
-203.704708967254 -14.6652595465263 8.43526380376415 0 0
-180.905726812333 -34.0344339430764 -16.1403474779295 0 0
53.9029620777878 -8.52101520818952 22.2845702764276 0 0
-187.520369094107 6.19208633544743 7.55754460071394 0 0
42.2419994719667 10.1169491571657 7.50525876950738 0 0
-131.115317750712 5.11652848717182 -5.53418009615529 0 0
-61.378849775703 6.40048651084732 2.34822389482956 0 0
-115.647325857385 -5.92211133915896 -9.36497809344906 0 0
-44.0031292634669 7.54455320257447 14.7558281464857 0 0
25.966476116394 6.39151607527839 2.2230627908742 0 0
175.875215209088 22.073674100458 -13.4421849236587 0 0
-200.123140064667 11.3846978549278 -13.8230674466227 0 0
207.563371891435 34.1923815454623 -3.92547466787419 0 0
-100.878522448441 -0.425825952874773 -6.61906075796245 0 0
91.3606922655542 2.87443531184383 -1.68568849626881 0 0
-74.8725322150595 -7.4937094252174 -5.65047643393592 0 0
-13.4821695884374 -16.0427782202389 14.7321634730253 0 0
190.061477492728 31.1014016708298 8.97090577446333 0 0
164.275509164666 15.4160022013842 -8.59884897636205 0 0
-122.220468583673 -0.962656677623097 11.9945049602183 0 0
-175.34666074519 -27.3150664283608 6.43482660091556 0 0
-185.995607051211 5.87104140868637 -11.8338705305753 0 0
-179.183684627106 -27.6051746505156 -21.3638964177308 0 0
205.208208965221 2.60785358636714 -6.44484088128341 0 0
-160.713832321894 13.8341025368966 -12.260874860487 0 0
191.844328641693 9.47037750036998 -13.8121776129044 0 0
156.414617671603 -20.4816918291124 -9.06621682667923 0 0
120.2488253309 -5.39769470962566 22.0533394230832 0 0
13.7464043410539 -11.5581094497193 6.80559426114512 0 0
192.144211112237 15.5681609786956 -23.0331474619868 0 0
-199.007966304667 -7.67442584553636 -10.8466472599162 0 0
204.870994336542 4.83772526024407 15.6930301930575 0 0
-90.8995667871747 -3.05744485639273 17.793481784081 0 0
