"x" "y" "z" "f" "a"
-14.2792874091594 -0.873234300925119 22.6482160967422 0 0
-238.171619095512 40.183772671499 -10.8180039753018 0 0
-239.201583580972 45.7777236450456 -5.60264068892154 0 0
-158.516544620675 6.46358070300549 -0.934638455686605 0 0
211.552194470348 41.8915824907581 -0.73962770475515 0 0
202.917634568196 33.7310106172681 -39.6169076229725 0 0
217.055314804258 23.8678346597694 -29.1373196018388 0 0
-197.305874678975 26.1730817974788 10.5622461703013 0 0
172.525868712063 -16.6159365420573 -19.6700501810647 0 0
220.161651910473 43.8446545714236 -18.674391201527 0 0
-46.9751494307191 -13.2699352146657 25.3345143963331 0 0
-223.920094807022 -13.339594585547 -7.16073481373681 0 0
-206.706268006356 46.6069831996536 -6.59759255351795 0 0
176.473442642717 34.0958468669808 -14.2528753029008 0 0
201.004114459092 14.1522891681643 26.3234787807433 0 0
-193.17706686495 -41.0208983634412 -11.1536596546167 0 0
-186.083031290319 -37.6681216672399 -7.04339943902359 0 0
-184.859705607454 -30.594232208454 2.07385787414362 0 0
186.261215520958 6.13880910425937 -20.4211010942288 0 0
119.943690339749 13.7110867833599 17.5829554585433 0 0
168.743449261 -21.7123682659489 -16.3618877452479 0 0
108.643604395423 -20.0182823023922 7.59071808555892 0 0
198.292510111911 38.6355856296875 9.27383350444095 0 0
104.617486841945 -12.9975755054241 27.5936987834366 0 0
-113.974104415357 -20.3539381853429 15.1991974984597 0 0
62.7291255279375 7.11706121186654 20.9781448428942 0 0
-205.10001600246 21.4604848619015 22.7063323182892 0 0
194.782557450126 -7.07870936993969 -31.0985847429883 0 0
-159.824492291232 -0.929028447305145 7.62587789038595 0 0
-132.000584136838 -2.31260637107134 -11.2442541708282 0 0
-204.797722318578 23.4648063099067 23.4561799099768 0 0
-11.8322617239794 -15.9393975498066 26.1125000418534 0 0
-188.482933381499 10.9006886096023 9.32440238950274 0 0
-220.116446482641 -5.65959894959402 -22.188530599569 0 0
-242.180169301593 31.8349883430148 21.8836334668018 0 0
-190.675614824577 -35.0968448717799 -21.541185881804 0 0
164.322961426763 -7.39052994149608 -13.8682224306441 0 0
-116.849895899409 0.2129851799454 -5.52429608584476 0 0
222.219218575462 29.5639070901623 7.54801596821566 0 0
33.8109414084036 -20.18183892405 21.9799247185035 0 0
207.420719443883 46.1608586849618 -22.4005792031114 0 0
-244.186405174196 19.6932209760665 10.5040306381689 0 0
213.022104161783 -36.9314514975962 -19.5991152352671 0 0
122.603446261885 -17.6532530925695 -2.76025516314877 0 0
45.3755017670036 -11.3068736020109 27.8691967560151 0 0
69.5677938325801 -20.5881976619971 16.0994162372474 0 0
219.878021599381 21.6451308833603 11.5936064694951 0 0
62.3993699883841 -6.83355676917772 28.4406633108751 0 0
115.161608548613 8.38263046633934 23.1761809406605 0 0
211.059709323593 38.0938352785655 -36.3291194509709 0 0
-148.498781477471 -28.9065642974303 -8.06650101260441 0 0
111.37631487287 11.7394536831762 4.00715983956574 0 0
218.078695894376 -29.9924788501056 -23.2627603330393 0 0
1.29828909778883 3.86814479674984 17.3351400423817 0 0
159.151616780826 7.5373869020598 23.2899554224288 0 0
96.5541974410084 -10.8304920498501 -5.53870153123851 0 0
183.742964442469 9.41972749598506 23.4209117476912 0 0
-215.301665425068 0.681470912519031 -10.4573464583869 0 0
-49.9611451801863 -26.777886348924 7.10765035655803 0 0
182.006794446142 -30.3318662926016 -27.8330316262079 0 0
-245.564692304718 34.2848789114056 -2.62577355422407 0 0
-37.1543125729761 -1.43824125420314 -0.100583949574638 0 0
41.3391205757948 4.21779260150619 5.1169741369073 0 0
-194.390615916742 0.880602321336893 10.2601415427921 0 0
-231.961663170291 26.2550970981767 -16.426974665546 0 0
-187.357407027799 7.72426257735229 -15.9899570703332 0 0
-215.241180798185 -4.53092906245613 11.0097398817815 0 0
-214.312138565424 50.5565248949602 -8.10002010710337 0 0
-198.904492520865 29.0602606342869 -0.873528980522776 0 0
-60.6256123553678 -8.26800298481291 -5.42057076706599 0 0
-122.167732284591 -24.7754902963861 -10.2979236802777 0 0
199.17601921082 -8.81853255560889 -34.7054521087513 0 0
-99.0394937174546 -27.3090128957333 -2.29395979344008 0 0
-227.872123489842 8.19482554677881 2.60218598257243 0 0
-17.5838724742657 -24.4109495104534 18.1390987172595 0 0
44.3068537171629 5.1497353735594 21.7877349272419 0 0
65.9057673767933 -16.5695606587388 1.37100350447713 0 0
43.4414473345475 6.73936797700605 9.2012198576823 0 0
-228.354227504741 -26.5881287128467 -4.98191226701432 0 0
-91.0132565026782 -6.92649833756566 18.5964617205694 0 0
-73.9355869095811 -8.02981549056114 21.2804973087973 0 0
149.380840318296 14.6404274302307 19.0567889271449 0 0
-199.522393818059 42.3674145970618 0.993308767588545 0 0
148.562500969523 -18.7950657756217 21.3541817072842 0 0
166.410218642195 -25.279738061929 2.3190721464369 0 0
104.313116250607 7.57761228877227 0.79835305096177 0 0
223.36260076238 33.7985726594635 3.57957368164254 0 0
62.5706018234695 -3.77810961142354 28.0690070577136 0 0
-234.711477690036 15.8154642733919 -4.51720715262459 0 0
-220.358692622121 -5.33668485833945 -28.2378990640991 0 0
-173.541373488623 -4.82043597882075 -26.8621826572215 0 0
188.06445917315 -34.4776455191556 1.56722164589483 0 0
190.840893400374 36.3852387005148 11.4332331739388 0 0
157.13631382278 -22.2636700382126 -7.64704264995422 0 0
-118.513878263057 -13.4958118614637 16.2382618765267 0 0
-83.6030369219474 -9.01212380607551 20.4295595162654 0 0
37.828250577205 -0.0345880182902133 0.98351193295945 0 0
-161.177917748892 4.95781922863491 1.4611406843702 0 0
121.344022035304 2.12295098465512 26.4140676281797 0 0
91.6105645348447 0.648570865532352 -3.69295294787408 0 0
-1.63949382676295 -10.0331841306032 -1.90096904739646 0 0
181.094761085158 36.137096106401 -17.8415560576724 0 0
-222.978660482882 6.79216943149243 -3.36059387086188 0 0
23.872774576053 -19.2182835703082 4.6188365810604 0 0
-143.163796540201 -14.2984051219805 -18.97998971134 0 0
203.274307613229 18.7781914584808 -29.0346529122903 0 0
-168.407042498489 8.37674601084723 0.227193744957062 0 0
144.862882280414 -3.51660232823036 -10.3152230812512 0 0
221.281261247993 22.3339047987439 -19.5832637599171 0 0
-220.475377522394 5.26054904973224 -4.4006880654564 0 0
219.445366782681 -20.8826681730995 -16.8863387322608 0 0
185.528811985814 4.63978016377716 -20.3070257264742 0 0
-139.287047874769 -1.54625302606301 9.30963503114601 0 0
126.673574661078 -20.6196798507279 11.3039110735767 0 0
-157.79399182197 1.53670208758762 5.05663527011011 0 0
-219.862464143487 -7.01048497303708 2.46830774459131 0 0
222.558851828579 26.7218536034926 5.48050406379888 0 0
-228.702481850294 52.9186013106036 -5.16097022603079 0 0
-239.987410766962 29.8521685963632 24.4875532791232 0 0
181.130102496282 22.6791272699802 -20.5791387231702 0 0
-55.3973992652493 -22.4263339316919 20.1027108756574 0 0
-172.848803999984 5.34557498062191 -22.0513999088735 0 0
-110.220848167569 1.39071084253573 6.16892732823243 0 0
194.505928443259 46.3171281144627 -23.2909358623954 0 0
207.497633465453 -32.868923016065 6.4348283122127 0 0
209.423293675055 16.5575699179676 -19.3123737816227 0 0
197.895060723039 -23.3693081298197 28.884113126596 0 0
116.09881875601 -6.70729894907112 -8.40068414782285 0 0
-226.26159270179 -26.1765164877605 0.0286167592369934 0 0
92.0296989683968 10.6203013255833 19.1246862811702 0 0
-125.039373474121 -9.38342055818636 -13.3039928599077 0 0
206.245084417376 46.2451592429044 -22.7800076595008 0 0
-194.03420479428 23.3755291900099 4.90935168249524 0 0
-224.692854889855 -12.5076897384023 -9.24317194371957 0 0
209.928389456619 -32.6660087393108 6.86785811707978 0 0
-227.623729683529 -17.7452981261476 -3.83135672374801 0 0
190.965904889886 11.6459639867642 23.7429068937629 0 0
181.447252781148 -10.815934116577 -30.5478001455896 0 0
-223.329085976243 -20.2060905600343 -29.4588741190732 0 0
-202.592019669263 -4.03269859012743 -29.5307705647266 0 0
-126.693404834656 -11.3056003194351 -14.8052135620417 0 0
-209.402334624843 15.0994859254139 -12.9412898469952 0 0
-72.0949899211967 -19.5185720725705 21.139869748295 0 0
162.922644581974 -18.5771917557746 22.7794515018715 0 0
163.093362866651 -24.3011342003771 3.41855573421662 0 0
181.77403198883 29.4788711820582 -22.9844150822295 0 0
15.289754310094 -21.8928648359544 8.3888585618491 0 0
206.348893939927 -4.01635075041931 -15.9107328770152 0 0
52.8849277949048 6.08485234990808 6.42944417284462 0 0
-187.10462907978 8.77944992448882 9.32371533232773 0 0
-179.455444134463 13.9388336833247 0.164507828838191 0 0
219.520173169468 -28.4560471972042 -9.54101800290563 0 0
208.483535734629 24.7184233558304 16.789537352691 0 0
-154.19785377161 3.75517120479723 1.17056786583119 0 0
202.592540702507 -20.6422122235788 -39.243592045544 0 0
177.369454282529 -12.0238495308352 -21.8284092657589 0 0
-177.980400257159 4.5338340550653 7.96189762614322 0 0
-201.782651699891 -14.9640343764571 12.0453305371529 0 0
204.922116796948 -22.8285039095907 -38.6751836674854 0 0
-184.995673456117 -15.2151444579511 -32.9746110721928 0 0
-170.580595779947 14.1513834865301 -7.30566315641645 0 0
-219.330785226994 -26.5401737830924 9.60556968345121 0 0
-211.622552635456 11.0555365023538 -13.5472742125313 0 0
169.321713813503 -26.2088722396136 -10.4677133924955 0 0
-190.404435247751 -10.2464325671366 9.06580002674055 0 0
3.23981473446829 -7.41232962001843 -3.69892913889038 0 0
42.504917247197 -10.2515907507283 28.0630155773542 0 0
-216.520772092438 21.4332647937603 29.5621655660625 0 0
16.0590454504554 -11.1594207477033 27.384953930744 0 0
-125.673559698843 -27.7505861523979 4.92254094499857 0 0
-239.703591107519 24.0012320069307 23.2625310967924 0 0
185.170981913267 -31.7546318198282 12.2617319264314 0 0
-202.384506833128 20.6298911454412 18.6376503979661 0 0
203.087105303217 30.518497691969 15.1570668523369 0 0
216.253301861353 -9.04530592411592 -9.74220107487006 0 0
139.320643301733 1.7614493040982 25.8978351259 0 0
-149.070597271622 -29.2784882116248 -3.92135377888488 0 0
-93.7679445784091 -12.1591208958157 19.9229767889178 0 0
-174.105237280615 -29.673039911303 -16.5767281058824 0 0
166.274686832721 -25.1391255179983 4.32332498799512 0 0
37.129201805448 -21.6108415898151 17.8561779770911 0 0
84.7485221939037 5.41497702663834 1.99482531108905 0 0
-193.862580984432 16.5871468903358 -9.04966798506359 0 0
-205.937240120566 18.5287157593919 19.8490982739186 0 0
-135.072496656061 -19.3281907470541 -15.6332458336379 0 0
121.681919630655 -1.81895086947942 27.8167855987064 0 0
78.4280925470941 -11.2788112746448 28.2788551733909 0 0
-189.445568630453 -27.6631357551819 -28.2979103647203 0 0
-210.115327825284 19.9299345318908 25.6537818547971 0 0
-20.1960034152068 -3.30863277106582 -3.20577065750374 0 0
-197.905689186384 -5.48041606645787 10.4431681738325 0 0
-79.5729021116197 0.578902984908796 1.45164554119773 0 0
60.480634542612 -8.22110652225594 -3.62003891539194 0 0
207.761773289541 36.9352104985233 6.94405600808947 0 0
-161.667211262423 6.65080376134147 0.50194564284104 0 0
-51.2297047960111 -0.617460623609953 17.6580939503413 0 0
-206.826226484569 34.4182983759504 -12.6501237653246 0 0
-166.971812528541 -13.8958739593362 -26.0007086915029 0 0
-170.684219440746 -31.0563688093209 -2.20007502561302 0 0
177.970328323795 35.8591385186201 -14.996746451752 0 0
-27.2397301617413 1.93990267547698 15.971174180778 0 0
-40.9484943204023 -4.2144814800711 22.6297131052758 0 0
214.708799261506 1.97814992995049 -0.535201403747562 0 0
192.67913663625 -27.3437730728033 26.0046936259066 0 0
210.878598402591 29.4967925734558 -36.7520189840313 0 0
-200.702122190913 -8.84357765402697 -34.1096174308475 0 0
-212.25018071338 -10.0897607966855 -31.9633491910126 0 0
74.9413667511036 -18.4224758580237 22.7217806006438 0 0
-152.357152107663 10.7330488283662 -7.37554850785054 0 0
11.400998149151 -3.34749478349563 25.8512297781055 0 0
-37.7181360235405 0.696269788472202 17.0375635724268 0 0
-245.773148141566 26.5300349653844 -0.842520356231591 0 0
131.547103624893 -20.7391430860221 13.4599866454776 0 0
169.272362133277 -24.9060785614065 12.6770360835553 0 0
-216.175925590159 -37.5660945247956 -4.33570299369553 0 0
208.025412445197 13.631611886592 -15.6100120370566 0 0
-134.032338107824 0.192214020052731 -9.94408451268908 0 0
-223.306741388466 5.37046224674617 14.7087048191067 0 0
178.624191788826 -15.9585944871966 27.3753970565888 0 0
69.4469802042307 -20.3795961876064 11.2766205390671 0 0
171.329051285608 -5.41527528224884 -14.9657014311824 0 0
209.463976329925 19.1418598005125 -24.4777583400461 0 0
133.544658918654 9.08490823078651 22.7548011368183 0 0
212.424013957972 -12.8475696409953 15.9429445077857 0 0
45.4425365349231 -20.5327596194658 8.80016698855319 0 0
-208.429028863618 -29.4430492081048 5.290072484141 0 0
-93.0563607417715 -28.4175957823877 5.6876803335784 0 0
170.259216054174 31.2736076750536 -7.85855690195946 0 0
-190.47128846039 -32.0689976020527 2.87161648894567 0 0
181.011034838714 44.8494418736991 -14.0951952097841 0 0
193.09505694783 45.3220642745665 2.12867441734356 0 0
-80.4680870932228 -17.7992730061295 21.1044148994664 0 0
52.3181994079605 -1.5668206718368 -2.72172286840746 0 0
185.639886772023 42.3174815067805 3.34109449934459 0 0
-246.757116794681 32.6844458730215 0.69537491067439 0 0
72.5813460917948 1.21277199071361 26.7587569994653 0 0
187.759080516216 24.7106850958289 -33.9728931094163 0 0
-211.033220836444 -25.8467337661307 10.7294757380964 0 0
-206.571914419488 19.196030145049 20.3367827479144 0 0
58.9602868257382 2.25004924508929 25.3567733385827 0 0
-219.822727839441 32.0412148736297 31.984984791819 0 0
-244.198252643545 34.8946559290768 -5.28380852465703 0 0
178.475433644507 -33.9101219930563 -15.7045209176931 0 0
193.05269200193 46.3770238812512 0.0695014549313619 0 0
196.395267342832 -38.5273324140402 -18.2839971987607 0 0
176.020448508594 -30.4788529798471 -14.5251315967708 0 0
188.369486537081 18.8244322418299 -29.3814191263962 0 0
-59.5240708837018 -13.1078007172539 -4.69860921835434 0 0
-153.603355968279 -5.78718657091115 -18.9526079736911 0 0
173.586362207177 -28.4797959727363 -4.02608947786999 0 0
-200.597334407064 -33.2089510752647 -25.5435586677487 0 0
2.11214839944628 -23.447387961075 18.4244812864073 0 0
192.459370210176 -33.7720681493984 8.79220911860332 0 0
194.808624178249 30.8692106227771 -38.7467510024576 0 0
-9.64070344749973 1.97193252214676 19.6417566569488 0 0
200.299395437486 13.8926096137435 -19.4426953540146 0 0
-47.9753967188179 -2.32078423911302 -1.46695236757351 0 0
-53.9453928881851 -23.8372156485398 2.20519832135707 0 0
188.423844933404 22.3122019090584 -33.7585591363758 0 0
171.437843883054 8.4024105199131 -12.5003581928162 0 0
-18.4268479891495 1.12155636972678 5.1563600315326 0 0
-137.678454574731 -1.33151654571576 -13.044732660508 0 0
68.6733992625836 9.99941359208615 14.2795506601153 0 0
133.700532191349 15.9153071745073 3.09437036196203 0 0
-216.383723729357 4.14986875586145 -10.8710078113928 0 0
191.195952747631 47.4938075090113 -4.44082767986172 0 0
218.631920521917 16.800261747019 11.9274271708593 0 0
-155.92364328546 8.98056276305667 -18.0915422191798 0 0
-83.9985568398481 -6.18933907431127 19.1797751988924 0 0
-140.998588112988 -14.8424955920119 -18.2557996606379 0 0
215.318607735699 -26.1571760070875 15.4363467538222 0 0
-225.142278341342 -16.823122164536 -0.41841773958309 0 0
-49.5986327664565 -0.899799986196095 1.02998436129478 0 0
159.859383861612 8.69899915213385 -9.77874882423366 0 0
37.6193688039445 5.85890335443232 8.21482817801979 0 0
-80.0527366357471 1.51556821007495 8.40034019394114 0 0
-194.691062631744 -15.6675225777037 9.06611628067506 0 0
-203.46371351218 -18.9669077126933 -33.3572544657833 0 0
-98.6584722582033 -0.334823513373556 -2.433285775445 0 0
-211.730537699929 -33.3618013017346 1.44149944898783 0 0
218.45543148384 12.4191278722262 -9.18129698990256 0 0
-230.215483916062 -16.426045268522 -23.1494843218715 0 0
179.720684369559 -35.8789783383961 -17.3846908218201 0 0
-38.1756158452209 -6.90072031026337 -4.65432444137034 0 0
-164.584636250249 -23.0573978709337 5.21063469439612 0 0
-101.417847063998 -8.70180624401089 -8.9795336978243 0 0
-106.421095301336 -19.9194858166653 16.699427157968 0 0
-192.501237937808 22.4825371518711 0.312047370782291 0 0
166.238728178291 28.3381017403292 -5.10899783065628 0 0
117.760032627716 -7.35508083565481 28.8113893459046 0 0
198.736665076859 33.654489461082 -39.6676086263955 0 0
-122.804972571893 -28.1971544062434 -4.86995666840442 0 0
113.680663841062 -3.54399167307219 -7.62693686020347 0 0
-208.871347409508 25.9294480992974 27.5379694199774 0 0
146.367560842125 -21.478967396079 10.1741203656671 0 0
-183.650115691888 -33.836326061835 0.291703769695896 0 0
198.508449532599 -10.0964435788434 25.5339295337378 0 0
194.332639595758 -23.9024572606826 29.4901410699805 0 0
121.227870840881 -15.7934747740442 -6.33036614977997 0 0
185.829923964006 -36.9582517055582 -7.62311791277999 0 0
207.859467832211 -28.4363898619646 21.9523958741341 0 0
110.283336901578 -14.7114472849632 -5.21484048352711 0 0
209.249833124614 37.674632066905 6.2656155741267 0 0
205.275987328587 15.874535737185 -20.6488058993758 0 0
-245.810346623713 38.5180135014642 12.5527039400195 0 0
152.878203824712 18.4169742164501 -5.11621849656885 0 0
-214.638476572408 19.2931965658021 -14.1408013040956 0 0
-152.217810645946 -20.8744593599248 7.932052529333 0 0
-197.622445587543 -18.549910538531 8.83318349961055 0 0
-99.2014979924101 -8.58044420572832 18.1934988358807 0 0
209.680129592189 13.8599339603965 22.2494821637069 0 0
178.594944859945 17.5724875818966 -16.2829968362026 0 0
79.8369746866923 6.39304514320944 23.5429287482481 0 0
26.3112465032252 -0.466679418234266 0.483662791768896 0 0
-200.726376552831 18.4738752940244 16.2758699365767 0 0
-43.1028501512329 -17.5521655452429 24.1839562864241 0 0
207.477079488147 5.89619001189261 19.5826104479355 0 0
-213.975092321291 -9.60092037304223 -31.755800013696 0 0
-205.001403739942 9.40064699340677 -13.6391358011582 0 0
210.324534942447 41.5579231537795 0.639249727640199 0 0
-112.203556151305 1.07283638893826 -1.82800213431232 0 0
-215.605373940295 -8.95452398563262 -31.5198726497679 0 0
-230.663443167919 -13.3943948328321 -12.9389908884545 0 0
206.070992009412 46.3103615573725 -15.8693794173837 0 0
-173.003365396005 13.3079635939511 -4.85586574867893 0 0
-219.488498967548 7.09758890497737 -8.11521688534708 0 0
-13.0768050166458 -13.4210418291224 26.864710275807 0 0
-98.3232250956208 -27.0717152443743 10.6243428125538 0 0
-211.924995663858 20.0419261768845 27.1257054002449 0 0
-169.107389635585 4.42627042682216 5.30155310319677 0 0
181.917863878129 18.1070338035546 -19.4539974445092 0 0
-233.265700581922 14.9235579202314 22.5613544970537 0 0
186.067846897319 13.1367131559313 -21.2414405874466 0 0
-12.5445285843731 2.65689903970025 17.5732649658953 0 0
-87.9139394835065 1.68523127808607 5.02562946681989 0 0
-226.018147550991 -13.6873104120551 -7.97630737621622 0 0
-160.783228467854 3.78891278342907 2.55124291570113 0 0
-33.8286959553356 -12.688314652815 26.1866053637229 0 0
-177.915333341237 14.3901517548119 -6.56589292592319 0 0
-166.343349612699 10.8815921037349 -4.72337238669724 0 0
215.236364679919 -31.1939612424855 8.4661216485283 0 0
-216.377948946682 -4.56476734115358 -7.38154390460567 0 0
-223.913797218945 -15.4565028123372 -1.28544790234926 0 0
177.532118719971 -1.03517111463202 -16.0864596772389 0 0
-20.6100537842237 -7.08726706134386 26.1834515858117 0 0
-221.261028356829 -11.4495159816886 -13.5756686101518 0 0
-223.129747959831 -23.1384687633543 10.3086217890219 0 0
219.689458723434 15.5161108904529 -12.0490294374045 0 0
93.0777177760082 -6.17050302562945 28.9187290960769 0 0
208.499837438674 -34.339888725921 -2.43127654110154 0 0
178.736601223828 10.1026381845966 -15.5477840412023 0 0
-200.674466208669 -12.4149577854323 11.7826923069798 0 0
-199.290876056278 -29.6381875507712 4.84734481936635 0 0
-99.7283284162408 -8.26582583108609 -8.55388284861024 0 0
216.25948639282 45.6440275870241 -23.3503389464183 0 0
110.39403390122 12.9318129913625 17.6800999519182 0 0
214.540938729189 -3.0825175312865 0.221840272415534 0 0
163.758798871132 -5.09486245141893 25.6194723760264 0 0
165.603118491231 6.3010502476665 -11.2476516583052 0 0
25.2849515151287 -22.0330735619953 10.1435688800878 0 0
192.913926738597 -28.3977733651916 24.2008212093154 0 0
-31.1249562726184 -21.8396424108223 21.6975510724631 0 0
20.4655445993609 -22.3622217737113 18.5039863485896 0 0
31.8444850552883 -19.3587435745625 5.20058755934224 0 0
-198.483885522059 -35.1958504645171 -23.2141616283854 0 0
-137.013380800981 -27.5228442163421 3.74221540363069 0 0
117.875843630369 -0.0636617361850442 27.4320436537805 0 0
198.389266615657 46.9239700352376 -26.0186959289144 0 0
100.748187888034 2.17428971621006 26.6895800272793 0 0
-45.4915027547936 -2.8465987148353 -2.68152729723507 0 0
170.332646051963 -25.623027950599 -13.9056445001143 0 0
-152.218540399042 2.68172381064706 3.4398199464574 0 0
198.869251986378 -24.3366385489587 -40.2751918893307 0 0
215.111460424846 -13.0579767232714 -23.5503691742382 0 0
209.953099870877 45.748262041828 -17.1645283378825 0 0
-203.908080788615 43.9876330136905 19.1473868885172 0 0
-239.098455716889 41.0081298697027 22.6795026016107 0 0
103.743845649765 9.23113444800466 2.6511510457237 0 0
115.378650252549 10.4281142183272 21.4785187961231 0 0
-104.650473970196 -26.2860387178281 -5.08642362648233 0 0
-199.64308694473 26.3632469844119 16.5645918523537 0 0
170.201691280428 20.2709866143793 16.9060328915531 0 0
184.87364929633 -13.13761157506 -34.0143983861612 0 0
203.818216942389 43.1822548141509 1.85496671616784 0 0
4.00143789748171 -9.69454477104163 -1.95551650126844 0 0
-215.971391710451 28.5817205225029 31.3542440538149 0 0
-209.461536433232 23.4307246092165 27.2316474313577 0 0
195.953535148759 20.7188883257892 22.4728591014603 0 0
201.807140627743 8.66339376627424 24.2413186415398 0 0
204.95325994834 24.5570034992949 -38.3289201617021 0 0
89.0664073941174 -11.3886648592263 28.3500509245383 0 0
-112.650743237926 -24.8026791720725 11.3791552977528 0 0
-13.298035204889 -3.65868345260559 -3.5272267108408 0 0
-237.205742675078 28.4231177571941 -13.3829300145603 0 0
-114.149338509911 -17.8287065645531 -10.9507695043873 0 0
166.781180687425 8.31010726475419 -11.2753773636098 0 0
-215.720341373972 22.8719586121711 -15.9277302191161 0 0
155.953275708232 -22.502842436102 9.48192054765928 0 0
107.526907842851 8.93698762643625 1.51382770419561 0 0
207.870577808605 -33.6652140678574 -0.402502880830365 0 0
-204.505396189493 -12.3538126573946 13.0781202764108 0 0
171.02132148425 -19.8662320905561 23.4608893945333 0 0
197.96506035449 47.2947241036824 -15.899688257188 0 0
131.613492593615 -3.50809326896766 27.8166563169395 0 0
-213.153426705435 20.3613408996041 -13.6947884850031 0 0
-168.821281433259 -4.17332574684938 8.94876392677514 0 0
214.36336479682 1.97489970984187 5.36079143812006 0 0
104.88036804055 -18.4781175916223 1.71048493618575 0 0
-96.0140990773376 0.725384064670214 -0.197167691793266 0 0
-162.001549247419 -1.46678214696027 -21.6456123005969 0 0
-231.419114110829 -20.0229203680298 -18.1232078824372 0 0
199.592322483011 13.2699002091621 26.5794411290368 0 0
162.535454486918 -22.8748310543082 14.3665624923193 0 0
80.6543215644139 4.26394491754634 25.3641527740826 0 0
-68.9405481219481 -19.185320869685 -3.27680735458991 0 0
-203.223953434092 36.1814631948559 23.092863842555 0 0
13.8759006038908 -20.4031143897472 5.63558615577178 0 0
165.704365377442 -25.3254321493546 -4.72777331592363 0 0
-106.941174087754 -22.3182336393977 14.8157960823933 0 0
-206.054417821262 10.1557371538853 15.8388691500639 0 0
53.2999001333536 -10.2962876369286 -2.18257681587681 0 0
-112.670728069798 -9.68735627346373 -11.2517422753209 0 0
101.64939444571 -4.86784678930209 28.8028335680771 0 0
187.333694582864 10.2751597784366 23.6100317072843 0 0
118.661623351254 10.1746992245015 0.437271983988424 0 0
-188.62584346913 5.04678660995404 -18.0788175936082 0 0
198.671497655139 18.2742845861262 -31.7810596201172 0 0
8.44805723446951 -22.664455198031 9.27484008662851 0 0
222.537689163533 41.7530954778559 -14.3081847206376 0 0
218.345138831041 43.8672745868575 -15.2826325935016 0 0
-149.903783589926 -16.5388038760412 9.86492447802656 0 0
181.482029301154 11.7728259113513 -17.0059991126148 0 0
-129.246088973343 -9.95037893404499 -14.3616146234318 0 0
-229.551815913026 26.8072457234958 -17.4889943761694 0 0
-170.635082861453 6.96942878207855 -22.107248933632 0 0
-200.8904561576 21.5572756380187 17.7553520099272 0 0
182.779100787812 -27.4952826828725 -35.1672766457174 0 0
200.753498228614 21.1063185669803 -36.8925212193981 0 0
-39.6926808447124 -2.37925563316574 -2.70378135972406 0 0
-218.365605625758 -5.83341849261296 -5.94813045396494 0 0
-199.817269905616 30.9089639084036 -0.713054076872794 0 0
-134.452304808909 -27.31333612579 4.51725019350288 0 0
-210.950274376113 52.9299559043922 -1.44657795584071 0 0
-206.498603511465 17.3140384487445 20.4474406219553 0 0
-143.343860588996 -4.57376527142548 11.5496960251901 0 0
160.985779704937 13.5177878156443 -9.83006595803978 0 0
218.724641599903 -16.6862554167906 5.27551112676329 0 0
211.016678215775 -9.25892815228286 -26.9570996368513 0 0
71.2394436470176 -9.29572771847406 -3.71552228154305 0 0
214.01078769411 -32.5428465614236 -0.930298831572883 0 0
-29.3073952570298 0.707806644848948 18.3723258488744 0 0
35.4367618758495 -0.368860447779527 25.5676558455931 0 0
1.68407111383296 -23.3739889734016 9.63995017779213 0 0
145.361241300068 18.0024357126309 14.256474651911 0 0
-105.033642951002 -0.0818197424628922 -3.65511726049185 0 0
-161.48993722857 -17.1661645498372 -23.325676117414 0 0
-233.136090234548 29.4959676652828 -15.9396667251903 0 0
22.4300856144437 -10.3045354415235 27.500628809963 0 0
-192.013109449717 15.3018634623782 9.66135228868576 0 0
-27.9858076161828 -0.636721111339238 20.6383433484921 0 0
-218.593899267115 -8.37568998746598 6.86841528099296 0 0
-112.968994453143 -27.4702335863583 7.81544569570131 0 0
-221.341510560725 -21.1215200349547 -30.0355829411761 0 0
210.014188369614 1.51679519953344 14.7361286400173 0 0
-167.743147048609 -1.14991190443259 7.92388300523768 0 0
127.600207261178 16.4475797471776 6.64346886739199 0 0
-67.5287715359538 1.22898485065902 5.53928608815898 0 0
-174.168934876021 0.989214886870405 -24.3643203791725 0 0
-227.813461685235 -19.7520580629054 -1.4198764724683 0 0
194.635046657809 27.1933802451832 19.1967939595971 0 0
216.595733862428 34.8627844934102 5.88386572292012 0 0
-198.894086103722 41.7970008974116 5.63319438780644 0 0
103.412882806327 1.15048487285743 27.1303966575802 0 0
159.525767710918 -23.3283138368288 7.2198784450434 0 0
207.007991538538 44.9831956103286 -5.11269106697854 0 0
200.329951899554 11.0408008042629 25.4461209633652 0 0
223.98002787211 37.9214101308831 -4.84948425488963 0 0
208.618911235339 -34.5832774772679 -21.9999585482352 0 0
45.2374210645336 -14.358285239538 26.8525582271948 0 0
-239.199299495897 50.6979949703618 6.65965907656101 0 0
-164.584287159381 -0.577288013893472 -22.494474023303 0 0
147.579467360738 -21.5319638077808 5.6905871013962 0 0
-199.307270159656 37.9896714967198 -0.527975593260806 0 0
18.637727871496 -2.4872770423139 -3.55235627357516 0 0
168.748740813977 -26.3590449944328 -7.02967615853644 0 0
215.049258947262 -8.92123148140148 -15.2536862029914 0 0
119.89272379942 -19.7296505205848 18.4205742019403 0 0
205.569205026983 29.7805143649366 14.819411247435 0 0
219.608799184516 43.0087186070559 -13.1846934284096 0 0
195.640344180295 47.2544021798296 -3.8238099638074 0 0
-207.308134371045 11.1543652533633 -13.4346458478398 0 0
212.518133169766 -36.0532419229437 -17.0307596370146 0 0
174.764373181475 -13.8748740099348 26.6068426159717 0 0
-66.6483566489744 -18.3894525855932 -3.24911378073906 0 0
-127.48534076203 1.73929657963472 -5.53083327176045 0 0
-225.969654711506 50.1416690272222 23.3468314167334 0 0
-51.6988479529596 -25.0326196017676 17.2901053771082 0 0
129.731343727239 6.45258293625143 -5.12629568226178 0 0
183.533611830631 25.3239953449351 -29.7371872616222 0 0
70.194519002839 9.53952945871047 10.274464268762 0 0
-217.599037562881 -36.5379297696028 -8.22166232174526 0 0
203.247382701374 46.5704944879712 -12.0406234683476 0 0
188.659753731285 -24.7500421566163 -39.1377201573464 0 0
-213.850193665962 43.2662454932269 27.6948025760323 0 0
-161.689500045832 13.3278437161164 -19.4183578923914 0 0
-70.9225584513 1.30783293010341 5.61215780496604 0 0
206.017577928574 -26.2236396615483 24.7063519183213 0 0
-227.778507212488 -13.8611379236877 -27.9755223413598 0 0
-246.888907870416 27.0025342786326 4.96898473040925 0 0
-221.727490976358 -4.35729434489993 -26.2576426690552 0 0
176.296518422095 35.938337257934 -13.4567728514738 0 0
186.861284033067 -2.02902585882996 -22.2367185868575 0 0
-151.005434005418 -7.04080536563673 10.8114126450338 0 0
-215.812229284474 -35.7997024899695 -18.2689020327896 0 0
-237.898029031018 11.0206854874189 9.26643735874094 0 0
-198.184442187234 31.187735968317 3.53294780087596 0 0
181.993447072823 -28.6734102568054 16.7417452120483 0 0
-22.9807059603148 -1.01092787015389 21.7826530775421 0 0
196.99436560387 45.0983188092465 1.64952857836252 0 0
-205.097151582988 -14.9441498630151 -33.8742788205474 0 0
191.564511146546 -32.3913071494058 13.2436117478807 0 0
-226.27300586812 -3.46859847217862 -24.366378313808 0 0
78.5898681635805 -20.3655735297257 15.8265003871163 0 0
198.074226637553 38.3872843883322 -39.2636217156536 0 0
178.796953591502 14.1723291970687 22.268976242614 0 0
207.206480035609 -35.019665751446 -3.34367289534646 0 0
-74.4924584827849 -10.1026635308895 -7.06305845514535 0 0
-120.267548977695 -5.41206441332619 -10.5254345800982 0 0
-180.474168408855 -4.23239908259042 9.43055689572223 0 0
183.778876828316 -1.50889859666272 -19.7441898613926 0 0
190.578485121723 -34.3135146969914 3.22603756129776 0 0
129.573516152989 -12.8111725760127 -9.82427406647127 0 0
-224.729859166685 -9.393427617854 -14.2023268693297 0 0
134.862405695393 1.01721788996628 26.3842213309501 0 0
192.488836441839 15.5350073665018 24.1162955665427 0 0
180.998102803637 -36.1787795676776 -15.0182287837746 0 0
203.343844816202 21.7354857686628 20.8934900420851 0 0
79.4868180312911 5.75631945839059 2.9930082575385 0 0
-42.9315064024933 -25.7244972055063 16.5807625370773 0 0
215.447800998365 36.6947130087651 3.76206900089962 0 0
189.549518188865 46.7675790521906 -21.7634998935103 0 0
159.999530193926 -23.5379253937012 1.43495759298802 0 0
-182.894219066773 -2.04310382475064 -27.7661082935606 0 0
178.460365968913 22.9919989321595 17.5905264006515 0 0
182.820633897319 -16.9359430418392 28.0855182616706 0 0
-50.860008324241 -27.0367438936237 12.4569098374288 0 0
210.206538167725 45.5250608236334 -33.7453913901993 0 0
69.3426539921276 -19.5438819709247 6.94742209607607 0 0
164.660941331393 -24.504135144956 7.6602635874871 0 0
-150.710489355897 -29.0779590122722 -1.45457288947151 0 0
215.862383717109 43.9235033219833 -14.4927621955028 0 0
146.667152146323 -20.9269274905377 15.5007297430483 0 0
-43.4827775797257 1.93014010717959 10.8784967469427 0 0
-229.649460762381 -22.8307708419883 -3.64103996865711 0 0
203.375716645005 -25.1174838447934 -39.3355360682843 0 0
207.91770884765 19.2086597925391 -26.72869338742 0 0
106.227846961498 -19.6056808290855 18.7561379130104 0 0
201.504311110619 45.8965866744029 -35.9508305810821 0 0
-196.281529409327 26.4071193033706 1.83101917942435 0 0
209.886704068555 9.96723636846676 -12.1216548985583 0 0
-163.223838977616 16.2732310526709 -7.95085395239591 0 0
194.84736810697 -37.1263348710937 -3.32607834622061 0 0
-165.788648769022 17.2219767600104 -17.4426132277354 0 0
-0.863819858117639 -16.1603189855237 26.1584778396224 0 0
71.7099185157038 10.3132155002422 13.1369122110285 0 0
178.656061977927 -31.5221379965151 -5.62676578647712 0 0
107.386840961003 -14.1115403393159 -5.20742064118921 0 0
106.084574349422 6.17060551143514 24.4612589453805 0 0
200.134524849801 17.8420111583252 23.3126805112233 0 0
212.624886762983 -7.77423314078207 -21.3041929654061 0 0
-82.6651938755754 -27.4410014184595 10.8508924004581 0 0
211.608976217135 -33.8263970574407 -31.9008620930286 0 0
209.621788880648 22.4783972625742 -35.5119743142123 0 0
209.807598936462 -32.9565562925431 -0.471405514757585 0 0
220.174444344964 -22.2491846562775 -13.151424389136 0 0
-163.019685957808 -2.42553845289973 -22.184947145397 0 0
183.994817805654 43.0190398312053 -22.7555528402372 0 0
136.128411545329 -20.7456652197459 8.41049357049773 0 0
-141.143638611048 -28.5126804899213 0.504749663719587 0 0
-242.79812351647 18.6676776160196 13.8664151548749 0 0
-235.927796141191 16.3621081436355 -6.21340561386394 0 0
-229.828739020955 9.68899629250596 3.04120195756626 0 0
189.416551009751 31.7472443553907 14.8859498397548 0 0
-231.660601802102 20.5080985553437 -13.4451527130216 0 0
-223.422420772394 13.7112710757875 -10.1223288066375 0 0
109.048400125388 -6.5939749996587 -7.9897932102003 0 0
-122.357669493206 -19.3502379515731 -12.4825229934722 0 0
-204.026669395604 19.326085335477 19.2026796541436 0 0
-232.930976516967 18.4997365392029 -9.76684464170131 0 0
64.3493860059527 -16.6992314652446 25.1220380933621 0 0
214.154499477746 -14.5247083429287 14.735157890795 0 0
-223.536427604889 3.34208992367643 12.1696930576671 0 0
-211.552677926842 -7.19910577387874 -15.3089981004548 0 0
-192.127450047142 -3.6534815816228 9.74116114404484 0 0
204.725786949271 -6.6908736776355 -26.0862705133382 0 0
-26.1374014476907 -10.3536134458049 26.6741252381086 0 0
145.633156477973 2.58920393285125 25.3154803877194 0 0
173.12409890654 -26.9396821853247 8.83250649243832 0 0
147.385202134371 -21.0292252611217 -2.5050148692928 0 0
178.923557902567 -21.8084064447451 25.5295026264579 0 0
-182.084917631103 -2.90040644062859 9.7629358728556 0 0
-161.15176322207 -0.26836396923414 -21.1172018531346 0 0
-118.685363437778 -28.7630062645897 -0.958585892218164 0 0
200.245683118083 42.2434947430442 5.18364355735447 0 0
38.4989765129771 -21.5580330016273 11.2878425385345 0 0
22.6759104386956 -4.78164756058745 -4.07539482270045 0 0
-227.808873859461 15.1397701246912 25.5619809015064 0 0
198.836456343696 -35.4348781249165 1.94756614988898 0 0
177.124284888402 42.4062629352406 -10.2943439977782 0 0
180.104905456777 1.68369065167744 -17.2269306602544 0 0
-219.408433747917 -19.9637902912135 9.49515612561027 0 0
193.255586085524 48.0635090289781 -12.6053788063374 0 0
135.882016814482 18.0274271855545 8.281332994157 0 0
176.783299644811 -5.15670299038959 25.4464237606198 0 0
203.121837740356 -32.672545952718 -19.6390801098401 0 0
-212.129795547375 -3.182608587385 11.791154621664 0 0
-46.7787649644046 -19.2424959698314 23.022027100098 0 0
-213.687249947982 -12.58257700913 10.9674219030357 0 0
-189.460925901979 2.22184708467696 -20.8704665613381 0 0
186.24804301567 -31.7129453806792 -31.1814317022803 0 0
-25.0496466797592 2.45239489037719 9.23553467138281 0 0
182.685370745071 -24.7880849835342 -35.7803710933079 0 0
-72.0918517766412 -25.0857395054064 0.27874952876892 0 0
189.139524797867 38.469650321144 -35.8452244998554 0 0
43.9930966235342 7.4693687676745 16.9716531310311 0 0
-214.490916136712 -14.187759535867 10.8777489622493 0 0
-218.151863095692 54.0046713050932 11.3197796889672 0 0
207.989188845204 46.9619101394738 -26.5572264136676 0 0
174.805761050284 -23.163375527636 21.0982606320989 0 0
-208.974368622627 -40.8092732662039 -12.3636510135565 0 0
143.512647101861 -2.07069283123206 26.8662767747166 0 0
-205.327239351267 35.8257052477877 -11.4687985129746 0 0
-161.973001596016 11.1971234030789 -20.2924894917754 0 0
179.148178212144 -15.7968252279479 -31.2554664930958 0 0
-196.595580283354 -42.4040391601739 -10.7718788347826 0 0
197.445591797775 46.542886323403 -32.0834600758239 0 0
-184.458555596794 -13.233968631258 6.64543405536715 0 0
-193.609582994331 -39.0588321457418 -15.9755058780856 0 0
211.608109057236 -28.7678477666699 18.2742254241368 0 0
218.412209530898 -32.9683041673782 -9.69737115836381 0 0
-96.0692573893776 0.200061227708762 11.3527921866274 0 0
-95.3372987456368 -3.0819572043172 15.7153865941 0 0
-220.747485236633 51.0402815054632 9.5705690379044 0 0
192.772045286197 -38.2769831451492 -7.78218694806745 0 0
-166.186622130661 -5.63195990483488 -24.3955681289931 0 0
-217.287657524554 -35.249218755769 -16.589274113797 0 0
-228.93468051009 -8.76102326208358 -27.6792323341025 0 0
54.6245249822194 0.0569069724797307 -0.959886082133215 0 0
-215.844240980336 -12.1948002819555 9.49671958332233 0 0
-77.6822299743061 -26.1209564322803 0.381028056260826 0 0
-224.251027037316 -27.5352752464369 -22.2990637590874 0 0
173.199677203314 -27.8285918664207 -0.0249204279116618 0 0
-110.273664892007 -25.5766766570573 -7.08454579321707 0 0
141.325475713725 -20.7869723443833 3.83270072753785 0 0
181.866704559924 -26.9217846954993 20.6634286691716 0 0
167.056803007985 -18.6671018436027 -16.4847026548942 0 0
-174.222407399365 5.32250511379622 6.59049887864976 0 0
-34.730489309829 -24.8448814053797 6.4987248083358 0 0
178.967886688639 39.5364639354913 -14.3090416794377 0 0
-111.841714609414 -13.4203586147494 -11.8493813969598 0 0
-231.808631668295 52.5881323434238 17.5423753704626 0 0
199.209434916911 -26.8973835763667 28.0533394107015 0 0
-187.378071369247 3.36613298793388 -20.2639448841134 0 0
218.731587106855 10.9891699615808 -5.85762655064436 0 0
-214.716416412614 -13.1029624018353 -32.4924996041827 0 0
-123.05995408992 -11.2933247781426 -14.3180672741654 0 0
-19.021059088724 -9.03610435655252 26.8847535518278 0 0
-199.817741233755 35.4262699674744 18.4155407385707 0 0
181.866449158035 -19.2146093887648 27.8910609854344 0 0
173.96904298111 -28.5077993166438 -13.5113600783725 0 0
-91.9507303805004 -7.22747100162321 -7.48083803724405 0 0
-216.451582715212 -19.6973411659703 -31.3451964733158 0 0
195.340704621545 -8.69224486766382 -34.5586695551428 0 0
205.118506256556 19.100821575812 -28.9503021100773 0 0
210.255483890434 19.500329101338 -26.168284775322 0 0
-143.45001683774 -3.72063437948052 -15.2570533961936 0 0
-96.2783836286091 -28.4458723720193 2.81425895684655 0 0
-219.025120473089 46.7273530305717 26.8979755418721 0 0
-206.550659839153 -24.8753094223161 8.4129300646016 0 0
208.535926553735 -17.5211663956444 -35.3112901280184 0 0
210.401208249813 40.7315386746605 -36.5586862598481 0 0
-213.207698454852 -32.9891315783295 -23.1210702127167 0 0
-202.258588376351 -4.79308322405848 -31.236141237172 0 0
-6.76210626787608 -3.14647091655043 -3.17410195116628 0 0
-87.7628196628681 -1.97714213036843 -3.44842863671643 0 0
179.267963597337 -21.6981520617361 -32.7970237445235 0 0
197.497781949455 -29.5783532787329 22.8651951340838 0 0
-225.23237450008 -31.3064543841079 -10.5923286333431 0 0
177.968238696375 37.8267370094516 -3.73786758674051 0 0
213.29656931038 36.4733984017156 4.82849670867423 0 0
221.635106431012 34.6674478616533 -24.445312513577 0 0
127.309316678989 -16.0289321002941 -8.39408990280559 0 0
175.835584142101 38.7210761933142 -7.64036782275039 0 0
-202.925458439278 -33.0754205525663 -25.3512572644104 0 0
46.7984653000747 -1.94759792624263 -2.90967816830115 0 0
220.838487540445 29.0153018524841 9.80394773454493 0 0
-242.039344426914 18.7565159103955 -3.81244087092765 0 0
176.428496698268 21.8262636820492 17.6319273874958 0 0
194.654936021338 -32.1803259202994 15.864514498327 0 0
139.664265109843 16.9315560383877 14.8553619479967 0 0
-199.980045481086 28.0267303592386 -3.23475520645476 0 0
-46.1346909507627 -22.5788520098909 20.4703501600139 0 0
171.467584547995 -10.0812938961237 -16.8187315480863 0 0
96.5581503409972 12.6286995560716 15.6040397023832 0 0
195.287450936499 17.5140009283094 -25.1642640626893 0 0
73.8099507535994 6.81970890281882 4.97086761236367 0 0
-215.153518814924 51.5688491283658 20.8130031357155 0 0
16.8972738689133 -22.9155188718402 17.2003100633624 0 0
-196.893865227464 29.8878398308144 10.9559855400093 0 0
-225.95301983317 48.9199012359861 -11.1766772989856 0 0
39.024073945496 1.34166543545828 2.52174492755334 0 0
220.479226278525 -22.4684116870256 2.71142941994911 0 4
110.6192466412 6.95756662824532 -0.877201487750315 0 0
-37.1908806930336 1.6989816679619 7.62421107274371 0 0
119.626565719642 -15.7088936998604 25.1470895795159 0 0
-197.320890107502 18.530648841823 12.9779117089655 0 0
81.8717451078559 11.1900558155157 11.4179104917069 0 0
199.512010486656 -24.5483493085301 28.4000510324538 0 0
212.123616023664 -23.2053945576908 20.4531532684039 0 0
-41.7952824159193 -24.6728176818568 5.09411755159133 0 0
-39.3093073972966 -0.146251418389316 2.48225893343093 0 0
-102.231507131489 -10.4237739136748 18.3839997380908 0 0
58.3660671406826 0.0844243299110286 26.6030699120401 0 0
-199.413992833164 -3.34317346058704 -29.6572114723501 0 0
148.515566279061 -21.2240328000909 14.5698278448478 0 0
126.495105201085 -2.243233165893 -8.44389585362003 0 0
214.513948740357 41.9882140442506 -5.86622034345435 0 0
58.6776503432578 5.28381436748281 4.68593075197947 0 0
-91.0657901980551 -28.029126607719 8.30497697752484 0 0
206.3302357063 -34.4577084909101 -26.6004555548865 0 0
-111.241352059118 -1.18255818850157 12.4923483761406 0 0
-195.025155595326 -31.9165541736822 3.88494498836178 0 0
184.382690684181 -32.5264149284318 6.05385798981884 0 0
-78.3063307911746 -10.1201324205187 -7.40478690989596 0 0
204.8689070611 -9.27751048578894 -32.8982074397955 0 0
-138.261138027046 -21.7907197575198 9.65499175635578 0 0
144.988492347082 6.94040635997227 23.7301678397946 0 0
-206.590064395976 -11.9158572036088 13.3636850343682 0 0
128.964513000406 -2.27277580601923 27.6838782717609 0 0
-200.225597691017 25.75758076546 -5.62569691146301 0 0
-0.0523081763212277 -20.4670522725118 5.06707393760302 0 0
-207.076633243235 31.8641229137246 26.6441824034345 0 0
212.044746567167 -2.77015706498924 -8.73089150015931 0 0
77.9936411728589 10.6920616504668 15.9582911222285 0 0
216.714980254848 -27.0623412756994 12.6732959081277 0 0
224.514478729759 34.5354048650169 -16.1058346019049 0 0
-119.782045849218 -28.8292303163349 1.63609693712916 0 0
-239.324222522135 50.4411488099553 3.95168862484605 0 0
207.875749740697 7.71866767775086 -11.2344323925005 0 0
-196.933413134757 -30.1277905800619 4.29537126021681 0 0
217.477519841149 44.681205484969 -18.3045537037688 0 0
-231.516084615075 -22.8039154594334 -11.0319743391866 0 0
-220.697070643601 -12.3415634083814 3.87655344676482 0 0
37.3515312319532 -17.2244249355171 2.74396327206328 0 0
-92.5000663052406 -17.3014499615271 -7.26602117223593 0 0
109.798603465757 10.0888656678875 2.28130608683458 0 0
-135.655161780977 -28.6284431109312 -5.68702537355504 0 0
-196.140808677104 2.17205331694608 -18.9818523807241 0 0
-40.1193167211415 -1.5588343943986 -0.366894178177047 0 0
21.5250066455229 -20.9997492363618 21.4075139544835 0 0
217.370226429729 -19.0617649176356 -24.0593399260081 0 0
-228.161888187226 -16.8954320464301 -26.3341160656203 0 0
26.6879881448761 -2.07970208532143 -3.18344453634316 0 0
197.25309050153 -18.9098038663337 -39.8460613560363 0 0
95.4549835047288 1.01421319143915 -3.81405034489375 0 0
-245.450527452777 22.8184947403724 10.9035936366513 0 0
-218.819856468814 -16.2341046066241 7.46930348389696 0 0
199.093118571274 46.3528117919273 -9.62240253976039 0 0
104.009979498717 0.0986747938649181 -5.4301744391301 0 0
-125.204032937433 -14.288293338663 15.0431410087093 0 0
196.208450478616 13.8440524672663 24.1139912577071 0 0
201.233727791183 12.2470609166533 -17.4413578482489 0 0
141.759573372162 -10.7319664029561 -10.7004925857421 0 0
28.9659369005405 6.30866254779225 11.5873177913046 0 0
-116.412404843553 -15.5579577744984 16.3232468012981 0 0
140.289217672996 3.82061869037201 -7.95962562768211 0 0
59.5046280435353 7.51233871880077 7.98477560590249 0 0
198.992653586975 43.8624963296555 3.20487336568781 0 0
137.079343329114 -0.873383089210326 -9.02647811387714 0 0
-193.865837698836 17.7293090365415 10.2713560469057 0 0
199.747018011756 -34.1290632844829 6.79566241226369 0 0
-231.393597917934 51.4955829528541 13.946194922284 0 0
55.0136672619983 -21.107294113093 15.4955942901011 0 0
161.064475445252 -23.5138134437293 9.14977175656197 0 0
168.341645754156 18.4346550948001 17.9953536409084 0 0
-225.205459744419 41.2974576982531 -16.317997456075 0 0
-212.167697804128 15.5024246629319 -13.1951126025019 0 0
197.840176800959 14.1448217774062 -20.134514668006 0 0
208.933832976447 32.3700785546569 11.3972492290223 0 0
114.7497160205 12.0666669393705 19.5393638058028 0 0
154.357585570824 -15.5318490094441 -12.4507347221193 0 0
169.685493383624 2.90111580067015 23.9062104040315 0 0
183.794399947428 -4.30419262060904 -22.3278354066121 0 0
27.4733592059566 -12.4523032368468 -0.47588679245994 0 0
-180.236268543814 4.47642487612443 8.35713871971295 0 0
73.2513344072776 9.68478493133726 9.80691588243688 0 0
217.061628416734 24.1192625443237 14.7176410060249 0 0
110.451605442748 -19.3198488581779 19.6831762629845 0 0
153.031498270492 -22.2185558923673 1.83026340213685 0 0
-200.315529475302 37.9018213113597 -3.23804898708086 0 0
-117.990894474834 1.17748310911525 6.57050293836467 0 0
-151.382879906525 -24.1828129679366 -16.1700045018443 0 0
-196.08341534187 -2.649459757807 -24.2555400310951 0 0
-225.702012110958 11.1520636373604 22.078038614961 0 0
-235.79384325601 14.9089598424831 20.2873117384875 0 0
137.126564362385 8.81326886868677 22.8975917812141 0 0
-53.2762107621068 -3.65140505329115 -3.30046978378217 0 0
57.6457804297533 -0.726605972553758 -2.39688870165332 0 0
218.931075419843 37.8838658333795 1.06087158161032 0 0
-220.013269005139 -32.1888154584572 -20.4616947904384 0 0
112.6862037687 2.38713599657285 -4.92179346346229 0 0
175.925248507456 35.6130774442448 -3.59299651916546 0 0
127.532817548543 14.8209859499291 16.5781004288668 0 0
-206.176248075161 -19.4263912510717 13.324795695598 0 0
-103.830162186165 -27.7201311158905 -2.49300098390562 0 0
-190.046321363603 6.93071888836835 -16.2038452174276 0 0
-241.322467266817 25.3988100445929 21.9872245041467 0 0
-220.630141202308 -11.892237117481 2.05571711659551 0 0
180.54000813334 42.8953784416186 -15.2264172662724 0 0
-121.198681053339 -20.8814669758932 -11.9858724236015 0 0
159.182763136699 3.43940268407575 -10.5702955838873 0 0
-231.791106685606 18.5671237493437 -11.6801438972112 0 0
120.193330561595 -0.187369540350363 27.3931038454157 0 0
215.123957551825 44.4279297344124 -16.8175195904431 0 0
-206.387963884083 28.8637334314705 -11.1869357000566 0 0
-103.96982908498 1.69127799038163 2.59593765142752 0 0
183.514659789221 37.9511911767168 -30.319633549324 0 0
197.101930342619 -36.6868347940746 -1.96340720553895 0 0
-200.367834240811 -2.43251265363692 -25.2091547042367 0 0
151.082104075296 21.2832065374454 6.43480130165043 0 0
-160.455779279979 7.62299148662996 -3.22527009957787 0 0
14.7565708749674 -16.1420095888653 1.65516242457554 0 0
-100.709693411348 -0.680501630770965 -3.08309287905235 0 0
-228.316074371682 55.3439913356074 -0.764160922923654 0 0
-221.431230577323 -4.45061391844988 -23.837362157159 0 0
112.644078304371 -1.25717008465859 -6.84858782609997 0 0
-68.4347609616236 -27.5695012064718 5.52434250522202 0 0
