"x" "y" "z" "f" "a"
-203.850560624418 22.2062867278592 1.14845515391383 0 0
-184.598495233934 -7.60087173061218 -10.1817443574564 0 0
-23.4348383300977 8.41857057478051 2.1870587439538 0 0
-199.189838769783 -21.1826725723165 18.631595512158 0 0
132.85792457121 6.05466099568519 7.24273701173842 0 0
168.4467943291 4.64709090813178 -22.9711744712012 0 0
161.379763961032 5.02313320666036 12.336678394134 0 0
-22.6974539930382 -10.3629409093911 -2.91644998940562 0 0
-42.8182790152271 -3.51308792821386 1.85722326707941 0 0
118.474238011219 2.07791866350275 -20.1435950366076 0 0
196.722125051512 22.6747568389804 5.19410935865505 0 0
159.220911027204 12.1237914234605 -25.3590178323417 0 0
177.157643075512 -3.46480014347013 12.9786968660499 0 0
-19.1749425811182 -0.0891809714555126 -19.8670686005862 0 0
-85.6124186138421 18.5109730701086 -7.55764051682133 0 0
-96.6737751169293 -7.50886516350262 2.36956785636591 0 0
-181.732679748634 18.4267452334763 -11.5454086163079 0 0
-136.960724727775 14.6837309736387 14.2122413736708 0 0
-66.699475276457 17.6892205033588 -10.150940881601 0 0
-69.8733399112222 16.2234685973783 3.10337329570065 0 0
-162.77301488433 -15.1775678938763 -0.964395243842813 0 0
129.136955166573 -17.0925096622158 2.8480113717919 0 0
158.383298240483 -2.36952706985871 9.82768831187709 0 0
-198.128279744817 -37.3120473230023 16.2324839305215 0 0
173.385658779025 -11.3421103721067 27.8632082771001 0 0
-143.315197870063 17.7533948282762 15.5538893968005 0 0
106.418597630118 6.77894751968062 -20.2701690659431 0 0
167.600091240518 -12.4002692219228 -20.7166635800607 0 0
-192.678045592961 9.42730071522696 8.61235465249799 0 0
-54.7980605673185 -12.3399121921772 -6.22104166087493 0 0
-74.3075313037724 0.498101521703979 5.44567898086329 0 0
-80.3808864093633 -11.5767887429505 -4.05000871739015 0 0
102.929102983775 -9.9858447370839 -15.8345129343671 0 0
-9.20073920961845 15.3769212154942 -7.04673460270877 0 0
-164.387982222452 23.0149235082282 -6.33616221127552 0 0
-119.116012286669 -9.24606368697308 1.15750360160762 0 0
47.3180691323802 2.05019420126321 -19.8329599466335 0 0
138.208012118683 -14.9711660144795 -14.0970837921282 0 0
58.4768846423274 -14.1049407422346 -6.51741787021341 0 0
156.199450862994 16.7879614754948 16.3091935463887 0 0
-149.524496222565 24.3555729373155 7.79105850373473 0 0
82.9960855454837 -14.6728426985173 -10.9276538296513 0 0
190.255331414022 6.64451179919715 14.5289545512191 0 0
-203.724261661134 -45.0582962406553 -4.20904782670246 0 0
-217.285410880598 -31.3140555854568 8.14615224363481 0 0
-66.5978675747989 17.9419420212317 0.210651506477743 0 0
-94.6677538228974 -9.57422260024187 0.069991957946026 0 0
140.978310011323 -13.3538849517756 -15.3055009156164 0 0
52.5553930720783 -13.4680750135561 -10.3769935112507 0 0
59.0101354017314 -10.0641278067259 -0.37416857362875 0 0
-21.3889908638457 2.79714553578866 4.99716787088189 0 0
164.601412533372 7.64202173816332 16.7099881108086 0 0
-177.698699579158 3.39884463853939 19.0870479542346 0 0
204.470673844678 -27.503960181495 9.07475012411045 0 0
171.603393867479 -32.2453910091424 -5.08800781602328 0 0
167.918419963761 -3.18940391526572 -20.1136254627285 0 0
153.421868753668 -0.863809958086283 8.51936722388891 0 0
-39.3887711449971 10.5053365245658 1.79376582780292 0 0
-39.8667437090344 12.9081376782727 -16.9537962202821 0 0
60.1577020128593 14.6717466948252 -5.30382066691252 0 0
-52.3179380006483 5.37627799708817 5.9701535451186 0 0
97.7457590236607 4.32711737581316 5.61225875818135 0 0
-187.319089825553 0.164573269755019 13.0821455315171 0 0
-204.628620618559 -32.5499395010878 -18.8398813235986 0 0
-181.892654295913 11.6100005444881 25.3675325657121 0 0
37.9664734436708 -1.17541197313895 -19.4267973695349 0 0
-219.153212681456 -31.6677036113501 -0.442985161662651 0 0
-218.517345528628 -20.5030953907145 1.65213006923011 0 0
-69.2533364530058 2.32142979000619 6.99315647953915 0 0
-118.097417004797 18.5472897885223 -4.80834509138586 0 0
-14.4983244355592 8.82792933255966 1.15892741459689 0 0
-144.184257870448 -8.30595267946027 19.4825116357042 0 0
-168.394035177513 26.9070504891589 -6.33612484109683 0 0
17.5876783667665 6.75500151623114 2.3938848625435 0 0
-197.793409437327 -0.644902209862634 -3.03777965452524 0 0
132.350383082837 19.656982089639 -0.953020854419438 0 0
-91.6502228050561 -10.951780661747 -4.94370090487266 0 0
194.766268104936 29.2276605525984 3.82554361164171 0 0
101.913452510697 9.36435229953008 -19.2164619710232 0 0
-174.841236460015 -21.9638990539287 -1.16820576107501 0 0
-189.161919119543 -28.3968130503322 16.1519187381183 0 0
140.820343244634 0.904529058450684 -19.9002548012208 0 0
-88.7692464297907 -9.364387870559 0.00759116563388363 0 0
71.4358103297665 11.0106934362515 -17.307157868246 0 0
166.288261755086 -36.0933310054253 8.83107329450591 0 0
-171.633218541207 -20.2055346974432 2.29851184107887 0 0
-160.581303311457 -15.0722932902671 3.6008787208162 0 0
-164.841575680237 27.5008357775503 12.2209363154071 0 0
172.567347626787 -25.5506232898391 30.1921766633858 0 0
-202.613554254232 -29.255313852041 18.923342085425 0 0
-194.248926271301 10.2736496543293 8.89456035801431 0 0
151.13016800002 5.27564973390359 -21.4906574919409 0 0
173.490575596663 29.4818731465394 27.1943264131576 0 0
58.8723703974179 5.33553949596913 4.73349731049521 0 0
109.450560491893 -13.3932965232917 1.80003192796713 0 0
-24.0985143531056 -5.56049260451303 -17.5403776356551 0 0
-130.541457473715 -10.1573525050411 2.75948661043688 0 0
84.904717585115 -13.8225513706128 -12.2559089733493 0 0
111.565913716764 1.16983064076571 -19.8571708713891 0 0
180.857546266703 -37.7237906946913 15.780340367871 0 0
181.411075317982 31.3831771016007 15.7491593350912 0 0
146.799236825368 -17.8229915808504 9.38712714314392 0 0
141.513311579869 16.1940878174416 11.4805538603452 0 0
-100.417491469329 14.1761702245846 11.3076652564237 0 0
-31.7742674773872 -12.7841244158758 -6.60188441924134 0 0
-189.65080880574 3.43025505827149 6.82598933829254 0 0
-69.9629062242604 -10.4373398650753 -8.66556700646052 0 0
-165.36106067745 -1.5908036180955 20.6918796012518 0 0
-166.514550198591 -16.9615124553776 -0.566847671150511 0 0
191.746076361727 -10.4935750943874 24.6608199899049 0 0
-202.830186136353 -42.1747980483121 11.9734715185706 0 0
111.906264263875 -6.89458476153472 -17.3161118039554 0 0
80.3736234941292 9.32190845026895 -18.5821002143145 0 0
154.522206368348 2.80117372963659 -20.8397841206985 0 0
193.711955895104 18.8440197098736 -9.12724913781334 0 0
-25.1302530989825 6.23468758927441 4.89034183936361 0 0
172.328679450794 28.94334600728 -10.1705746868457 0 0
-203.675450549649 -19.8917673095929 17.8411281388047 0 0
-93.2409916124409 6.33309114080013 8.82774440055048 0 0
-195.848259357508 1.9042266472051 5.25618560848423 0 0
-141.215178755203 -9.92863454721745 14.3320173391122 0 0
-174.707127361416 -6.0261245987413 -7.37643085682891 0 0
-9.60493121022659 1.95738443299902 -20.1543150748671 0 0
-44.2285816459873 -1.91840842511071 3.21358187710449 0 0
129.526055986015 -0.474478014906428 6.0191512705067 0 0
-52.2382520685192 -10.1409544411721 -1.88983405411708 0 0
-82.2671505117202 -10.424031639708 -7.33586419082762 0 0
-75.7245249445854 -8.05214570111811 -10.110455213452 0 0
104.17751195587 -16.6950907156859 -9.14130628230284 0 0
-207.028034607398 -37.4045328646904 -15.3125700680168 0 0
188.757231489581 31.0787026722134 27.4549199469591 0 0
-181.831805402602 28.5196958917901 -4.18698449339544 0 0
140.539296673988 18.5962378476536 9.81172074885844 0 0
-138.932117084251 18.984521902447 -3.41888395754844 0 0
-25.4029804464794 9.34220069118848 -19.2150200125294 0 0
89.6827377119536 -16.2513977854656 -5.06078124393768 0 0
-109.142332498985 4.50165308260509 9.87535422515449 0 0
-176.77070242967 -13.9514990492038 -7.96778492725112 0 0
-51.6535868683227 -1.76141451792121 -18.4934173104633 0 0
-204.394731919911 22.2302530230977 9.69588309766652 0 0
-158.396445979784 17.8681947988478 -6.13592443002867 0 0
184.363917868792 -35.337130312418 26.7702803039426 0 0
-185.619742600007 17.4400762288715 25.1268162932328 0 0
-106.369962114573 16.8296737298141 9.54204120940129 0 0
187.445268398268 31.8138319216994 19.7081803542523 0 0
-186.970350827381 27.1236319322214 18.2193401628475 0 0
-194.050950580624 -39.7280385618225 13.5053034759877 0 0
165.109456448741 31.137115907453 6.0830398830409 0 0
-58.7288887571055 -10.4066915307375 -10.4210119887092 0 0
144.832815929596 -12.274688122695 -16.1641957160674 0 0
-100.551490374628 16.719479860915 -8.39176605736492 0 0
-46.9748387719821 10.4139696701196 3.26661181030347 0 0
165.283218300212 20.8311752753626 -23.0136425537836 0 0
-203.882127497684 14.5994412335312 8.14740834519982 0 0
-167.231880875129 1.91705126349676 20.4321408403368 0 0
-196.3307307226 -7.85142426277368 -11.3047007435587 0 0
5.49552568839356 -0.370938049587476 5.17961997247821 0 0
159.024681975457 24.3665420402165 -9.64039870360362 0 0
-114.149924359758 3.20239072651492 10.4512552043611 0 0
133.240240728273 -18.4361007854847 -10.2583030776419 0 0
158.92175822152 25.1985339960312 -2.67562220693991 0 0
-180.423839990683 -22.0925898167801 7.55715014467201 0 0
-78.882416316132 -2.62311379119104 3.62100874247854 0 0
6.49350530838597 4.80349209781736 4.35864621399305 0 0
-2.00537707185049 -8.71607862275214 -15.5423510084114 0 0
124.101153140789 16.839487849569 -12.7626111958148 0 0
148.723647323063 15.5114559801014 -20.057299826377 0 0
158.532386498072 4.07819289885161 11.241998117224 0 0
33.0771511446 8.83513889129691 1.19691341958524 0 0
-34.2143404825475 14.0919285921226 -16.3115935121191 0 0
-165.060046350476 -11.1859314296725 13.703751365689 0 0
-42.0426626840972 1.40905571660121 5.91087164291182 0 0
148.02432260967 -9.87415044832033 9.1882714680761 0 0
-154.28474373904 -11.0300845298453 23.7566094027051 0 0
173.43289439117 19.1673545537496 31.8809233038876 0 0
-35.7484247445116 -7.9301827184798 -1.03519644128364 0 0
183.159903238514 29.9693268983972 -3.27789114394612 0 0
-207.400599667647 -11.0106298676228 4.65971418533642 0 0
-175.64982370255 20.068529411414 -9.41174274161646 0 0
-35.2344688937123 1.76533562622398 4.9385837771477 0 0
20.9836179454525 -1.7449519786056 4.68795068770727 0 0
156.82945312471 11.3666774793958 14.0039768999921 0 0
-19.4616351530501 3.36741208448691 -20.2538953334366 0 0
-144.238320755447 -10.5027617607739 -2.20041241337199 0 0
-62.931588461585 -0.416421791106928 -18.1751475092492 0 0
-101.105088075963 6.85604176317388 -15.1271268815752 0 0
165.576345738228 -21.5430476348262 24.4769871962978 0 0
-16.9612418983241 0.0559141317051883 -19.8949284050967 0 0
-44.6955829204548 7.93544378856436 -19.3396716519308 0 0
73.9953531785727 14.758388170884 -2.58990764231594 0 0
3.51775924538342 4.81193916584796 -20.0516004039699 0 0
55.8495122341195 -8.45522869897397 0.487641235957368 0 0
179.701514990775 14.1649960976906 30.2906725389069 0 0
-61.259499170226 16.1280497476171 0.824950408150011 0 0
-44.3177545845266 -4.79969566729813 1.18872762582338 0 0
128.099993626979 -17.8589386850261 -10.3544654970949 0 0
27.0022000225964 -9.29548925061813 -1.5982560760766 0 0
-157.55224476161 25.8298513706775 9.32785115712513 0 0
-53.1914666994191 1.19402656763706 6.14910307322062 0 0
111.203435952686 2.34439357794472 5.29802054729092 0 0
193.688571871953 18.2915206223574 21.9876072281227 0 0
-67.4441116236129 10.1767972227797 7.21649667252963 0 0
-64.576407416587 7.71088157292454 6.78073017363867 0 0
195.905839301522 19.0353078207723 1.31747245920907 0 0
-112.907252293883 7.88616751016247 11.3954485347852 0 0
72.2867315541455 6.50650313465655 -19.4517341373681 0 0
162.837574807551 -9.15126289251956 12.1469624312257 0 0
164.616229362981 0.119478695417475 12.8006264528391 0 0
195.325677256657 24.16111883017 -1.79966117097371 0 0
-219.499802887532 -24.2053849884954 0.450806225318066 0 0
71.069510754672 -13.8679445605 -3.18164676964503 0 0
-217.057399490356 -37.3967795600609 -0.702580498222858 0 0
-181.693318010118 3.69214497940056 -13.1271275266998 0 0
192.873136529234 -23.5159843758628 -9.98926052225141 0 0
137.676796553534 16.3086480239181 -16.5829302219142 0 0
-64.7025237694119 -7.0222031373511 -12.5709380976308 0 0
-70.1131905314206 0.868294311603831 5.565033816035 0 0
-91.4996350868189 0.720044535421222 6.77811805601031 0 0
61.2807684898107 -1.24491293559016 4.18030169803324 0 0
-113.025351237909 21.9842489478424 4.30155595827722 0 0
136.813481607752 17.9870860852065 8.94303995271166 0 0
176.07224458521 26.1323286261522 -16.9173438673376 0 0
-22.2217569303161 -9.09399596414163 -14.3600221380377 0 0
-197.744690887289 -15.7438572590177 16.8484591681637 0 0
-179.868080372853 -1.02569227572281 14.8514145904582 0 0
84.1611996056932 15.5274666922679 -6.66353023308341 0 0
125.502237772613 -0.258566043419259 -19.5736456129184 0 0
-88.511192350582 2.09125364976284 -16.5553473848273 0 0
-3.31956984530231 13.5218433917187 -4.49421512173045 0 0
-194.385789928935 11.1702038329565 10.9020073638617 0 0
188.999343338198 -11.9295003475265 19.6147730626089 0 0
72.7260189462639 -15.165216850338 -8.59105126219863 0 0
178.029387684533 -34.0301323472616 -2.35056271405455 0 0
-16.1048365400993 6.99421985267978 3.13523884690482 0 0
-179.026805996716 -1.98313355672784 -9.7904721854302 0 0
68.2581649625575 13.2252805812625 -14.1965564677938 0 0
41.8038229764484 -13.118476465067 -11.3163763499829 0 0
175.968028941956 -1.66116755245243 13.3968769095109 0 0
128.957017873631 -10.2207498157207 5.49185567321441 0 0
164.514648945891 10.3458408926309 21.1558217064112 0 0
-25.192587934136 13.6146659035129 -2.69728825586102 0 0
-194.819260193119 12.5976320375184 16.7115473059509 0 0
-118.690398225609 5.94463830267549 11.7421784067171 0 0
27.533154205781 12.3116767067827 -2.86468097992761 0 0
-189.2838825014 5.12860350018659 8.39004520825496 0 0
10.9623012439175 6.01006102644658 3.36317965333218 0 0
-11.6168295508242 16.1076982472424 -8.49118634303167 0 0
-116.853020844944 -3.67997248349493 8.09707445718984 0 0
154.534956135912 -25.655234848005 -3.7244937898118 0 0
60.3842310692264 4.7164688768175 -19.6904306836839 0 0
-161.693685827548 19.5812619847117 19.9416623398579 0 0
-2.51137986061323 8.51158490078108 1.02676785433935 0 0
177.554846504333 25.6596617412787 -18.6039482222521 0 0
90.8240137487485 -12.0335573827912 -14.2550955721023 0 0
61.8733672235052 12.1676394277337 0.565295268353407 0 0
-21.6076085273148 -12.2794040955761 -11.3125417412089 0 0
193.869864833536 12.7316311769261 4.09380808819112 0 0
147.794567138168 -24.0412039745181 0.49291531444867 0 0
-158.430464923852 26.3160883696193 5.30365905045966 0 0
57.2690175365011 14.9663275228903 -7.21605158432412 0 0
121.823273548875 14.8076316629004 7.64024612121494 0 0
126.751474502805 17.2454418550781 -12.3136848333265 0 0
-206.52298165328 -24.9729625328217 17.9641737854197 0 0
-206.760777484107 -11.3798828526404 7.06347870613914 0 0
158.951854324661 27.3152838327468 5.56890311535492 0 0
-11.4346456130828 -6.86741921903113 -0.718632661939203 0 0
168.023872942413 -26.9940852490153 24.111506607002 0 0
185.575700099383 -35.3404127674212 25.2112421421281 0 0
37.7167992766801 5.45053295207952 4.34492989744642 0 0
-142.73555981309 0.807293369407098 -8.0588266662249 0 0
-49.8668745305531 17.626875288174 -4.66882619419953 0 0
119.840440059422 10.6412552294238 -19.5345351579026 0 0
-158.311353537414 -14.7774977139303 10.1477993216746 0 0
-12.8420778662676 -7.88305001425003 -16.0163530136392 0 0
-213.490439986238 -37.7747979979124 9.13573603241496 0 0
-144.804116442155 -10.3964013135486 -0.382197593386731 0 0
-25.9402676907047 0.0186542768774449 -19.8079210455885 0 0
-127.933812559642 -9.79648744985401 -0.120051386237204 0 0
94.4960437367037 -16.536573889058 -7.41836464456755 0 0
165.837279288999 8.54398159902451 19.959211608836 0 0
171.835651990612 3.03132093709931 14.9159575335744 0 0
-156.183345288556 -1.05959678819002 -7.03592816192919 0 0
70.0401818997109 13.9155315438099 -12.5564630134202 0 0
157.671303011036 -9.32805921956388 12.6513490853645 0 0
192.625193087288 -30.5711210691664 0.349540105500365 0 0
43.2952033095627 7.52712753286302 -19.0159175388216 0 0
-196.019285409512 -46.8732930703779 0.515681317006676 0 0
-129.755705505228 16.6274016990407 -5.94858943925835 0 0
113.772769939146 -18.1010430238612 -2.13615749436337 0 0
-163.559679118234 -13.0668637441505 13.1492535050832 0 0
186.17403033408 29.3252345496736 29.9895084121393 0 0
-23.903370253509 -13.102084231198 -7.24724213442321 0 0
-192.467462953099 20.6348428452685 23.9146731729979 0 0
144.249278971522 -19.4395307864097 -10.5710772823714 0 0
-177.671059993012 16.5658766270457 -9.44651516075946 0 0
-40.9791887442319 -1.06166499052747 -19.1831664641685 0 0
-74.6902617781527 14.3652269343468 -13.1893490952307 0 0
197.985147720777 -31.605013680275 25.1496057602846 0 0
153.152827950419 16.3520536942367 -21.0484168078061 0 0
-204.115388378149 -42.94956894257 0.50563116755303 0 0
-192.685998683736 -16.9245250257682 15.948854628868 0 0
131.708052637092 1.50773589476056 6.35183609155038 0 0
-139.619126462331 -8.10844741618817 -6.19226714238249 0 0
177.579214415558 11.8730644650709 -23.9583858695142 0 0
-77.0899325680544 -8.81157667903428 0.203380548347826 0 0
117.562411102749 -4.91773280467936 4.98210229335091 0 0
12.8380754810509 -6.22187440328763 0.246986588118656 0 0
96.4638567645546 -16.7821892646131 -4.90266684633743 0 0
148.086406843448 -20.4135234761932 8.53810261966008 0 0
28.8658307087586 -3.35121291296415 -18.7463656320256 0 0
-146.195310700796 20.103727143797 15.6168011307754 0 0
-28.8721051068582 -3.52993857880955 -18.528219665647 0 0
-99.7136440702062 6.25472213718613 9.33466774305259 0 0
173.602837814577 4.67384364851176 16.0335689337643 0 0
167.246725295807 -18.2698921092488 24.409802698247 0 0
111.181792352399 -4.64421322542134 4.78529494943667 0 0
30.113779155879 0.593982872953659 4.17175119225829 0 0
-130.985846374698 -3.80938038347036 11.669355193209 0 0
139.550525265748 20.733230018344 2.16967575139034 0 0
165.397049062298 23.0438744082899 28.7266834036116 0 0
164.536395700823 -2.74958697154369 12.2164468865304 0 0
-143.321760563542 22.9617814403404 2.32946335128037 0 0
93.6925466891428 -12.4650878715489 0.695893906935949 0 0
187.595092394189 7.00455246228421 18.3009552328464 0 0
184.000341358464 -28.6967261971573 -8.26622389500823 0 0
-1.30497942720839 -4.26545952313165 3.28502976090632 0 0
-196.704018074597 -43.3390258167502 -11.7861697817381 0 0
194.843480157475 21.6393221586767 -5.42156515003719 0 0
2.98926130762618 -7.78063920871031 -1.31441853195871 0 0
-53.2037099278478 -12.3532884010378 -7.55705058422141 0 0
-175.609729234262 33.0388780427857 9.52226829794611 0 0
6.60568216699515 0.880930474456282 -19.9551574066818 0 0
-174.316093095597 -15.2176430463686 -6.87643999282779 0 0
-82.4571455178382 -5.53936957494573 -11.7616974764531 0 0
-140.684278203073 -8.25045458470973 16.2527675591889 0 0
-131.463598764815 -7.56083635366633 6.75677031795789 0 0
125.255321408913 -10.610899656853 -15.8936532774401 0 0
102.938377832297 -1.24196822492875 -19.3327629476891 0 0
-98.4395978678697 10.4008394139236 9.57797039891656 0 0
-8.36641590995806 7.36617910005361 -19.7849467481558 0 0
-196.845616241762 25.5435985018336 0.281026131805445 0 0
-198.547715193785 13.6662849982383 24.3314040844589 0 0
-77.1772296131084 0.412031090416877 -17.0095832360922 0 0
-177.125093057118 -18.5517136503541 -6.58783562785106 0 0
135.367548417153 19.5888631349253 -5.25187166889948 0 0
-196.368187510709 -30.9746633785272 18.6905536481371 0 0
179.305081171374 -38.5318795732808 14.4202548393801 0 0
174.088138188901 -12.6230126475016 -21.9202343896609 0 0
-88.4150842536646 -9.68042270923265 -7.34363954901093 0 0
199.378006152489 -24.8946826523416 -6.35726372110757 0 0
82.0882039543756 14.1309721515222 1.57788984471345 0 0
72.7420164763993 -5.78954941418259 -18.0481333247459 0 0
182.798055596719 28.570101261109 -8.13092915131395 0 0
150.920575951244 -18.1634428079721 12.9862984596687 0 0
-160.786341899331 1.48783892354506 -7.98547940544745 0 0
-87.7526765873606 3.07119214795431 7.76783363857296 0 0
-219.416577307558 -30.4210776808566 1.32638141424249 0 1
-61.3325573170284 19.0927676496539 -5.56677281095561 0 0
-117.811817924819 7.63017754643476 -12.4758857846642 0 0
-144.08436590988 -4.8041307071719 19.3344921171917 0 0
-59.0970053896315 13.1750186260371 3.58513234198513 0 0
186.379472530006 -11.911721163601 25.2107372305788 0 0
199.439431340238 -12.6458228779904 -6.45186237421685 0 0
-33.6654150092317 -1.39398295193333 2.78910566533541 0 0
-10.6341834777818 -2.39683470934471 -19.3866314794504 0 0
-192.068244899934 26.3686374303645 -4.69735025543531 0 0
-70.8964804081969 -11.8462899440145 -4.18937410377332 0 0
-184.940862035287 -1.15244598846435 13.519469005154 0 0
-200.167164361558 11.7385589803581 22.9338054946943 0 0
-159.965470781282 16.9438478989709 20.8624104590619 0 0
-81.4050153867522 17.4319042613586 4.77127806787524 0 0
166.860713341245 -17.0351582230317 -19.1776148513287 0 0
-131.889469163285 -9.9197083489021 -0.831260820220711 0 0
-146.266988828971 -14.6086876241534 14.5026337409224 0 0
-109.958899687339 11.4738012046951 10.946255023546 0 0
-108.662990100918 -2.51690565877115 7.2431553824181 0 0
180.611688578888 -11.7460444876032 18.4285900892589 0 0
-132.565079987575 2.54140288167034 -10.0635579483007 0 0
182.240988084388 -35.9213774279231 21.0715634402324 0 0
-146.550280528049 12.4857484658343 -7.45111907213255 0 0
152.118851043207 14.8476452039037 -21.8237620322261 0 0
-116.627438618541 22.2371865065713 0.380196292111605 0 0
-180.907978287715 -28.9329972548914 -7.56080278581767 0 0
-22.631993326261 6.09584480636565 4.80717831958709 0 0
125.174553881222 13.9981617493238 7.79447658055118 0 0
109.636329909246 -9.37809817372676 -16.1655001849036 0 0
-205.610427379858 -45.2279916454391 -2.97950185098309 0 0
77.5265855000069 -14.2909243374694 -2.81229278399947 0 0
175.822114522816 -32.7995308066024 31.0134061698886 0 0
-165.362960838697 12.9949745276758 -7.52590489204988 0 0
185.333425819202 -7.19525431550826 9.47761762884878 0 0
-186.897364606449 -40.9148419994137 -7.84311124971092 0 0
86.3882954958187 8.84819210670369 -18.946576688738 0 0
-13.9818999693814 16.5927099720386 -9.8917597622103 0 0
-157.211121343876 15.331210672227 -6.87375939967895 0 0
24.3532961498746 -2.9066496098165 4.40582036036713 0 0
-82.5830565300114 16.3226594509628 -10.3492120872984 0 0
-198.319107188685 -1.32868597727533 -1.18730733363524 0 0
160.253840386539 -5.71585910354039 -19.2276983313664 0 0
79.219008000573 7.84532420136519 -19.1686039263167 0 0
193.916100112837 -2.73442437676916 -0.530803087641029 0 0
-197.762661235496 3.12500718545023 -0.690889180185068 0 0
-57.4582666789462 5.1297741440543 6.0342678569575 0 0
172.941172080996 1.07475742654882 -21.8708036233063 0 0
76.3892285459489 -14.7957926086705 -10.1410806138143 0 0
41.03670600405 8.67062675441548 1.76705439868195 0 0
165.065672190605 -30.1827071210174 18.8250474394413 0 0
-181.783920273565 6.4037521693932 20.4433296901119 0 0
-48.7956574408485 14.4895498836782 -15.2253072487685 0 0
139.770087242592 -3.96964615855716 -18.4997706319191 0 0
-96.6478781135648 2.71300497016772 8.32069190013817 0 0
180.915605008568 -11.2700228786776 26.263286363552 0 0
-92.3416617776595 2.81776632185712 8.05671506053974 0 0
-112.638494628364 -5.28300545242515 5.9277914353919 0 0
-111.991504279581 -8.3566926835185 -6.39432584000963 0 0
114.811447850669 11.5265047505224 -18.5889395997468 0 0
-136.259900080095 -1.44811427718583 15.3928195587375 0 0
-200.063285821947 -17.7576443204845 -18.68000602345 0 0
-82.6620599700831 13.3044349018748 8.3812499653172 0 0
177.576235773535 15.8744360637436 31.4306785523269 0 0
31.3474211284699 -12.5802392426355 -5.01547989293962 0 0
194.65609337465 -13.4882012734282 26.477893147053 0 0
-195.139085729607 -43.4972022340582 9.81544586973258 0 0
71.7477244019579 -11.6470222892428 -0.654496043530212 0 0
14.8317760708742 7.45204937124034 -19.3392250703409 0 0
105.789668588376 14.6981904392171 5.36523463198434 0 0
-173.145623488175 29.6345234026916 15.4981244733074 0 0
168.749984620909 -37.0348295669449 17.1917004128496 0 0
-124.20773630316 -6.0556154813924 -7.23359100798672 0 0
-188.545549616606 29.8750266569308 13.5006715016468 0 0
194.017663799887 -32.2820494612983 6.08017952918705 0 0
194.761530030055 -9.82173055136103 19.4293648836378 0 0
-102.399488645756 -7.74583352721002 2.56036707967505 0 0
45.7466382556051 -0.383856688397791 -19.5896579244149 0 0
198.407067704006 -13.0166849285273 18.9615504343829 0 0
184.387935134795 -19.7762702610575 34.2335340191991 0 0
-175.12834288402 23.9910477069946 -8.12883201656492 0 0
136.441156334455 -10.7996270888116 6.55088195098798 0 0
53.8177022816828 6.14036023563344 -19.4181869900385 0 0
184.676604086188 -29.6375748951663 -6.0286448430357 0 0
83.8977297460994 -2.35389567818096 4.33503254174383 0 0
149.140321964542 13.6254672758612 12.3654468429301 0 0
-169.857763593037 -6.41680440025324 14.9313333148043 0 0
-213.185467305679 -19.7735968279912 -13.5914981374424 0 0
93.9156383541033 -0.171006088733249 -19.5361190567809 0 0
43.0516617782427 11.5943950713677 -0.862921132598702 0 0
165.00376409459 33.747094823533 14.7826174928947 0 0
-120.820429428381 8.92146724742318 11.7682610729689 0 0
-79.8817274774486 18.3417606998678 -8.19732160379221 0 0
-162.705121862822 10.0713673902284 23.6667739245048 0 0
190.219498036593 3.08393624645266 5.28784706186702 0 0
-165.857159809159 27.4018341570641 15.9992912010866 0 0
196.224160837615 18.4100976791443 8.40235691102891 0 0
107.440531625106 16.4070879839252 -10.9828482576626 0 0
147.773344272192 21.3875031968826 -4.57873339822474 0 0
20.2064214826168 9.12004915679012 -18.7901682432276 0 0
188.903639075048 -27.86921939838 33.4634072510214 0 0
-134.089209140002 -8.79050085231555 4.85543165148128 0 0
-188.864618993298 -36.5339186906881 13.4118110147717 0 0
179.662074076544 -10.0806344385209 27.681127341217 0 0
116.586912998187 17.3246721280426 -9.74262482628632 0 0
-172.255671536693 20.7478818811372 23.5527289065677 0 0
-215.391172927043 -15.5253654837372 5.64979913470449 0 0
-197.230906338735 22.6188598000905 21.6026025699078 0 0
204.032667883261 -26.7405891230315 14.4191295249486 0 0
150.832091767132 8.05439760219466 10.0748792780224 0 0
202.050431642568 -15.0794638970832 12.0365641850423 0 0
-201.859353769982 -10.8023041585943 -13.0957550985824 0 0
178.346267680695 33.6368829553808 3.0683412397341 0 0
-179.013740165002 6.42402913785195 -14.1188704382549 0 0
192.784229248803 -25.9766203899615 -6.73674449099505 0 0
-163.257754761838 6.63770949361174 -7.67781367097501 0 0
-179.454945440833 27.7955893442582 -5.16963048252796 0 0
-15.2800585575429 -7.06077740929181 -16.6911220340776 0 0
122.691351500709 7.77796700900082 -20.5471073672728 0 0
-28.2850536194298 -8.93081999037985 -14.0916092953291 0 0
-29.0709362400159 7.04542971286178 -19.8285138004417 0 0
115.894593743817 0.402346005217378 -19.716588341684 0 0
187.531070526768 -22.596984048141 -13.8988307985695 0 0
37.7772521277986 -6.43836718960923 2.6938797938048 0 0
-147.119927643649 -13.299969196652 19.5133639898043 0 0
-190.481978114547 -36.3918832607914 -16.0221636083129 0 0
-55.5628781535132 6.71760283575162 -19.1886073393171 0 0
179.995083192851 30.4945060222742 -4.1232119241586 0 0
-176.704471111712 -16.170103017203 -7.57317651129049 0 0
203.347446143926 -17.7494151620338 7.61582469353559 0 0
-133.380593269062 11.834789963739 13.7796456518289 0 0
52.1135565542145 -4.90032694702561 2.46696734451552 0 0
185.772412306948 -11.8833155218744 29.5297460579919 0 0
-154.839527182192 17.0179874321129 -6.30373348179501 0 0
-32.4918777357908 9.36946354105727 2.05458472584232 0 0
-21.111495665984 7.38311919999077 -19.7546091003682 0 0
-59.17806234754 18.5500796388506 -3.73244027905139 0 0
171.23199249915 36.2589864558284 14.1703336129975 0 0
-92.3128720591223 1.16387442197198 -15.9726051835923 0 0
74.763947674294 2.5147728696258 4.71192169215264 0 0
132.121956478552 -1.1909657425517 6.16437915830318 0 0
-133.002225433428 -6.28945722237189 -6.91168859486394 0 0
174.441030787325 30.3916837896554 24.7349400577812 0 0
-184.899575859618 30.0145099108903 14.5527023924732 0 0
-63.4137984852101 -10.8364308600503 -9.27740805279386 0 0
29.8496763059069 -3.14386646291397 4.10436224381782 0 0
-76.8802140184772 3.66547336712805 7.04524131694923 0 0
14.4973848355506 9.98086649520529 -18.7369466402668 0 0
158.677234362827 -12.6758131469769 14.4011617651615 0 0
180.699595443991 26.9622954284226 -15.4765739081548 0 0
-96.3768506615048 4.67217419681314 -15.8281393407146 0 0
-17.5640967832098 8.57516030597893 1.56412602051675 0 0
174.521627895127 -0.115451353851479 13.8493338543119 0 0
57.3831936349792 12.6272060355714 -0.672172346623371 0 0
-176.297217175805 11.3756116114036 26.3866441020078 0 0
182.280549429728 -11.6090817105907 -23.2529913444015 0 0
175.490347993862 -28.262147475206 31.7585367020545 0 0
191.580902050719 -29.9202073131996 -1.75560720869695 0 0
193.1025968576 13.7447753708347 18.0527580204772 0 0
-41.2208339195517 6.19670544072573 5.68852531538727 0 0
-193.782768660725 12.3245169199745 18.0561845001632 0 0
-57.1851145702283 -9.94138961015455 -10.9263436877984 0 0
-74.5100954296427 -6.27746853542568 1.66297807868533 0 0
184.878832286081 -4.96246222452312 7.75449827360562 0 0
-69.5217657926334 -7.3688470970648 0.919629751822369 0 0
163.374123048851 27.9732758457051 -1.19152375047528 0 0
166.645162226926 3.23997650078304 -22.3148363775685 0 0
-198.307759435258 24.7554819730853 2.2938335636508 0 0
160.312008865055 20.2293911583343 -20.9768278831385 0 0
-190.268254377835 -30.6609445399618 -18.2798439757133 0 0
-98.4136454215983 17.2595521472659 -8.01921283292451 0 0
117.454184081795 -4.40740259759509 -18.1775229205511 0 0
24.0315567237432 -12.6357763311375 -12.3751659238979 0 0
-2.81666913770136 5.94881472920568 -19.9338528065483 0 0
11.0398138087113 15.5038779272417 -13.9678988294191 0 0
-158.969819047384 4.08986516172113 22.8721198104659 0 0
181.529425106392 34.2572999889734 7.58050462593996 0 0
-193.724294034284 18.7873088655833 -9.8012081488345 0 0
-80.6564563268268 13.0852664171099 8.0060307405039 0 0
-189.062578564495 -0.868179981432225 -10.2065058560824 0 0
-128.348951837049 12.6320287866647 -8.96917445353123 0 0
62.3341966038888 -8.27800600690663 -16.7650781674442 0 0
-186.814533320737 2.10920933261005 -11.2255151906295 0 0
40.3241156402767 -10.389974394906 -14.8564528201864 0 0
105.340635109013 1.66002768999417 -19.9612555859533 0 0
-185.499842449273 -39.867422386926 -8.01232521552818 0 0
-176.250879108791 28.1469288541142 -5.67946884439856 0 0
200.103309155381 -11.8040729734539 9.23416665804089 0 0
-215.202666323534 -16.6433642215895 -8.47215337380544 0 0
184.746786953825 -22.3148814309654 34.4842872277947 0 0
184.925753300444 29.1349349022532 -4.1444040442736 0 0
182.160069279047 10.8322635324723 27.3042082788233 0 0
-1.25491760897189 1.63728696788457 -20.1026186772346 0 0
-164.153056870787 18.889578232265 -6.52602307295632 0 0
155.899009722601 -14.5029056662704 -16.8611802814377 0 0
33.7832260391485 -3.47322690330738 4.60837965437507 0 0
198.050529242884 -31.8387703849027 8.68246287338646 0 0
-51.072793178953 0.33574348301479 -19.2272952207797 0 0
154.958266951962 16.3605277103525 15.4989323885024 0 0
-201.553221387769 12.5604597156561 10.2999727462721 0 0
-191.52202648954 -4.10687693359451 12.2001218094409 0 0
-183.36100547455 -0.73282562513958 -11.0070732332735 0 0
192.903557848643 -4.61700332036616 3.47841308066404 0 0
-195.007474302137 -46.6253806795602 -2.18788078858189 0 0
-137.4214707627 -11.0537175074553 0.103471461012378 0 0
172.500037790054 34.8825219682805 6.42464269765105 0 0
-110.627863999384 -4.7339417124042 5.99045189990399 0 0
182.400921696212 -36.7136099366097 18.0937434379426 0 0
-13.2929748026998 -13.0576302878658 -6.97145655698223 0 0
-121.316471256898 5.0182967494159 -12.2768985541961 0 0
-131.304964720212 20.9252922059039 -0.888166965274993 0 0
-198.030591485284 -0.623394229888682 0.737293557361406 0 0
-21.7051961795871 7.03020497482376 3.71430858344239 0 0
-103.066121628317 7.75798557054797 9.89376496083447 0 0
-162.313265480557 -14.2835784682646 12.4408000599277 0 0
-91.8804322907771 -4.27182730222308 -12.0696397373632 0 0
106.533865565542 14.2621286008938 -15.2271422803916 0 0
162.773457582912 -0.605191840610311 -20.0166420623228 0 0
-203.845625423343 12.631494023601 18.0967626335284 0 0
-11.1767598893225 -5.00550659559302 0.577879070024 0 0
-36.7479558977004 17.508522404492 -10.2745692859375 0 0
-154.022888638813 -1.33754820675313 -7.03211002247988 0 0
82.6595519952855 14.6265632850914 -11.4508591936445 0 0
83.259225185135 -14.8211227510949 -2.43590990775247 0 0
109.869026314862 17.3387799721874 -7.00769088105215 0 0
20.3460345833438 -8.45856672907 -1.39827787265549 0 0
183.969774155951 8.11446661476617 -18.2758054859736 0 0
183.499409088749 8.86601436602238 24.2569052162296 0 0
-151.042315237838 23.0753594298822 15.1293239646173 0 0
199.244272037865 -10.3357226900772 -3.56289934999003 0 0
-13.9480226985656 3.49582378788904 4.53209009608167 0 0
-87.6486682987749 18.7155799051227 4.72429162040782 0 0
-17.3001435846747 3.11979403354116 4.76755286629815 0 0
-1.65029945872772 -0.416396326768175 5.19129825722785 0 0
-129.993683504803 -0.952059659363177 12.8355841556019 0 0
-74.1856551866294 19.747556836501 -1.11942683342231 0 0
136.637119989792 14.4911357767782 10.0852932696308 0 0
-1.56300914594438 11.0535671045041 -18.8082312171465 0 0
177.756068241111 -10.438027020309 27.4689584271455 0 0
187.827197495523 5.4262964356336 9.6733823567722 0 0
-178.358419566373 29.2473253974931 -4.43163179901892 0 0
188.104948625337 11.8509124906455 24.6226972974531 0 0
139.529196842862 -20.1512488571809 4.09330435220107 0 0
-129.816863997851 11.5583177010014 12.9655401253701 0 0
197.17374259222 -8.75301570463051 -8.02045080002513 0 0
-184.471973662059 -22.9210565333996 9.42064681591787 0 0
-170.45387707391 14.1884475656144 -8.31538152793806 0 0
173.279921104122 -39.4504467043753 6.24593925320723 0 0
-65.2849760155756 -9.78240689301115 -10.0146645653298 0 0
-162.333438972125 -12.7852776444766 -5.09600200954952 0 0
156.907868165937 -1.48337670086435 -19.4589934509636 0 0
73.8982118748681 -3.79441635773675 3.37616375651149 0 0
-26.0329950318778 17.1085249573874 -9.28196789390779 0 0
-128.996810997017 7.72019037428899 -10.8361777299203 0 0
-93.1918685960205 1.08031272030053 7.37370216832498 0 0
-47.4108388312474 16.718104763948 -3.45579763393496 0 0
-162.175959219016 -13.8966548503353 -3.08800682413983 0 0
-129.056100213696 -2.21910715672564 11.903011390909 0 0
-198.410193903947 11.0689283684532 16.4564003942283 0 0
102.96994919789 -7.76415792749809 -16.8895080487902 0 0
-197.360553036069 -5.34709753586356 -8.85657432298821 0 0
198.273308153923 -16.6430073298306 24.5343926801615 0 0
-216.756378810474 -27.987995640315 10.0597601568547 0 0
91.2302505029815 8.86318895958624 6.19134318702104 0 0
35.1267070229153 -4.90055492747346 3.9505190149265 0 0
-137.723643818145 -10.1167975175263 -4.0188181234921 0 0
192.127666633195 -22.7271728503432 32.3036644139962 0 0
176.059071261599 4.9341335984393 15.9121305279881 0 0
-182.808486099778 -11.5487442187752 -10.0898465764116 0 0
-186.075319233451 20.3860468319368 24.1612443323881 0 0
85.0748499590365 11.7451120327899 4.53057724534709 0 0
-139.59635786995 23.5277348074469 10.702768695796 0 0
168.278557950143 17.7250668043316 -27.053222670149 0 0
-167.001309994372 29.0967327805361 10.7134383378146 0 0
-149.359170458163 4.02008917573537 19.4891478969996 0 0
195.154542729979 16.341879191002 -2.03206032646614 0 0
-101.947217345853 21.6715840859985 3.22051051828498 0 0
-142.816791003988 23.6562201967167 7.57356097891109 0 0
-218.530896560415 -26.0750685002121 -7.64450774222549 0 0
-115.690006484493 18.3802272904852 -5.18579657413548 0 0
-147.526553668466 -3.36076001534144 -7.21144496928026 0 0
-131.559312132111 -6.73158376765357 8.73234929213747 0 0
-86.2616996625226 -0.848801578613436 5.12676978255818 0 0
-180.425400586634 -32.4277343859418 -3.16597822204691 0 0
-186.808757522297 15.1306777713054 -12.1959994572065 0 0
-197.014529742916 -10.9808177894901 -13.9316909885104 0 0
-104.467850022974 11.0711969198827 -12.7523981493457 0 0
89.9563058881391 -3.64894840817249 4.0228745046964 0 0
177.737741779328 7.7313276800629 20.5544599564732 0 0
-198.562953870644 25.2689041788243 5.59397650836449 0 0
-167.741920152771 29.4730937514123 -1.67237219804336 0 0
194.853259411307 -11.555682139009 22.3779877473546 0 0
40.995566880249 7.60689483699781 -19.1039621252919 0 0
15.9203036678536 -5.08228389133394 3.87094350201164 0 0
192.016109955607 0.186645300113698 -3.52267039066741 0 0
184.792124345915 15.1298713679899 -20.7650273866502 0 0
-204.687071134058 -42.3045579258765 11.1182009683495 0 0
129.797985584053 -14.9233081691019 4.59185262726809 0 0
-204.028931535736 12.2845025372258 15.5075662564074 0 0
190.546807965315 31.1586992634293 25.5953260127265 0 0
114.483074547863 -1.83478679606651 -19.1144647866542 0 0
-168.796273202995 7.74198964839965 25.1241164382586 0 0
-69.8250910091181 7.89003678508306 -18.0288641083207 0 0
-109.002870572269 22.1052229507619 -0.543813292911745 0 0
187.492529675323 -16.7398991284027 33.0152251327254 0 0
-119.129884355978 -2.64320150690276 -10.4822803392861 0 0
-148.148381011957 14.0914475298429 17.0909370886816 0 0
133.670205103236 0.00422375733517502 -19.7199511881932 0 0
172.382315136642 -7.94486774080769 15.9316163676799 0 0
-190.646017757862 -17.3650473606324 14.7055196375626 0 0
-84.8597353378092 -0.101642531886702 -16.0523712054458 0 0
174.59472657502 35.976732382676 7.87926964859847 0 0
-195.770314508071 27.5538413407282 13.2334382118933 0 0
-9.37860965583544 16.4480740215806 -10.4798687136806 0 0
175.08874886604 2.4202113306734 -21.2634265038061 0 0
55.5220586495455 -0.445261848997339 4.29215562419195 0 0
-143.928657636408 18.518299862353 -3.96442573940492 0 0
141.416664746849 20.1834484747182 -6.24849441286616 0 0
-197.20922467769 1.91634328482391 -3.28286253042315 0 0
90.0960065188762 0.904515358416231 4.92992403292367 0 0
3.40969782593441 -2.43951542103833 4.55373610696288 0 0
5.25572436368105 7.19077070793486 1.97497771479473 0 0
184.237088060234 -4.53442768249367 -18.6597132105335 0 0
102.200597460044 -4.86627422655104 -18.1152079397045 0 0
181.142327640045 -13.7392558688201 -23.8493637451308 0 0
86.5666951188436 13.4360129157421 -14.4567540203527 0 0
-49.3045048584166 -7.067761170178 -14.1004487440407 0 0
164.722664297871 -24.1894472610048 23.3801644457027 0 0
177.21846432257 -36.6562768527809 29.1235413103896 0 0
179.028545071722 -34.1375784170765 32.2072835073351 0 0
-44.3628151234998 15.8408570289858 -14.1373951936385 0 0
182.834854151372 -13.4570755287733 31.5616008011054 0 0
-38.882318571758 -6.47992177072239 -0.0402885743536127 0 0
-175.920764705698 35.1737175127393 4.38914075528852 0 2
-30.9454465366354 -4.09499945008691 0.987708824151945 0 0
-128.324222136431 17.4777420268311 14.1648448389527 0 0
202.361543721904 -30.2240499480205 6.46462104636205 0 0
167.047140301503 32.6899900597885 16.5231673115224 0 0
-134.063188342373 4.16267557631781 14.7038323268497 0 0
189.569715130482 -11.9273286028303 16.4422706828413 0 0
-40.3734676441789 -12.3233629636951 -5.14242945565807 0 0
-191.419669461114 -1.60630898164401 -9.60957424564142 0 0
-155.837123928269 7.81722183848244 -7.41882029266662 0 0
165.078078351809 9.57202269804619 24.0041145345221 0 0
-7.39529166883921 -9.63570683234747 -2.68899261542227 0 0
151.822568501311 -24.8655760237498 6.86882598936432 0 0
182.860348630922 31.2139034085972 19.089878440593 0 0
-132.195206945985 11.9082934513288 -8.95535690898074 0 0
-19.5992312001777 1.59253267589835 4.96939209941918 0 0
-7.10622070602726 6.40061002318333 3.48844300147199 0 0
166.133923851402 33.4678053196342 8.57853400426471 0 0
-103.672128582305 22.1372640175412 2.17276787419183 0 0
149.225834708535 -14.232413962718 11.7985230252492 0 0
-202.254604109151 22.6886927661628 13.0643918285538 0 0
-193.996723852315 20.3672349392895 -9.35814789507577 0 0
162.265509432507 -5.62256731836412 11.1040433484785 0 0
-201.628497448067 -8.93166264936621 7.6073486570895 0 0
193.219173585397 -11.3214859030357 13.9687293888476 0 0
-205.410177200752 -8.22262493841773 -0.231316051070786 0 0
-187.612545361475 18.6698406967863 24.7257174872219 0 0
110.502790918457 -18.2560479543889 -4.92640845863846 0 0
0.52560474833219 -8.80279357194344 -2.1088277656586 0 0
135.026398314869 -10.1583156858398 -16.5053715218946 0 0
-111.271846902699 8.88874423179219 -13.2806934822155 0 0
-9.34607372268806 0.331854918831434 4.82479425548632 0 0
-130.934102509629 8.53659309629818 -10.3906157604062 0 0
156.042615014533 17.9760084453203 -20.7576209431201 0 0
177.757336350035 -11.6862390669203 19.4787907228266 0 0
-157.517226143001 -3.3656640287127 -7.47078727264373 0 0
-146.842453378591 15.0859128381734 -6.61627867341729 0 0
-152.016018354536 24.7871326560727 11.7118040372931 0 0
-75.5815422565049 -11.7612529132361 -4.32978199909122 0 0
144.771438873764 -18.2792415252664 -11.880180238999 0 0
5.77782890387457 2.9893188705891 -20.1091660610694 0 0
155.568691890114 5.16289054263345 -22.0011294326085 0 0
-1.85505793147673 12.5052553921492 -3.02283098819515 0 0
-171.746010701168 24.1249428241956 -7.72974797770181 0 0
-172.469164449823 16.4802322742597 25.8614978698795 0 0
-73.7809344855685 19.9721492616088 -4.64200095951198 0 0
-130.412115690088 3.19553907399422 13.9121167320776 0 0
69.545304993636 -7.40355068398974 1.67338954878987 0 0
-188.741366788905 27.8895414431998 -4.55339447103384 0 0
-138.874054601487 14.504040428659 -7.03617568944149 0 0
-100.101550818523 0.20162074072672 -14.5786929227007 0 0
188.334828811673 32.1336655088538 18.015856263856 0 0
194.236727442601 20.7095021738394 -7.54643361779831 0 0
186.199763368546 -35.8048665901278 5.80162068598199 0 0
-48.0544854648045 12.3680157307603 1.67460916231283 0 0
-63.1820670566917 -10.2766229486803 -1.73232598813757 0 0
-26.5572922191324 10.3071347656136 0.672429732121176 0 0
-186.570529086036 9.8839421935433 15.0986342832098 0 0
-214.079761532234 -27.5675706719521 -14.4915871082639 0 0
164.788861587986 -16.4078348435485 -18.7605234403242 0 0
203.860259231938 -21.255775663237 11.2010985644536 0 0
-203.903601863734 23.1554473579259 6.51812338753215 0 0
-86.3033317202943 -3.06505005254726 3.86535605280028 0 0
-23.0674345093171 4.23538299192479 -20.1503546057937 0 0
-135.533890265711 6.73965549622927 -9.84187823175248 0 0
37.1753837706024 -4.10324608598188 5.33061615867067 0 0
158.375032537271 15.984590764559 -24.0786164063156 0 0
-180.415459898418 -7.24940676727248 13.2690342940319 0 0
-69.9815858405116 11.2930981582582 7.48846008825617 0 0
186.422914412103 32.655651287832 8.23966448152689 0 0
104.299077775219 5.12763330882811 5.80256106852946 0 0
-70.1646531591909 -9.03864249192025 -10.0374573961848 0 0
-0.0215242029496452 -3.2260844193642 5.53422411392613 0 0
151.061163676644 -3.47482306023626 8.06804374690113 0 0
-73.7293767983853 -8.39830920738138 -10.1019223825214 0 0
181.298229286243 -19.4346741682032 33.9079654078845 0 0
27.6239981875724 13.9574251526591 -15.6664133409184 0 0
181.144025389309 34.1112060201994 6.26230355374435 0 0
179.997124531044 23.6594486116448 -21.691038579608 0 0
174.78342290379 -12.8563079986711 28.8482807809308 0 0
66.6009139237958 -0.605476789195748 4.43160894235193 0 0
83.1424420715959 15.2916741550173 -8.80084869171967 0 0
97.6284327610473 -6.90983510248797 -17.3153576159659 0 0
-203.168531928584 18.0490428147454 17.827244086545 0 0
-105.078832694034 7.53537238664275 10.0169568692182 0 0
-142.048646527538 11.3513017798483 -8.11264570551663 0 0
50.1088771497813 -2.62325334915717 3.51004368942932 0 0
178.944635777156 32.4227350570524 0.271490873777123 0 0
-173.560782065086 20.9794185061031 -8.80465311774158 0 0
57.5388461542477 -2.50265401895089 3.71155361507378 0 0
164.871407304477 25.1775990367009 25.7183760576557 0 0
147.348575649176 -22.4089050305116 6.20860942035363 0 0
-160.737059398537 -10.557944033428 21.2059442989364 0 0
-93.3831313693694 4.31124099528146 -16.1765816922565 0 0
7.37569678279875 4.80376896000271 -20.0758425388033 0 0
163.744016876725 28.7397856133631 1.52970569280282 0 0
181.856349845795 0.589955812898873 8.33119917066203 0 0
-190.001202615505 -20.2037667242222 -17.2340306298953 0 0
28.4353614937806 10.4957491291303 -0.512103802376309 0 0
-144.808345333407 24.0144353499166 8.57111275972028 0 0
-55.9330733372681 7.47023416419008 6.13760721860883 0 0
36.1578224765176 -5.8707342637424 3.12839627190518 0 0
-194.7368675558 2.95623637619363 -6.41071072283153 0 0
-117.886804176358 -6.42362050940781 -7.59679966445055 0 0
63.2613917931461 -1.47200116642857 4.15752483060866 0 0
-154.080825608994 13.5649276901652 19.7851111709332 0 0
-65.1673769090416 -8.85901789891005 -0.323249732527745 0 0
132.931091499824 10.8252428628688 8.3533998734911 0 0
-46.3687252487544 6.04407801574511 -19.7489174363307 0 0
-54.1833488196629 18.2990176668396 -9.48797382782888 0 0
-44.182405218794 -0.168960783444453 6.04230507221163 0 0
-173.932513910114 -19.9533472284596 6.31177420011894 0 0
163.280126839043 -4.32759765785304 -19.5336324013878 0 0
-140.110376262373 22.8746319965342 2.92941920093083 0 0
-200.081730001748 -31.6439616625294 18.7160535817133 0 0
128.483441211668 -18.7877473553707 1.1001451337498 0 0
115.432103375749 -13.5925102613761 -13.8833857752975 0 0
106.732139551682 11.0898432964173 -18.4526776816938 0 0
-184.939226193014 21.9843201594803 23.1390248752839 0 0
156.794983423716 -13.153377434428 13.9713186137694 0 0
-205.154260126848 -17.2988977809328 16.5726698699345 0 0
170.346164743379 7.23080733918542 21.0318029634142 0 0
35.2903460289217 -7.16816312367737 -16.9765244941266 0 0
-187.442695301722 -15.7475006711742 13.187696076275 0 0
28.4269754698146 -5.95190261655135 0.945919233018741 0 0
-179.656436363781 -28.4115034501544 1.08596602572977 0 0
-190.643294059492 -12.5964516336658 14.3310542199964 0 0
183.436334804122 -37.2024468988772 11.8964697840098 0 0
189.04140461987 -10.0025577528779 11.4889097072764 0 0
-73.5111109575424 19.4669741239827 -6.65909207380965 0 0
-35.2233881526034 -2.70875576538336 -18.7030959306649 0 0
172.769977336997 -4.18268949832842 -22.1609804105368 0 0
182.506187151862 7.08681817429545 16.2795370875581 0 0
156.051404727715 -24.7063142934866 -7.06578752344861 0 0
-126.549245834382 7.27586013108489 13.0087255164348 0 0
149.860054940502 3.25941538897855 8.33432026230158 0 0
186.004149035413 7.83099200244739 20.4776300966707 0 0
-26.1286989730047 -2.25138262457957 -19.162802621451 0 0
-99.0577595242149 7.72008291755654 -15.2157161710955 0 0
-101.730461312043 -0.977994501744713 -13.8664159471477 0 0
-68.6409722434958 -4.37863992645055 -15.0995883206594 0 0
194.327960002175 14.3885537942213 14.1371107258642 0 0
-186.773717134068 -13.3465046153986 13.2472257270239 0 0
7.06498445802257 -10.0211267401941 -2.96974975398038 0 0
-40.8117000953516 0.069695749480169 5.97266625597695 0 0
167.605423396229 -12.8281281758216 21.4877919063677 0 0
-194.301134256554 -6.6743326318109 -10.8508854159002 0 0
123.823426044087 10.4941199668344 -19.9255433643982 0 0
