"x" "y" "z" "f" "a"
13.4439140905834 14.9641372526048 9.07479028149075 0 0
-189.066837455122 15.2849141110583 8.72759793608679 0 0
193.690428122534 29.8250534690748 -1.39539265551826 0 0
66.5259467882197 4.50890527019072 -3.76297039307561 0 0
151.156136843342 -9.91781651583961 15.4453003699329 0 0
50.204910169078 -6.01741645439819 4.70005564852048 0 0
60.7264708707675 12.9383626693812 17.6147862456216 0 0
-47.7364768199746 17.6006580507487 8.88890105829968 0 0
-180.614989528438 7.02295882326061 11.7487380875048 0 0
9.50233223824796 -7.83267450714263 12.8159743942289 0 0
-3.38788165120952 -2.94809282267852 -0.569093319520264 0 0
189.428947202979 -8.27647249304893 23.9548478178733 0 0
-42.6827234568915 -3.83223734417214 -1.49020585200742 0 0
151.829660358266 -12.1131888375755 -5.17615917445272 0 0
177.924607137751 29.9643751975963 -3.63581645296123 0 0
160.333466724998 20.9013813977136 -4.5296906882679 0 0
-112.982743010349 17.8904604649355 -7.73381496204037 0 0
-140.373359244231 0.0842900293844343 7.36296192144151 0 0
54.413239876582 -6.69269200458321 5.83410534724573 0 0
-133.301316441847 -10.036370330482 -18.721106036157 0 0
-54.5405340847578 17.8177368513359 9.14672549380427 0 0
155.299598921642 -21.0985057724141 1.74767179040345 0 0
-191.699555913593 -41.2596763724588 -12.1557740591074 0 0
-185.046388086669 23.664255837461 6.47374457112307 0 0
-125.605608770589 14.3670434748951 -15.3726341982823 0 0
-169.160856036096 23.1188597779634 10.997852494693 0 0
-139.899137110583 -12.5816584398938 -5.80587258951898 0 0
56.7539490766428 5.31211616319271 -1.76591547135509 0 0
202.713485230792 11.3598116372612 -13.2216453928478 0 0
176.829510012888 -24.8206716232946 10.6241648905083 0 0
-60.6561900546551 12.8335459634359 16.9726671551302 0 0
-173.249008093723 -24.314001777075 7.64715519188969 0 0
197.140473246344 19.4873185329076 -33.8675108795618 0 0
-146.068113754506 -13.3684669540965 -3.50378511086439 0 0
177.257179630892 5.1557581797848 18.9052871699309 0 0
-135.059431365607 8.34980698659863 -16.8890826599647 0 0
206.846687805861 -33.210863524918 -14.9209207899026 0 0
-7.87722441241437 16.5013184310491 13.3800710911995 0 0
167.275238566945 11.6685447596301 17.9708338197172 0 0
181.457406287469 28.1286956423801 12.2625647252822 0 0
-198.389684588919 -7.48249452367168 5.48772640588522 0 0
155.249639585713 -2.53244991108102 18.0789812915003 0 0
-162.375893167639 4.75969747814313 -22.8784123860882 0 0
-175.276076441898 5.80847142416429 -18.0734959065365 0 0
153.161570668022 11.2090850752887 16.8296937188266 0 0
91.8947783055955 -11.5151569305765 12.1987749623995 0 0
180.59549619872 -38.5262409245936 -11.569658315173 0 0
142.409729200138 -14.4026505867132 10.3264768825858 0 0
45.4609314802411 13.4462191566938 5.88850918775436 0 0
51.0141014889477 12.6804232029528 4.31378632181622 0 0
-145.46346431568 21.2695262302081 5.27355467906142 0 0
173.857552817261 26.4243764732225 -23.6717334914166 0 0
208.212446168063 -26.2626211534355 -22.2567345911131 0 0
198.791323559484 27.2292931723349 -30.6085948381287 0 0
182.455369163477 33.0429783344591 -14.0187607116917 0 0
159.144660251895 -9.30734842526763 -7.3471025240492 0 0
-136.307227350869 7.29361294671434 8.11170640300839 0 0
139.061133860006 -2.81959242342126 -4.98765111812728 0 0
183.887371238131 1.58606207796634 -17.7319885557485 0 0
171.417144485177 14.7212870611964 -29.5498789951845 0 0
186.541652459861 31.5628946506206 -20.9410573372355 0 0
-123.48972314195 18.4533127651057 -9.03593078880495 0 0
163.700777026889 -22.9089905278747 -10.2092422932082 0 0
39.4324024620632 -1.68657577189192 22.0619593524216 0 0
-8.56472101549163 -3.36185703732644 20.6901547404267 0 0
-122.585183752503 3.00834061721863 9.78219845741827 0 0
201.332407657724 4.58404330077088 -2.10663578814544 0 0
-55.0566292366166 17.4561939728694 5.41810132552065 0 0
191.480725092591 -27.746824014089 9.30109239718639 0 0
-111.915351473967 13.0422181520735 10.3654787347713 0 0
-155.812143722554 -11.9838159787694 -12.2177615154869 0 0
-186.073634325439 22.6718453197106 6.15943177507223 0 0
31.5925555736303 -3.1241252650684 -2.52415668045885 0 0
-83.1903621597899 16.6207637051799 10.4252316271078 0 0
136.440937885626 14.9869699188292 12.7730248689655 0 0
-189.233449917929 25.2618553222719 -10.8604827707368 0 0
45.2007277860837 5.02219502366228 -1.10005215316317 0 0
84.8624229468574 -9.42169403493437 16.0053325626849 0 0
123.738820344112 8.46269081688207 -7.52215478028718 0 0
2.03521761133164 -3.51168110846167 0.327665906294962 0 0
161.656613927656 -23.4648424901011 -0.10838804359176 0 0
29.1061622996995 15.5514433383006 11.5614676222711 0 0
-185.337305215714 -24.7780805025342 -16.9009356566381 0 0
51.481180227461 14.0960841787036 6.84940822986999 0 0
-110.570694005018 18.0129008614074 5.82266736735012 0 0
199.282705069248 -30.577741886574 1.56736968022835 0 0
-93.4325086273471 7.18710685107059 -11.4057847939629 0 0
140.226846113581 11.8330156701947 16.4372757078249 0 0
198.774834713959 -35.4226933200405 -18.8276372026247 0 0
179.088628319126 5.42438861893147 19.5703525253551 0 0
168.648700504832 25.4731219197211 -13.2429572982917 0 0
164.307760199087 20.743147298632 10.0983161984921 0 0
197.233827017666 -14.6979733802401 17.8888323292431 0 0
109.309410620716 5.63955844433953 20.1791137584933 0 0
-12.7702985776339 16.477666183809 10.9522915524258 0 0
137.942144115494 -14.6160932654272 -0.382083754588051 0 0
194.784642648553 -36.6625243733622 -11.2729397044397 0 0
-60.3361628420919 8.31048457976207 18.9061863355135 0 0
197.35613912998 -0.00888178394792871 14.9630396493952 0 0
167.983343102443 24.5018317592882 -8.74047306045981 0 0
204.232543249562 23.8995034026649 -9.04556836190715 0 0
65.6317776190071 7.2107855288777 -1.3259595231353 0 0
-115.724124648743 18.8367373679329 4.01297162688394 0 0
189.445571787104 27.5042971811425 -23.8030785285581 0 0
-176.872498119686 32.2621672215426 -3.17514292785902 0 0
-184.469858352359 -44.2753304545023 -2.17710462523785 0 0
21.3600168876891 0.934156824126767 22.8101451628784 0 0
-188.997480279414 -42.2758723799814 -10.2575601254676 0 0
131.833218696555 15.3975194024862 11.1660854599723 0 0
200.611794027288 6.98739520099112 3.55832382524799 0 0
-189.307524388889 9.76840191774957 2.2589615383129 0 0
81.937085483599 6.43006070746965 20.9089383604341 0 0
-26.3163453470806 -6.0490098784012 3.92164026125476 0 0
-194.900871766808 -44.1367852413777 -5.68479215127309 0 0
186.085866465275 4.73466073657116 19.7931423175641 0 0
157.441881276378 -13.2554671595528 -7.92007756957597 0 0
131.019724968914 -14.890816580655 8.78894045150709 0 0
15.825001066839 9.22098285646212 21.994911656921 0 0
-21.9440531335937 14.0919275045832 5.26909441447274 0 0
196.636230870807 -12.4394740622104 -20.0659366323325 0 0
61.4568222941981 3.32320216588279 -3.66977121408418 0 0
166.558566340641 3.50888390914549 18.1789099598321 0 0
39.398300875056 15.265948110846 14.8895970769287 0 0
127.988720500582 16.5861158709401 3.63833501745316 0 0
-59.3676892060593 17.884325690609 8.3751094822038 0 0
149.592631121663 18.658356123333 1.34559754320549 0 0
79.0274821946817 -4.67365030402813 -0.51681058526762 0 0
169.030945952753 24.4579862916301 -20.6259718699623 0 0
-135.983720205677 -0.16433309151829 7.4883462779892 0 0
175.950324391931 -26.7967140981944 8.17702142598939 0 0
-32.6053620912321 15.0285327694875 5.00295469353534 0 0
-166.399190729374 0.605386880553144 -18.232197910063 0 0
179.450031750849 3.05600520459576 -24.0829484210462 0 0
170.330067128867 11.4817766939385 18.4183980047521 0 0
-106.346824938846 18.8580613549487 3.73313108159254 0 0
-107.750865269134 12.2134292462379 -12.0801275812812 0 0
171.388624811136 17.3233300456099 -28.804596482704 0 0
190.398214194947 -26.617810027906 -31.0115692913959 0 0
-102.334832269082 18.1402167915566 5.79339709527178 0 0
183.168467489534 -13.0473590729508 -16.9708205262954 0 0
-157.282837313742 5.00154054746958 9.02198620157433 0 0
-136.883653842223 20.9659647846196 2.20820264395979 0 0
15.8906333985539 16.1462352182274 13.7897754428813 0 0
-178.584206312187 5.76345739254406 -12.4605328736337 0 0
-200.347966383543 -42.3445458937519 -5.03353208912942 0 0
138.035943103343 -1.29501613551305 -5.44640007145724 0 0
203.888155513327 -34.7225671292801 -20.6089409079935 0 0
-181.419822894831 3.62547934703303 -10.1261069812661 0 0
166.392083012751 3.77079911476143 -13.5910523041777 0 0
198.748122203613 -8.12969975476694 -10.3059486000915 0 0
-113.447266939409 -4.14918466505354 7.53275960752031 0 0
-63.1996799007821 0.0981887133048347 -6.27814949563373 0 0
192.298494815006 -36.4218812994082 -26.5496467598118 0 0
124.876575382713 5.87996570459916 -6.70380131594289 0 0
204.954449430232 -29.5881227532018 -2.47631221817493 0 0
13.3863321840045 7.32515095867712 1.13132963790185 0 0
-0.258416232579941 -7.57889161680207 12.345523219981 0 0
200.065391007744 -4.23166955367571 -6.2846734800157 0 0
-104.554667194586 18.5577696378894 4.59654787759058 0 0
109.132769063489 3.07744044307473 -5.01942402091454 0 0
206.507853197401 -33.5556749993353 -16.8794434812896 0 0
-129.971201401229 16.9491848953411 -14.5672900563207 0 0
181.534275835063 -31.50717197488 -22.1829368662497 0 0
-37.0134107980428 16.7846595968222 7.57258330001294 0 0
173.358459641942 -1.88671734360484 -14.0927031606296 0 0
92.7973378425535 5.02793668413657 20.8930941841036 0 0
162.639943089846 -10.3169884728195 16.3632706930243 0 0
50.4094323782082 -0.878771384470849 -2.54932548036085 0 0
132.162958353794 16.8124195896829 5.56157756339829 0 0
-130.205012739068 -16.3598502003497 -13.5810669162572 0 0
166.996887942945 -12.5844213169601 16.1548588906677 0 0
182.783242973479 -36.0740159570545 -16.1359726366844 0 0
-159.90114022624 -18.1199961373775 -1.53478735338034 0 0
-122.320999997216 6.38393853178074 -14.6484764807166 0 0
155.644697570407 8.58421832815437 -12.1255671240818 0 0
188.806887544296 5.1239740875324 18.9249255109254 0 0
100.37134296555 -10.8375947365287 4.13483393321729 0 0
2.76709401867738 -2.26307470720075 -2.53083252125371 0 0
-9.28456552695627 14.9096870464333 18.0349818166916 0 0
-165.978579314839 23.269256568243 10.5907291125971 0 0
-155.022873999029 6.80062150038638 -21.7421263659946 0 0
-151.269521685 -6.82692388888067 9.53915047900399 0 0
-42.7780105905177 14.7648173481981 2.98117371299455 0 0
-10.47685642106 5.02182918770078 22.7465805472033 0 0
157.518241877097 5.0339561316786 17.9327154547939 0 0
-171.870267039661 -19.81327669081 -8.49662770049015 0 0
181.096096310361 -20.7177064986981 -26.2523201677005 0 0
-99.098077025664 14.7046736060429 10.632298544054 0 0
170.632354788929 25.3465122517387 -22.2004872051912 0 0
4.36717615361567 -6.20247716744227 5.81313742535585 0 0
187.077440816711 -9.14335688680572 -14.0319429815644 0 0
174.80232902889 10.4371642237371 -31.0602203541315 0 0
14.6748175388035 15.7229374576799 15.9320849952448 0 0
-99.4062989331004 7.25952298698363 -12.3144067474816 0 0
-139.760555040928 -18.7789509931042 -18.0000940573989 0 0
-173.270669814123 -34.308606733829 2.37309314167155 0 0
-195.086881039055 11.1504946117796 -13.9566451723449 0 0
-58.3265974400828 -3.65188916386999 15.4809227235818 0 0
-207.80617234926 -14.8525132251544 2.94880172571984 0 0
-31.5221099255661 4.72967165220232 21.8754922608122 0 0
187.353424674732 8.99009192774046 -33.9246223915304 0 0
-146.240049485263 1.73728055904285 7.27938859089035 0 0
163.660614192454 -18.8427902510687 9.26918377846664 0 0
-44.6577602522719 4.03875810702928 -4.93462230142788 0 0
-117.411713332415 -7.3950304019071 3.81435184439632 0 0
-75.7116847881246 18.3833102949239 3.48203079858713 0 0
-162.87558849446 15.2868233486194 -22.3796041782661 0 0
-104.131006904912 -2.69322628502758 -8.47275140317464 0 0
85.9019530940847 8.24917854976061 -3.15951538098403 0 0
52.5179753460397 -8.88400748198053 16.128851382129 0 0
144.061310548581 16.4528487101848 -8.61791262487311 0 0
203.435653193879 11.8947957185476 -2.91481070346191 0 0
-60.8713783963623 14.4767035505157 15.5668953876779 0 0
36.3678874648357 4.04580120341743 22.7379550607949 0 0
177.506693719444 -4.25839756457014 -14.5073834643483 0 0
-141.100370100869 11.6526126369868 -17.3803818780898 0 0
187.094172296229 7.06207424746945 19.7681796968911 0 0
198.232343966167 -10.0329906951888 20.4968012419614 0 0
174.129441599218 -9.50930308661053 -13.1016023276797 0 0
-197.059870688103 -18.9178537362456 -16.9893886722672 0 0
179.925901310639 -3.53723186018438 20.6964970974295 0 0
29.2781815865655 15.5234416979404 14.7685676464783 0 0
181.105561303733 -7.83811545888745 21.5769850353351 0 0
-112.897001969599 -5.38663495056831 6.03845070463842 0 0
-136.68279764523 -2.69843893754329 -18.7167478808511 0 0
-31.9515445075993 -6.74030166857846 5.77125203283786 0 0
-32.1217781514835 -4.6598924520341 0.524126584092435 0 0
23.607579370884 9.30912549052288 2.41629520530223 0 0
192.351603798724 -1.30510476124842 19.5788303338859 0 0
-188.828162404471 -21.2548617799071 -17.4610583825025 0 0
-185.326025012381 26.9222485079757 -10.859615579991 0 0
-206.644641992877 -37.7388190928002 -4.85968150430682 0 0
-114.250673349551 18.8941031900747 -5.57889096906128 0 0
-180.606202307203 -40.7694448264983 -6.88218302249741 0 0
193.752908619695 14.306211788068 18.2690397109599 0 0
-109.936971106818 8.79950933637459 -14.2899814424361 0 0
190.249966120461 15.1370338061943 20.885331554695 0 0
-67.0952612668331 -4.6259374594912 13.0101578320955 0 0
-144.139202558765 -3.13932285588837 8.89017571712008 0 0
199.628237131408 11.0757635337725 9.55257091915565 0 0
-24.4204805948433 -4.90444537185582 18.1456903345669 0 0
-163.375088904603 33.2127226299234 1.52805171437038 0 0
-110.662842864969 -5.25503360381065 6.19966575566727 0 0
-187.096842716776 -14.6309830133948 17.447268325432 0 0
179.714352330688 24.8786924025811 20.7426219744056 0 0
-170.00785094537 21.0581902488525 -20.6751667174201 0 0
-177.706212834671 -28.0134745645923 15.4160474766851 0 0
-158.857618510714 10.1847882120129 9.0206021013359 0 0
-99.022390915463 17.2291510987089 7.72386850231839 0 0
175.437487690608 -9.31490102824912 -13.8435963620988 0 0
169.432888995076 -9.05357667557292 -10.9149051753465 0 0
-179.213622353464 26.3757972546048 -17.5240262347761 0 0
160.770699418148 -14.6290736986222 -10.7100064541804 0 0
156.995632749897 19.9063238837581 -1.36980347529679 0 0
-170.030884313725 26.2771415302278 8.74231057646946 0 0
-182.042205577743 29.3585171240951 3.07281199063358 0 0
-192.881748874069 -44.5991155537304 -3.23774951723189 0 0
-191.681819206385 -44.2395168096794 2.73459636063741 0 0
-58.6947068616812 2.83473112876391 -5.57301067197711 0 0
-89.0444777918931 2.88079384336607 15.0402825364511 0 0
197.785397267271 -34.7148209508216 -3.59438484160077 0 0
162.378928824413 21.8305783886627 -12.3734389582895 0 0
-137.276411530303 21.7020269907584 -4.2711965901984 0 0
-152.278282691597 -14.1236290626481 2.01971404607182 0 0
36.5169376565721 15.1250420954585 10.0199890261413 0 0
-167.551904193036 32.2921474960249 4.28044209155525 0 0
174.564159106381 -24.069079856559 -15.2916293300767 0 0
-105.795752478307 -2.39555165223654 9.75385259928193 0 0
211.366182043125 -18.0781342654227 -10.5296103648393 0 0
20.2841503792008 -3.655629579533 -2.25893384161084 0 0
158.097767102532 2.72313116585428 -9.71167722562101 0 0
-159.017599346926 26.3777464046798 -14.9437430000969 0 0
7.65696036179771 -3.32048720764613 -2.42189887986867 0 0
186.915077180704 -38.5745862045187 -13.5258878162167 0 0
-33.9511770553474 0.345839683874568 -3.57933093277744 0 0
166.387885169851 22.2218883222117 -18.2544588399057 0 0
171.728498872878 -6.78113324810104 -11.5006052101901 0 0
69.1292807220934 10.7674951999572 19.3851112545755 0 0
-146.297038648725 -4.35627273870401 9.63467460797036 0 0
209.461044021186 -19.7046705490988 8.2358806802601 0 0
-177.758341985462 25.8527332329375 -18.0791518691717 0 0
-175.141186960945 -35.6076969304142 8.19810671573314 0 0
200.440321561717 10.8476634541885 7.56220281653139 0 0
195.795983914375 -12.8014403171526 -21.9582843430751 0 0
119.807942058309 -5.22393853473874 -2.5311837682035 0 0
157.382906580372 -9.69240923386501 15.9975444511445 0 0
166.084120183005 1.69112435044851 18.2791039360585 0 0
26.8092839679806 13.7560248668858 18.5810202008422 0 0
-192.263201092042 -7.23036320674922 -7.10919020589361 0 0
135.47212024378 -5.11084632046976 -3.91624814689206 0 0
173.20340554304 15.306722958271 19.6501931473663 0 0
-192.603831848762 -39.9700005444448 14.7787902016507 0 0
-147.8516594973 -12.2989723445978 3.22509736082889 0 0
130.550972307628 2.1591376333265 -5.90007311275098 0 0
-134.076798592819 8.82569023743048 8.60463975845383 0 0
-164.215423058418 4.97993397177646 11.2528885709918 0 0
156.837883871411 4.18204511330995 -9.9651296652543 0 0
-159.141427770758 -2.87616565696142 10.3897095438071 0 0
187.404817314546 29.8442170270349 -22.0945709534324 0 0
175.606102817789 -29.7516658892543 4.95519098192229 0 0
-205.722530220489 -26.1474697139874 -12.6158954568674 0 0
174.703346548208 -23.2020145545111 11.1019969114598 0 0
-151.244792106268 -1.6190630883599 9.7861007582842 0 0
152.287247679213 -2.6343742334392 -6.29076404627024 0 0
120.988245074749 -2.05386488953766 -3.82671475111535 0 0
148.954470405014 9.18184096478252 -10.7151736196998 0 0
-110.400464993408 -4.94151532033286 -7.21419187250746 0 0
182.555954856805 -0.379220277998899 -14.8722021589383 0 0
129.096561561343 15.7426692365083 -4.12094779740266 0 0
-5.90052774115378 11.8349505228303 4.10824180154774 0 0
188.804581202677 -13.6263144899064 -17.9386627436363 0 0
184.385782497695 -6.13276670016646 22.5649018050361 0 0
194.04079794394 23.7307191759555 18.3377573572135 0 0
-179.865758203415 -40.6682789646618 7.72148575574011 0 0
-199.799018326202 -33.7447992971695 16.7648286176516 0 0
-188.552835080458 -23.7815187022614 20.7609417533389 0 0
-87.7350848217014 5.25412242215777 15.5417679173528 0 0
184.681842582701 -10.8458483591377 -15.2356525621295 0 0
-157.83121495211 14.3837042994207 8.77331296855628 0 0
-157.458199874819 32.1810973488249 -2.81477065707462 0 0
52.8488026341997 -5.45589897327604 1.05753709482849 0 0
-119.613196361383 2.06449255748008 10.0673751862213 0 0
91.3594371702858 -6.34515208601378 18.5002088546668 0 0
-189.121096030039 -14.0808485540292 17.4158573493457 0 0
-179.206812627776 -41.5759873702312 3.8922572031826 0 0
-193.174807289973 10.7165627644773 -10.3505057505505 0 0
-163.527085656124 19.5493416890053 10.1316749604895 0 0
15.7529717471951 -4.41435397035653 20.807303787471 0 0
-195.121109611947 -44.7315228353602 2.58739772444052 0 0
154.605110341617 -22.3706752606298 -1.62492998573144 0 0
-134.263006634698 18.92438054071 5.57751208334481 0 0
144.383342864407 18.0755764800088 0.504072201126028 0 0
105.134262359974 -0.276654082452357 20.0980310599521 0 0
-106.816501475349 1.72648816327887 -11.6369579107078 0 0
19.6549289307041 -6.30590491143963 19.2199803393713 0 0
-173.600193185226 10.2348500099124 -23.5715275517736 0 0
200.378882406481 0.852709957741266 -1.81864661127488 0 0
-144.460647010141 22.9303388351873 -7.68304802556556 0 0
11.2065866019506 -3.83012555993863 0.395971960504807 0 0
-160.268581302114 15.2443411038275 9.06122192792772 0 0
-189.086234082376 25.1635800829492 -1.50163759002068 0 0
177.685258647771 -16.074166866262 -21.384113682189 0 0
-13.8500004228801 12.7447974059712 20.1045666988765 0 0
79.8958441044589 11.0903549550723 18.6312519997616 0 0
202.716626717959 22.9033661274749 5.41085429277072 0 0
-149.756065849086 6.8844864970216 7.40179968853731 0 0
191.2657031223 5.49731387942118 -28.4416866706925 0 0
-38.7600667111066 3.86649627130338 21.3464407526354 0 0
63.6171263877261 -9.75291135507522 14.1431213265671 0 0
-205.005724671226 -32.9034834801628 -11.6696993478197 0 0
195.468554672209 -36.2482703367118 -7.02109820628376 0 0
208.718940214072 -32.0720407277941 -15.0356663115533 0 0
118.825855994578 15.7546741548167 0.762757777146395 0 0
112.89773119859 -10.1245850672503 1.43978402686528 0 0
193.796242044146 4.96296692523975 -19.8589078969987 0 0
-170.716056549002 22.3368041918904 11.9680254704988 0 0
189.374502386819 -28.8393023151247 -30.2310341701068 0 0
-62.4277223385467 -0.822617370334016 17.646701341816 0 0
-182.649090972107 10.4611794310947 11.775568099547 0 0
-125.681917407378 -10.5714829344741 -12.3082117650682 0 0
-85.5267098336943 6.47146253790532 15.8439110312413 0 0
182.735428937054 -22.1474790138237 -27.641280716201 0 0
139.456606542495 13.0999099541285 -9.44257010961192 0 0
-84.8821179807007 1.35487263496764 -7.61048488202308 0 0
-163.914219479908 2.33416656021324 10.7033909572662 0 0
-149.571177746014 24.0228503923722 -9.55451421617084 0 0
-23.771286846743 -7.0954470748744 7.95296855768771 0 0
-149.088484417338 -10.4670514066547 -17.6184196909266 0 0
199.093757547206 4.76697960036206 -11.2383047207653 0 0
123.197959033576 14.0476758312413 -5.64088775436206 0 0
0.518049366314565 -7.04530296995314 16.7734109079536 0 0
123.117674081779 -13.6117398932886 2.72165667359626 0 0
-186.248733847202 8.98255695187719 -18.3994588244137 0 0
131.741824842409 7.14762203901827 -7.65866522233677 0 0
-34.9955214166739 3.98390869711739 -4.20850708221497 0 0
-161.693511958658 7.00437488538239 10.3234927215805 0 0
2.23938144580542 -7.39149601398597 10.1250764984591 0 0
-173.56080839993 -31.5601660744358 7.31905807725743 0 0
95.0981712753465 -8.44432489148961 2.45132772818151 0 0
82.7071336223092 4.34791931354111 -4.65303276898781 0 0
-139.092919222861 20.6118076129883 -10.2432336702617 0 0
208.619263356293 -31.8074610379561 -11.9576694454591 0 0
208.11338977219 -32.2558483268095 -17.6132719872152 0 0
205.09805435583 -8.1744980762798 -9.05623090317868 0 0
-119.786636332332 1.00171417407331 -13.7111995133655 0 0
-154.507118683549 -2.22685275470527 9.87481669953509 0 0
-26.4874213002808 -7.30356725597867 10.0783485265288 0 0
200.221685752099 -15.0952113468788 -26.7027427006901 0 0
145.68635271701 5.15391630022227 -8.50335880615169 0 0
-117.11699630583 6.89385761184244 10.6872984988681 0 0
211.294125696845 -21.1276954679717 2.61662763354418 0 0
183.268918936215 -6.96668235624093 21.8554763252839 0 0
-179.153429126848 -41.0474500581639 5.57644464335379 0 0
-22.1828163170539 15.2398366306564 16.8719364820262 0 0
-106.655333615239 11.4851361129368 -12.6565535777738 0 0
-128.906460233055 -6.8764364962247 5.68363013272763 0 0
197.472285498149 23.9171357942648 14.7979919134794 0 0
-71.5171080886487 3.62020262642734 -6.85993402537513 0 0
-208.39360750238 -28.0722799705218 -8.94608662079331 0 0
184.202993965075 -30.3476946085837 7.14394391706954 0 0
185.943690794473 30.4483517275426 -22.1103468351019 0 0
199.967142355954 19.7451495283529 12.482764595009 0 0
-96.200833078542 -2.53912928680256 -6.91594628722185 0 0
140.65886735924 6.20944178150062 -8.2657217962243 0 0
-26.4135353067961 9.19984792895205 21.4055796846105 0 0
-182.04676100987 1.22399981828823 -10.089675081336 0 0
152.669935953549 19.070448063257 2.71246825482666 0 0
203.103547764743 -12.38338473863 -21.6017148945567 0 0
79.9066137216674 12.4442389655322 17.2089485989036 0 0
-128.619052940404 17.6211566295471 -12.7661144520709 0 0
103.888268734857 -4.08135186211226 -1.93423476601921 0 0
-201.562374594719 -31.6985320641976 -15.0056086978176 0 0
191.10526108463 28.8742049386503 7.80660277508486 0 0
-171.43192007793 8.25267910486416 13.6847204093707 0 0
24.7064467049292 4.67201905353972 22.8769268855154 0 0
-187.833337797136 -11.3007057294576 13.9637625895598 0 0
-147.525635998901 6.74467534184335 7.35815533251408 0 0
203.015744040828 -28.252719081044 -27.4529723649674 0 0
86.7743579203891 0.776138304826413 -3.42112221289795 0 0
-210.090271362198 -30.0976834073888 5.94246975082949 0 0
-161.597605049835 8.84089927931816 9.77335105203323 0 0
66.8437896024339 -2.68131286361694 20.897142547081 0 0
-131.855492528145 14.5972477351066 -15.4769694745855 0 0
106.198405691823 -12.8464899831883 10.6442047597458 0 0
-97.8749093733878 -7.88864081408396 0.526332356165603 0 0
17.0023592611405 -1.90851092692157 22.090447605933 0 0
-198.436522447053 -30.7882572441917 18.6147694494701 0 0
-3.88256295279093 7.32204217738536 0.918119519971848 0 0
-207.837061433033 -15.0092798432979 -1.78764320487367 0 0
-170.077769488879 -18.8112073869491 -8.38294564593837 0 0
-3.33816468106905 -4.62875960738556 2.16454324735661 0 0
-157.301737679084 -17.3730066418176 -2.66623743109076 0 0
-189.963881490923 27.5750283167219 -6.58610453364694 0 0
208.885364350026 -11.8150157280541 -9.56309926618081 0 0
-173.708763094444 -29.9622044786791 8.4485554546237 0 0
-9.42616670998295 -7.40854979206195 10.280531289956 0 0
40.8374094501323 10.703475815613 20.6884129007963 0 0
-142.929463600753 19.428081863637 -14.6630265931394 0 0
144.632818768179 -13.8900113521261 -2.49033760008205 0 0
-126.891639120084 5.0579051891313 -14.8212148907677 0 0
71.1747318153777 14.9792844638309 8.34533522278623 0 0
-2.63106437930848 14.3820187770482 7.15910397814846 0 0
-92.1607054874792 -4.24026067885784 -5.50797822066929 0 0
189.465723757347 20.6486030358675 -36.8853905221543 0 0
168.825569462649 19.4151033156408 17.4242140163601 0 0
26.1420320826621 -7.86533485295318 16.6277604982173 0 0
80.2656853381987 -10.487555263691 9.09064082514529 0 0
14.2082573616422 -7.50686631836365 16.6413735904054 0 0
-145.967088461823 -6.49409493485502 9.12215343215978 0 0
-21.0850404430979 5.09655858582638 -1.449497439713 0 0
-179.336223268802 -31.6900214099692 15.7560492571942 0 0
182.89005336534 -33.8705074054587 -17.8428905690651 0 0
164.594263605165 -21.990980749253 5.52554291176919 0 0
190.266663796018 31.353616379802 -19.5616405595174 0 0
115.124746421397 -10.4824550003808 14.7067071852683 0 0
169.473307528031 4.54492537782624 -15.6710687138219 0 0
-169.790111766285 -23.7651392248585 1.67583956386507 0 0
175.439560907766 -34.7872071306949 -9.87413401838062 0 0
85.4757369190434 -11.2609365214886 11.2551565894876 0 0
-191.713824037161 -5.37448792803199 -1.03749103831811 0 0
81.3726129782666 -1.38722582310824 -2.42708085328129 0 0
-190.147711084259 18.0950837503029 5.01307605019351 0 0
160.072572319417 -7.04944824654976 -7.76499756300798 0 0
-133.958140809846 -12.7641958969635 -18.7157748126831 0 0
199.737335056578 8.89188719316235 -23.1733505979543 0 0
-121.827352299895 19.9368133492497 -2.72441023300848 0 0
-92.8923253509923 18.7340440880141 4.15032211326692 0 0
-179.935813488118 12.8318505861427 13.8614284077208 0 0
-4.2396148361065 -2.56403328291097 21.4009645044918 0 0
-180.375929287852 14.3844998282342 13.3935412470418 0 0
46.0677768833998 11.5905779876292 3.27368824638443 0 0
188.31119469876 27.2646404909438 -25.1515096163696 0 0
86.749419184609 5.0637883777051 -5.12510909414847 0 0
136.260605843954 -14.8360068331281 9.2436375503216 0 0
130.862492981158 4.46801170449858 19.3142959859048 0 0
175.78662403872 15.1083526374535 -33.2200657609871 0 0
-137.408541770107 -11.4150794145128 -5.14023866811381 0 0
-191.031451633216 -44.709857419129 -1.76142738882131 0 0
9.30001412423401 -3.72228507804168 0.150376695754505 0 0
171.533680865784 2.66514657915838 18.4160150513688 0 0
181.827337332304 -2.50415981154145 -14.3436804792053 0 0
202.31988545806 -35.4460794549094 -21.6423872602661 0 0
190.503469335146 -19.1385020373719 -30.5526963590967 0 0
73.4165023327423 9.20098572973364 -1.0994216955079 0 0
171.128149670944 -1.692443136098 18.8965320953087 0 0
-58.3093902371644 16.9934745751291 3.26442657143038 0 0
51.6415684866187 -9.02193631704936 12.9028187064113 0 0
185.859882072613 -16.4077089283634 -27.3892298078267 0 0
108.68182039099 7.34204793962872 19.7436829137024 0 0
-176.152895689136 -7.11496060897487 -12.1414371272302 0 0
204.495855432742 -30.9266450767337 -5.4010325158004 0 0
45.3055200740506 8.76337114866312 1.08846145324904 0 0
112.96910055696 15.6113797982621 4.29256767987055 0 0
195.147052810779 -23.6316917290829 11.1075270177196 0 0
-114.604078437316 -8.66155498634532 -0.946816695649666 0 0
173.876553047799 -34.8893691576255 -8.47145056603269 0 0
-191.783183907789 8.39625568404508 -18.7538195279765 0 0
-17.5840740091834 6.80237315485125 22.3101283199916 0 0
107.919543233117 15.471641234923 7.29071889715053 0 0
182.590977881271 30.3795820541269 -23.0690480104268 0 0
-178.847974467845 28.826724049024 3.37448801368193 0 0
-155.83893043893 27.3528548453512 -8.72464661892334 0 0
184.797185758632 -18.4805328648499 17.8079381077445 0 0
189.44131489252 4.55939965260956 -22.0695623694036 0 0
146.782666885238 18.4255524284013 -1.20155059028043 0 0
-187.284382949431 12.2105376696669 -23.5190866259906 0 0
-202.446200730568 -41.482683766596 -5.05528837835497 0 0
159.717257959827 -17.330205414456 -10.64655666547 0 0
147.503333134988 5.09614237267485 18.2474022109886 0 0
-1.53641273627506 1.31712412092276 -3.28767192761447 0 0
-138.752379294799 4.75776533223363 7.62350403216277 0 0
174.922315583988 -29.9360414247951 -13.1502723560543 0 0
-16.7920507511523 7.28771571990794 0.174318187225675 0 0
-105.902115313239 7.38084021048423 -13.0955130797513 0 0
176.962302451072 30.3216361141089 -7.63457009354205 0 0
-158.906804247561 20.4725216275839 -18.5933497645649 0 0
-191.833709285641 -14.9868390395237 17.9129830536936 0 0
140.539627014863 16.1533785693516 -7.48051630468675 0 0
38.2342414354112 15.4240002421451 12.2552263212862 0 0
15.0905758056563 -6.14752603810749 5.86862817740709 0 0
-1.05380093003045 -7.40027883209218 15.3172942402797 0 0
-181.289364727539 19.1800393474594 10.8090069325982 0 0
-188.73481396124 27.4022857711478 -0.629711238032142 0 0
-36.8452875327425 -6.14095506595983 3.50475362000358 0 0
-33.6150229376268 -1.69558142365299 20.4333470455143 0 0
-193.673215810765 -6.58792376100437 9.39074462181754 0 0
-136.574212788109 14.640837136715 7.90113722170745 0 0
69.3418504103153 14.034821538987 15.2657196645305 0 0
170.537563052289 22.3497743053416 16.1439816141165 0 0
102.163067703831 -12.1446004853877 6.03395628384562 0 0
37.4766786570861 15.0190107505288 15.915543567234 0 0
190.506643425031 32.3352521461281 -15.9219328294802 0 0
-137.123080281115 -17.5105180318762 -18.2372719790221 0 0
209.899529788048 -18.686856076487 6.8170184999087 0 0
-188.767545938983 -30.2981052125023 20.0711129552967 0 0
-203.791601287455 -37.8988254832075 -9.32772289210376 0 0
-11.4454454184679 -2.21397281523094 21.3539488693483 0 0
-169.443934115447 9.23401926900654 -24.1203356765621 0 0
-84.0899439256786 13.6996893522507 -7.5320644978077 0 0
4.72425725252183 13.3320396461055 19.7512422559872 0 0
-170.519261866731 31.4060002891482 4.3026813748485 0 0
-119.332630049665 -4.20906631340045 7.23742227638048 0 0
182.562405449574 -30.5787287979703 -25.4665909588188 0 0
180.422683689969 -26.7960984156153 9.87237117336415 0 0
-157.243833315982 12.691830986157 8.80530085125975 0 0
175.43697112044 -1.46000360384132 -15.0040530239883 0 0
186.403539610507 -5.23114303179165 23.2068392510903 0 0
-40.8311851419402 3.78771889643456 -4.51893173021279 0 0
178.762450396959 27.7670962750337 -25.0557796063749 0 0
1.9633906203665 -0.288834800787537 22.5395099946379 0 0
-121.250588770869 -2.24115264647669 -13.8933563857993 0 0
-12.5325091390585 -3.93564001850834 20.0530102853515 0 0
96.099731273254 3.61311021909836 -4.78619620974706 0 0
-173.002671301989 -2.82499639905743 -13.477478972649 0 0
-198.059467448844 -14.8490984313517 16.342719388912 0 0
132.541727038407 3.65223356434845 -6.5395675889444 0 0
169.301831021146 -2.57185245567882 -10.9416813136087 0 0
-183.241177009491 -16.8484033994977 15.6892902845787 0 0
192.847240890789 3.33844777180071 -12.5867406227998 0 0
173.248880147728 5.61807654382965 18.4764977366573 0 0
-76.6047518074153 17.9064556187133 8.43362870950627 0 0
120.331061900927 -5.32747976912458 17.8488968274715 0 0
-176.577566565209 -17.358412520742 -11.3095475129081 0 0
-147.931193451711 -14.5577497153609 -14.8602687589551 0 0
-176.383949759767 4.95122619191831 12.5652099029432 0 0
-181.912634798753 13.2270587291578 -23.2305146283015 0 0
-184.574452864601 26.889895414106 -12.5644983806701 0 0
-196.112720549017 13.6932400085614 -12.0639974390679 0 0
-123.216659458141 19.3015212935934 -6.99509661838732 0 0
-194.685915329466 -13.0015384175889 16.0969417192019 0 0
27.0659120632405 0.251516062344609 -2.97384615371576 0 0
-161.329074973644 -15.0067573820785 -9.42726320015654 0 0
-199.319381298174 -9.17983259430164 9.5846864551624 0 0
192.026078616272 30.6012119811418 -3.7900620053663 0 0
184.156738828867 23.8088359446129 -34.865355871111 0 0
28.2744660010026 13.0166657724402 5.96761830086386 0 0
-192.652152868002 -40.2550656403833 -13.1528384737062 0 0
-73.377429159824 17.0168444178156 10.8769257886156 0 0
-189.328917560869 19.5019736025544 5.60122306352128 0 0
-185.961938272159 -17.4869790499073 -15.4108031397154 0 0
-2.84490474081742 -6.67504621134725 17.1655720163083 0 0
84.023795055561 -0.371363837710723 -2.8949012114425 0 0
204.318317743746 -18.9162635940755 -25.9184990846286 0 0
29.259502230744 10.8724329103642 3.50871430014439 0 0
-59.1185257035304 16.4216044836526 13.3943546507366 0 0
-168.903859939887 10.1713462736953 12.1359424537726 0 0
-170.945633942632 2.57375853394619 11.3479087712632 0 0
200.986753556196 -11.0532372920417 -17.451948611948 0 0
-10.6351373124496 10.4831334148989 2.68013232012143 0 0
-45.5186241495162 -6.06395119876316 2.97982650434589 0 0
162.5657430485 -13.7025678508824 -10.6486996098185 0 0
-11.2269149300543 -5.28459304811772 3.06981896532129 0 0
22.7366318042041 4.45371236425352 22.9030640075341 0 0
-164.162820029387 33.8252404393326 -3.61391310238155 0 0
11.0464490081215 2.19343778672677 -2.44569432967016 0 0
200.654532726825 25.5020811072342 7.64520510441795 0 0
-80.8918689785291 5.48900113944731 -8.55809829311047 0 0
210.431811578227 -15.5499680943021 -11.2261453801395 0 0
202.968228685342 9.867353328307 -8.32123598544777 0 0
-30.8015126611182 -7.18044724278842 8.68951328179793 0 0
191.504567705911 -36.3528940404915 -3.77102550298551 0 0
-18.2149712571921 -5.81668327697727 3.83361499977965 0 0
-181.323832569471 -43.1555462019441 0.95349934870182 0 0
-184.166472539234 -38.3841714206762 -12.8935761209907 0 0
200.760268102534 6.76554120989368 -15.2635264889615 0 0
-100.290532750818 19.1623492658651 2.1465770216537 0 0
-160.837930054545 1.3163091354543 10.6013345388291 0 0
-143.800830332273 -13.3119697615835 -5.51800390000821 0 0
144.265715765939 -13.9313409815659 11.0937789640488 0 0
140.075310159435 1.20593017922763 -6.44135187146105 0 0
97.0110063625522 -4.81419655898493 -0.96512894387448 0 0
194.135474356819 -36.4402567398758 -13.2902821871513 0 0
0.589149760263535 -1.96656208316161 21.8624159171972 0 0
61.543203957088 7.02075067980972 21.4104893885756 0 0
-109.593861360923 16.8412950200132 7.5189897456523 0 0
64.8015336880432 -8.07056107908943 7.10331908236686 0 0
-33.7656675679768 8.08858451111704 21.2980250355337 0 0
145.040041578016 -10.0726400823758 15.0638351134164 0 0
-76.9656042664777 7.84459095483361 -9.55846057092674 0 0
-43.6375031371623 5.42232573991926 20.9405221967295 0 0
53.9381214242264 -3.17982072720117 21.3076055955825 0 0
98.8238291413631 6.55761361337969 -6.06761261367051 0 0
-63.6203016659128 8.91305099712947 -7.63020035228307 0 0
-174.556458471262 32.6862867199242 0.0345010716583673 0 0
-200.795462986504 -9.45491200579324 -5.14535042756061 0 0
195.454767721561 12.636681194549 -33.3821686644038 0 0
175.631913879283 21.2544662226947 -32.1874141561223 0 0
-24.9787932246219 16.7295324904689 9.6413952984338 0 0
-45.0127789676797 12.0319735260281 18.7979935741887 0 0
179.904071831685 25.8232849801482 18.5564288825592 0 0
169.739938957435 -7.41762032974921 -11.360330543147 0 0
-114.453780912256 19.6535605897905 0.522959702104618 0 0
-184.801766331579 5.36181963833074 -3.94082449024877 0 0
157.589055693325 19.9062411065084 3.94991865494563 0 0
197.735827285558 1.4022312580926 13.1181830416466 0 0
171.273709495704 -24.217905507516 -12.8633792558285 0 0
2.72512783769361 -6.35059644069172 18.2534715235409 0 0
18.8413090948956 -4.62823357238546 2.43771400689852 0 0
166.535721317783 -21.42608658878 7.76797659656315 0 0
-21.772719393915 10.0491600807236 1.47343050097142 0 0
-83.9346894507557 2.27164976710592 15.7098678637279 0 0
-158.305324399001 8.51392847639915 8.96512088510652 0 0
-170.422405969765 -6.89518511717351 9.14640200192992 0 0
-45.8708127113353 -0.756940890027268 19.7374520412932 0 0
-150.829819330822 10.7776577589899 8.17913999277343 0 0
-155.641005717504 27.322301796668 6.08844796114638 0 0
132.106435060287 0.215839021720349 -5.41071776214597 0 0
15.7812668946258 10.7035849897572 3.62392933967636 0 0
21.80234810284 -6.08406758446407 5.71541803842509 0 0
-140.667189487167 -11.9540117721854 -20.4005414669293 0 0
-161.307891536801 28.7620786733616 -12.3304268177873 0 0
197.495004269039 17.4979580945534 -33.5164281748593 0 0
-165.617304315979 -21.1172523418592 0.33812200654805 0 0
169.456079428498 -21.7807097229494 -13.0626697759783 0 0
23.7859543775404 2.27146141003654 -2.52121169347377 0 0
203.078349362276 11.5742505433987 -10.490841079988 0 0
60.3296530131659 -7.13052042109192 5.87437025372489 0 0
158.984109979761 -19.9852005754181 5.43734739859068 0 0
-25.3467794246582 14.0085393309747 18.3124057281613 0 0
168.08786135825 -9.15029422374171 18.3342903930979 0 0
210.730823037118 -17.6903341457424 -13.1570373825161 0 0
-152.245504408983 26.0795013072753 0.316166679008008 0 0
-194.025494815447 23.5798619601262 -9.12080251731485 0 0
187.964009095074 -9.37948870476772 22.8974300743639 0 0
-178.903202420679 18.1871943956039 -22.4364524232831 0 0
-77.7008242372271 17.4151078288431 -0.902490454307455 0 0
-52.6076426085885 -4.95736936949069 0.127617402195176 0 0
115.651358743586 9.87424681073394 -6.77579800110876 0 0
-203.853144579258 -12.839459391764 -8.35705698223691 0 0
151.059700444951 16.979172397842 -10.5886089776361 0 0
202.21645577397 -15.5072807411179 15.4293405760247 0 0
-186.23343230035 -15.2543106194581 -14.5519496939236 0 0
40.8202956744219 10.7350217081044 2.80319556245082 0 0
58.68478602553 -5.35978299712247 -0.250721164431801 0 0
-209.251147385891 -18.3861628611174 -3.44833516411081 0 0
167.508947796354 -14.5308686245767 15.0062487639309 0 0
169.735850624836 25.4928529692426 -9.02328882023216 0 0
90.0190036807572 13.2485419191849 0.503736711419486 0 0
108.850862391429 -6.39183744541547 -0.839977535975946 0 0
211.294273322728 -15.2091611812408 -1.83564663724222 0 0
-80.4103151207861 17.553142754143 -1.28433780803779 0 0
-192.27104079258 -20.7823716565194 -18.4522907410746 0 0
130.143730325465 16.7734699295292 3.91238188218255 0 0
206.236315507548 -12.3204733374533 -16.8435303214873 0 0
-158.761534232636 26.9618168026519 8.64840013658107 0 0
93.3376675422588 11.3562719252853 -2.46222322017674 0 0
-165.37317702246 -20.5529953290361 -2.34700327137059 0 0
-8.88384952737518 3.33868314907352 -2.07066348279732 0 0
1.51905897609249 -0.90869928659799 -3.13515958522885 0 0
171.679262171871 -10.173653110618 19.0684349517149 0 0
-38.4191337992308 8.25900544150765 -1.59596736822242 0 0
-97.3402409560905 12.6339176546417 -10.3562562565253 0 0
-175.026191222351 -27.405542841849 12.3175483911016 0 0
182.770795189079 -37.8194136903901 -2.9745216901184 0 0
105.704073125169 15.347627728163 8.45393363196482 0 0
-16.7685429112739 16.653955833309 11.4771625805006 0 0
-154.290090688255 -16.2337632190485 -1.78290932744164 0 0
-135.122312705902 -18.4600857978496 -11.6754476311032 0 0
-197.174320032543 -29.2234309724783 19.5360917048369 0 0
-184.377183959354 -7.10628663498088 -11.5417609431323 0 0
178.43377124971 20.0552471729989 22.1802634223745 0 0
105.799360779994 1.73092633401857 20.3759797519385 0 0
211.15805628508 -16.0249006680886 -8.3611426385099 0 0
-164.166893443218 17.9795992176922 -21.6354487774351 0 0
-206.370782307796 -36.5006414896196 8.63887583220379 0 0
-203.174458353396 -41.0061016969838 5.17867838895779 0 0
-180.364178218865 17.54396114658 10.5577203375831 0 0
78.3773608070614 2.6593395155563 -3.8465793947776 0 0
187.581589403298 -14.990826724077 -22.9986447074754 0 0
148.323671953163 11.7988104345913 -11.1594960628902 0 0
-207.266182738653 -17.8203333108099 9.70897777600016 0 0
-169.0163634076 4.15105992632122 11.7183309149151 0 0
164.090084224698 19.1403870129983 13.6190743769973 0 0
-114.070966188419 17.8018923845604 6.19262852377143 0 0
125.71941103101 4.37603427553538 19.5577094477596 0 0
2.05251197825197 13.5815640301559 19.5404446886753 0 0
163.315546495126 4.91635579789606 -12.6702951528893 0 0
-81.9266835422114 -4.50477695244427 -3.65407481328728 0 0
62.3993475498704 2.78492276336446 22.0030722455683 0 0
198.788159534804 -2.93456402157196 -5.63598256254355 0 0
203.287660809624 -4.00353527083339 -3.97252318227133 0 0
83.0311454725598 -2.7084021345846 20.3711664619168 0 0
-172.756271509884 13.0041684622286 13.7027316182026 0 0
173.524839834984 -21.3214970180939 12.4178309261308 0 0
-105.006582947668 -0.475390076161839 11.2157239921223 0 0
195.661685773264 -23.5881305145555 -31.1536340516231 0 0
-78.3373795938725 -4.48081987492864 -3.11042570223371 0 0
197.366749559831 0.380465730332955 -5.56533916682992 0 0
-39.0952704862004 -1.27711106075384 -3.45866301213131 0 0
-171.014922870266 -8.00951457974294 9.23363243726063 0 0
-181.005741454282 -28.4974524604266 -13.651098873766 0 0
-210.609349077197 -30.205733846349 3.09091249212559 0 0
32.0436834821586 6.64210199397055 22.4537478493972 0 0
-81.5526239732047 18.3533408035509 0.913531426184723 0 0
-191.834057611877 -19.2799086230851 -17.3110008338446 0 0
-184.360068359393 28.2285574070921 -9.69517534769056 0 0
-70.5945627180662 -6.9311373450841 5.40771427165105 0 0
-50.4639419040442 -0.0691547991737037 19.5509728300539 0 0
178.980774706853 3.81451625989978 19.7972380141397 0 0
-185.818128133205 -19.789804781709 -16.0109771390928 0 0
173.017124751186 10.2482140449599 -29.4996169858414 0 0
-71.2446517167039 -6.55497304649075 8.04259651368368 0 0
17.9554979859141 13.4805214476784 19.2493601141814 0 0
-189.795131211347 10.5081103922226 -3.04457326579022 0 0
8.87716072004162 -5.3425358204427 19.8442776582625 0 0
-47.1219215992135 -7.06434686641939 8.34546367365572 0 0
-170.862436531566 20.1523102751737 12.0859598066695 0 0
-190.289328474061 12.7130605728326 -4.7734270359197 0 0
189.237818416722 1.37807896706669 19.6646849611183 0 0
-180.060140910226 -6.20172271332074 -11.8626826338131 0 0
188.978076722279 27.3621913206516 16.3669289292728 0 0
101.456220002726 14.104071272922 13.3522846726305 0 0
-3.07592894794496 -0.603428426699591 22.3174569152302 0 0
-168.012084795778 32.9288777915917 2.60259133046372 0 0
-160.978128675662 -18.6782086110345 -3.14142215357259 0 0
-198.72513272748 -28.0506946640437 19.14169763637 0 0
-200.115502997336 -31.3675540508938 17.5872340166567 0 0
-87.8384029514315 12.8408518516925 -8.39529152181396 0 0
-148.271857016673 -12.1143902838957 -17.1379555710018 0 0
-63.3804282251471 18.0600233961419 7.4562789877431 0 0
-8.34476209013962 11.1721278097758 3.37213573838142 0 0
92.4636708665592 -8.95487609123264 3.26384045541189 0 0
191.130752485752 29.4104684872702 4.37096680102589 0 0
-174.806291680346 -2.74951207440453 10.5320643688744 0 0
-189.592409667207 -2.98790308798985 -2.45305489990726 0 0
64.810574226627 14.9770059894938 12.8426357559183 0 0
-171.458802690491 23.0974070813233 10.423380566461 0 0
181.026890275785 22.5701333162928 -33.3539644873074 0 0
-200.274856204482 -39.0841867819301 -11.4269914143695 0 0
-153.317492617885 -5.18508978601603 9.53878211273817 0 0
-146.187566742127 -12.0520364001666 3.24455863702524 0 0
5.79375469351783 4.00574866402129 23.0643080875258 0 0
196.239178594765 28.6944417618164 4.50161457253908 0 0
100.472827786758 14.8534022508403 10.9544619915973 0 0
160.856260926561 10.4803732142598 17.4648889988781 0 0
44.7259113961504 -8.0524734523141 17.6674491317327 0 0
-174.607776697579 -30.5587831354086 10.9532867478654 0 0
-140.0865693329 -14.5967823021086 -20.0427404230495 0 0
-62.3919997378153 4.25239742156137 19.2035413675644 0 0
-179.632336899595 29.6762022490792 -9.36993639623192 0 0
-70.9989963149185 11.1014966280062 -8.01186611957003 0 0
-50.5748424194422 5.49258084499612 -5.25026885425599 0 0
-77.8888999362168 10.5715191074966 15.8557838439648 0 0
78.7929508350653 -1.58066896361108 20.8017590939139 0 0
-89.1829123575082 -4.27965856968792 10.0802269506365 0 0
-209.040824363792 -30.6459400158739 -6.69725533045188 0 0
188.293004192988 4.73396648669714 -23.7092568830709 0 0
186.886794334512 28.5318890076442 11.8618552625803 0 0
145.809688825355 -11.0283915909746 -3.57505410703332 0 0
196.615440108956 -28.3002550143064 6.42245640436727 0 0
187.74598848741 -21.2767544670998 -30.3861723985579 0 0
-195.702145664617 21.3738520509157 -8.75695007845165 0 0
-137.252276838278 -18.8733384283895 -14.497395094607 0 0
-72.80647047365 -2.8659957004803 -5.03448721945825 0 0
-116.859842683318 -6.15804129149476 -8.93452045803611 0 0
184.730832682433 29.3004244077126 -23.503365097517 0 0
-83.3490431595366 9.85866323625637 -11.2403083650404 0 0
-124.371205463814 -8.3489138947129 -12.5015449407104 0 0
-92.7727397075816 -7.16889529148378 1.48996946697921 0 0
182.286200444872 -15.1774727999401 -22.8758626940212 0 0
-180.794442737927 -31.3407152728602 17.0508499546003 0 0
203.881889095306 23.9157330241435 -20.7093591756266 0 0
-30.8789319958239 -1.88106660740555 -2.80287355328667 0 0
-148.482999709107 1.51283220334982 7.49659288573165 0 0
-155.682006052287 20.1552368354081 8.08014451966326 0 0
178.378190178825 29.2629407904324 1.29800697644656 0 0
-193.71110629848 -7.3267464242995 -4.77397888902197 0 0
-191.239602966408 15.0215852871375 1.52317860638656 0 0
-5.19220330229575 16.3719890231108 11.7964362405485 0 0
-8.20749811820295 -2.99445107046014 -1.32246782831802 0 0
109.421252351873 -13.2997923087928 6.98486281997645 0 0
-182.974754201757 26.3266186871852 6.08723308347706 0 0
-209.524227000935 -17.8595217157586 0.57790008958404 0 0
-105.793764897922 0.00299333417347892 -11.1234303922548 0 0
202.807083201992 9.07558453897414 -6.21456430975418 0 0
-162.075654657518 33.4189967255895 -4.43687552315629 0 0
0.0461766352395503 -2.90225000064764 -1.10831548434671 0 0
-143.381359080969 -4.44528597473815 8.40426493445679 0 0
-122.800299245253 -9.2183194743827 -9.07921711470664 0 0
176.585834002705 -20.3958728692835 14.7973689625224 0 0
187.729720204774 -13.1625233526801 -16.632725204494 0 0
-116.78236191976 -4.53039061941872 7.12371177179811 0 0
103.706637931985 -9.57766408802964 2.25982257140406 0 0
196.025967280013 -36.1885442645158 -19.5544369397847 0 0
-133.448686034174 3.43120634210992 -17.0185732688058 0 0
-153.868920316491 -13.2700159981733 -11.3980992401907 0 0
162.718703506366 22.1687891140403 -6.93120675584559 0 0
-6.1817671931597 16.0122023824411 10.1212045949456 0 0
16.3592568198882 -4.73595383571268 2.67057092241286 0 0
-170.057506133067 -5.68403954546628 8.57940297796594 0 0
-188.581844033525 -33.6331513059428 18.8319803451284 0 0
-44.9823923403172 14.9414074824645 2.73295269995535 0 0
-187.440431778173 21.208948411236 -20.0052013064973 0 0
-45.618886402928 2.33880760695556 20.6583883554576 0 0
203.087076940382 -23.0468004924591 9.34163448570964 0 0
-205.104243839537 -40.2868876605203 -1.66264800583987 0 0
79.6151743537871 1.2147111925511 21.2937658074463 0 0
58.7157377475922 -1.11308082402525 -2.34422744130162 0 0
