"x" "y" "z" "f" "a"
139.669084512641 -6.30283070301378 7.38488638459369 0 0
116.54651831995 8.2325493139518 0.411741341588019 0 0
-93.8956180434464 -2.75907228790706 -14.0268076121672 0 0
-190.329699240921 -22.651975152659 -12.6303532442544 0 0
135.178416174624 -8.00530110082252 -20.516200609052 0 0
184.23680309445 -34.2989936838295 5.6011129502651 0 0
191.190916522054 37.5179128902908 8.1993491832103 0 0
201.935864350612 -26.2554131773059 8.98897798174912 0 0
-174.2640501828 10.070572616774 11.8211203180072 0 0
7.6555401602175 -16.6031885213979 -3.85240908882128 0 0
-197.562389749128 -10.3310284819211 22.1293067178687 0 0
192.875356792145 30.236634343646 -7.92963130533172 0 0
161.375376830531 27.7826566382608 -5.2980794016787 0 0
195.546626508979 13.3842374400597 15.7990312296334 0 0
-200.989123999197 44.3182278456566 13.8679801670788 0 0
54.9312917501015 -17.0464304990227 -8.08682489699619 0 0
-195.20604170815 6.20097287985139 9.34681794527867 0 0
169.664126294183 9.48992127764924 11.1492741548985 0 0
178.422410594935 -23.0810836457212 -25.7559164823734 0 0
44.6973782114357 -5.20874273905805 5.40360783977515 0 0
-210.033913281752 10.6622519143234 -6.07486606547458 0 0
61.407597252774 -5.63819192297541 5.09110781151594 0 0
-177.483517410543 -18.396267335354 -12.6314713679788 0 0
183.559473602006 15.549980669545 21.2611470475711 0 0
150.375747925122 -19.9833344157188 -12.4513508827529 0 0
201.994006162058 -17.73518656976 1.92167817322079 0 0
203.71528647538 26.7138227849844 18.8935467724153 0 0
159.723739295597 22.0094107854176 -13.1762109382313 0 0
8.25436709111142 -1.03881418964163 -19.7067213024726 0 0
166.577359438241 -17.2478708805865 20.6519821215216 0 0
128.743840889497 7.55602118650681 -18.9055521991551 0 0
190.876246557802 -27.8316450470676 -11.3518461934441 0 0
-33.4117138979656 -8.10208486894181 5.97237145018416 0 0
174.349367985861 24.2407348649378 25.4468376458627 0 0
145.696986712541 11.4163596826018 5.91198076033592 0 0
-215.111118591553 42.8873584564101 3.57001832944435 0 0
159.068835408965 -23.7043753395758 7.7764220763007 0 0
-193.279428877149 0.564796889013428 5.82166559681758 0 0
204.666898312125 15.9433866603438 -6.31755914958433 0 0
2.4920171399965 -8.44846118383368 -20.5743763403295 0 0
-210.420050936391 39.1061911710535 14.5995661735012 0 0
-201.123771071671 19.1818099779366 -19.3116428450243 0 0
187.790218299256 -8.86820525695961 23.179940396242 0 0
-140.314257616093 -11.2721795263586 -10.0969204865571 0 0
-72.4050816590516 -12.9882776653028 8.6860271691824 0 0
111.926923635227 -16.5815718425391 -13.102586677958 0 0
-218.963246923531 29.1648608718592 -11.2753773346096 0 0
143.203354733848 -19.5693808274383 2.35366967194456 0 0
-144.998750454995 14.3795394190304 13.8492411348921 0 0
182.000840303147 32.7012555253003 -9.75541346432391 0 0
-146.909915080429 9.07722247546311 22.6450769626858 0 0
-178.987223796828 24.4069304675843 4.9839263318266 0 0
-146.679951537058 -17.2138802705272 19.9310071517846 0 0
-202.142187573867 -4.49322282770346 13.0876217652594 0 0
-197.715218751392 4.96560835601996 1.77531818821823 0 0
-151.58345505254 12.8373168861304 19.9583975672183 0 0
203.518338934557 32.7154197802132 11.6550540162536 0 0
-181.134691936823 20.5067697728549 -8.11007217386595 0 0
-53.8839439174999 -13.447052058225 5.45449424455386 0 0
-216.401010442098 41.0888478384928 -6.78866173014354 0 0
-178.622390752071 20.1403052348292 7.75813242873699 0 0
193.982468445105 -31.6880808940643 13.5940647723382 0 0
28.7672193083728 -15.6238782374871 -2.75262016288928 0 0
-200.079483634166 5.99910676087969 -5.43051102139515 0 0
-32.959434139867 -19.2451496494801 -13.8136915231401 0 0
153.028766630918 -20.7698918685829 8.55609310637774 0 0
177.929485779851 35.8568573695828 25.511451790509 0 0
-222.198267055466 28.2139827973588 2.18851848296804 0 0
-160.300228780345 11.963943253439 -4.23936884708276 0 0
-140.081690419231 -7.74475264435368 16.4181536156788 0 0
-200.577216997709 26.2801154539005 -20.9380229138115 0 0
175.7244145095 14.9446597206174 21.8663868428221 0 0
-204.311195295281 -14.3182874258277 0.339562984388413 0 0
-33.4538094340759 -11.4494311461148 4.08620790962444 0 0
-107.169389678527 4.95097316810112 -1.52480672057338 0 0
159.72693152277 -16.9505876969562 14.4604718914679 0 0
-92.5588776959854 0.125689095572865 -11.8503212767307 0 0
172.117180851571 11.0516848640998 14.3923678986336 0 0
201.611375034964 -28.7087911984514 17.6278201787555 0 0
-149.416284419375 -16.3416641424375 19.6427377836905 0 0
-55.7340571670196 -18.2648436580986 0.904613541985163 0 0
-209.707465942443 29.4964585464246 18.8585114856807 0 0
-181.1509431905 15.2152656878777 -10.1546238287253 0 0
137.078569147321 -12.7603859233876 8.28226505202846 0 0
-197.442977345363 22.2161464171469 19.7232525145486 0 0
-73.5660164423579 -4.55103229787801 5.63682568628552 0 0
156.575895231432 7.9592146580532 7.37670705927221 0 0
206.510955877349 27.8468058114056 11.347679276132 0 0
51.3785055150201 1.37763088651344 0.669303494020003 0 0
-208.070493457862 44.1026533354398 10.5787570625077 0 0
170.820718073017 -24.397649978175 -21.2276047228123 0 0
173.450861923461 11.4749480990767 15.5120728293647 0 0
196.15474115139 -31.6298294596625 8.45908203247662 0 0
177.908155787617 -19.3188707576252 32.6493001412642 0 0
-187.412978294223 32.8306287536194 -15.0221866363857 0 0
-162.165199428025 -20.8876134024294 18.4985735199584 0 0
-140.789267159093 -24.0602963227823 7.46597561287718 0 0
180.741079454529 37.8293283413405 20.6415339765509 0 0
167.031079572855 12.4545821373887 10.5255472327307 0 0
176.757392661162 -33.5272049206834 20.6396869482569 0 0
-98.7826087735081 -10.0778550151289 9.58778512852964 0 0
174.743061827997 -23.6480992636142 31.1325270584769 0 0
-180.657495496131 11.2417429838872 -10.4161056260607 0 0
-179.607601888256 -1.54305355282512 16.7213937924439 0 0
-160.007411510576 14.0005161864873 5.57332655215855 0 0
-50.268310994501 -13.5633090127682 -18.2402608303251 0 0
148.934575502525 20.6941707378022 -0.126986136914103 0 0
-4.96782702578103 -4.21006749461563 4.84402877713016 0 0
-29.9586032513493 -12.4481391984067 -19.5414748246703 0 0
-219.425602879291 38.2073731468479 -1.92583168507181 0 0
-191.442957149756 44.6783710533236 -8.27627299663342 0 0
-133.979146386152 -17.4972671291616 -8.30995504093541 0 0
-73.2096233317137 -10.5248837148356 -17.4973200379934 0 0
-197.502849478119 3.16943657411744 -5.13138980142107 0 0
-80.5067440982151 0.176241851124206 -12.6917178207956 0 0
-209.879660036971 16.3997223047498 15.2893839489647 0 0
182.48996471938 37.380745521362 -3.55663674561615 0 0
-0.615158317768231 -14.4533353462928 -0.346754203587013 0 0
-202.351014538171 22.8594607474395 20.2196426193647 0 0
164.870570391213 -9.36758174584955 13.6909880652583 0 0
-187.612920555836 36.0117384514445 13.9486609410985 0 0
202.242367096024 14.7576401841363 -12.5258543421246 0 0
-0.893743820623587 -15.9678329799712 -2.18477149847472 0 0
-159.795832619256 -6.7514195580477 -10.185693539472 0 0
99.3900971708459 -0.214050571015898 -20.4150771409498 0 0
-119.418207947497 -8.2695828514268 -12.0716536924419 0 0
-185.366748129063 -27.9293023557422 -8.16419208665214 0 0
129.616170596304 -5.67345000644587 -20.685847811955 0 0
-184.736272044447 -32.5605951158701 1.28176055848021 0 0
202.376056406151 8.69165267917707 -3.52645996947901 0 0
83.7404950190672 4.96399922787735 -18.6192209708597 0 0
-86.9769717278806 2.20082977157226 -10.0800874260421 0 0
133.620945979213 -0.314412323652663 -20.7885963639842 0 0
-181.509235623669 25.7364746195194 6.39506984130202 0 0
182.91751356077 8.52827568909083 -25.3454802036842 0 0
-169.473881605974 -7.98285785882319 23.3362066605658 0 0
201.165173076532 -28.0555624768513 20.7547726902819 0 0
160.680305073491 29.4621964165932 5.27747349645476 0 0
-175.386811103574 -18.0740050596517 -12.0697330259471 0 0
-110.710236853125 3.35566124774765 -6.182392274589 0 0
-155.344942781456 13.1890721379708 8.75753770964151 0 0
-191.519799719185 -25.2671682457072 15.5167253529554 0 0
-192.618095358298 -7.13131983520435 14.5539526464357 0 0
-96.2418406678956 4.07869057575794 -6.48952608176732 0 0
196.930773626086 0.420502957058584 0.771418124802786 0 0
176.091843788546 -33.4838658952863 4.60101569428991 0 0
-189.526214442332 34.0785660006456 -16.4206484926993 0 0
122.866332751625 -18.4014818947999 -2.91599324346412 0 0
189.764301528523 -0.989352993411406 6.12516234097393 0 0
-180.639783468052 -8.09886283518555 -15.7433855229747 0 0
175.260273690194 -31.9130603972907 0.637283727068631 0 0
201.965556710803 29.6627702483518 -2.50643866512327 0 0
-221.715568814986 27.0428974604083 -4.67037017809476 0 0
10.9084359503358 -7.22828459707819 4.44218348655428 0 0
146.797260637812 -13.2953269210622 9.62784961115784 0 0
-188.606802897771 38.1351054706739 13.5711110396084 0 0
181.366927614341 -12.0583854851682 -23.5676091409218 0 0
149.467196011077 -5.9213414906273 -21.0507214344766 0 0
170.267835345523 15.0201456057767 14.2586479654265 0 0
195.426422011105 16.7808050749217 24.8938542445841 0 0
-164.359019667791 8.48072468084646 -7.53310991945354 0 0
5.72104402529723 -18.9115177727211 -10.3041835036828 0 0
147.82937665748 1.66083302388863 6.58312396853523 0 0
-157.70285650838 2.54185723560169 -8.98503048461209 0 0
-191.693282606812 0.260798043433354 7.58137907057424 0 0
-203.639352687523 46.4456034704874 -9.64432331703244 0 0
201.375369770133 34.1029701751312 18.8137403760619 0 0
99.3111712959505 -6.25097907068339 -20.7012673781579 0 0
-201.132191094359 40.1439910729351 16.8925429875461 0 0
-115.308924446856 1.20882519118769 8.01969341100865 0 0
-178.943939314686 -20.4226231013621 20.6788756934089 0 0
-188.985092764894 3.29145950810127 -13.0977967927176 0 0
-158.694530372219 -19.2458827893355 18.8890613944866 0 0
-6.99909214402676 -3.03535246980782 -20.1355462823589 0 0
165.394149214176 -27.6658654969214 7.05205131760676 0 0
185.319689463144 -16.0473427817779 -23.7733092877808 0 0
-174.170913314984 -23.4743521274534 18.8585394308514 0 0
87.0207874254388 7.30230575118754 -17.2098041092022 0 0
-72.5819100766328 4.46883645518221 -8.63270200227836 0 0
-188.421458851455 -28.4920514306373 -6.50710246157658 0 0
163.320498634073 -8.08999575386923 11.5120519967499 0 0
-185.856259487333 -31.7409689763518 0.704951586256842 0 0
23.2999846138216 -5.12991762710292 4.9067955873511 0 0
107.694518578892 -5.19773048242871 -20.774632270642 0 0
-147.376377764009 9.33686686856608 -2.02328273250478 0 0
181.643148070942 35.0034399680964 28.0399846452753 0 0
166.012117806731 -28.5687770032725 8.78975133686426 0 0
23.5825043512108 -6.60873224324529 -20.5839735844649 0 0
199.155405459097 -31.2336196876056 13.5769646315761 0 0
-32.1034662313826 -7.16484615940681 -20.2981546329223 0 0
-28.173447094924 -15.4072338139057 0.250511931198031 0 0
157.355573989708 -11.7758899872558 -21.10883395529 0 0
114.062408122511 9.26712546797806 -1.2767240420393 0 0
47.8014699824425 5.66519708710365 -16.2230952859643 0 0
-201.350005016932 -21.538149792817 10.5518347793801 0 0
-34.8350795722747 -20.5431169820493 -10.4060437505889 0 0
-185.218341090505 -12.8123754814126 22.692644360397 0 0
174.75827595099 0.55646604569558 -22.618785710927 0 0
93.7779163382874 0.114788890289849 -20.2509535301618 0 0
-206.311995234368 43.8342822717367 9.75177125575665 0 0
-202.794172895117 7.69452714486748 -4.13774616964862 0 0
-110.194876863034 5.08265591368565 -1.42444684862554 0 0
-172.065943359139 10.1310093240914 -8.23754508862671 0 0
198.85772568242 22.3849935720206 -11.5231478719583 0 0
-68.2704000803065 -2.3564037961235 -16.2390848033942 0 0
-0.984883251195438 -11.0241884369261 2.20355940921511 0 0
46.7357703459646 7.6336373686781 -12.2132084890619 0 0
176.462076906189 17.698191164525 -22.7427455720737 0 0
194.782004125464 -27.1072142929549 -11.3112457525637 0 0
164.711718660355 -26.6664163630055 -1.89013734266127 0 0
-201.884859000754 -17.7764319014078 -7.31963040160477 0 0
194.248191376249 3.37661487055695 -16.2369867874679 0 0
0.906074200690701 2.78993798525822 -3.76009442298393 0 0
-158.120526853072 -14.6463241274314 -9.64297122417979 0 0
164.823878729716 -24.6350309266155 17.2222042583455 0 0
-191.621192736503 16.2925438185544 14.0466929293239 0 0
-130.777373215453 -0.457160685332232 -9.58294127393432 0 0
69.5934250692937 -9.31700134676403 3.97493016765098 0 0
137.455211631607 -7.80067256275717 7.55084802504209 0 0
101.163809761733 -3.49373327484797 -20.8343344941647 0 0
-197.776511317365 33.6700827370331 -19.7414727546394 0 0
175.909993134863 -8.30256553176623 -23.4958483030257 0 0
165.60044942595 34.6201799290272 3.33279200004866 0 0
-177.641246705994 -26.2891151192912 16.0270626570751 0 0
-31.9126095438136 -1.98178315973943 -19.0733849300188 0 0
-151.312837894471 -25.237058752877 9.66226215013778 0 0
196.260320765906 -28.7321997733518 -0.710422566037562 0 0
155.5509251685 1.54563976432428 7.63316570498202 0 0
144.45120323751 -0.165111106311468 6.56255459291826 0 0
150.792950404307 -18.7603374166285 -15.5738795034355 0 0
20.1260460343557 1.8966508912954 -18.4741087787633 0 0
-103.592250039369 -16.2612642240196 10.9497743413834 0 0
-82.1650245715605 -6.14678586520493 -16.514102806843 0 0
75.1893045902579 -13.2603191185593 2.15314901598224 0 0
191.439217112169 -30.57107446094 0.315459768843544 0 0
-137.462800383671 -5.65972858921851 -10.3261002869244 0 0
117.935018908902 5.189451911219 2.79415237721865 0 0
127.538561350603 12.2903642682256 -1.38707066591486 0 0
-168.18798370937 4.84842106470002 15.1915992754137 0 0
159.787033935447 7.04600751640706 8.43235539687719 0 0
-195.095188855873 -8.27023313387812 10.2528001950082 0 0
-205.689130362991 22.1260172539699 19.5776568685939 0 0
-69.839373139437 -20.8187143826819 -0.188586016497945 0 0
-161.731503060056 14.4894624672174 3.44479570216904 0 0
52.3201264982211 -16.6611037349504 -5.01160705048771 0 0
-109.945821196599 -10.7798628270932 -12.9533137671678 0 0
-221.871237313251 27.8095912870608 4.51516727010411 0 0
30.1145416876137 4.36426982083985 -4.70995675078175 0 0
-193.546002885919 -13.7360817699594 22.3056753645109 0 0
3.33856195813024 4.71712617038686 -13.8046322958165 0 0
65.9817457437758 3.89136483474274 -18.6475708025144 0 0
174.967703142045 32.8875480134024 -8.8581661459198 0 0
-15.1724771453716 -15.2834789981412 -0.587044730865335 0 0
80.6650044658218 -15.2258163725327 0.467550581181249 0 0
186.034496900273 0.469512608128314 7.60975306833501 0 0
-33.0011311858747 -14.0376679275527 2.2503348888949 0 0
6.04211648125271 1.56750999014743 -18.2969235793595 0 0
-207.29593314831 22.2980070333426 19.2131685424606 0 0
167.346895114624 16.7873640623802 -21.0677225195773 0 0
144.607164738506 -2.96826416593053 -21.0760724983433 0 0
-126.825602255381 -23.1886522186841 -0.894985614711472 0 0
97.2116725302446 -0.0657189281180286 -20.3518197406233 0 0
113.494126687369 -16.8847755581377 1.03141024071346 0 0
199.17294788794 4.84341134255662 -7.96363964987954 0 0
-46.6205881951603 -6.56990796248595 5.94338750112008 0 0
201.985493456944 -27.5465565139409 14.0232679882427 0 0
-191.869593439922 16.3654663957915 -14.9497100273337 0 0
194.075178731982 -9.48895564523147 -15.0951549225472 0 0
40.1340444642524 6.49093199834423 -7.2115787715389 0 0
24.0151418650056 -14.4553392529263 -0.949302739580615 0 0
-38.2711693558226 -16.258485185045 0.375639118098885 0 0
184.066772791906 -13.3046403302225 31.1120818396985 0 0
-179.864202208435 17.3700694619614 -8.39850781410508 0 0
-190.660048859825 46.2447943359124 -1.15245972478063 0 0
-217.953339848326 15.9661530108951 4.36464327913575 0 0
-111.6634100848 -11.1260116818369 -12.6495765877149 0 0
-174.16480606845 2.80656148996004 14.9472693543331 0 0
-71.8044412145723 1.46678380823755 0.513282329618346 0 0
199.245809249046 -15.8057224304459 17.1764430741857 0 0
-97.1166949607454 -22.1243022966233 4.80964719368613 0 0
-101.686879246472 -13.133902241962 10.4963684719563 0 0
38.51111486256 -1.09311278954125 5.05184126524115 0 0
-48.1703013418686 4.8370243185628 -9.75855162906994 0 0
-133.883912617924 -4.17620057987412 -10.3828891650739 0 0
172.395061722868 1.28424336712986 12.8742007947001 0 0
145.621075292847 -10.563525468071 -20.4589593137187 0 0
195.670670850802 14.5415770430703 17.2119410903803 0 0
193.727298888321 -20.852664853034 -19.0275886160416 0 0
-194.704948617559 -26.2017317444088 13.1260528629858 0 0
-115.20845397934 -23.5823794497811 2.26588969565299 0 0
177.982868614824 23.8141544151527 -18.1732236418086 0 0
184.580089744016 -0.0113437076823605 10.0059894066548 0 0
137.710385882761 -18.9967948575827 1.71061729216828 0 0
-217.909475398076 40.360508314156 -0.0598495703334026 0 0
-154.000821653238 10.3633744091391 -5.03762073042648 0 0
75.9327647356874 3.053840079329 1.29051107563992 0 0
-181.663028345795 24.1875387499693 -7.89284869343385 0 0
-206.139400728788 31.1497526080358 19.9455426124053 0 0
-125.071033940289 -3.12496868085125 -10.8894313911477 0 0
-37.7192995779602 -20.0263981347672 -12.5442986840285 0 0
141.524261477954 0.262190149732789 6.30614044423506 0 0
151.853372413248 15.422523502642 -16.5506025196427 0 0
170.400681164644 -4.89946778182434 -22.0161160691533 0 0
103.561543414193 8.30478074912999 -17.3370603141748 0 0
-202.171435951034 -17.1269158819737 15.2185162135493 0 0
196.946377329502 31.1485471930435 -2.70333544279513 0 0
-15.6736200762219 -12.0840011299819 2.30867462493859 0 0
-149.852460435826 -18.5197804606155 19.7379625593916 0 0
183.486119661994 17.6363324510977 -21.6290455586328 0 0
-200.919868433347 -14.5326753304464 -9.15576262738817 0 0
187.631199472772 -16.8233342132246 32.4113437813268 0 0
-177.51272908845 0.759995146625478 -12.8545500133894 0 0
13.8674098949993 -16.8050494143252 -4.76087025257539 0 0
176.268430900327 39.1682426410546 1.33114676810568 0 0
183.224826170972 36.1680237176949 -5.02480520510048 0 0
-183.466913254232 -29.5640808639368 -7.32199181359343 0 0
-190.59503560071 24.6808033734497 16.7997592031963 0 0
-185.15523101756 1.61632698864996 11.3394975452897 0 0
-189.657386107856 -17.0610361703348 -13.6308651092257 0 0
-121.37343209345 -6.87702515724767 -11.881545953583 0 0
-22.8038044138942 -18.4560396798817 -4.21207117029273 0 0
-204.963976076868 -8.33002222357136 10.8507217666013 0 0
-97.0944986497211 2.35890487853606 2.56225258754277 0 0
177.306982995358 -26.2037104140008 -18.9114293083265 0 0
-193.575542334945 -7.84464962472028 5.31681394704086 0 0
-78.9296522665556 3.87876753719881 -8.95013418299133 0 0
-192.556405671717 46.1434466923213 6.15453771975016 0 0
90.3535397075743 -4.91820523592845 5.21811610670217 0 0
-105.934193160105 -4.3957344310743 9.19225014143441 0 0
98.1038906952177 -7.66104550122122 5.91620426381234 0 0
30.4796537236988 -16.9067766629076 -5.45525216105994 0 0
146.6194623232 -0.291713590431991 6.83259338596221 0 0
-71.2213843437684 -4.9267655125733 5.75540165435185 0 0
-69.6660590779434 -12.368287753695 8.52934640906566 0 0
-217.036433788269 33.9249206487388 12.0388756252124 0 0
204.348859180691 30.8649767424672 6.16893252223556 0 0
-196.337320942829 -6.98539613538355 20.3983620996631 0 0
162.057545477382 16.918289784671 9.81078504046165 0 0
174.764271218553 33.275102225427 20.5678187960743 0 0
169.16670605573 -12.5478440742757 23.5490670257447 0 0
151.313336476407 0.0511466787701383 -21.055039505583 0 0
-202.144408033806 -6.60596398739187 10.1247965723563 0 0
178.677698054447 -6.25614295816177 21.5376063781057 0 0
184.230493341219 -30.8387010870745 25.5890408826448 0 0
190.891926888472 14.437468955552 -21.799212913775 0 0
-179.622442734457 -2.99633531256232 18.2959728899199 0 0
197.320568153245 -0.570473788855341 -1.71584128974972 0 0
180.366617970319 18.3637751949392 27.931434846104 0 0
132.73658654148 11.6806230198244 -16.9638834103281 0 0
93.9434118201039 3.33562057811366 2.2940451713019 0 0
-177.975793041899 11.618695597243 11.2396536986693 0 0
-71.6655802168686 -13.3450813761341 -16.7296572029742 0 0
-146.202807292624 -18.7496732488427 -7.75648985347 0 0
-214.794240809788 24.039490904626 -15.6486706025094 0 0
53.1223018265476 -2.7321567965203 5.57303964100594 0 0
-188.792409660881 29.5945762157342 16.8570698929347 0 0
-157.37329009754 7.23653967038301 19.5525915555595 0 0
-85.7787039089523 4.29765450325406 -2.20694887030526 0 0
-147.015744759441 -5.60680292887974 -9.55435866108136 0 0
54.1477270679564 -0.568891888337321 4.51045551061193 0 0
-154.305999426474 -17.4141877896064 20.4023727137682 0 0
190.234174909693 28.3326150120847 -11.7004097039842 0 0
-176.700273818924 -31.648441306136 6.7696366683124 0 0
-196.134933701001 32.5106585664968 -19.7169664579109 0 0
37.4755857106789 5.8170464495071 -6.23060617959089 0 0
-38.0951490258038 -20.6566409049215 -10.6375539243967 0 0
-24.3744409389889 -4.60556922634626 4.40773806455182 0 0
-57.7422453568886 2.75678847350333 -2.0116657536516 0 0
-6.35151741306436 -18.0242734824515 -5.16758303133674 0 0
167.365487803247 2.52784618418708 10.8105402239324 0 0
180.390480034844 39.4423060997052 13.6323383199007 0 0
-81.6379281912851 -21.7179333392474 0.8346876704477 0 0
65.3137094184658 7.02555031964982 -5.12695616897188 0 0
196.737772064318 -31.2270180236926 25.9075547248593 0 0
-209.303592092513 43.7741246711751 8.43981082545361 0 0
-204.483864795902 37.033779434017 18.423023925523 0 0
-22.4807812411944 -0.769498165157087 0.337174081525158 0 0
-22.0657199352303 5.37860569258241 -8.41714543775034 0 0
-156.165690066351 -27.1876249951528 6.56442642110362 0 0
89.9093674635318 0.918484977788375 -20.0162515570126 0 0
-204.118502809162 -5.72311091760966 13.4035808783453 0 0
-165.520766595897 -5.94589368590917 22.6617014625024 0 0
152.158245240444 -20.5236616431915 -11.7608603512596 0 0
-142.891839192824 -24.6630342189999 5.99642141704973 0 0
155.982550425136 5.40205781000404 7.45596327253646 0 0
-116.188807811826 -0.67569525429389 -10.7147714262742 0 0
171.969276490356 26.4779462098916 21.7168813884893 0 0
-76.2911693320802 -4.03796117557201 -16.4715230110857 0 0
-193.167775100536 -7.95631259937439 -11.3432788634812 0 0
-33.4023715158811 -20.4214143793653 -8.15368276616476 0 0
96.248070400746 -16.9324771124749 -11.0769294180426 0 0
-126.557296809339 -16.2857517052887 13.2282699389133 0 0
61.4708493160824 -9.71884836908245 3.47674743561202 0 0
200.667354622949 -30.8027248858856 16.9982497053674 0 0
198.859090055569 3.67169878147094 -1.90296572186275 0 0
-119.645316228148 -14.8081886515082 -10.5085462851336 0 0
107.842893428769 12.4654254739414 -6.43825270918802 0 0
46.5454195341261 -7.09083174429166 -20.4715205219151 0 0
19.5559764013715 -0.794385404012998 2.25069998749255 0 0
188.341386949183 -12.0385126248943 -20.7968457476898 0 0
-192.322213724134 47.1047207963468 1.75638399256523 0 0
199.688631474694 -19.1220947719419 -10.5128105085834 0 0
38.1500184546278 7.28083069641758 -11.0627705841584 0 0
58.6110759057531 4.00547404525587 -1.92891293211436 0 0
-202.919544501699 -11.4923436777379 4.06925958600176 0 0
-212.071988794496 10.4365412458361 -5.24853733100634 0 0
172.638003325639 -10.9912791904467 25.8049825468666 0 0
187.21330195618 38.1275607713561 11.3461311248397 0 0
-75.4671664851024 1.5498556761348 -11.6627189461479 0 0
-203.174649294249 19.0014466344605 -19.1647970463645 0 0
47.5228666368853 -13.9542065444473 0.0132730410807457 0 0
96.2868463589054 -5.72402327176471 5.48092173717474 0 0
-201.349719184661 44.4591623615085 6.02931051133905 0 0
-215.245161975258 20.6222907889296 13.8092870836881 0 0
150.560821973392 -20.9060352471037 2.41668901501971 0 0
-172.4002553416 19.8761892470291 -1.59360456747522 0 0
184.625259603886 -17.6242784149213 33.1362817240025 0 0
84.0957425729814 7.12169448243663 -17.2175973153196 0 0
-191.150347598119 36.4204261835064 -16.2459449733882 0 0
-201.733640872578 44.2114879934303 2.1914699590115 0 0
161.974962244823 17.8229090948746 -17.9821423829028 0 0
-204.180414351223 11.4896125560354 8.96024941485593 0 0
192.126048556967 -22.9857656275664 -19.7265851385871 0 0
163.279106182314 -26.3500070312741 8.9463073976489 0 0
-173.411347334762 20.7965863577661 3.16369273275144 0 0
21.3054500090018 -10.1217309412384 -19.9372071473004 0 0
158.423292826856 6.73040259030478 7.98850746840876 0 0
204.294038336434 28.4363375570417 17.8100482948183 0 0
-174.698425458086 -4.52037835417605 21.3945334756561 0 0
-200.304597907091 45.665870422927 7.0125779568504 0 0
-194.871156143101 -1.69795165911965 -8.61819819944567 0 0
-48.7503092000039 -3.46888486529059 -18.7951073113254 0 0
191.032971970668 26.529638013241 -12.9808068909785 0 0
-90.1668124334018 -6.69898822174507 8.24839638367902 0 0
-183.299834549833 -33.5664031003745 -1.66747044698463 0 0
-200.776583195904 -24.2045400393108 2.44770850076907 0 0
-155.280403874875 -4.77746483051017 20.8967120605782 0 0
193.078044238189 -30.3404387987794 2.5563989350168 0 0
-59.3594761401216 -12.2844111114368 -18.2276516885923 0 0
-163.357307956787 3.13668513555154 18.5650132761809 0 0
-41.5481562917372 -13.1560059919394 3.77756823803908 0 0
-175.116405816937 3.88396909599943 14.15019354657 0 0
-209.984006028932 12.7940433051263 -12.2518456007089 0 0
52.173696800857 6.96236538546008 -6.57334018636355 0 0
-160.525626767653 -1.94590988666768 -9.26631573759788 0 0
52.8057666078824 -2.58564375944587 -20.5067123461215 0 0
177.172650145208 13.7245323516052 18.2312448846044 0 0
-172.538856543466 -28.7437998617473 -9.37455076687182 0 0
186.149291773842 -19.6461443920586 33.6232218136881 0 0
177.008380424428 -3.86134103397917 17.9235821658544 0 0
182.200863421442 38.5149938950559 7.75449755763462 0 0
-154.431245552741 12.0325885170378 19.549292103979 0 0
-108.56101449567 -19.1919283008952 9.23600748620737 0 0
-112.66357642855 -7.61400934483507 -12.9310038101411 0 0
162.146614711154 -14.7586025405329 15.273463882115 0 0
-165.102660402436 -9.4901141667922 -10.4387836589938 0 0
-163.212721886494 -1.41559047465805 -10.5285220892183 0 0
196.777424448631 35.383727968055 24.0732053200203 0 0
59.030388993246 -4.48737769592542 5.40111281928076 0 0
64.2558003583223 2.58252899479998 0.284452488453112 0 0
-100.074500685295 -14.4254455508564 10.8777593351013 0 0
191.619145900622 -30.709691039189 30.4340148873593 0 0
-72.3090375070254 -17.7992128700696 -13.4439788535695 0 0
194.145796090313 37.5851617167996 22.5763581514323 0 0
142.049222090815 -5.57454863488668 7.52759141265405 0 0
195.615188960678 30.5757734658803 -5.42428176628189 0 0
65.7429313702041 -6.14250919255174 4.97268693452552 0 0
175.577821177843 18.134009776159 25.052929188806 0 0
-187.494021968363 12.9662359461636 12.3580417160746 0 0
-24.1029109182495 -0.888830773632664 -18.7495224859004 0 0
160.298999067492 -11.4559359607527 12.5883939950162 0 0
-171.344013093391 -34.6439288894222 0.861084151128897 0 0
-161.443542000733 -29.1776841476283 2.5979732060403 0 0
144.558751681234 15.4950732790905 -15.1935904672684 0 0
-38.8159236475102 -19.0385865547973 -14.175202399336 0 0
158.599780011089 -20.9450650139825 13.3447482658424 0 0
-138.262843505681 -2.64053715477589 -9.92248441962779 0 0
135.889979539939 -4.63909192941898 6.86419622047532 0 0
179.847577216123 -5.44057760847918 19.8318649840257 0 0
6.35769943491443 -13.81357200434 -18.5681394067499 0 0
-57.0179465277303 -11.5717115253446 -18.603139216046 0 0
-204.469898209699 23.062621492106 20.0656570346452 0 0
170.912762390881 -0.748453546245262 12.6965003924766 0 0
-85.1526082349645 -0.612215272323055 -13.1518293787704 0 0
-191.855974606075 -26.8345527866297 12.4543075440073 0 0
173.479463607255 -27.2795952719521 27.221013208311 0 0
-192.284553195094 -23.2043230075739 -11.530448890552 0 0
-142.402222606393 11.6470105632796 11.7365792375006 0 0
-144.379059426998 8.17376714637699 -3.17383895452109 0 0
168.291388640245 32.1447060030907 12.8013597343577 0 0
-186.920878664345 -30.4292336112267 0.583472978740137 0 0
-94.838892333423 -6.36179909208384 -15.1771262736162 0 0
172.775924014674 14.1536845081289 16.8254103005293 0 0
-163.194100772229 12.4749637816857 -4.72039341158829 0 0
-184.31426036991 -18.9014367729704 -12.627353294608 0 0
191.804530119627 35.5461100769183 -2.20534319724412 0 0
-181.672775025461 -0.0468071482543902 13.0691118931586 0 0
8.93347367695762 -6.59676211873497 5.23655710908494 0 0
169.817755628122 -0.843349644468179 -21.6008651497421 0 0
191.735225642366 38.2091564915427 21.8276769205433 0 0
-89.1360270483801 -1.48468692729218 5.18277232368063 0 0
180.425022778094 13.0106214153874 -23.0546129805942 0 0
10.0544446201372 -12.618808712345 -19.1794066468753 0 0
-84.4065736653129 -18.6214972570707 6.92597164274808 0 0
-138.546326214574 9.51785419313423 9.78906723868089 0 0
146.387517390192 11.0957932790499 -18.7439280559828 0 0
187.763796236907 -31.5318888501176 19.9786044714655 0 0
195.293859505555 -15.6773122183186 27.1315965317867 0 0
176.121521044581 -2.87424660478216 16.0686135969756 0 0
-90.7966643343883 -17.9040889887618 -10.9750106208717 0 0
-185.332266248921 -6.89276369365781 9.33744767558426 0 0
-2.48192769581453 -18.4834733409459 -13.5714123208643 0 0
-17.0482951332826 -18.6865657333834 -13.9491851370936 0 0
-35.7969600562773 -9.54474767054656 5.60235672419673 0 0
199.385652933231 -26.0523030179104 25.6659432848508 0 0
-133.752351584755 -23.0631624924209 7.77433986588817 0 0
-132.659076074856 -20.4660708052183 14.250864352893 0 0
-159.586911829755 8.80826296031765 15.2627113455092 0 0
154.272993819704 -19.6318603258009 11.5496506798357 0 0
28.4368469896428 1.01524487032927 -19.2680550323182 0 0
138.426438868758 -9.73210801703164 8.13924628326465 0 0
-192.217576737473 -28.9038441246392 -3.62133484918015 0 0
13.5411715730301 -8.3207413363282 3.50514979033452 0 0
10.9360313958783 -5.98081819689278 5.73872846302067 0 0
186.666853566361 25.0694022236321 -15.9514811953369 0 0
-190.088283746693 -19.1543698010211 20.6711734204963 0 0
200.833438252656 34.3157126894737 14.047352981326 0 0
-69.7858358750849 -8.33363667120805 7.46185395672436 0 0
139.941476267669 -5.21910749459006 -20.9504154717964 0 0
-182.15353128607 27.9010091339272 -6.26809347063744 0 0
195.008659843386 -31.7357302050608 15.5900164719987 0 0
9.23884149495358 5.87918351557919 -11.632695912936 0 0
-89.0711632795423 1.54569202942323 -10.5747243001591 0 0
200.078307672623 13.9286525055566 15.6408326173461 0 0
-117.104275839885 -2.78983306986058 -11.5928588059282 0 0
-106.158624780295 -1.71685336749009 -12.3425096788342 0 0
141.404793052442 12.0147842746577 -17.6446479706827 0 0
104.796092890227 9.90114599551833 -16.1266619587315 0 0
-176.333112923861 7.92431540303167 12.6294813052194 0 0
202.727903084387 33.4492043793917 13.6801228150448 0 0
144.379989678179 -15.8295247317557 9.31386761272121 0 0
144.373660379087 -5.81236910580666 -20.964347173135 0 0
60.7826101910439 -1.69019266571474 5.17119316304044 0 0
-205.921697024651 -8.45058408321268 13.7028769201021 0 0
179.705880248721 23.9535994032483 29.0284496273721 0 0
201.866316430133 -20.0386227506922 3.44291650566829 0 0
-161.539597803874 10.7093765454539 -6.0306393133145 0 0
172.427869102629 39.9760595595312 5.82030340655158 0 0
187.792070004148 -29.2632282677089 -7.62864851714019 0 0
38.1975513462822 -3.24474028417025 6.09873738682194 0 0
74.0446486264326 -12.4536262512812 -17.4859780728178 0 0
-87.2379235210459 -3.35960197028409 6.41801908024237 0 0
-19.873573436986 -19.8290356062618 -7.93061874190791 0 0
142.710265984881 -9.26347531327349 -20.5771371501738 0 0
-175.638350993076 -33.6853525459678 -3.53350578293631 0 0
-120.512191411145 -16.6891029594287 -9.21508078452478 0 0
166.591372302494 -24.6205485310473 20.3377428580012 0 0
164.493176755378 20.7959751594272 -16.7705662008705 0 0
-218.919091820841 28.7061042688856 11.1158950605881 0 0
-87.2251312771807 -1.58972159436131 4.9640617673852 0 0
-173.156318405679 -29.3376337015269 12.1742864906301 0 0
33.8149104461408 -2.18375840167317 5.65331472357596 0 0
184.50466109356 -19.9434212014625 -24.8918608638036 0 0
154.620020562922 -10.5066167819208 -20.9559232227986 0 0
57.7599408733145 -8.45697100682111 3.95230401820146 0 0
-28.6132557249119 -19.8923923842976 -6.83486619782402 0 0
-190.282151015578 5.7577161234445 11.2882249330551 0 0
188.76006459104 37.6677806746638 9.57151364436459 0 0
172.436986130479 37.4532052966769 16.8141410110706 0 0
-155.461743527031 -26.8111688315608 0.0364759171235903 0 0
188.772074915456 11.7613441638151 -24.337358345688 0 0
185.040813086816 -4.68186456381536 -20.2413262977199 0 0
161.35827557922 6.80585796443039 8.35589067369561 0 0
123.610210581825 3.99111935703513 -19.9513117211108 0 0
141.918303086778 -15.2182125730262 -18.0771688523454 0 0
165.313764726903 -23.5302284472756 19.0019978388583 0 0
78.2563628341595 2.4385353540664 -19.5572673872538 0 0
204.0728497933 30.8737670277515 17.6743607988856 0 0
189.668737821559 -24.328108679181 -20.4805348202309 0 0
-181.851243153325 12.3282121049054 -11.0016099087729 0 0
99.8342961845243 7.22077805281605 -17.9160219186381 0 0
201.248962900552 33.368707251758 20.8746132855468 0 0
-206.7717642985 12.0896094380217 11.5433860106828 0 0
182.462416337301 16.6568561555247 27.334885737901 0 0
-197.328603828879 7.21226059150239 8.40815868350634 0 0
-200.187902310225 47.9723831278704 1.57521341557464 0 0
194.381074896726 -31.7221790252852 8.35380827292675 0 0
-2.67874173002223 -15.5146311596641 -17.5997199955993 0 0
-128.528157132926 -22.036244157094 10.0659068021508 0 0
-171.206082112575 -33.662097420146 5.51205337590448 0 0
-166.189500422533 2.95048628807374 -9.98092054498185 0 0
-203.315227528625 -12.1265237421874 2.16314026397843 0 0
-177.306332088471 16.0697477560698 9.36344417420057 0 0
-66.6221284348334 -7.926077647576 7.21836258703364 0 0
-199.419743641909 38.4269355778147 17.9756246380414 0 0
-151.243967610883 -25.6449918524732 -0.744652526617303 0 0
-198.6469413279 -19.5517523563274 -8.46925950735042 0 0
107.05173112664 -15.1061364868552 -15.2795650772604 0 0
-170.442642832042 15.5402266797708 9.19838690955728 0 0
123.076384270793 2.20036798159861 4.50320372200729 0 0
199.044404979267 -15.5430565386639 -10.2685464757724 0 0
-190.386831274946 -28.4788381036982 -0.450850321242711 0 0
-148.257343209103 -12.5264683257331 -9.78909223937586 0 0
193.881938170486 12.5763082517891 -21.3442320483995 0 0
-145.167687984467 0.964522855376768 21.2427669282627 0 0
128.044518167179 7.90646878149932 2.55937793431086 0 0
-102.677363817165 -23.0063513293251 3.69576530452721 0 0
-81.7209803971076 -12.4215969491029 9.34504731539697 0 0
-144.27849296593 -23.1622372786806 13.8314306180802 0 0
173.846424014637 8.86403619665618 14.054210351325 0 0
151.831347933415 -8.3814624827708 9.32101954595337 0 0
-186.706612326555 -8.4427731028976 20.8110496389586 0 0
152.999430811195 -6.35641467407828 8.89193495068211 0 0
195.35432191126 -7.93170898381164 13.9741022527468 0 0
179.475914196351 -31.3929340652139 23.5165241800442 0 0
-145.668205180224 0.971278905607527 -8.33427168895672 0 0
192.622564874285 12.8087740225051 14.277046321155 0 0
-180.545091370551 3.46567682987258 12.7200885421423 0 0
98.0131693510752 -3.47911499887778 4.94019483486454 0 0
-152.745521241951 -2.72483443927441 -9.06673296499141 0 0
-133.275926878683 -18.330502175122 15.1738315062337 0 0
64.7511999071499 -12.5135093742137 2.04414865277899 0 0
174.605447153942 35.7745205843625 20.50389341166 0 0
-161.855657342236 8.96108742452185 14.0379774656399 0 0
-150.930231504445 5.59025532461082 -8.30628822506886 0 0
42.0978338588558 -15.5668083882316 -14.7372573966722 0 0
-206.269112186146 33.9378217112892 -19.6076558960177 0 0
175.441985903692 34.2726034671199 22.3339469806541 0 0
-128.264967967656 -1.82203215237647 13.5870434768521 0 0
-2.16534670556308 0.129073236507098 -18.9986062048788 0 0
-183.392036044239 37.3601100357358 5.47178976147351 0 0
-156.128302404923 -10.0417359146355 19.7165337733035 0 0
183.00855102822 38.4833839649787 15.1396375134831 0 0
-160.37731864517 5.75246961303808 -9.25253533714527 0 0
-190.711644702834 11.7767904396218 12.595159131775 0 0
175.104068808622 -32.741320556023 3.50898861856823 0 0
-31.5110930953367 -8.00131539972928 5.83488600948731 0 0
-199.347709771401 31.5304499461342 -20.5646236731341 0 0
-95.6179531933621 -22.894006577051 -0.505986694502626 0 0
89.9609633233326 3.08132506567424 -19.5234404378185 0 0
201.387988298022 -20.1469078038874 12.2423941857091 0 0
162.078739696797 -7.00803862428134 10.9534501017455 0 0
150.041651722797 -19.1933486903577 9.36919365514921 0 0
146.11629661086 -15.4354506727214 -18.4600885467721 0 0
98.0950858750988 6.7294681134647 -0.663206685839284 0 0
182.11680051419 38.7567774495473 -2.06150299746291 0 0
-203.11953358854 -4.67230869545925 14.6733642531798 0 0
-27.0337606262847 0.843090053129099 -1.38003215132103 0 0
154.358287021727 16.8034126643407 8.22243072271994 0 0
-99.249943136399 1.67230708772775 -9.7427090684744 0 0
-164.858378022275 3.17287780353576 -9.95971082409832 0 0
123.017748637698 -12.9597581894787 -18.1582091130886 0 0
-202.896251265258 -19.6361128111876 -1.79283778845012 0 0
-124.917461069223 6.13771510150744 1.02432138391567 0 0
-181.971379678031 -28.036032384747 12.522086544764 0 0
-201.446193575684 -22.450268312109 1.40413179827126 0 0
125.053463702882 -4.22827899889114 -20.7807504299162 0 0
-205.518838306642 -12.5453671915159 12.991279793663 0 0
132.436643891451 5.54135816729635 4.28466013020998 0 0
-195.895347532561 41.6577175397545 -14.4986189414296 0 0
-202.012738039028 -7.14171232773564 18.6890821938269 0 0
-144.692907813262 8.83938309228861 2.19790760712046 0 0
174.203804417135 40.2661251405941 13.7503138613307 0 0
79.9812372931303 8.32092504087966 -15.775027116069 0 0
161.174907195164 -24.5599630104269 -6.28454361441268 0 0
199.564618750981 -9.88436700523664 1.48194448189806 0 0
191.781386674592 -32.2189520667156 6.21993988471758 0 0
171.638828978102 -20.8361167800165 29.5326724365173 0 0
-196.634232299615 3.42977060175878 2.91101234474893 0 0
-211.832835852594 16.8329284314851 -14.6391967120471 0 0
200.643569081871 -29.8875380304766 8.13638030814403 0 0
-189.83874151893 18.1964149186373 -14.2238728297962 0 0
155.885343799698 1.93416753993882 -21.2153484767245 0 0
61.6345869780556 -12.1044423243978 2.11592563341314 0 0
173.055347542127 -12.5314128388793 -23.8111590725121 0 0
192.442503027974 -7.85241355292437 18.4665127803498 0 0
165.258352640681 18.0884712044958 -19.2128832407657 0 0
121.261311532931 7.95903782820525 -18.3988716914 0 0
180.100326666886 15.5772488467085 25.2025537957723 0 0
180.385830136218 28.447343691621 -14.218719722106 0 0
166.827139725991 1.09684524726642 10.5043022874373 0 0
145.936262523148 -16.8509579304046 9.48826523817134 0 0
172.19719569753 -14.3940180729301 27.8978744171668 0 0
166.765321195883 36.3438820025852 4.0873029004916 0 0
-140.956077996856 1.84482789494671 -8.14430063581121 0 0
201.558111805277 23.0229113955006 22.3368148662293 0 0
-74.4735029778829 -1.91794101885275 -15.2668415491001 0 0
170.531909528308 -9.3052391916205 20.0781621545803 0 0
-212.759934511255 37.2570939284766 14.3276316808313 0 0
-20.4105696726415 -5.78412146735703 5.67374712294066 0 0
170.661112228573 -25.177756917711 -19.4611303180596 0 0
-92.0033335827713 1.60607891078991 -10.260642624676 0 0
164.533648995867 -14.9618799119903 17.2035624610171 0 0
-42.1417477982483 -5.4904233306901 5.13166109713615 0 0
171.671920932547 3.66448803171532 12.5120306058437 0 0
122.731191995066 -18.3881460028994 -8.37283457444451 0 0
189.862279973363 29.9534128752643 -9.51908482566506 0 0
-194.247865027776 -5.43373119013839 2.56672672291254 0 0
-3.53944872315411 -19.2037675759956 -10.8524321477672 0 0
-67.0430956834199 -3.64084743856347 4.53326460717007 0 0
-212.109279534718 39.9847057979138 12.6410092897381 0 0
176.127840185772 -34.342242053922 7.93478476800352 0 0
-204.855985872944 -10.8487232322033 16.888890609369 0 0
-30.6515055208071 -3.69367761378542 3.31123048352252 0 0
-179.440328177555 -7.30121848049901 21.6940929478 0 0
-172.657963076968 -34.7594656984619 -1.67406104510935 0 0
-196.213465576671 16.9301340112001 15.8912406507551 0 0
-139.680598610009 -21.9804215857519 -4.08569306689384 0 0
-72.8320231373334 1.03470394693277 -12.3439444696508 0 0
193.50364071228 -27.689264291376 -9.29147683299812 0 0
162.826241960476 29.2277484213591 -3.53901760807644 0 0
178.111657711023 -33.9809182861766 4.69582564179225 0 0
135.334290056037 8.16113948316385 3.73480862338766 0 0
153.063930454557 3.65926593375842 7.01616657253714 0 0
102.910500071828 -15.182570628028 2.65057580446774 0 0
-175.290477694614 -16.7910822262624 22.8372505258757 0 0
-169.042085809466 7.52561865788919 -8.47372324736643 0 0
103.126172543088 -2.14683191147135 4.74409433470823 0 0
-203.510080360842 34.8021311831344 19.5623934055406 0 0
183.675637839401 -25.3533659391638 33.6234993725503 0 0
176.54647694046 35.5330960063667 -6.26910028754196 0 0
199.803832829054 -22.4838050103529 24.0730741590752 0 0
185.892852407209 24.7704293471665 30.730857186513 0 0
-197.87352222733 -12.4877713200273 22.3191523234314 0 0
194.186287252803 -15.8671834074745 -17.8390625718778 0 0
179.888034085716 -26.0755910799848 -19.6969005445319 0 0
173.646355853018 9.78960404668265 -23.4947234299975 0 0
-191.204419843679 -29.6869759268406 6.7599699440414 0 0
-134.570789347623 -13.4304709243354 -10.0333217265511 0 0
-198.91994513493 35.6752190460403 -19.097999225742 0 0
-61.1609822320701 -13.7828712545878 -17.4917524251742 0 0
-140.373836548061 -7.85213436566009 -10.2500179171239 0 0
-150.242600756238 -21.6120784359169 16.9018284210219 0 0
157.672710198863 15.7009299728956 -17.9199260666357 0 0
133.074162132495 9.86304864642197 2.35736675675514 0 0
164.54832481786 16.4135677816336 -20.0100930168618 0 0
58.8070038069199 2.92241455688706 -18.9802273036788 0 0
62.5185413753346 -7.86666682832383 4.4113664158446 0 0
172.779875558074 14.7868282773096 18.7937815846018 0 0
205.476707151299 30.5777162503412 4.9064801650912 0 0
149.656008320945 2.4229288284645 6.67190891721224 0 0
-133.201133852108 -1.11907873125771 -9.68362508091112 0 0
-11.5752189731379 -14.5849189442517 -0.079752824633095 0 0
-101.016110654096 -9.85188072682875 9.73098336221205 0 0
170.894045191175 35.8118650944727 -3.1416498365983 0 0
175.581837412089 8.52826746217842 14.0343616338795 0 0
-101.476929059872 4.52805799922366 -0.751172834477406 0 0
84.1421712837424 -15.403527073466 0.596461341476585 0 0
135.767357882988 17.212809672948 -5.838776928553 0 0
-25.423047596583 2.92865761755309 -14.0936842347136 0 0
-184.040774058987 -22.2077768213042 -11.1403367830288 0 0
179.154969092868 39.2965993132236 3.34192004811175 0 0
17.3966897032828 -0.0572104354065993 0.951722190163154 0 0
80.8537239429649 9.95481826210068 -13.3125479290492 0 0
160.182698589791 13.1939849523107 9.07105200927158 0 0
155.98087063044 -21.1579370041668 -13.6950821336063 0 0
54.3189877330315 6.26287866430313 -5.1279868459055 0 0
198.769265460842 34.2093752923773 23.2688737251662 0 0
-48.5463661631561 -20.9224004704203 -10.4488796828123 0 0
-188.49728227986 19.719430259853 -13.2928682195861 0 0
202.670837649715 9.8534994231742 1.64982203085558 0 0
173.960466242735 14.1003458754954 18.6909610154751 0 0
143.849439034324 -19.0521845699018 -12.3323115168254 0 0
-190.940319793403 42.7271099349285 10.7944301102452 0 0
172.503126242482 40.409778363811 9.7061990729446 0 0
-174.62414654682 -13.9384449839634 23.8309389801274 0 0
127.119869109323 -0.792289830049996 5.45580122177691 0 0
201.140182471333 -18.9107690491778 9.91151763744263 0 0
160.539399341348 -0.176735482786834 8.96428806902546 0 0
-210.874847104513 9.98974274775659 -3.85059180607198 0 0
199.61363108597 -28.5573815343625 3.05307165566159 0 0
-120.292609413423 -20.3827848902833 10.5251167086867 0 0
-139.775994546101 -19.5493886701745 -6.84671743025606 0 0
-25.4966150689301 4.5750123567963 -5.72522185349809 0 0
-149.180636727606 -13.949664971079 17.9731937070619 0 0
-95.5287687445571 4.76598975706751 -4.26249606690814 0 0
187.932014682022 19.7351123992161 29.5826442991592 0 0
187.22631713073 19.3075152112679 -19.5440322591788 0 0
163.304082690706 11.049413904548 -21.8053327467034 0 0
191.954935907369 -32.276649910511 8.21845339941335 0 0
-58.7877305324196 5.09934463915335 -7.49917849733555 0 0
163.880987886019 -17.4131294511655 17.6284962132883 0 0
-123.72939974706 1.52913069367031 10.1079644839134 0 0
-177.656935644727 -22.7861031134708 -11.2280320033907 0 0
155.264959126234 -22.3034953220437 2.09023390281098 0 0
-199.627536048185 -25.6636937993287 -0.705918429892535 0 0
14.3575634215629 3.92171330912853 -4.804922009674 0 0
-163.58029457195 -29.7715053840609 6.43298729485775 0 0
-194.362137284611 26.2731698366161 -19.8096945427472 0 0
199.131422503708 -27.2570989563664 -2.90468571936521 0 0
156.067253831314 -22.10056175858 -8.96511033239963 0 0
171.470989116567 -6.86899695524271 -22.4503552776066 0 0
178.975684555142 34.9497595700925 -7.2162508311274 0 0
187.446447423967 -8.91348067110447 24.8577904166718 0 0
185.556829751516 -29.3390525698624 31.6895424665652 0 0
-197.44224996789 -13.6023500430113 -12.1430044025513 0 0
-183.316799384938 -28.3406660676956 -8.17401167883738 0 0
28.8658498370806 -3.49592937363718 6.09239452416957 0 0
119.08930583757 11.3170833905675 -2.57100568520348 0 0
-109.085095450152 -21.4239235422536 7.78172162768634 0 0
-174.322246829812 -26.0815057841138 16.7806007226476 0 0
-203.24018115305 -11.0032475072799 18.4157892922192 0 0
195.015669063868 31.4186324723326 -4.33172021556081 0 0
-184.273311929678 -23.8566058259188 -10.4630999875582 0 0
-130.056235937323 -11.4049813885767 13.6359300600955 0 0
147.13465581974 12.8326932289689 -17.6826549465263 0 0
164.963003216501 30.6099343254706 -4.01328231199578 0 0
-167.382279269725 2.88583075059002 -9.89650041993339 0 0
-203.017106148387 8.00526163649796 -2.49135105241166 0 0
-61.5958496441336 -3.76224601035744 4.23798054030449 0 0
5.47541036634031 -6.93836518446408 4.79047775445501 0 0
-67.3787964512325 -17.3730110506784 4.44069937782283 0 0
199.783309762245 -27.1157018659905 -1.20045522098452 0 0
-187.270510387783 15.6981254152393 -11.6413326215331 0 0
191.117740221037 24.4075294847836 -14.5575589772002 0 0
-198.602376158572 4.15993753311887 -2.59497352868123 0 0
-52.0450966188657 -17.535965621303 1.19216158644047 0 0
-31.1484680521526 -20.3605375130517 -8.12719839003218 0 0
-179.750839745908 -19.4907487815074 -12.6359544456435 0 0
189.333020070877 37.5979237094377 11.5140448369921 0 0
93.5222683720917 -11.1641644129601 4.71398286072797 0 0
199.343014315676 34.5908609998782 7.1275215241741 0 0
-149.666355467348 13.0652013754062 10.0696555218904 0 0
34.4048396391983 -14.5481059756526 -1.07803100966731 0 0
187.725586103532 -9.35007055509086 26.2722526643419 0 0
-194.326524559074 -17.6207935501663 20.9992692614223 0 0
-183.547794609418 26.4123878487356 -8.69061271625107 0 0
-185.962172736412 -6.66147909188988 19.724348861733 0 0
-194.004469014227 -5.45167898102387 -9.66561427102857 0 0
91.3342278564254 6.34312539758381 -18.0556346345794 0 0
140.310514294868 10.2245931691287 -18.5866315017751 0 0
-197.368076604617 17.4012835373418 -17.8991038013738 0 0
-145.90810461306 -21.5802187970462 -5.34017406381177 0 0
33.6089311812457 -13.930534550862 -17.0810848422953 0 0
-172.803742819783 -30.4852351754962 -8.25296214064869 0 0
144.734023039819 -17.234546084281 -16.2563258232194 0 0
-99.9356468256008 1.88606380604124 3.59043370301441 0 0
197.954217375284 24.4559372121531 -10.4817422395166 0 0
