"x" "y" "z" "f" "a"
47.8550978133258 12.7908034092392 -18.6717219973066 0 0
32.9926413930166 -5.87958826069484 -1.41835299301124 0 0
-84.5916626643986 17.0423257242533 -5.15096257784612 0 0
1.2987344144344 7.77703032791888 -1.54376930523542 0 0
-78.9648632803738 -4.24022471616022 -11.515659651615 0 0
-154.550852989029 -4.85595119659332 -8.11177573655298 0 0
-187.20502803161 -17.8830214760903 2.13385473392299 0 0
-157.679970903632 -2.59302091375401 20.8284736740934 0 0
-211.014698422608 -6.072548488505 -16.6152545426477 0 0
195.799761753396 -30.4823841539029 16.9051521169711 0 0
197.727796103579 -27.6243095435137 1.61141243019013 0 0
156.486714822306 -4.27200745751982 -20.5138990014678 0 0
146.470603397706 -14.0946496739735 5.85701781173795 0 0
197.843502729813 -28.8752880197419 12.9585024379016 0 0
-158.240170252653 -16.22337439683 19.1158695098821 0 0
-177.501959339845 -0.0328232622894647 -9.43099575852122 0 0
183.520822161191 14.4922824544943 -16.5270199074618 0 0
51.5451840909907 7.90652567784682 -23.1051796532084 0 0
143.30269014027 19.9320631756146 0.0596032272250371 0 0
189.512457192883 -33.4108098356202 22.8473773493699 0 0
26.0411893798064 9.94053684298129 -21.8855431809584 0 0
157.074546179894 25.63614915117 6.56537485089356 0 0
-34.6360931653464 -1.22467700320551 3.95424018987972 0 0
73.0806974315993 9.57579182445687 1.38477063980853 0 0
-147.582579855774 1.61465979561344 17.940762624647 0 0
151.953092300254 20.7318733308875 -15.2685796148244 0 0
12.8322830128636 7.72759143463052 -1.46141521133411 0 0
-225.618965709416 -25.4468774141914 7.73892831213089 0 0
-42.7714729952725 -5.23585016231921 -13.7656331912435 0 0
-198.880801391004 -39.7562088135438 -4.61619538368276 0 0
139.89109927054 -17.4283467872948 -10.4661739773402 0 0
176.143997690126 32.1809281956797 10.9469382707684 0 0
28.0603713723138 -7.45739227359624 -14.888534747086 0 0
-7.78080054076071 -5.61215298669631 1.90622361446115 0 0
-175.284503865117 28.0200808921897 5.50193049010616 0 0
-155.916648516166 -3.50928735915747 20.4394279323611 0 0
-209.015936134286 -3.44160428896342 -3.54238634378882 0 0
19.656542419611 -5.67591735121026 -0.86861408327015 0 0
161.613745448237 -26.1198825190918 14.2817435036046 0 0
-205.594376816139 10.7792780978939 8.66743616111642 0 0
-67.412625555798 -0.598340397187649 5.0454764563953 0 0
-103.471970663032 -4.03818891322633 -8.7089712108836 0 0
-27.2010793714291 10.8502982405946 -20.5913558515098 0 0
153.773151991794 23.8081151674847 15.6046918150553 0 0
34.8781772602498 -6.13410420577838 -2.61563944375854 0 0
142.132317466138 9.49903499980626 -20.1906084916526 0 0
-15.4265638990574 -1.17747524447228 -21.8295131124692 0 0
101.067446420621 2.7118261698643 3.95491907803819 0 0
157.742787531972 -31.5641280476939 3.72507041167164 0 0
191.734136453346 -14.7699079699866 19.1139059645701 0 0
97.7490820957777 14.8521477794094 -4.38153575161819 0 0
-70.5108714693811 -4.32675039678054 -12.762276115844 0 0
168.62687712587 -14.972589830686 21.3803497886521 0 0
173.241678596525 27.0693372775548 -18.4345170107853 0 0
131.216541370618 13.9909680877224 -19.1449978737745 0 0
-74.1156908068392 -3.42573109574452 2.0510084468724 0 0
-197.496521682953 5.32561162405655 25.454476504908 0 0
44.6282095599686 6.03347163812981 0.738976274563536 0 0
188.822420593146 9.62655181201973 -3.28366421268649 0 0
191.690447075278 20.6161050560148 5.15296831969022 0 0
-176.510350899728 23.2637745989297 -0.677932128021026 0 0
-59.6920598295004 7.94313032608969 -20.5593227293151 0 0
183.992794538408 23.3979873175582 -17.4711748132097 0 0
174.074810309507 -22.9465562050412 -15.1170176779283 0 0
-126.735547825951 16.7955114938605 -2.35001394502251 0 0
-4.63491614607359 9.3089854937068 -2.73551413702158 0 0
142.954458643157 11.9722561007389 -19.7415122592547 0 0
150.07276378086 6.97785791310099 13.3221560811184 0 0
115.219661171017 -7.40150123085902 0.386035266121598 0 0
177.610252365075 -37.0054121052171 18.3161318375209 0 0
190.961865437751 -24.8187494118983 -8.00616229091921 0 0
-175.817579035659 21.3168164968373 22.1392590879772 0 0
3.29330333583539 2.94528344521697 -23.8412322478428 0 0
62.2521764963401 8.02075457601877 -23.0772157166551 0 0
-64.1766113320065 -5.05494922911089 -6.07532776612779 0 0
180.67996240976 1.72962190608225 9.1553640606673 0 0
167.166097969413 32.2946947590425 11.4447718398366 0 0
-60.6871155527142 11.8596780144988 -18.3064836366708 0 0
-79.2264504975859 -4.7841255742982 -3.16847790058423 0 0
-196.544621665513 26.4625011503211 4.08052005569744 0 0
13.8327017022022 -5.78928687052183 -2.52238640307336 0 0
-211.520608326273 -3.0073019820297 -10.3304888760607 0 0
-10.4631295506 2.74758504879141 -23.4551983402021 0 0
-160.452139227766 7.31558639307909 21.8029913686336 0 0
-53.602431086095 12.9824078936569 -17.6634438825609 0 0
117.661650227688 4.18587187993639 5.64814510865496 0 0
151.22116363531 13.6039449465814 -18.4023074309251 0 0
147.170763572494 20.9699605003151 0.239733911927267 0 0
-213.360760060597 -19.2290872650187 -25.4329590420321 0 0
45.2843892508188 0.935693354232891 -23.8720845749193 0 0
1.55884311256966 -6.47791593583924 -12.828404691298 0 0
-150.302572669646 -11.5146725628617 16.7721823129622 0 0
-11.1069092320566 6.70006952747684 -23.1620178343849 0 0
161.876174404105 -16.224263869821 15.4897727296173 0 0
4.17108313414081 -5.30050249810265 1.44891288776304 0 0
-211.630059495382 -3.60711251002241 -12.2972645330191 0 0
164.760040927112 21.7699942467096 -21.3872590483319 0 0
186.278215851874 -2.07430199045493 -16.6884243845827 0 0
-190.160439394309 27.8543257388955 14.1261783954092 0 0
-60.6714002119218 -4.91798916740311 -4.01770166665942 0 0
48.7803794395127 -3.19014566448866 -22.2879206642938 0 0
-96.0707815381054 16.3667580720835 -7.24962832442131 0 0
-185.646082689596 0.796795652271833 18.8448690291201 0 0
-131.064291609687 -4.09232150327939 7.15339914366128 0 0
162.5934112288 9.08906147176537 -20.6824003679511 0 0
-124.484091599774 13.424165089869 10.6232709948587 0 0
172.655201879957 16.1510288972806 -22.0170047832571 0 0
-162.417694916776 -6.4582168063398 21.4281114625052 0 0
-77.5190645525857 -1.99606554286477 4.11341196264674 0 0
-195.200487287309 -17.9241315118881 -16.29972801894 0 0
131.860038134118 -9.46896864530565 -18.9315038498329 0 0
129.787772008577 10.1853674654299 -21.010206948928 0 0
189.629321517759 -34.176800019979 11.8922308530316 0 0
-187.073983735693 -1.27648792400538 -9.94694857643259 0 0
153.525852182571 5.63184898017301 -18.9251504834679 0 0
152.756744730868 22.9776317192548 3.44652087309038 0 0
120.539061250624 0.825947736537855 -22.2191723595032 0 0
-188.072490475705 3.2879243560271 24.9046279983475 0 0
2.94882056997514 -6.36531561695086 -10.9186644804557 0 0
167.303538415942 -37.3309951755883 3.17437902712314 0 0
113.309127006314 -1.22574258682377 -22.0611844245524 0 0
38.5331276823753 8.09064864428308 -23.036577221597 0 0
-190.225400082179 16.9855767508746 26.174042353955 0 0
-172.575994087781 -10.0747382854124 -5.33056528565906 0 0
-197.247607429324 7.92834450264981 27.4641038342521 0 0
-189.153974178557 -10.2200252570703 8.20795455479676 0 0
188.662672187365 -11.5618814605168 14.2918482084752 0 0
-99.6062443812378 7.8435536720398 8.60066735537809 0 0
-165.709080757943 4.46708652169342 -6.79854548797957 0 0
89.3309918836147 -4.30363255226954 -21.3719067958759 0 0
18.1596889723078 6.52375087915001 -23.668947708656 0 0
165.843209584486 -8.42751151949598 13.7318568322448 0 0
-168.799434003313 -7.36008096001137 17.5831719397117 0 0
-92.7643017697309 5.8172367319035 8.10511952497583 0 0
-17.91490834963 13.416302554902 -18.0043572907448 0 0
-202.939846001129 22.2801033017566 15.7337049448365 0 0
-207.703307140621 9.98993831688341 17.2445930288433 0 0
-197.948431926389 -4.09035495516328 9.31445271270692 0 0
61.2126224737558 -5.61733357312065 -20.702924286442 0 0
-46.9531191208739 4.72464814243547 -21.952681499866 0 0
34.7181471431807 8.35677961743409 -1.10147070816292 0 0
-8.50497011078585 14.4020754350403 -16.5095815046082 0 0
109.6933343844 16.1073405211468 -5.58647396871171 0 0
-194.861009994892 13.1628771827187 -10.6077070366087 0 0
-186.362262429412 15.7730960018253 26.3867879800457 0 0
-157.386060051456 -16.6739018952662 17.6558024346561 0 0
18.565078319187 -6.36507575962494 -6.99723814954795 0 0
-61.5151565179719 15.7452361261876 -4.63884629527544 0 0
159.493563815514 -18.4445062808233 -16.5820538210891 0 0
34.4576748527848 1.42832628967201 -23.9417580680188 0 0
196.786710372381 -29.847825763379 15.1703543494425 0 0
-39.7078820617468 8.70984361895579 -1.0346537330246 0 0
130.973734185419 17.8779191211643 -12.9672703273348 0 0
-136.935053351859 -1.4221041413405 13.4581625847942 0 0
194.554252166522 -31.6860614165074 13.4714703481295 0 0
-25.7761289625161 -4.79766208233969 -17.1871071798904 0 0
-218.944814844954 -39.394112705357 3.80365772568115 0 0
98.2458570107447 -11.3383870407995 -5.28780281663414 0 0
-102.396245400642 -2.36364221054396 5.80514765148765 0 0
-17.6810875492415 6.3307169514557 -0.673970083065137 0 0
-191.685122277944 -8.31115905683182 9.12626981346042 0 0
125.770274183484 -8.37198309853908 -19.5630553555969 0 0
-165.618185926772 -14.0404792628141 15.534304604594 0 0
40.8604831082516 1.21734073676728 -23.9446436709194 0 0
-87.9003120822538 -1.55770993770434 -14.3346578063368 0 0
-73.2395114020867 -1.56296481900112 -16.4439045578634 0 0
-14.6161983846735 0.954164526640433 1.92050133690694 0 0
194.408680657731 -8.37690187489528 2.59793825440818 0 0
-202.845353213736 -3.21090532399155 5.6284888739942 0 0
139.715368422235 -1.15136847172363 5.90462449716146 0 0
187.419816609863 4.70099350506076 9.17037464824363 0 0
-197.184699262135 27.3182230396524 5.72704523589936 0 0
-113.546232861853 -4.14673231606241 -7.18172329111601 0 0
178.099944375775 6.30524052694887 -18.8491315324436 0 0
-188.822682003176 28.7738511853626 13.4497704829321 0 0
101.343556073819 15.0525359198181 -14.3446119219548 0 0
64.6719394874251 -8.3806950219136 -5.86736412190526 0 0
-119.771457293041 8.24958804146902 12.4374662423692 0 0
-209.27320088927 -4.91266812920222 2.21053546668529 0 0
175.777375340173 4.87113973078171 28.2334235682313 0 0
-183.227970229039 11.2117414526379 -9.25522977114067 0 0
-38.8793757892947 -5.07613852971532 -0.00672067145096997 0 0
111.628317310284 2.83120526730366 -22.8335577258148 0 0
-159.198058160164 -12.8758384718942 21.1751386063007 0 0
53.3716567008753 -8.7587086037339 -11.0981345986589 0 0
-183.72087442811 -12.9971083496207 5.132184431203 0 0
129.843188644208 14.7011320271321 8.63676614826291 0 0
-173.240026188568 -12.0201733497963 3.84112054963433 0 0
25.3385042751948 -6.50679742690404 -18.0957955709665 0 0
191.251025952254 20.093500394394 -2.85303485221996 0 0
-165.546748545141 -9.01459218479308 -3.28282331226198 0 0
-168.480108466829 3.98820404773547 -7.96979535146782 0 0
-64.5945676276903 0.117214515612829 5.13309042043346 0 0
69.1780285740507 -8.22841894383154 -4.67003672358878 0 0
-155.910913164336 15.9277872057464 -1.54046005898959 0 0
-167.640481086634 -6.62617283162149 17.5922845177616 0 0
55.4391936711936 -7.59846341610869 -18.1951918272566 0 0
168.961018513564 -34.4004833218316 25.551377450772 0 0
-185.743492636965 1.50658440704386 23.6478557022464 0 0
-213.229429042669 -27.5579810959196 -25.3625988292451 0 0
-160.89769137451 -9.89883745350668 2.63242480215331 0 0
-194.735416545468 -0.812832134720202 10.2486798506649 0 0
-15.0385491925658 13.2294526370536 -18.3079893271788 0 0
-228.851417082996 -29.5406207228716 -12.3628507473934 0 0
-200.05572650199 3.96084025183135 22.3800346078186 0 0
160.475418731896 -11.9828316843185 -20.4776808321594 0 0
166.96345733615 -17.3543871577002 25.5076471186632 0 0
-161.015357987947 14.0139668575907 -3.37636197842492 0 0
163.103090059032 -30.8242106499004 12.5588125005191 0 0
75.1425700626837 5.51053748059054 3.28083134444521 0 0
178.948861640669 8.58858105141687 -18.5670910951081 0 0
120.965773629034 5.34384885706238 6.40909497216373 0 0
-192.678224825534 -15.1141924747722 7.37200919906371 0 0
162.347629931759 -18.0056396285478 -17.7989405762277 0 0
-192.098648230755 5.65138388125201 19.5802046055903 0 0
-206.328780899466 10.145537922478 13.647421414618 0 0
108.4252993391 -4.76094691954734 1.3189847387822 0 0
-13.7183492042838 7.53274580046449 -1.33940927893245 0 0
-190.419365296871 -2.08735683791951 -10.4997263275738 0 0
-148.853176076434 3.77167549164018 18.7128803986778 0 0
-6.60035298318687 12.5338593667587 -19.4439631334302 0 0
-171.294231353223 -10.1913056203282 8.33024070791353 0 0
93.0518913733924 6.43167216772214 4.83640272054935 0 0
-80.0662962521384 -4.3403945341918 -0.866252192877345 0 0
190.711683785816 -33.9014053451143 19.528448360308 0 0
-112.51090471708 -4.91688293048215 1.14763409215026 0 0
-74.5602674121859 9.68247270199452 -18.3905133273039 0 0
-163.528035328373 -6.24321508263366 -7.92527501692162 0 0
103.556223756976 -2.75589784295802 2.01316377121879 0 0
-167.869554585119 16.4698466238127 20.8695049355514 0 0
85.5000330324511 12.4175893696179 -0.37623110861599 0 0
-204.336190746915 2.60168210880375 -1.57125047428738 0 0
-91.2434872926032 6.68628948314681 -17.1478992118948 0 0
-200.314878297625 0.0870142455336047 5.65570123076203 0 0
180.776822514951 -36.1346412111505 7.09641505247298 0 0
-143.934264015514 12.8361280018597 15.5121137575509 0 0
171.083050363554 10.6108741594137 -21.8420386433774 0 0
181.459854483677 22.5552226371759 -19.4954399864637 0 0
33.788852769343 8.52925197442167 -22.8303142261602 0 0
177.632719327528 -2.49252359882199 7.4819540325057 0 0
-198.987891499761 -7.18029962755096 8.97872200013335 0 0
-208.36596418276 -1.33373316243743 -7.23858239130825 0 0
-51.392927962998 8.4654217763675 -20.9906059372862 0 0
-157.23447674257 -8.07440259167543 -3.93759983644272 0 0
-198.843044636443 26.1399151313748 10.3247092834602 0 0
12.6680072842719 13.9890216841483 -9.42361157771663 0 0
-62.1325643711684 12.3208225361774 -0.800565283657786 0 0
77.6441891841108 13.3882513708547 -3.96657476654982 0 0
78.150121634119 12.2941977348043 -19.3284669518484 0 0
173.387577992637 -12.1981649320814 14.6671141250807 0 0
-203.143316552791 6.6427224921496 -0.31431555163311 0 0
190.981248505294 25.2920142599879 9.45284510266609 0 0
-147.365519552783 -4.89877124977838 16.8583424801729 0 0
122.031176303633 -1.11199046789842 4.01508872175121 0 0
42.2904402937028 -7.19965184708057 -6.15726589053452 0 0
149.917114034541 21.7620976163967 3.29357608933849 0 0
-160.454049823004 15.987512158253 -1.73295953439621 0 0
169.661205567545 16.2985088236994 -22.3594496366324 0 0
-203.061712744259 -38.5537922235119 -16.8904951573462 0 0
7.00260031902804 0.549060009351568 -23.3770010221076 0 0
122.47293088914 -5.29676679806015 2.22934605440886 0 0
110.801373404451 8.74213943839165 6.72862681207326 0 0
-99.0494174974614 1.38354805477574 8.26291695204144 0 0
-138.983898951683 -5.58810932870879 6.73153464700159 0 0
-188.06820821677 26.993429123633 17.2389256327931 0 0
61.5905009650878 6.78097792384471 1.74254398512924 0 0
61.0068919675236 -7.78784950363051 -18.3385293550851 0 0
117.855978429558 -1.31569908207182 3.62433804848733 0 0
167.297374262608 9.84470416435212 33.3742418962066 0 0
-149.850582177011 -2.19455928596582 -7.81300544932251 0 0
-225.86325676978 -11.9535012818872 1.52052689021752 0 0
181.029297632155 29.7570244968201 7.8020490364921 0 0
-166.942858676083 -12.0186374102856 13.0181005477225 0 0
188.817148496016 -14.3597033923892 21.7193211327357 0 0
177.63308201145 26.1023539478091 30.5225980601424 0 0
152.966325798539 -0.433742882993368 9.66653793003835 0 0
182.462759812102 -11.3089270478704 12.3897165413335 0 0
-182.345794281239 0.332822934262012 23.6583371590681 0 0
51.3990256345448 2.32811042519777 2.41671511646362 0 0
198.980301037216 -20.4341636882187 -0.285503157850882 0 0
112.793497379301 -12.3243420400384 -3.74122086395727 0 0
153.071717770954 7.9708713538467 -19.4900739007185 0 0
-223.443802820829 -30.8248735645905 7.98470661104363 0 0
-96.5813448655858 8.19535836983977 7.80151007982649 0 0
-168.576099765505 -9.91569097067547 15.000262315654 0 0
-3.28947453535211 -2.36898116134652 -21.624380047929 0 0
-12.5797559177187 10.7467326942567 -3.95187114083372 0 0
-221.940289770247 -38.8067946881401 -10.5820327538801 0 0
-97.0728101577127 8.62472769491361 -15.6831168904019 0 0
78.7128994395806 11.9526690097398 -0.722609625181155 0 0
-193.847310881262 -3.42022558917482 -11.37670163273 0 0
192.071484930253 -21.1030961465436 -11.256799165938 0 0
-139.351713846133 1.09962613106276 15.599127859695 0 0
170.458811013081 -35.4332733032295 21.5721509700451 0 0
77.1221045060555 -1.12978868723557 1.32512499921561 0 0
-141.838936142836 -0.401295565088706 -8.10200950986666 0 0
-156.822928337902 -12.5465026940081 21.1219379214448 0 0
197.790613591578 -14.5308130591084 4.88575812646988 0 0
-172.61371548986 -0.254909244711789 -9.41156079676287 0 0
-110.895481623546 12.7232305668139 -10.3379361387413 0 0
-184.923265193021 11.3934116099473 27.6700988109396 0 0
65.1314057027697 13.9293030523661 -15.8334778177687 0 0
57.5851388398318 0.856634672530201 1.88647870993164 0 0
-183.287558836551 -13.4127148279569 -8.31184840591139 0 0
150.086749714384 -23.7505343935846 -2.42801835407341 0 0
-49.6184188716396 -5.00025776227117 -14.0595261472151 0 0
179.881659430213 -13.7164073633927 -21.1095396508053 0 0
-167.359605133994 19.2698481160336 18.2895002993368 0 0
-200.36921780959 10.3007468466279 -2.58771396437232 0 0
164.988177221482 5.66627437178927 -20.6978945420533 0 0
169.593572854816 4.35880937558549 28.9975279163971 0 0
160.778957820254 27.2133192755749 -3.45221543413521 0 0
30.0867730897734 0.744221206091219 -23.7703142016904 0 0
133.581642576273 2.09891723489078 6.51896229143059 0 0
-68.0201215502903 -2.02441587905063 -16.6867325578605 0 0
180.788133509937 -31.8261176997868 -4.36159075843519 0 0
68.9651888804006 14.4021168453191 -13.8364623445991 0 0
160.011508603982 0.897069221175709 -19.6354198101309 0 0
-60.33295508124 -0.332614364989163 4.68987328600664 0 0
-217.018480727215 -20.649827574432 -24.7882487949065 0 0
72.2288104978068 1.1042157904449 2.09881972525289 0 0
153.850998449535 24.0013393440094 7.99712652683131 0 0
-204.152510418613 -28.9966383132261 12.7722571309172 0 0
140.059649571162 7.95736180502696 -20.4885011898168 0 0
8.47076515033208 3.91354397343029 0.30881394044709 0 0
-37.2953074660468 -3.67571855239293 3.37757396160612 0 0
-42.5031161347996 16.1964489432926 -12.8433799546858 0 0
168.492067859359 26.9249109735278 -17.4046165765573 0 0
-170.430364815412 -9.15114234769563 -5.4955112532109 0 0
169.399537574116 32.650339682464 17.9768954002018 0 0
169.789131544423 -35.3109965702175 23.7036382527633 0 0
-112.947667782119 -5.26385103232958 -1.20307466663016 0 0
161.081002478339 -4.5003229153153 12.656119145738 0 0
155.914446196766 -16.1550677606495 -17.2576824053597 0 0
149.77708550387 -1.57387239331791 -20.3997319992966 0 0
162.514421086697 -36.3582277296487 7.31799481371529 0 0
123.23811727106 16.4595516324891 1.01048758727784 0 0
-45.935604194617 -2.50175849371317 3.85075896238974 0 0
-208.55914287749 -1.93083140662335 -4.12818180589092 0 0
189.518238870459 -12.6517911226979 17.4131288494364 0 0
-184.200864336787 27.1494595732119 17.5001232812474 0 0
-155.841248439031 -7.61260425926305 -4.80938224324401 0 0
147.911287286154 5.72758997350632 11.5590876370832 0 0
-97.1445914801363 11.1332207699066 6.7906225327074 0 0
-127.393752789197 18.1850650738821 1.55217312566482 0 0
-67.3298115543036 12.6886648763974 -0.22970059947563 0 0
-200.16468146581 -4.85889853032394 -12.4506552477583 0 0
76.4374009605308 10.7725915318417 -21.12593807782 0 0
-161.524530747049 -16.9441256198644 15.6292247306079 0 0
-32.0853838973427 10.2522491577801 -2.57288093668239 0 0
-105.729501563693 12.8907481933297 7.41647835556651 0 0
-184.291004420578 4.7848274883205 -10.4359840343 0 0
162.566611362673 14.2324154256417 33.1514318223999 0 0
172.409998643958 -0.371339789376318 -23.0253023277303 0 0
-194.734840735614 -9.4346715210706 -13.1529663957071 0 0
189.22710897523 16.614804228586 -8.236934434068 0 0
-33.0486378494016 14.1725145144999 -17.0303388011334 0 0
-29.3807417292086 -5.58197363898528 -10.9508837867199 0 0
-202.596597977498 -11.9952511327392 -20.2792846467746 0 0
-168.968200500862 13.5887864169648 22.8120014438956 0 0
-125.072300392231 8.67824421877769 13.8862085897797 0 0
25.2599854427282 1.71754803219353 -23.9382135320301 0 0
-171.332607207436 1.83931708342045 24.6735468260937 0 0
-116.265176228407 -5.23427434775401 0.347186115112109 0 0
-167.984287832857 21.2255702330909 1.9769584734439 0 0
150.335809176143 -15.8278843718684 -15.8665381393247 0 0
-197.295658632858 26.6631097810268 11.1687229593632 0 0
-161.834529923235 -9.20940154653654 -2.35343692413931 0 0
131.819321460784 18.3017785163605 -3.40085132181483 0 0
165.586386547519 -29.6079288692439 25.0222786477738 0 0
-17.7995606443574 -0.408336853750566 3.05994407096755 0 0
108.432293899404 5.22968937604033 5.25950337397371 0 0
56.04994170778 12.0869702905255 -3.944580315035 0 0
-151.025602272904 3.62858383636935 19.1903837303751 0 0
-125.479524012683 -5.7291885263938 1.66064774071937 0 0
146.976084384646 -2.10220417722082 6.87903634412178 0 0
-206.551206245888 19.6822721669776 14.5484900414048 0 0
-29.0549009274941 11.5975750686224 -19.9359598679961 0 0
33.9474161434736 -7.76691862130436 -14.1259657733867 0 0
-179.895967579568 14.7970931668234 26.6470048736962 0 0
190.315277143215 28.135877995234 18.9497236176447 0 0
-159.645915053583 14.3338127830058 18.8033131140623 0 0
-214.88375961591 -21.6842101880028 -25.4706151682478 0 0
192.132014533582 -32.9540321490332 13.9871537160905 0 0
-39.6054380195074 16.3038802637929 -12.0562515775248 0 0
154.653355754602 23.6790655483927 -7.10927656886774 0 0
197.688690826769 -16.9495014893895 10.4376631064589 0 0
21.0271167843617 13.5648055636163 -8.63374977249901 0 0
57.7836464464924 -5.81053324733565 -1.63736856168076 0 0
158.081412246479 23.3868876418567 24.1035910830134 0 0
-160.759168813257 -7.50160998768462 21.4905534713857 0 0
-85.165355049842 9.85683488290697 -16.9715991447473 0 0
184.323909439924 -20.1185500499922 -14.8666425150016 0 0
-218.44715145825 -18.2799259310626 -23.765601288853 0 0
-87.666383442641 16.0872945073666 -9.00833840140997 0 0
193.839524005046 -31.6711987360603 18.0512237180836 0 0
-58.8742783445695 10.5885205106675 -19.3525725896667 0 0
-189.452458745459 -0.248176978882823 -10.1919060675279 0 0
12.2556114617778 -5.90396179034351 -4.28043395008522 0 0
-178.876053209235 -2.79145902557103 14.513468055995 0 0
-172.776800460329 15.6078853476172 -2.94900352202516 0 0
178.953868145374 18.0249916970146 36.0952794668877 0 0
-77.2849876376431 -4.95892877013621 -9.47241192171628 0 0
196.116437412083 -27.1431661317021 -2.47838548203979 0 0
-204.879184183628 -40.0462702471694 -15.7817274222324 0 0
-177.920148751942 22.1098387601275 22.0403862657664 0 0
10.6060925281247 -6.0267311683609 -6.31931884834647 0 0
-186.186606839603 -18.8123032550313 -3.295057572752 0 0
-150.335554543282 9.6325715341516 20.0475790584244 0 0
47.5940998616166 8.1569956431853 -0.140257880470897 0 0
-166.371457753182 16.9102470927008 -1.39970271380286 0 0
-33.1678158536823 -4.19843922770438 -17.5682800926879 0 0
142.587569318386 18.7892372036953 9.05741553247946 0 0
-172.79671731196 -8.16511042600915 -7.51733606892922 0 0
-181.442528596912 -6.43123997757074 10.6663174372945 0 0
186.002611203556 -33.1005144363008 3.70932772022325 0 0
72.5629783448927 13.1740774506057 -17.8221318412701 0 0
111.792360504226 -2.87327761846835 -21.6372463641014 0 0
-2.87986481281524 3.60874768876953 -23.7709157808166 0 0
29.7580640259057 -5.45023254860431 -0.105739832565663 0 0
140.519386392876 10.6520675060766 -20.1601684714876 0 0
-184.877534849969 -4.23474154651173 11.4671504506052 0 0
142.093212102255 17.8155331731802 -16.3733660284772 0 0
-228.578369675937 -16.2411438885517 -12.1206849268615 0 0
-197.69536644766 -38.9065144752141 -6.63121618542315 0 0
-208.017468007535 -19.0686472781412 13.9713783771712 0 0
-117.859535191392 17.9619159109073 2.25247901211116 0 0
-173.457523423938 -7.81555936516586 11.4766501042107 0 0
-157.493888565881 -7.64318948330623 -5.56835366819528 0 0
-15.1282233697303 -5.59274849208215 -5.3422411433589 0 0
-111.851150840522 -4.64324485337588 -6.4039741866672 0 0
152.052878180915 22.4260037382077 14.3476679879848 0 0
195.545404265102 -10.4971071086588 -3.290456799215 0 0
-183.024970371723 3.50268820604136 26.4552869178826 0 0
-176.456004713799 17.180735580766 -2.55437937772589 0 0
151.699408780657 10.3874274698537 17.0205208993128 0 0
170.402500647998 -38.4858290493378 6.65247605189158 0 0
168.582589961028 -15.2153593570681 24.8520286773846 0 0
-48.2385359928679 -4.75027350631557 -0.987427196202012 0 0
161.764081693924 27.6959635026231 -1.15892186917262 0 0
179.70701853441 -15.3002350775398 21.285749623583 0 0
-204.947346102246 14.582389548364 -1.65977866509928 0 0
-10.8251066473606 9.60462967702573 -21.8352150427826 0 0
6.57093681142929 -4.96256321487207 1.79791274649252 0 0
180.277202268075 -21.8309341535381 -14.6830641681017 0 0
149.276713747292 -12.8842869326421 4.70316241531179 0 0
176.123775221752 25.6396694450698 29.0329000713698 0 0
146.996044064126 21.0013611931056 -5.11929806163652 0 0
-107.790710360155 -1.19535307063048 -11.7373157851909 0 0
158.417548675585 -20.4502797351671 -14.6670147252801 0 0
154.357445279714 23.7653152689057 -5.08067773900895 0 0
-104.619530352896 0.255624698925489 -13.6096472839489 0 0
-122.645454648956 -4.18330981419681 -5.92884643471352 0 0
89.6766443902365 1.00890826743422 -23.1517250497165 0 0
-184.993003126433 13.9805880882608 -6.16421321587367 0 0
-178.664770217389 28.2230196824208 15.3677987399109 0 0
-10.6064407836184 -6.01018893699045 -1.03530341459447 0 0
180.488204608556 -2.84625236811153 7.28383416046585 0 0
-75.3281718780912 0.15112694637092 -17.8161927320492 0 0
-167.581343392645 14.6894094888799 21.6833116516234 0 0
178.937961840171 -33.6440632075639 29.124492981315 0 0
187.062044809307 29.91364651256 11.4433273168112 0 0
48.6891425116611 -0.761195292885997 -23.335018948639 0 0
-224.05975398248 -8.09058706386811 -7.10464577133926 0 0
178.981986968286 29.0416698554461 -11.0094424265853 0 0
-175.838640922773 11.1408404451891 -6.16642906507058 0 0
-13.1876863233598 14.2106870108639 -16.7421998501243 0 0
113.660804086622 -3.7978929322871 -21.3658447540435 0 0
141.417517284305 19.1502812578897 4.64305487015266 0 0
-200.293968141589 12.9663233179976 -2.32880011400571 0 0
-203.99891632238 9.7145152956273 9.53414472780462 0 0
155.282726493396 -25.1348575280582 6.2379464942038 0 0
179.052714927359 -36.7759110348724 17.3562195890486 0 0
-196.040295975546 10.0622171768944 -10.0195362123037 0 0
12.8775800987021 -6.48113822699053 -9.43496877012822 0 0
136.599600853451 -17.8750641814386 -1.18451962286941 0 0
-86.4135100030508 8.44954846780591 6.00021185718514 0 0
-141.959869297092 -5.90018069062904 10.3236114423218 0 0
190.148128890863 -6.20640323991291 -15.466390584153 0 0
184.272852225281 -14.5771087219008 25.0907612679846 0 0
-214.614957647888 -13.7009148242397 -23.224980966277 0 0
-197.412275153899 19.3045055169015 24.5804646389769 0 0
135.504797386608 16.2153136189424 9.11860403273868 0 0
-162.275054788288 -4.07133421348313 21.5647521121997 0 0
109.717682150425 14.6686121821552 -16.3213079585573 0 0
170.399117791451 25.916422049445 28.7623975732657 0 0
-50.9282055984726 -4.08782466130059 1.77831275485356 0 0
179.474817630873 -12.5352808610855 13.7441892669375 0 0
-193.568879204515 6.78653045411515 -10.9342370359458 0 0
-85.6753340827241 15.0495491634057 -11.3481755852487 0 0
-187.929073792371 30.0987422536364 9.9420163316243 0 0
-160.802849273768 1.92552161068726 21.7406706843325 0 0
189.766365727325 10.6951724823335 8.59071870948367 0 0
131.635033006745 7.09296353749177 8.50556822132541 0 0
-183.107169676046 20.645238323925 23.7957136575627 0 0
179.161340779415 4.22324565159072 22.9679640303646 0 0
-116.44722388743 -0.578123899943148 9.14080002683716 0 0
149.776376830144 6.1738223221839 11.9437938074144 0 0
-1.37834347763001 13.9401870761472 -8.95615698550519 0 0
51.9022052237858 -5.73178044220523 -1.22844905137083 0 0
22.2311938879717 -5.72756962653524 -0.962434321002274 0 0
159.798919378593 -12.677510911216 9.87767440802868 0 0
-147.774082396881 -7.34463149602589 -0.113061294630298 0 0
170.897508903066 -32.7967986494988 -5.86203894584907 0 0
161.51678519132 -17.3317814297908 16.965722159318 0 0
-109.734612316776 9.22849044422946 -13.1965137237983 0 0
-88.6775480967491 10.5909097649023 5.34682896564595 0 0
171.792721589698 4.18772888743228 25.8370805032203 0 0
178.478694730092 -15.0784990520843 -20.3741192840658 0 0
147.638679953057 -7.97096665951122 -19.7270165993845 0 0
109.227640572095 -12.1376516005679 -15.1636322105857 0 0
-173.938662195383 22.0992445586768 0.271225232658935 0 0
-175.364374749429 -5.8368210541866 13.368476759392 0 0
-222.621322097336 -26.3048589578485 -21.7800660560853 0 0
-201.196133873553 24.7583117299908 11.7213298136814 0 0
-136.505509010671 15.664356066196 10.9725427019997 0 0
-145.258557967767 -7.09688449955519 2.59334193420332 0 0
155.998835078365 -2.47658763522956 9.29384046608875 0 0
-7.32472384046431 10.2247467693541 -3.51378363703632 0 0
162.438876161868 -7.85269454563825 -20.7418176747016 0 0
182.491318323731 -8.48933605697401 9.55627095444636 0 0
-186.197552249387 21.283920646236 22.8909402275262 0 0
122.71448282691 13.5750887773015 7.61784241252932 0 0
169.559923646639 -28.0057185625273 -10.8332746064273 0 0
-202.697864716014 -1.85328295591145 5.52071446427632 0 0
90.5415964192265 -2.1585028850783 1.4975358333754 0 0
-163.792039220339 -9.19212264371696 -2.40649914847234 0 0
171.511111101136 -34.0186278361767 27.563159786009 0 0
182.738008723648 22.0404488962384 -18.5644914055523 0 0
183.973373519527 -5.15839890373579 -21.9540187640069 0 0
146.520319654966 -10.3881460109355 5.93745450690697 0 0
65.2613478868019 13.943400904753 -7.89544711025341 0 0
-219.109998884212 -32.3440106304989 10.2575302097006 0 0
-39.3768960013969 3.2394936528116 1.91016606071301 0 0
-193.410593509512 -25.9462668138089 -3.18479421601352 0 0
114.853713765664 6.5884344337715 -22.5283822743897 0 0
-229.871602038472 -18.0016932388774 -9.5369704389681 0 0
126.312216353377 7.5330129205342 -21.743901141567 0 0
-22.3461110238344 4.90898181238828 -23.123346098169 0 0
-113.416430387107 17.1611147059685 3.98647826307138 0 0
195.862306497647 -10.987006693208 3.91678889180248 0 0
-188.854052367274 15.393981169398 26.7404909057203 0 0
94.5161372587572 -2.15321744641024 1.72594979150076 0 0
-128.569182598775 -2.36350806737811 9.74539190032149 0 0
95.5983105220823 10.6687009663656 -21.2435088271771 0 0
-123.317002879134 9.49101975444443 -10.4169033224595 0 0
-181.304107743756 25.291973344019 19.6284828412885 0 0
110.124103529589 -1.89372965890733 2.8367890248767 0 0
-13.9079260296188 -3.93616242847959 -19.7084086118426 0 0
187.664570110522 -32.3942812561972 4.31882785621374 0 0
155.387641332654 13.0742416772621 -18.8048569229241 0 0
23.880415177896 -6.04827280071785 -3.07841340630247 0 0
41.1038320484252 3.38196687671723 1.6639892383986 0 0
-202.723715557124 -16.963489099547 11.6341976204161 0 0
60.9501482867975 -8.29550784506036 -6.50937869193045 0 0
173.452215595492 13.6944179898688 -21.5731549378982 0 0
144.715728899874 19.948794204848 -11.7410944121799 0 0
8.18733519105083 -3.35669039415511 2.72076185258425 0 0
-219.192443117439 -39.1998223983417 -13.7551241193703 0 0
183.015197002428 -14.3492996017576 18.5863704010774 0 0
-165.494436434768 -13.2519169267995 11.0184061330699 0 0
-117.799818157928 6.46557849071018 -12.6327240250818 0 0
-175.069799764251 -3.39074089956893 16.3728779738972 0 0
195.439629363711 -14.0856334380537 11.9592233314653 0 0
40.1831573504436 13.3579121583746 -17.765502710301 0 0
91.9343363032186 14.7091348097248 -5.48164578155152 0 0
-222.090534939425 -6.67741657095313 -6.31966326786924 0 0
-100.227691880295 4.63841695794129 -15.7998237391151 0 0
-195.237373295459 27.100930225371 4.95372373464822 0 0
14.8218243296273 -5.41880153350878 0.115251717448925 0 0
16.9610329543447 13.2872593437974 -18.0656493184824 0 0
-230.328245804359 -24.5818096879153 -0.824570747257985 0 0
-171.532193744258 2.32397513926475 -9.70183177053042 0 0
-175.052338676665 26.8410099198539 12.9928543370776 0 0
75.0219046598285 -1.36791879033321 1.18611445857906 0 0
-23.0746655082522 11.5223000674977 -20.1096266275539 0 0
97.1935928288558 15.3305923920684 -7.01869886234103 0 0
-89.4742785383693 1.43248002046902 6.8837796675341 0 0
-29.1862294314928 13.9772609722106 -6.01308525813036 0 0
-100.238350709748 14.4522273018221 -10.1395958491964 0 0
-90.0450111818671 8.13532982260736 6.95849301084312 0 0
125.661731419459 10.780851233906 -20.9816648073307 0 0
-93.6374787176839 7.85137508509239 7.35956390049244 0 0
68.4489907637869 13.9516503616115 -7.47880002550285 0 0
36.7439288746264 5.30591432758826 0.566068134474631 0 0
176.171586982478 -35.8886586319634 22.9020382297679 0 0
177.649348493565 -37.1260839966692 16.4553670930018 0 0
176.649461456035 26.4814959668346 -20.2651743478514 0 0
-49.225867732414 -4.45738088625269 0.905616828941764 0 0
128.479663441423 -8.21188323590018 -19.6524126646891 0 0
172.011633576058 -0.258414312765608 14.7718939673007 0 0
-114.702757371214 17.9368470127462 1.71988888266608 0 0
-141.487789339518 7.76467211965531 19.0583141957307 0 0
60.2401410016597 13.6901617423066 -7.59939146192466 0 0
-191.164867942958 1.08228275268972 11.6334454773581 0 0
169.547477103171 -35.7882473010712 17.9103905959466 0 0
-78.1277380344875 12.3583922696067 -15.9930126585232 0 0
-207.617571341495 -42.8525453291366 -10.2948115638217 0 0
167.31435027919 -12.8394358342494 15.7490433164717 0 0
163.5013604251 29.7602246351593 7.39069426387201 0 0
-183.65674573942 1.79766911677106 25.0368148440262 0 0
-223.217515462718 -35.4466234390977 4.70591220782655 0 0
54.5365150752106 12.4261803899801 -4.82461436426761 0 0
-196.316195417863 -36.9537497776839 -10.2282038531007 0 0
38.5340057007821 -7.71712433855095 -16.1924895277333 0 0
-11.3004150824139 7.67812476021792 -1.46445616479127 0 0
-194.611920119706 8.23683387792012 27.4002221802682 0 0
-202.410219096275 13.9525306803107 24.5053526801904 0 0
112.310567482458 4.00042748011493 5.13932520936902 0 0
138.549445966463 -4.90999701050055 -20.65360212203 0 0
-151.457240624388 18.6285838051669 2.21580940469137 0 0
-64.3670315844451 -4.33819764156152 -0.18829345556048 0 0
-47.3801362829835 -0.696302264430773 4.38860182089557 0 0
-223.196248255141 -8.72274970895214 -11.6795927228293 0 0
91.7604123638244 -11.7784044651533 -10.1011785068243 0 0
-168.319088538407 1.39635043197827 23.6950824530002 0 0
189.683726005584 18.2769463843628 23.4614211061216 0 0
-148.064965591637 -6.73768463159715 -1.72499297298225 0 0
-66.3154412577642 -3.17557296889411 2.69140664175444 0 0
157.071183639312 25.305051734212 4.69424775347572 0 0
-58.3222522073653 -5.13691202689068 -10.9467391315239 0 0
191.785220329576 18.3763697904083 4.78311072192364 0 0
-158.917481202144 2.70710403561559 21.2943988590188 0 0
173.538526378397 30.0716208193408 21.2768764862518 0 0
186.62044815174 -6.23930435905874 -20.5583564639999 0 0
183.963186197501 -28.1967205784013 -7.62661041092498 0 0
179.335256793998 29.0631297444153 -5.62565099303418 0 0
-147.844241713379 14.7013313477572 -2.89795879511196 0 0
-110.982123386574 9.0921642727106 10.0210030875823 0 0
-191.008964033243 -19.780091484003 -11.1709074049198 0 0
-123.567959708078 9.85433204671598 12.6715638577662 0 0
160.916436237085 4.82562096239972 24.5262279310643 0 0
-226.04728863046 -16.367434759632 -16.9625137609547 0 0
-177.999843860259 -6.16189310730989 -9.5984873514179 0 0
-177.400314503149 26.6415111895624 17.4470418428182 0 0
105.303658262504 15.6821623038702 -12.4028437484516 0 0
110.806214275079 -6.1101823766152 0.706220461280399 0 0
-229.696912313698 -16.5420752049504 -6.51391152522787 0 0
-211.074104106385 -40.1683495629289 -16.5698247369057 0 0
-205.524900755931 -43.0377578269352 -9.72532773672925 0 0
39.4225575329475 -5.89819171576866 -1.523817931936 0 0
155.552991075287 25.8777519370299 11.3324955761502 0 0
-182.723265323683 -16.6311438263886 -1.17494317079391 0 0
171.411613929451 -13.1084133031298 16.0276962092574 0 0
-148.384237201747 13.0647609329534 16.3623595824131 0 0
-155.860538343396 -8.14091108312228 0.655801621966044 0 0
-185.18701547874 14.3076768180308 26.8295013431114 0 0
188.351791634561 29.377116087988 22.1690709665614 0 0
144.029950025128 19.5803491913172 7.72016162157798 0 0
161.226380819861 13.3536813646019 -20.2313035603841 0 0
-1.16531812946219 -5.88241267491627 -7.62596484018851 0 0
-16.5092967148673 4.34717888355326 0.133419407880333 0 0
28.5541624577504 -1.8607531148295 -22.7382096831832 0 0
130.646896541074 16.1124813357527 -16.9359062648775 0 0
170.75009623535 25.9159788862059 -21.3627398911711 0 0
-204.071430327669 -9.09637961879505 -17.9131071840892 0 0
-134.057665249517 13.020561313966 12.9316868830216 0 0
-136.373916223405 8.4748975905331 -8.45560118448364 0 0
163.937807783826 -32.8924346107457 13.3010539750428 0 0
77.0842441925709 8.25860585935621 -22.9094914993692 0 0
-22.0459840678419 0.972181549708068 2.17317357981555 0 0
157.440942121835 25.3520017892343 -1.00832248330273 0 0
141.170562006911 -3.77068776642998 -20.6880143047796 0 0
-175.727647263553 28.0913229535727 3.44896855091677 0 0
175.005681382867 -36.9522521477812 1.37358510115188 0 0
-5.6645273064236 -5.72213628611023 -5.01271999708702 0 0
150.698101381886 9.84972690853663 16.002739529291 0 0
172.542321901398 -12.5101405736345 -21.4736309647468 0 0
17.5866246937287 -7.0879777636727 -13.4963347156842 0 0
-27.3590821358632 -5.37762537634942 -3.7425652694942 0 0
-203.443832009318 -32.0687721660882 -22.5387851411088 0 0
-216.928183004568 -4.61202886517301 -5.91663088781839 0 0
-91.2780931721622 16.0723915670393 -8.48738279648227 0 0
-215.688626990168 -39.3653573755183 -10.1731497185752 0 0
-157.121539937676 -4.50373265252303 -9.20173757984282 0 0
-183.267908688627 23.2500547031441 -2.06885312502468 0 0
9.70154103289946 9.59379777341598 -22.0964470378002 0 0
-76.6110821339042 -1.14179883679427 -16.4592492360238 0 0
111.261622528491 -11.7451901728293 -16.0221663362807 0 0
162.103996012806 3.06326250789069 -20.0409149482881 0 0
28.5366356371092 -6.47624455832451 -5.56724142195926 0 0
-18.538468406696 7.54249593690901 -22.6612671561399 0 0
-167.639315231152 -6.82930450162771 -7.65436677659838 0 0
-32.926117250282 15.9336026216683 -8.88901199624871 0 0
171.525670220515 -29.608413136099 -9.52849992267557 0 0
-211.926919857929 -26.7339031335713 14.229784470112 0 0
157.623394786639 6.46337399415254 18.4110121619686 0 0
170.56090054346 -35.5873052642191 22.9600708823569 0 0
160.940414510883 -21.0980451063527 16.9581450746892 0 0
-203.438524348551 3.57011759655279 3.96050932390218 0 0
-185.795047419802 -15.0723126251582 -8.93853951919277 0 0
161.640338000272 -19.399887526948 19.43843110242 0 0
-136.644461260611 -6.63188613916533 0.95479003808586 0 0
-89.5564211914263 6.72199386752517 7.17152442107634 0 0
-201.527105122698 -7.78184024470539 8.45088491071882 0 0
-48.9213702504881 -2.34447653614407 3.84761260530736 0 0
59.5547112149643 13.1449399378707 -6.03472990565114 0 0
-209.525463306521 -16.5792624282298 -24.9206975556327 0 0
191.922178600528 -32.5743748213144 11.3024997781269 0 0
109.08823713695 10.8808333755188 6.68008379462912 0 0
-88.0398070677105 10.9879131369017 -15.8522401204556 0 0
-204.659546873008 -36.6165996803322 8.66088376657475 0 0
-205.356267080599 9.10067372699074 14.9764675085223 0 0
-205.888100582645 -5.83679670548777 4.82065200014342 0 0
195.790674426269 -30.8863000620346 14.0721476177713 0 0
-214.130982946708 -12.7087221419794 10.5094301413199 0 0
105.556426113833 13.026403589073 3.02727444969898 0 0
96.8683534852051 15.4920529737196 -9.92191488250561 0 0
-204.855627843579 -5.83509932466719 -15.2522276393094 0 0
2.6413981038222 14.9951555169843 -13.1681722273304 0 0
-194.436605742431 -25.5022472595743 -16.3651614452163 0 0
-196.138703699086 23.1638756168821 20.3986341962545 0 0
136.024592313113 18.6529842746225 -11.7853290882282 0 0
33.0672948980398 1.50412757135235 2.27165063418822 0 0
-218.777546282394 -25.7028899523073 12.563567369766 0 0
162.726184948294 20.3141437406356 -20.3623595276686 0 0
-16.9384843962317 8.81605528060908 -22.1624588283136 0 0
17.2571741126715 -3.07051649082947 2.41498387386727 0 0
164.931724901603 14.5298556912054 -21.2562678696891 0 0
148.583141022828 6.55929729164114 12.4836545517249 0 0
-38.2801889703747 16.2906107982862 -9.93791828574902 0 0
159.693047414959 -2.65229273754031 12.2242457733326 0 0
168.589753243795 -15.542901972668 -20.9823243154989 0 0
-199.573990003662 -39.5066461449053 -0.0263149898103589 0 0
-109.652315939559 0.346040947156528 9.14636087978467 0 0
-70.2013693903765 4.63279938576741 5.25619562081349 0 0
-200.629956468006 -32.5866582314456 -20.8113475660343 0 0
-61.8129326079447 2.67622556166304 4.57638462549411 0 0
-90.7202745283645 15.7690133245797 1.52124653088438 0 0
-195.07517337823 -25.9008621845239 3.37769594810292 0 0
-194.92495686268 -32.1052499148222 -0.577109066896324 0 0
-103.847079975678 -2.83052361110012 -10.3669404283789 0 0
154.741160155926 -25.896315771384 4.87577523155274 0 0
-49.333645137875 -2.55901239509225 -18.2166549775178 0 0
-162.558191051641 -11.4138812583485 5.73870778556098 0 0
-193.060244329186 9.07978716115087 27.7261229005417 0 0
187.595997057924 -32.5683952054634 26.3852685324475 0 0
139.714251316895 11.7073359898999 12.2849003229887 0 0
182.82653430358 -35.2163618458516 24.0117494904668 0 0
181.733599206577 -35.87998456343 9.37550793122051 0 0
-169.33455830291 22.5178717834973 15.4038563237623 0 0
160.253290438632 24.0961746096016 -16.5653647946676 0 0
-109.348012617208 5.75261463930397 11.4311854306861 0 0
-31.4123974957866 7.33268431311797 -22.336481824468 0 0
-45.88478339418 16.1776713756316 -7.81899600354586 0 0
158.395534854955 -14.4326495599621 9.15001603263769 0 0
170.604602825584 -31.2212426227637 -7.95153697987554 0 0
-183.033696105664 12.3999818063288 -7.39885018170446 0 0
95.388721393924 -5.46980802883376 -0.0892089787151589 0 0
157.366242444393 5.73572702125428 16.48378028315 0 0
-100.27093215597 11.9387670218696 6.9347976971844 0 0
179.238604974804 -8.24156275419772 -25.3955434629597 0 0
-92.5344953347345 -5.1006819209277 -7.04119824035696 0 0
116.457668065307 9.67148705379048 7.42468665297138 0 0
164.927946747061 -16.9327686093149 -19.376945935213 0 0
-183.016112813126 -6.92635282336429 -10.1244262954512 0 0
115.142365114786 16.4035821414217 -12.3083891111784 0 0
137.277136025338 16.8697611780485 -16.8716393624164 0 0
-86.6194485076327 17.0444584335462 -5.65423128546787 0 0
1.16317417248904 13.6045027280579 -18.00200437208 0 0
-195.213233863863 24.1978843936128 18.7515602925655 0 0
58.5215903670314 -6.80650346536507 -19.4418891342583 0 0
112.751561347612 9.04435132647222 6.95734989689026 0 0
-87.7558706574498 -2.90550944830754 -12.5359618677721 0 0
-193.100223771779 18.9641365705078 -4.19886573574059 0 0
-202.797484914034 -42.1532767844061 -7.15563350807704 0 0
-213.36528173721 -11.8826900639897 -22.2243963955235 0 0
-153.305299876491 -14.4901680485686 18.3293306105351 0 0
-53.1045451477326 8.6068379938684 0.241583173979306 0 0
148.136911518515 19.824447586961 12.8037501958791 0 0
-131.07901085641 9.87991380453802 -8.66791490753464 0 0
31.2573707707969 5.21870721298403 0.379195726815076 0 0
143.346018385319 7.58800816481929 11.3554347519389 0 0
-174.793443080166 -4.43946927473098 -9.19421260575339 0 0
180.412069380103 -14.901873978876 25.8277328474374 0 0
13.0015318339642 -6.8850842636515 -12.6208656605295 0 0
-145.025732288262 12.5012472046359 -5.03077842044931 0 0
-170.598573395666 12.9381360186829 23.7885066484437 0 0
-189.320296043658 2.39571737962423 21.4298345632922 0 0
165.151694434862 29.0115422885189 1.07776767891301 0 0
165.752062574809 7.3952562072912 -21.5344384729226 0 0
169.954394875765 1.72531321133639 17.6634652600012 0 0
185.054919077607 26.1393729098639 30.3108789462381 0 0
-209.118775069612 14.2540539045694 12.3650496562862 0 0
-140.741046648613 10.020363430962 17.8496612621427 0 0
177.762862168219 -28.8422192103647 -9.44381510450801 0 0
-28.5656979972725 -3.13621698987019 3.64801968033532 0 0
-41.5110406956348 11.7772556619214 -19.4510191185912 0 0
179.574294502196 -31.0918603120339 -5.91370049336481 0 0
-196.07496454317 -34.0415282668834 -14.4054838131137 0 0
196.72396410164 -30.4788189146271 13.1127636126264 0 0
-86.7509648573068 -4.87897737929169 -8.79416183535807 0 0
76.4589259262921 7.08693473060472 3.10621103068338 0 0
189.98038770745 11.1803468001122 4.39885531136851 0 0
-198.326882571841 8.92293771212783 28.0468551201918 0 0
164.500916551862 27.0287085618505 -11.3209746432696 0 0
188.221241866967 13.6399710401663 -8.80366885435278 0 0
191.693769071292 -32.8708690766275 12.7469095959671 0 0
48.508075851355 14.3180718929339 -14.3543320001635 0 0
162.539629097066 -4.18568871316798 -21.0901892793969 0 0
-129.180771129151 9.45765565025507 14.886447022078 0 0
-108.883039791845 12.7440394081153 -10.6725817665781 0 0
191.603557682612 -5.50856307892989 -9.40040552979654 0 0
125.921935822532 -0.169188645097733 4.69257774542946 0 0
128.965192990367 13.0451988781149 -19.7372570182493 0 0
-134.294328739984 -4.1389269850952 8.52966264334583 0 0
-63.3117614551298 -4.89245335501308 -4.33616981481509 0 0
144.252502912375 17.8374207667845 12.2316428342197 0 0
-33.2950047803423 -4.84822793823698 2.43931201510045 0 0
10.3119487895586 -1.8683475235393 -22.4201481235287 0 0
147.184075358794 20.605195167808 -11.0663535196351 0 0
-76.3576229385555 10.8185361434785 2.61681315033608 0 0
-189.892525683367 -1.62131323454909 11.3139348428647 0 0
176.855946271086 26.0211827142947 26.0930932342955 0 0
197.635957022838 -16.8906230386751 -4.33443492532194 0 0
191.910981853211 -8.28880791238551 -14.3649253216404 0 0
160.504516257569 27.3053038053743 20.5544282755622 0 0
-63.8489154748219 16.5081075741197 -7.76548940261358 0 0
90.1912436758971 -11.6221436778704 -12.2159472510636 0 0
148.647372558329 -1.78175525590639 7.44112087140439 0 0
-45.3144119778939 -5.24756011254388 -12.8937641693228 0 0
178.419532310352 -35.2476370525127 -0.483080615419731 0 0
147.884775052993 21.1432469127331 7.13159981971854 0 0
171.598539271513 -7.55679358871812 12.8160408651597 0 0
155.415715546921 19.6857431938387 23.5102408707174 0 0
-147.642258817586 -6.03747751655863 -3.39847827392606 0 0
183.676727021043 -30.302664308536 -4.65402358592482 0 0
46.2959743160843 9.71984780405598 -1.49402243665023 0 0
-214.432621557538 -40.8059119823729 -3.09373578313247 0 0
167.555543467325 -34.2012377488077 17.2527998983215 0 0
-204.580810819044 2.96467510933681 0.427778303899858 0 0
-173.495029827155 25.319802872265 1.67725126749689 0 0
-203.91476574211 -24.2272221603658 -25.0824932035756 0 0
1.63595988561632 -3.1580403612125 3.0147557991313 0 0
-14.4423564259578 3.03753427924745 0.695452417382588 0 0
19.1577891061425 12.2090591887321 -19.569385746025 0 0
197.965843273383 -29.2615225187275 10.0696115386187 0 0
