"x" "y" "z" "f" "a"
163.879567828989 -22.9365899423478 -10.53116110977 0 0
-96.4636082455763 -0.677519251235393 3.5013039240284 0 0
157.712091761426 -15.9407871977737 -6.71555761770067 0 0
-152.678293609898 -4.77913274831756 2.35696293532079 0 0
-207.969245053989 9.77025933062881 -29.6682951799523 0 0
103.684211696792 8.61886236411511 24.2776663411135 0 0
178.977607313009 20.5562662335724 18.0267674819777 0 0
51.8079009522194 24.0998160318127 17.1943250963689 0 0
-144.573108269142 19.471110143284 -26.924925783733 0 0
202.607630711876 33.9527813925099 -20.0398442173895 0 0
-189.337022088963 -54.3460322004271 18.8558955725984 0 0
-158.884251934144 11.1195585618602 -31.5801612545196 0 0
36.6769977568371 25.8012694058035 16.1546533943912 0 0
39.576273341957 6.39080626766397 24.4026147917017 0 0
33.407198147719 25.4229522698014 17.7707870535196 0 0
-123.68622238913 8.19792185138533 -19.0417273281872 0 0
197.311809005354 34.618956969534 -12.7970116116946 0 0
-177.79615050115 4.91788171001885 -29.2217011066222 0 0
41.6491780708949 22.9457165612524 7.50896098597174 0 0
-102.013317489182 15.7984277754201 -16.3865046769425 0 0
-170.3498712052 31.1079888050877 -0.689783508775915 0 0
60.0105958096213 -6.12728099906787 15.2535347005848 0 0
47.0820401717812 6.40689828255859 24.7936395149472 0 0
184.647810880635 23.9134050562165 14.6683617579135 0 0
-160.25070594506 9.31771034389622 -31.820258435667 0 0
-197.699447537402 -26.9460389888514 -18.9975079894326 0 0
-182.609686195851 -21.064052905967 28.1141556489929 0 0
-205.959086213859 -41.2207934521466 -14.3506200878788 0 0
200.237498800148 -35.8072781963201 5.27494532127051 0 0
-158.441771195734 18.9929396341614 2.24591644075736 0 0
-215.75980902301 -25.8069508764031 -5.28060637696468 0 0
-215.656217464912 -31.0507470610193 18.8428112251614 0 0
214.930572063732 -29.8828823798868 -5.33031691316595 0 0
-212.928819428726 -35.8763003209792 -9.9786072168557 0 0
168.223356931013 18.118358817849 -19.0716664787918 0 0
-4.0828761231929 18.987618885392 1.278107706529 0 0
-118.030541247476 16.8107749622633 8.28105676559133 0 0
13.3784973386857 -1.98519454381405 11.5292443024766 0 0
81.537655212648 -1.347486061323 24.2289100790471 0 0
-94.7516145326866 13.768728063336 13.0997477734749 0 0
-172.163636596952 9.91940977577466 -34.9330904452042 0 0
185.392663554567 28.5941003315906 -37.4088917102681 0 0
-218.676543142604 -36.3847277064302 6.70600471395067 0 0
201.188384945938 21.1424988937524 -35.343494949369 0 0
-174.499093878205 -40.2261909014502 23.2856131136005 0 0
46.1584941070229 0.172259259703999 22.2507960708239 0 0
26.3599056766016 23.5774232940566 6.79370474282441 0 0
201.2053305206 28.4512211328902 0.0285347006263042 0 0
-115.360363267734 13.6028009319894 -18.7755016985557 0 0
-180.939372910175 2.6306675056464 9.79692926679174 0 0
-67.7189074759474 3.04967725542412 -1.23434227560816 0 0
110.641728682771 -7.81886026368558 1.95777082642675 0 0
-7.29764044605258 1.62630003300182 19.7671890004473 0 0
-187.542113115379 20.2615584156302 -34.484822757437 0 0
-210.226385694712 -36.9927265922304 -12.6430734215656 0 0
191.119509689107 -47.6995449965767 -7.51653998084134 0 0
92.5097981887437 -1.37840567754214 1.3277801520232 0 0
67.2269474389636 3.65699938900419 25.1176545398843 0 0
-217.69923096268 -24.6689342697224 0.790131083790397 0 0
186.985046310703 9.56876346155167 -31.0905826211702 0 0
138.043608808291 9.31508274383168 -7.64804024408307 0 0
-166.454690503998 3.78351146321917 6.77528523597235 0 0
-8.9223475802228 19.871944097213 22.7924303559059 0 0
176.083754278202 -1.49417433272808 -19.8289740455367 0 0
-54.2493005705551 5.02163497861624 17.088691546888 0 0
-210.126873268512 -45.7208777912787 -7.97225906482349 0 0
90.750383734001 -10.0258879121703 17.2601090564867 0 0
7.10156189762426 25.2599259319012 6.10499799873042 0 0
-141.814366955242 25.5155166672712 -23.4905464767811 0 0
190.839053162253 21.7241346714275 -39.0710065866961 0 0
211.747971307514 -26.5103368485744 4.27963267243457 0 0
-28.6512327774669 5.72711648478535 20.3614728844049 0 0
-46.9947700281765 9.49904293640046 -4.79105570819957 0 0
189.663495185317 -46.5291238074811 -27.866889580716 0 0
211.005749238345 -40.5156198982104 -27.6175741060372 0 0
-177.648085849047 -26.1294765162256 24.606108132358 0 0
158.837335689657 -0.00579609321807422 21.3989257030728 0 0
-208.816532254724 18.4933732298609 -20.9136177476335 0 0
-180.953767490864 -36.462071379603 -13.9498434721096 0 0
167.272142313789 -37.4570073477558 -8.46047061443077 0 0
-204.747196540881 -8.65165870614944 16.1489268984299 0 0
113.195603572374 19.2450266124662 3.70625525812639 0 0
175.687022007037 -37.0240339050387 -27.8311322285673 0 0
-92.5952559617695 0.504635544379111 7.82291848182566 0 0
-44.0392510234303 16.5123755959995 -4.6746598533752 0 0
131.699399849881 0.877138940404764 23.857233296955 0 0
187.902699311518 -39.1784790660142 -43.1282711958942 0 0
67.6289177847771 0.0709674485630374 24.2521372083292 0 0
-165.544680454662 17.3853364821895 -32.8800541290721 0 0
-36.1012626120427 3.14017817155955 1.91664636631217 0 0
-191.333216351269 -46.1135660606406 -15.8274758733304 0 0
-67.2507034388303 7.85705577944933 -6.1521329868824 0 0
142.701967541907 18.8769172100166 -4.11783370851022 0 0
-161.969730155662 24.5265477002424 0.592204371857895 0 0
-64.9944443199257 3.91649235819335 14.6556439624104 0 0
188.645349660633 -11.588289676217 19.0640224229686 0 0
188.54465697505 21.8033339004466 18.6901800645559 0 0
181.362012653611 -21.0576756539941 -36.2992502397047 0 0
-192.896907050974 -25.2196209902827 31.7564441693051 0 0
186.607255325542 -6.27588613983038 -19.9447138884313 0 0
-52.469289011304 7.57996795654231 -4.23156854169567 0 0
183.338795481908 11.8265317880854 -34.6465658195764 0 0
-170.395999868647 26.8998453097107 0.0598569034113611 0 0
116.045600841525 -1.37058749134804 -2.65199615684485 0 0
87.1241391169693 3.51898369953839 -1.80000180445374 0 0
27.7019496360861 0.304598541076882 20.4545967469802 0 0
196.238579750199 -45.001885591307 -4.87558066646492 0 0
206.920588348094 -35.7819026818287 2.16641921494571 0 0
-183.232627025635 -19.0276615959301 -12.5902429990411 0 0
64.1767930503006 -4.45255769616652 20.4840948639529 0 0
-176.869460601197 28.2442907938759 1.23719439341511 0 0
135.735224511555 12.8991452248809 -7.63045877472455 0 0
127.854051533131 -4.43374074746265 -2.86958624708458 0 0
202.719560173666 13.3669754523256 -30.5870130541809 0 0
123.58988825939 -11.0692959027924 1.12170906551976 0 0
-15.7204246712532 -0.918550024971346 9.777051352578 0 0
121.239938320167 -10.5353170420133 1.38248991933173 0 0
-159.791942088227 23.3024787860904 -30.3258643115207 0 0
60.7252524938697 -5.54437389583759 17.9353998120446 0 0
-210.225361324605 -31.5609832221862 25.6633885289122 0 0
-186.329641560196 -16.7731205446006 -14.1167026551505 0 0
-105.606852880777 31.3441385192907 -6.8250291565855 0 0
-91.8753464304701 31.3618388363544 0.665724364677558 0 0
-44.3684396683024 8.3625069643254 -4.00034577998484 0 0
20.2397693711088 -2.13883178128374 15.9609783969841 0 0
-149.875881136498 -7.53401987459567 -10.0300423557548 0 0
186.869347808687 -16.5457143385076 20.0844744695587 0 0
-192.00619339565 -52.670418159105 11.5544931401138 0 0
-2.28540847331305 14.1723487058294 -0.457244226423533 0 0
-107.601155299655 8.73712016688691 -13.5795895079541 0 0
41.8134038791318 10.7593531457611 25.0976275436931 0 0
-96.4841055831622 -0.02070282732364 0.484131344572436 0 0
-23.6680121580371 14.2972758030707 -2.37766342447127 0 0
0.991506502237723 -0.726735887573924 8.33736508581535 0 0
171.600876311012 18.8424331548845 -25.2519658703548 0 0
-36.6855191055036 24.8806684098987 18.9257085168669 0 0
180.84434644663 -34.3672446401328 8.00491979795382 0 0
-194.30679241642 -53.9336349589729 11.4542483587261 0 0
-165.371310186986 -9.01935799832956 -16.2101719573432 0 0
192.565127999135 -44.869408220593 -39.1074594229409 0 0
-101.720377354356 6.52627705951361 11.0270171875821 0 0
-10.8628621231868 -0.972186010264623 14.2219207753592 0 0
120.776916323771 -16.0064954750967 9.12090839389356 0 0
175.535608382919 -40.4627018500513 -23.6848131858392 0 0
148.512048394286 2.37207774384209 -8.29822220521204 0 0
-6.75767181652776 28.9587035958067 14.0281471598705 0 0
178.254697200876 10.9926987442671 -31.0090620012484 0 0
53.3129059036108 10.1209516840476 -0.137621507969037 0 0
-209.229171745214 -20.1385476224566 -8.59489629087952 0 0
11.4954104158669 25.6405282796358 7.16337129419901 0 0
62.8902604287746 -6.28721565797122 16.5382083324628 0 0
-188.723254766768 21.7582807699279 5.16211721939455 0 0
-2.41892207637569 0.967208350478563 5.36315722275084 0 0
10.6543221946358 14.3629564746682 24.3182518222321 0 0
41.1737880852683 24.4063048216173 9.38577183560516 0 0
-65.6659164149035 19.8474057574821 17.7428970196743 0 0
-40.0372921196414 26.2427647072914 -0.456655953537796 0 0
-29.8516168947757 -0.366779028001606 12.4375008864705 0 0
-24.7843407110172 8.75821794909926 21.8221383539609 0 0
-165.799218094312 -18.3310887898889 -4.62152363845151 0 0
-177.127621717343 -28.6029956903793 25.581506675663 0 0
140.486686793077 -6.12336346152354 -4.26394494086578 0 0
-1.29298921951669 26.1423899228801 19.2040191449795 0 0
171.878103829877 -45.1860376894924 -10.8787211556009 0 0
-6.86567796213876 6.57570848546681 -0.967467858053392 0 0
-193.525037868547 -22.5322381795271 -16.5111589479385 0 0
203.470820674046 31.7485901666744 -11.9337717117227 0 0
-189.415876300687 -49.5997579936367 25.3455337303216 0 0
-144.600005665669 26.3286788681091 -23.1899974234765 0 0
76.1994753912878 9.86759173856623 -0.716062140592875 0 0
165.348127616282 -32.0666632515934 -9.23582109771578 0 0
-206.113758719902 13.7286229768857 -29.9357977209662 0 0
-208.794744535108 21.4123693214048 -12.594611449077 0 0
-197.113107404468 -14.9270365076615 26.457007153402 0 0
165.302561844968 5.02533116203525 21.863237927501 0 0
-150.318670920429 0.464055839036066 -30.2571151705785 0 0
113.365572936886 -13.9147288423983 8.2900956895604 0 0
-183.406699177556 -14.4651361044778 24.739485663187 0 0
-179.549008213848 -29.0439562501374 -9.40546155449716 0 0
145.68705579254 19.0423447008881 12.1876180937957 0 0
147.364276470839 9.56923906614293 21.9467983021178 0 0
175.21319693105 17.3669244525585 -31.4426994343329 0 0
-97.8919967606434 0.46591752903333 -1.25012436094882 0 0
186.600451258032 -28.6088330535205 14.1341387710328 0 0
198.523369195729 24.7137167043637 13.6458274526062 0 0
-203.375484510183 -56.5871798617052 5.98480294394486 0 0
195.902849357964 -2.10276784402149 15.9084821024196 0 0
211.631186522695 -20.4189603322084 4.59446116895661 0 0
62.3194460594358 23.4104126322357 16.4735038483365 0 0
152.647893147911 10.9989331388137 21.1958589493462 0 0
-191.756013806378 -51.9193249167407 22.5887870315807 0 0
-218.130188730348 -24.2836521053887 4.13155376301427 0 0
-100.567868896428 9.22286655761261 11.8939811813662 0 0
203.076458319196 5.29132537905193 -19.9375529753517 0 0
-60.9722298982486 1.64825085359949 1.58333960147521 0 0
-9.05406108914379 18.405140629214 0.677784281715379 0 0
184.375719092425 -19.4345953173848 -30.0164794490216 0 0
-183.55431027918 -27.3613046439185 -13.0252761982789 0 0
174.971763632542 -6.12075172793814 -18.3524769687063 0 0
-180.206976880216 14.9854156350371 -36.3611233494078 0 0
196.267748268909 34.0934824713032 -24.2000084712649 0 0
-85.0742298234607 31.4232100861033 -1.59965688819449 0 0
131.269421592185 5.41402386655878 -6.22957182042209 0 0
174.4558553492 31.7800774545747 -21.1474526896026 0 0
110.657010362821 -12.7462422946998 7.09803884394602 0 0
160.529719390757 6.31514278833224 -11.6598459640607 0 0
208.297042539031 18.7992919022399 9.74835203967065 0 0
122.361721869178 -5.47953770183872 22.5334806158824 0 0
-207.432520082895 -53.5364210076816 0.26175683318579 0 0
-83.1925024740221 12.4123470089941 15.2977445017225 0 0
153.997943965972 -9.98272505809853 19.3548069724063 0 0
192.552387679622 35.2985919169231 -28.212418740004 0 0
170.8015888773 19.2745343768679 15.7163428809781 0 0
-169.983519607685 -44.6997726750858 9.69236296667044 0 0
-89.0487265852787 8.38565372562983 -9.782539268086 0 0
126.347121996213 -9.44295925475216 20.9081560902578 0 0
129.93735055615 8.84265848751812 23.1422597300973 0 0
-158.833901466321 -4.13117113520725 -23.8349756693361 0 0
206.626002815614 4.04176785148468 2.78487487830331 0 0
1.73721190941571 24.6846006229208 4.80261229939657 0 0
148.385234652396 -23.0911062044655 5.64447912126345 0 0
171.301765816371 -43.216310932477 -9.15005127870319 0 0
-23.5677456093779 -0.745859242519223 9.18836911452233 0 0
-24.5807338619362 -0.915665701160065 10.4978670654082 0 0
-178.336758128349 -7.28099840654672 12.8397202015503 0 0
-114.366872267331 10.1330213316279 -16.5444208873867 0 0
194.089254852081 23.8321787170338 16.0415751578354 0 0
177.210991352275 9.6042758951667 23.7305394016245 0 0
-139.631672600705 -2.26027927315555 -9.88955895996734 0 0
172.660635653391 22.4966753162027 -27.9763091621896 0 0
-173.401548912419 -19.9196903379907 11.0269685082093 0 0
-209.531607530594 9.12495791316231 -25.5741394245436 0 0
91.9071590365998 19.5905086672395 5.53508083743866 0 0
29.1815483043411 -1.31664920222258 18.6606805619842 0 0
177.258905001343 27.2301243894806 2.95324650569426 0 0
-184.392401629411 15.8981830827822 8.75995538260063 0 0
165.60421789283 -19.8708706994473 14.4238512364321 0 0
203.024707028111 -9.18136440562266 11.6157582874064 0 0
-202.451770863785 25.0290651246031 -21.897368448788 0 0
158.084510196229 8.51181827914191 -11.2613465523138 0 0
139.568261724844 -18.9672939997184 12.6630350048523 0 0
202.912160440481 18.7393083922938 -33.406594930693 0 0
203.278483013515 -10.0313732637004 -15.9471709063029 0 0
205.163550287238 29.075624020705 -30.7810156534672 0 0
204.074656531744 33.5612874042136 -16.4418373285625 0 0
210.170214015849 -38.8430309876998 -30.0356297319311 0 0
192.472234030411 -47.5297947854185 -19.3136901779981 0 0
107.080531760762 20.7849143881363 7.6087615395294 0 0
92.3753925819197 21.1796035635466 15.6620783314223 0 0
198.75917957135 33.9027096923045 -33.5778435474256 0 0
201.38231204582 27.6436744507483 2.36027960267686 0 0
-143.960146010943 7.83711994750583 -28.2328751058574 0 0
164.459512035906 -29.8463184745923 -8.48622745547307 0 0
-79.1247975752742 28.4394110088206 10.9853181375804 0 0
168.782742448002 -23.8756954464096 -13.2446528088485 0 0
157.394121515266 14.40340003598 -12.5749764630595 0 0
-205.825200053613 23.0069705911653 -15.7016562878763 0 0
-67.8911457011644 9.81342944716359 17.2965946949331 0 0
-185.19640875673 -26.4258951635465 -14.9131402560956 0 0
5.82655765797058 27.3325782107888 17.1722741106408 0 0
128.010368497344 -15.9199956255793 4.62482787152821 0 0
102.979101372046 11.9739715336355 23.233122223817 0 0
186.904010343864 15.098910332543 -37.3938981746659 0 0
209.432897732199 9.46312853971524 -2.94878387108109 0 0
193.547966218443 33.183232065979 -36.4158624095909 0 0
134.614479010486 -4.26480505840881 22.6503254185063 0 0
-119.555447873235 -1.03999603209051 2.62204972799657 0 0
-188.020413234708 -6.79538436476211 -15.5536189062491 0 0
-174.568659301661 -31.1418503948515 23.4829318803075 0 0
-187.082489777082 2.12138321339697 12.5447221844345 0 0
-140.66146471276 -11.0142215457533 -16.6819631085988 0 0
-10.78128657277 4.74311267686537 1.25334089622178 0 0
-187.525043608039 24.7618404493567 -31.6357104121045 0 0
-197.160384310052 -9.62881496114265 22.4138458329674 0 0
197.185273965891 7.0521981084798 -25.0575777225212 0 0
-203.274964697076 19.6307064439017 -0.473100587999002 0 0
174.209480901206 -19.5318898927908 16.1686148407758 0 0
-206.981408169818 16.9168746834485 -11.144853444914 0 0
-103.812289565465 -0.413844497066073 0.403757318814479 0 0
-154.0052725515 8.95619718989706 -30.5390459712808 0 0
-204.700096788331 -42.000015605977 27.2222464129176 0 0
-217.982920271407 -33.2653316380075 -1.08210577646868 0 0
-162.203333618476 30.7036422669991 -22.924246613022 0 0
194.374981251711 -47.3252030449346 -24.1251146903625 0 0
193.718900866047 30.6340995969122 -0.177298834032962 0 0
-175.928191264149 4.16439531602026 -25.7880426125347 0 0
-176.547174989883 11.9687130265748 6.96216836250982 0 0
151.61071164272 10.8607056823462 -10.2329551507673 0 0
-104.33653239487 7.48421189335906 -12.0472811252488 0 0
-24.9902167860119 19.8692503095231 -0.700971393574741 0 0
-135.712489643858 -2.76013288673406 -24.1388115846821 0 0
-134.680658893471 13.5444067633604 5.82097690251944 0 0
110.796701911069 5.09056665835024 -4.56370047742014 0 0
-145.853139609809 10.1479151262904 4.93704734359257 0 0
-195.022898109208 21.0375896850881 4.96269238148622 0 0
83.356954621266 0.0878917451535008 24.6395477622663 0 0
175.057186176997 -31.8729517150603 -34.7851833191867 0 0
-101.720095253616 27.6008277088448 7.22009375863248 0 0
-200.683217355804 22.8894472272388 -27.8962263324134 0 0
-115.335758992234 1.46270017128775 -6.79159688626474 0 0
-180.903982604361 28.5887181766655 1.75540516488596 0 0
-181.344974679841 -21.8003727699562 27.3780073713985 0 0
-216.30695217088 -23.63561575848 15.5124826739542 0 0
-212.173903289158 -49.5094569732288 1.89080333396447 0 0
-54.4357387924992 24.1354504979184 -5.28103350003695 0 0
26.5749198362411 17.9924648374581 24.000787378322 0 0
-196.493399783404 23.8640907896388 -0.690010757918013 0 0
-129.373088486256 1.1962118561833 -16.9590158579123 0 0
-190.01204135943 34.9957865502822 -11.3253441043355 0 0
38.6053427661186 4.81479429824653 -0.70368092032243 0 0
-193.179653677865 -0.250086513165988 -10.6435837589998 0 0
188.45356329782 -11.4848034950075 -20.6110751931753 0 0
-138.518946377155 30.4636487138421 -16.8549593774206 0 0
87.6707970778795 -1.14324068363511 24.3613944166448 0 0
-158.437315538762 24.0196278727834 0.776686520036092 0 0
-137.225584365954 28.7741186954507 -1.58567191435732 0 0
-194.072003385908 -55.3771032037031 17.6843127148611 0 0
50.4038349596472 0.057426869600442 4.53589618669733 0 0
-167.360289516623 -2.22961608204108 7.32740473971375 0 0
-165.802067325713 22.8483727521035 -31.2947701078217 0 0
-181.644099552624 -47.0508698581164 24.4944916575915 0 0
186.567474711777 35.4643129770248 -24.5167812811586 0 0
180.235633046648 -27.1947769227241 -39.7271281638779 0 0
105.407014014428 -12.9984277584725 10.7469800453141 0 0
-143.536791625753 -13.0053689863934 -17.1303155612789 0 0
42.9561179196786 3.65125417183978 1.22825572905451 0 0
8.35310027238837 16.3643807612555 24.0481813516721 0 0
122.846227675417 -12.7926504952853 2.91156857751285 0 0
-159.559917271138 -0.459803671484688 -29.12979159935 0 0
-24.9198192090621 1.46962713748429 4.49132017277162 0 0
203.964804493619 -11.6275099337446 12.6541077855872 0 0
-186.035829654109 -57.9600474680651 5.2092527345911 0 0
195.180134010835 -24.4437479536854 -42.2125237824048 0 0
121.305735030911 15.74999924249 -1.20378524844032 0 0
41.0862938455719 2.06989025593843 22.8710746250757 0 0
127.722290230553 -17.672234457242 10.5206586739755 0 0
-166.007832733588 26.8546871865285 -29.1480004376221 0 0
174.274735196093 1.96834475179466 -18.2180711580901 0 0
165.043775997839 20.6423019365239 10.7571783988421 0 0
-175.667455018127 -51.5700671141108 10.6376871604751 0 0
195.483595368582 12.4155321614434 21.5890143869561 0 0
208.28325304104 8.74327853428877 4.02812307372866 0 0
-216.124884320568 -21.7980568360149 14.4306933583643 0 0
197.296436086776 2.48190670968357 16.1660818469247 0 0
-136.598074356805 -0.858778605411112 -5.47737389773307 0 0
92.7378891673112 21.0079930182187 7.86346261697681 0 0
207.866360095563 -23.9384793069912 -33.5812710595148 0 0
206.756380286231 -16.9164362244306 -23.1449105001132 0 0
182.773684853412 -5.8945737365926 -20.896552388784 0 0
-120.374366437675 23.0427274464966 -19.3061679290407 0 0
-100.617109879814 4.35869001536783 10.3906686195526 0 0
171.520373699102 25.5071567469219 2.84510751748831 0 0
-39.3711875637981 -0.228504496476789 8.79603888075421 0 0
-177.963497642887 -9.4212447077799 13.3428026341763 0 0
-149.612610542375 -5.05590071514632 -7.05177216198423 0 0
-170.474208705893 7.94208925960789 -33.9842893639674 0 0
193.185329507146 -26.0965568914646 -43.2191548141518 0 0
-211.472942148613 -34.8088151609441 -11.8995598599478 0 0
-194.50752024413 6.46320155413818 -33.6940242381465 0 0
-165.966658052767 26.4638244225831 -0.0515597436487533 0 0
201.547884645149 34.8635161522087 -22.9606987730769 0 0
-200.492563108322 4.27505433997396 3.84915955576916 0 0
192.991325486514 -16.5858077655619 19.7718038819656 0 0
185.90504903296 6.65374395563336 -26.6496384519431 0 0
167.578067911252 8.03049311526518 -14.7015917331878 0 0
205.199032381299 -19.8429144919244 -31.5185006333478 0 0
170.09343221591 -23.8557333145559 -14.446020561722 0 0
-211.048203721644 -50.0264309887083 13.3055405550201 0 0
207.997738241849 -9.26662656490238 -7.16663447917967 0 0
210.346245230754 12.2704538815252 -6.45437993758817 0 0
155.878259562725 -3.30797761881637 21.2059168733758 0 0
-90.7881073639463 29.5249197790827 6.90398749220233 0 0
204.535994887681 -45.059557804294 -17.4467511609145 0 0
-215.182251901204 -32.763887687711 19.5539136443731 0 0
189.03969845996 -25.9635848742667 16.2082550229377 0 0
-77.0469912810907 14.8515007959502 -10.7039408106763 0 0
-202.309042725014 -4.83930345290745 7.70606085822924 0 0
-135.461427202513 22.5953763093005 -23.8647029291159 0 0
-133.945236159257 3.34273688472984 7.33181341147301 0 0
-212.031613834141 -24.198295601526 -10.3395106328405 0 0
-117.782846883755 1.2833130132177 -6.80192304828226 0 0
66.7318211821405 -4.11322918682617 21.2571919272576 0 0
-127.690652928408 4.38902525194027 -19.0068882841544 0 0
-128.772585989705 16.5562672495955 6.37624152597874 0 0
-81.3579470832361 -0.134580444927325 3.84849103926423 0 0
94.691458856367 13.0837066337903 -0.0262042409282814 0 0
194.212726380483 -3.62255899893956 -14.1970870764988 0 0
181.434989500627 -27.4497033720149 13.8859944133709 0 0
149.428929812234 21.2292761668288 0.709445509783274 0 0
189.549344973567 -45.1400381796862 -38.2552380661162 0 0
51.3137985999053 18.2489775042331 4.53274728663907 0 0
128.569384772937 -0.818490973299979 -4.51104816543921 0 0
-173.246004936061 -48.3839500620584 -0.801203631065711 0 0
-134.50040242053 26.1396119219168 -21.3230491375789 0 0
-209.39580749366 11.7861441803009 -23.9233876601384 0 0
-154.339565354363 17.6966036442424 -29.9412333503613 0 0
21.9043450821709 -0.642568224435653 7.24745213343283 0 0
175.412740979242 22.7881029980345 -32.3091242090754 0 0
-207.131283960953 7.09787692655378 -30.7043821187973 0 0
-184.683737669496 -55.2135098299332 15.2375517056103 0 0
-180.065267339868 -24.5844017829727 27.0912115899779 0 0
144.802318614402 -11.9321755541343 -3.36172090889696 0 0
-157.520753515441 -8.98492348494573 -18.5204094946555 0 0
-157.634776231929 0.99299308019025 -29.4819259669909 0 0
44.2562872651383 11.4344020490981 0.511808640590927 0 0
202.922872013032 -13.2406906817219 -18.5345215142823 0 0
103.145862150027 17.8699102187326 19.1649062712381 0 0
96.0796579688836 -8.17911971486326 20.7074104680595 0 0
-201.951683977534 -38.1415376258502 -17.415903296766 0 0
-201.896395341778 -6.43832704137842 1.54188795134005 0 0
178.708657312718 21.9200487101563 15.3571052396263 0 0
145.670743356058 -5.67779971791722 21.5084823783839 0 0
207.137157787642 -7.61331831766949 -0.780066565864923 0 0
-168.973003246112 -12.9182271062845 -12.5980262510443 0 0
127.795082285269 20.0921963167427 11.9485304143799 0 0
85.6737436405728 -8.185915986823 8.46551752684624 0 0
-155.439426532497 -0.557276259129329 -28.5116237844786 0 0
36.6754327896851 -1.9774146425481 19.1187441443797 0 0
35.2190997340341 -2.7152846826657 17.3550925929654 0 0
12.3176756245188 6.09249375275207 22.9475046027781 0 0
-28.3078405429708 28.5155241660339 3.74537832455161 0 0
-133.086345742353 -0.940215973146489 3.10789364778897 0 0
-197.783618429973 31.4182249726066 -8.16968349839545 0 0
157.008224153605 9.89421258463678 21.5074726385644 0 0
-89.9263271085588 6.98754080279427 13.0757757186027 0 0
180.208931876294 -49.1338418084782 -12.9904077637508 0 0
-201.649631018151 12.0433631862978 3.026058350269 0 0
94.6898440921054 8.01579191324267 -3.0162423972147 0 0
-188.212077079201 -56.5260600232195 12.9208981921202 0 0
-194.568284817362 9.05892801168096 9.52778877098668 0 0
57.5426785408659 -1.49207656763099 5.29033530485246 0 0
96.8858783327275 19.4744755827222 17.9723918777848 0 0
205.171696876536 -13.9069370791529 -19.3709541184103 0 0
-200.877145389793 -44.594202484991 -15.1523744647815 0 0
-87.6400902482359 -0.294451136001318 3.21733050140099 0 0
194.926786551479 -43.7863789306847 -40.3822782605951 0 0
-0.146080114945608 27.708351704337 17.1575248655697 0 0
191.530181451491 -20.4946784797448 -35.4640340118166 0 0
-186.3515255068 -9.2763350887697 -15.4049425506876 0 0
80.8509277440921 21.7409727468249 8.98660491458302 0 0
-107.626408731592 -0.073805527188803 -1.36578718074998 0 0
177.510617896678 28.835394321361 -0.407314639475433 0 0
21.8213544427766 -2.58428570654067 13.8205091673636 0 0
-47.0745536873675 12.4157481143955 20.1834117161213 0 0
-1.87298235159777 21.1669588325464 22.6481373977158 0 0
9.02699589548786 5.10415433889909 22.5217597467656 0 0
188.281961114252 32.0408381246871 -2.80828509797988 0 0
161.352172448158 10.0898399992927 -12.8698902387848 0 0
-191.409606082391 -11.6459723430513 -14.2154107623338 0 0
-194.262112920954 -34.9468776305077 32.3457678833501 0 0
186.383027916527 -19.9214436582374 -31.9029967240267 0 0
-167.122904762887 24.9708466324163 -30.8245571053766 0 0
-191.351670075435 34.0007146956732 -9.43380804693089 0 0
-193.737572075223 2.20207768825391 -10.8393495418488 0 0
-197.474739370491 21.3783451434334 -31.5531119530546 0 0
210.803020794688 22.4879642014921 1.43376242306687 0 0
-175.00453402355 -24.0563107578648 17.3456598137538 0 0
201.908982640935 0.570869337578598 -12.6243998778363 0 0
-153.138116632265 20.3317202699816 2.25629046702388 0 0
-155.785782702037 -0.9940152639366 -29.5178610797833 0 0
183.708281708216 -31.6660528160055 11.0706067809789 0 0
80.0479731401638 11.6596183640487 24.5755397642202 0 0
-216.832194372238 -42.1064418576386 2.63802346028634 0 0
71.3891504262187 3.20454415993664 0.00552433253397532 0 0
-133.730971024748 -0.553695924067793 -4.88803165085541 0 0
22.7536789326059 6.82927627517154 23.7086282790275 0 0
-92.067703665775 3.76641032889676 11.053114416379 0 0
137.141018977768 -17.9721606516492 2.74834598348641 0 0
-197.083914515388 7.85801323785911 -35.6305090195671 0 0
-129.220930199116 8.30554507323642 -21.2581669245148 0 0
-195.827931897219 -58.1515163205202 0.108612828739668 0 0
133.122141924454 -4.90114804162912 -3.47960584702804 0 0
-142.7820366088 -2.76325147144861 -3.69063269630234 0 0
-206.857865622351 16.6605765811488 -25.9979228295595 0 0
-93.6024924193032 21.6216017312855 12.6660653140507 0 0
-125.629332509689 30.7027943067429 -5.49098288892825 0 0
-157.336289522947 28.9672166742319 -2.36866695746542 0 0
212.515680817586 -40.1491622920114 -13.9196747917522 0 0
209.887501222042 -43.3663675714253 -18.0827223794868 0 0
-36.5677793972353 -0.0741217378986621 8.15667101940931 0 0
-24.6623355177496 25.4309651661261 1.59306898029726 0 0
-202.152348924222 -55.9834277497742 -1.73980111340969 0 0
205.371535996654 -23.9589418298386 13.5316023349426 0 0
-76.3106752682201 10.3461292411144 -8.61030571848431 0 0
-215.173128282025 -45.0850391209907 11.4196406896254 0 0
174.868635364623 33.4623786110468 -11.8106638641903 0 0
171.184008961065 21.8203897827482 11.3588964182218 0 0
-46.8252651803371 31.1259112251916 6.73566791351202 0 0
194.381423985413 -26.5717915887988 14.7552983489394 0 0
204.806421312611 -2.37861491572167 -8.3269227960003 0 0
146.99830238364 -19.4874162768244 -2.78885197195066 0 0
33.6750308920944 -1.63132499839508 7.60669652540369 0 0
-113.877456176649 0.798496441784869 -4.87755980558598 0 0
-61.7034109848897 9.26155329627413 -6.87665079260932 0 0
-214.185005977868 -23.4551511476948 19.45549409027 0 0
210.066682628796 -44.1415394499026 -23.7936774832781 0 0
-146.414279964322 -3.63063978433998 -7.30112312388633 0 0
-6.22136961399373 16.67967293733 0.333685940677836 0 0
-207.587925892895 -38.7110820505446 26.6486323132717 0 0
-153.766074944866 31.0989118554988 -6.51453343618559 0 0
-200.971388991922 0.790177248138663 3.69814398212221 0 0
173.8655612601 11.3199346174146 -23.5234240638846 0 0
-36.7069499571834 30.7464195359517 7.65784507705134 0 0
-161.500255456946 32.5474880992846 -6.65657046335858 0 0
215.563332484146 -25.5974988574242 -12.3246659095504 0 5
194.235432035192 0.519674316483009 -14.5903110325097 0 0
-101.942936396544 25.5702043278574 9.03452775856738 0 0
-56.0834715737734 6.64557877447045 17.6587748114271 0 0
-122.731995755571 12.3297717334583 7.94727090391642 0 0
-58.2655878713852 6.37456516665737 -3.57432725845531 0 0
118.020994039325 -14.2392905626122 6.50686109995015 0 0
210.845443366167 24.704586226568 -13.2573751821859 0 0
178.635023689197 -18.7546917121212 -27.4609705126688 0 0
-2.40944238713363 3.16859325846204 2.7287246005228 0 0
111.18526542551 -9.12385551387281 21.0445124234545 0 0
30.7118413214274 -2.42742489414674 16.8156612427856 0 0
195.453639973055 9.00185668818614 -32.8284650927152 0 0
175.983113400293 34.7725168946884 -14.9537909397573 0 0
195.256771678315 -39.0634919491934 -43.1556729567587 0 0
172.476614579722 -16.4914462670005 17.2848753628685 0 0
-54.1398621323645 5.54095823546217 -2.35421335635017 0 0
190.216110279337 2.05975919528904 20.2619998474289 0 0
-199.791813257811 -47.6287383324012 -13.6272139584863 0 0
196.792471562022 -29.2609184337925 12.3700656750336 0 0
-196.374965617492 -55.2038224381768 -6.8883087005035 0 0
-92.336138099361 10.0141469802841 13.3557399515745 0 0
-50.168368044367 27.4231967866242 15.8866730583461 0 0
175.785596991435 1.22708520446502 -19.5350323498093 0 0
-203.647808583558 4.44341767003589 -32.7327116088729 0 0
-164.623533694656 24.9877884716593 -30.3580336222189 0 0
-181.981012915925 -10.641816355485 19.154467772393 0 0
164.761239791192 -16.6968984214823 16.2284736739966 0 0
-18.5421222430513 -0.999997017914409 11.790334880101 0 0
-3.49580334721118 2.16989165618288 20.474473742416 0 0
204.829407942882 2.08018966938653 6.40505112635033 0 0
-56.3122256585478 3.34522440417666 -0.359006617053666 0 0
191.779854139149 -7.55324573295364 19.2005151724709 0 0
212.551511010285 -25.2430519722026 2.10596831072831 0 0
175.217133868572 14.2662749850745 -30.4388360201162 0 0
163.575849501386 -14.2701490797862 17.2243643611332 0 0
200.430586982693 -32.5051923663694 8.73774512152951 0 0
104.863701732947 20.8020667520153 7.6058646246341 0 0
62.6142922843197 9.65465919047593 -0.405107584795731 0 0
-194.952669309856 -3.13933834109594 16.0347979951755 0 0
-184.384054251059 31.269110321909 -3.03003971195136 0 0
-177.296839373187 -24.4884616745914 22.3951830249242 0 0
187.316375430936 -45.3513874853381 -34.4117314076893 0 0
104.274770658677 21.2583067462226 10.1590755127452 0 0
27.7219594710096 9.84217014062231 24.577897140331 0 0
184.261409056713 -13.5580690799624 -22.9576038549721 0 0
172.287006995337 -6.74752676530452 18.549588779545 0 0
-201.428013487223 10.3289967355841 -12.9505501547767 0 0
-3.114620069227 4.87872662079573 1.36876737960452 0 0
-191.086541549739 -40.2818095691048 -18.560092620281 0 0
-126.690670492092 -0.766662866845351 -2.98419030314689 0 0
-200.683820563115 -27.8275499740893 -18.8947602833201 0 0
3.92792507470498 22.5940012455188 3.51703490655481 0 0
70.2323707064374 0.443358947628838 24.4325671727314 0 0
-176.79217006662 -0.0544511566418684 9.43985921182304 0 0
188.021860550443 -6.22749319499076 19.9615238038352 0 0
-176.156147539325 -8.88889045527253 11.9042857969402 0 0
-95.7801971444987 23.0360444352948 11.74871305521 0 0
194.064083094466 -20.0848640078925 -37.9398193251486 0 0
69.8402449270097 22.1433090989751 9.03915509875674 0 0
192.510236481754 -47.5902795300723 -15.7880920023632 0 0
-214.517351412336 -46.9541210265754 3.72985538746628 0 0
198.49788868578 5.73672522341043 -22.7614096411685 0 0
-38.1155891702437 2.03591108009047 3.279546367394 0 0
13.0930540817985 26.9380202093515 9.45791719993676 0 0
30.6066093358947 20.7396188562666 4.94125091112302 0 0
189.741622485304 35.5387317884606 -20.7407101052373 0 0
201.166099184404 -44.8372702095724 -36.2101330769005 0 0
203.691249663805 -44.8384017071405 -13.354184085388 0 0
208.558772311983 31.0861058128904 -13.2731266300147 0 0
209.547072263817 10.6876025354991 -8.60257359323337 0 0
133.575074009741 19.6933184104102 12.4697145668472 0 0
127.27216701955 6.03257364750659 23.8859939177023 0 0
153.333279806683 -1.36690976439435 -8.57130770063877 0 0
6.72828934544352 4.18283146983329 22.0814728639725 0 0
156.533138701103 -23.5864900337273 -5.96550915278744 0 0
151.391718946888 21.5474492337433 2.03799102166219 0 0
206.35075201219 18.9796387522127 12.9687635861302 0 0
-112.910573032801 12.4500521954362 -17.1298253647909 0 0
-172.346924724268 8.33426799244943 7.4337212000858 0 0
-175.275208913825 28.2742182738576 -29.5506644180764 0 0
199.533300238562 24.0482938334652 -36.6689781035926 0 0
-69.608645706513 1.48809412585507 11.1234296210595 0 0
137.739526153992 10.6768979615201 21.9598696400507 0 0
-203.987931023061 -22.6310171551204 -15.1437408831722 0 0
-59.6837690480535 0.16149758808066 9.40435873819293 0 0
-149.581789095659 16.1640484388944 -29.2383847277562 0 0
17.4752000681715 -2.31532077183481 13.0034566258364 0 0
-33.7722253895083 19.1435409170504 -2.34630736595364 0 0
-119.544852416363 16.4044050994045 -20.8102165487609 0 0
23.3234945962155 25.9634379401399 9.56632172958145 0 0
-175.559839011226 -52.1995498373025 4.64324115274003 0 0
-147.638673888632 -10.3765142540702 -15.5142493829122 0 0
-157.18634715096 21.0604055456341 1.81744035121585 0 0
204.031338549098 -6.225322459816 -11.0556156357066 0 0
-202.056131375195 27.9244731429247 -7.09865011946746 0 0
167.733408576636 -14.4665599272846 17.5667419600562 0 0
171.943627322299 -44.0858734187189 -15.9321250944284 0 0
69.0954161595776 20.2939581163583 20.6868978553358 0 0
0.781944390326593 5.44192547275381 22.441851603125 0 0
172.518728789657 2.08750481037669 -16.8201344963557 0 0
-206.068485026484 21.5291577402325 -6.6835955258416 0 0
150.671241071782 21.1788783509801 -1.79724671216863 0 0
176.498736687751 -20.6729967639004 16.4180372647838 0 0
-74.9407081969982 -0.12507279293196 6.32064173314687 0 0
89.3380921561938 -2.45089943495882 23.8930340678596 0 0
-185.238453312619 -41.587897481457 -17.2736121722366 0 0
-82.4699427193287 26.6455834611419 -11.3289501997779 0 0
-191.978769349508 -37.4472497872468 -19.4030775749342 0 0
-192.234996603371 17.0792202805222 -35.3560410985343 0 0
-53.7148621020228 20.7696626839044 19.0259260593897 0 0
56.8331906903004 15.0878914480732 2.49780346466695 0 0
168.943642494709 -13.7357738441828 17.9651715247437 0 0
-124.226238842819 -1.0687492158285 0.297169661383832 0 0
-130.819631126722 21.6492829968424 -22.9285978246473 0 0
207.749880277283 7.69616322882198 -11.6064778478784 0 0
-129.195569079343 -1.16811658613362 -1.18933323267062 0 0
-208.928573595052 11.2180756987158 -26.9558631277737 0 0
198.413929452248 -20.9529505730555 17.647870556672 0 0
201.631270148039 34.4183772345295 -30.5908394487341 0 0
156.890888558893 -25.8917970710748 -4.92427690511542 0 0
-164.556840386047 2.62996865361776 -28.6476264008395 0 0
-148.507879799982 23.7252379269242 -26.1548488051609 0 0
187.446790454077 -4.0168627706463 19.9023819357562 0 0
172.595283086418 -23.3309307456538 -22.8014759121807 0 0
43.114412121773 20.9762001857213 5.89113468257902 0 0
-108.551950355208 -0.969444483350058 1.19150801054234 0 0
-121.914802714397 8.81190525453959 8.33512424259485 0 0
182.337552498468 -19.1151354415623 -29.2585980053297 0 0
-14.0463143681532 12.9278482786581 -1.87359901192942 0 0
148.251773960499 -21.6340565105853 -1.56121636759339 0 0
-199.461674201648 -22.5911040414526 -15.5234985168508 0 0
210.963449581265 14.6178608753067 -7.20609069159216 0 0
205.746356090605 6.42610342364628 -15.8733974492502 0 0
-203.031252320823 -6.70354138855216 3.69841177146237 0 0
48.9427760945179 21.6704379583473 6.80382374774938 0 0
10.1945939263189 21.9193433599156 22.5179013403843 0 0
-172.890632972671 -43.9724837732931 -4.90480356577495 0 0
172.558669519439 -20.1909533727099 15.7044619922204 0 0
-57.3347663173499 29.0082939734026 -1.56654331641775 0 0
69.7307474101056 23.1463237051736 14.6482606550896 0 0
-179.732380763303 -34.558647847273 29.0019082060068 0 0
188.341074163684 -47.9848336083213 -16.5868111699707 0 0
190.784007199703 -39.5120439908935 -43.3216926932988 0 0
174.125320143922 -2.26518113965805 20.0484085988628 0 0
161.135672864033 -27.2442429130977 -7.04583672752038 0 0
-74.7073647367071 0.272093769266831 8.19886278985651 0 0
171.357313082582 -14.8631637043546 17.8376979684376 0 0
-144.2543887301 -9.9439916608049 -29.2591588417183 0 0
-183.553152439128 11.7412519381978 -36.2948676642864 0 0
-131.107333098593 -1.25805949586475 1.08139872599381 0 0
98.2850654511224 20.8910072991392 7.78095511544335 0 0
210.301129196956 -27.4075643069853 -31.3865396719633 0 0
165.61092486132 -18.2329161576927 15.3639486479997 0 0
-43.9971438453142 23.1860941613332 -3.06395478099315 0 0
-161.366564223453 27.4082496738818 -0.707414583377521 0 0
-217.414526599449 -30.3069367647304 15.3294145992057 0 0
179.068744219654 32.6861553110341 -27.2165021403599 0 0
190.003722852202 34.7648195780578 -28.6067755141748 0 0
30.5783674604293 22.9714645968515 6.5711327675509 0 0
-124.688758123379 2.5039279063698 -14.4879353264794 0 0
-174.981040874733 16.6065228629606 5.19906636338519 0 0
-166.999262237434 1.75289195635814 7.15203575809899 0 0
21.8527293772616 18.0880938899389 2.86752836056521 0 0
-172.194090723494 36.7283625591145 -18.0372971402606 0 0
153.40123742468 -24.7344491786433 4.63504854453986 0 0
142.52651418367 4.17970395710101 23.1817014819756 0 0
-21.3612492326459 28.9269681854651 5.78182955297181 0 0
-187.021754046127 -58.309816089205 1.91012672079754 0 0
197.735825328006 -46.0517660488266 -32.7666057075494 0 0
-162.734790287626 6.4782288464883 5.75360877053463 0 0
176.462967825388 28.0389738939109 0.992308209736599 0 0
-167.905751267369 -4.52922286999318 7.70130401200096 0 0
-195.677697537746 1.64786524918713 -9.61224743654837 0 0
16.3426227527202 13.7485971794995 0.401692241086751 0 0
-155.303560834961 13.7984430622055 3.29564465427329 0 0
-188.524263593187 24.6395743939931 3.71362489494868 0 0
-144.464841030609 -13.438156993567 -22.4557994060629 0 0
-178.293840163505 -10.4177371153677 -14.3435296307896 0 0
192.417729429528 -9.99456795029422 -18.5016812519882 0 0
-64.7482391727744 31.0807855462044 7.55099631048701 0 0
-163.842098503224 -16.4619022891191 -4.21056340299791 0 0
-159.873315107844 14.326719845872 3.12324971593374 0 0
76.2136122182774 -1.10625936887785 3.1278549475557 0 0
181.964289025145 -11.1381756488072 20.1477529964886 0 0
156.22381683129 -18.9872215555821 14.1811129150879 0 0
-184.208704378395 30.6382758846348 -0.480314387472117 0 0
-165.575590357919 -13.928645955117 3.69076577018204 0 0
139.156845456971 0.116847656086249 -6.14960537440377 0 0
201.801664265188 -44.4892623730466 -7.31375346011661 0 0
-39.2717149303725 8.22657554812172 -3.84287999147476 0 0
-79.9173113776345 16.8562826372209 15.7965695994812 0 0
-16.1711774809758 18.3648108681904 -0.0681097800306106 0 0
-211.291912541722 -39.5531888047281 -10.5053256720727 0 0
-180.328144340183 -40.0861077083246 -15.2285987569367 0 0
-211.231820945135 -25.2618020927371 23.9010204704966 0 0
201.451279031801 -39.2294413063845 -40.125407748931 0 0
139.793453126101 16.4070381131248 -6.18581424629478 0 0
-130.975179075755 18.0463730926583 5.73239059811196 0 0
-86.1675967029941 1.62330235139228 10.0272797791057 0 0
-196.508502602704 14.3258118494473 7.72350523329654 0 0
-58.0540026554866 0.349062946912081 10.4422856311451 0 0
174.356413490892 -37.825479564372 1.16791642388771 0 0
-110.833444427722 5.8456912515687 9.50085775571654 0 0
-183.948679826646 27.2866450316553 -30.1633543840354 0 0
-189.410522846143 -12.7566188036981 25.0017893602182 0 0
-175.894741559843 3.90756562832202 -27.9802186914412 0 0
189.872222163627 -9.48889973931826 19.8618853457818 0 0
145.85727152242 21.0030292932256 2.49639753177049 0 0
183.824510329958 -36.3174338188982 -42.4154485874415 0 0
177.140649534359 17.6960055683956 21.3258347798146 0 0
189.38960462258 -28.8472179877837 14.0935251012445 0 0
185.552750038679 -9.16722446187698 19.3117232548011 0 0
5.08175459323778 18.7148390965277 1.82730438216621 0 0
-46.2361592004169 1.47633016629726 3.67857672122304 0 0
42.1754395866854 1.18777684700821 3.63835505655647 0 0
89.9250217447812 19.7984145858137 18.4251307857754 0 0
-198.207417275213 -20.7850298267396 -15.5202309157395 0 0
-183.647099014674 -2.26228787940045 12.7966082415432 0 0
101.128700064266 -12.3587586286759 13.6722937320576 0 0
82.4946364712595 -5.81646010153635 21.8270933094789 0 0
-173.869217858371 -41.1031790484149 -3.97065385839057 0 0
-97.4076642745638 20.8401505885014 12.0205907996695 0 0
-194.882732730891 -9.26397850267517 -11.6950381906938 0 0
200.61768821094 -46.5577567692579 -20.7025418360022 0 0
-192.853270900822 19.4303642914658 8.61401746425165 0 0
150.743577839683 -23.9131176371201 0.579467428351795 0 0
-176.159312420634 -1.55459640959418 9.76264476175874 0 0
184.121829591697 -15.3460563713172 20.3181359195287 0 0
202.211674538159 24.6742913182507 -34.7261197402404 0 0
-211.615232688438 -41.3253240538283 22.0543275723437 0 0
179.638648063743 25.6699247420349 8.08118069333967 0 0
189.858986931273 -4.75979815144262 19.3322235759128 0 0
204.889535634532 19.4621696211646 -31.37100638181 0 0
-216.669325372294 -32.9517990153002 16.9352365825543 0 0
-198.871127062832 -22.6779740082904 30.1859832097404 0 0
-89.7816166871545 31.3836199591723 -4.48178062886997 0 0
153.057087036892 9.17771943975015 21.7858911056037 0 0
142.89903637196 8.55239988303127 -8.153227503023 0 0
-143.153226158631 -3.51480938587351 -0.713877318331155 0 0
200.814710474687 -12.2610604752144 -17.5973853533509 0 0
179.632179002965 26.176573000361 -35.1652179559201 0 0
181.878389875036 -30.9116708486178 11.1116162536955 0 0
-180.688400559912 -48.4196374650719 22.6252812338335 0 0
-18.5791522043341 12.2836915248894 -2.60464584634958 0 0
-176.358276596457 -37.2853919071721 -6.72150787176189 0 0
184.166260455307 36.9457862841169 -17.332913401487 0 0
168.559064694071 20.5255495634065 -19.4947773501346 0 0
-105.400231353295 21.9362089410539 9.97474360688345 0 0
-216.507325260276 -39.524913082641 -2.09840983330396 0 0
173.45223670284 -6.45432411640953 -17.1535893454043 0 0
-77.0465184516342 22.3012190794458 -11.1964743793876 0 0
-191.710488605528 -59.3697538825108 2.37136420303876 0 0
207.472170457084 -19.6329548885623 13.6332816542474 0 0
-94.3567784290982 -0.0438788255881334 0.69106423930415 0 0
-38.7359631100332 14.1891530201665 21.0916780685582 0 0
183.778021837292 28.9734558016157 3.08584645201739 0 0
-163.007094587216 33.7720697529405 -16.441258258318 0 0
119.67707664637 1.45333286886693 24.3335370504682 0 0
161.389942683712 -29.001056942949 0.0918090788825032 0 0
211.212075994341 17.071743221767 -6.33651263579271 0 0
154.787567658162 9.89271726771782 21.5376694793258 0 0
172.793283506386 19.5870569659317 16.3364434427193 0 0
190.650575487574 -47.687821000891 -18.0014469571129 0 0
-168.539899127482 0.0727350645069959 7.22167876967923 0 0
-76.081008291344 31.3435701938096 2.31612642910374 0 0
207.581309250612 -15.1192374326284 11.1736198206575 0 0
-211.421240016139 -29.5048476756614 24.3454942686662 0 0
-213.92646529484 -19.8615666447025 17.2847886416981 0 0
86.3945986514393 -9.64899940792771 11.6008197285684 0 0
40.7083956897772 -2.61705579263881 8.15186400717144 0 0
-183.387178617217 24.4259526828384 2.68771535708925 0 0
186.779757241639 -18.0900704827225 -27.5194110332521 0 0
-44.4399181205778 10.7187570749271 -5.36323736365802 0 0
-194.217108886371 -5.17227748083443 -11.8118148067948 0 0
-190.286800468961 20.1280661742565 8.17589240687181 0 0
65.3115236946217 23.3658678000923 12.1408433607088 0 0
-163.551230024792 5.22991258559336 6.13046822880057 0 0
166.282628886111 26.2791841440058 -12.9364798701469 0 0
-14.2212042290064 -1.04711321397069 12.2536130447531 0 0
212.385323638682 -17.5456192078015 -16.3523509089174 0 0
190.448470444324 -41.8255823773815 -42.0630687033745 0 0
-146.118926445108 11.1586488440894 -28.7487473956288 0 0
-179.311444881086 -5.78366928138586 12.728332701995 0 0
30.8694407876226 -0.764490435057389 19.6195419765848 0 0
-209.960410879776 14.4994077358751 -21.2067562616126 0 0
210.474939771989 14.571929273606 -10.6035478903978 0 0
-108.632131369867 18.547634128212 9.9455647148726 0 0
192.628340167938 -7.09706836523668 -17.2283623803341 0 0
-142.480660569939 3.17841744835921 -28.448435723163 0 0
-187.07779057457 25.1718563162709 3.37652956938015 0 0
192.665624376752 -12.0192298995369 20.069755039818 0 0
63.3041704332799 10.1489816756535 25.3694625467208 0 0
-42.2198621852305 5.19049189410152 18.8644679869534 0 0
173.743804940669 6.25909051020118 22.7089900603843 0 0
-100.09588939456 31.1005631381506 0.239092019579556 0 0
-60.8485167638554 24.2714944744241 -6.88881947138108 0 0
180.700914675768 27.8661656197416 4.0688758862637 0 0
52.7121667709588 5.3572415738683 -0.522314460107607 0 0
-199.086633860481 -37.4630581737109 31.1353098836827 0 0
-38.3006677735797 22.0450531860366 -2.20541132335521 0 0
37.3729415156131 6.50708371925268 -1.13562029849773 0 0
-142.254734996739 21.0710541478496 -26.0315752410065 0 0
164.606932262457 0.325418422342815 21.1416871488821 0 0
-34.1724131327144 15.6324439509994 21.6166278914279 0 0
-180.440328656822 -0.26599010578429 -19.1278289735198 0 0
209.982648224398 18.5403753553261 5.48470034987658 0 0
-191.397861656976 13.8298865130328 -36.2185473447089 0 0
-43.7794771562235 17.6752324598311 20.593342582565 0 0
162.800479735902 -1.35232924299615 -11.1520544685736 0 0
211.210572417059 -28.5566862253524 5.76679000059343 0 0
172.068072652216 -28.7749626488344 -22.841035123604 0 0
123.448427305746 -1.17860787769658 23.7935499902104 0 0
155.390333520265 8.24669210269684 21.9756579428548 0 0
-64.3121483906113 7.63563748550923 17.0393098758172 0 0
-109.770057892835 20.2880147733634 -17.645016570109 0 0
5.63258512069162 25.2670924482275 20.2060961515105 0 0
213.605763757728 -38.8750925755936 -12.7565257101187 0 0
-104.094733902806 -0.405904594120808 5.95661747030335 0 0
-74.1133947659196 20.0407475573808 -10.6754397557151 0 0
83.4967510644532 22.3503578813268 12.8323185891627 0 0
14.3605669350629 25.181725051649 20.050024119287 0 0
148.791288121239 20.9580303404714 5.9189857031314 0 0
153.327626752499 -25.0435156611169 -0.909366008603599 0 0
207.120084968221 20.2128089259652 11.6750516803201 0 0
-159.680237511455 29.6249980270323 -2.77378106881472 0 0
-184.549615040309 26.4867762292815 2.50607240197727 0 0
-54.4378695463176 19.1068860690575 -6.36915683111296 0 0
190.824042712494 0.764996517390874 -17.8116812829896 0 0
180.917080478203 -42.9016250739115 -32.5754047493286 0 0
-182.818753963174 13.8796191045454 8.73297553877192 0 0
32.4643144206128 -0.0181980682597649 5.85774217121102 0 0
-121.712797049291 22.7102539584417 6.35296215225881 0 0
194.290777588036 8.56991285630712 -26.8891849275743 0 0
