"x" "y" "z" "f" "a"
-146.779489454133 -18.2358064098392 2.35827171683756 0 0
184.132284027184 41.7181751274404 10.0143812112595 0 0
180.948360692334 4.93102930446564 -18.5813637451206 0 0
176.664087278635 12.7488990510776 10.2758246623671 0 0
174.69271246842 -10.1165387445903 -23.4251481321608 0 0
-208.01637278917 -3.51568014119065 15.5435842491209 0 0
-236.579283978241 32.1555478814421 13.9002575975353 0 0
178.157356602598 34.4416350676999 16.9183538014518 0 0
46.5166044983271 4.61921042243936 -5.18494620393049 0 0
195.063605176496 37.9980675563334 25.8729580291678 0 0
145.191288313566 2.69125437846156 3.02265745613767 0 0
-213.758457222411 -29.7833215968447 13.9713825691143 0 0
-213.320427478223 -22.7946099520529 -3.3696334751524 0 0
-226.504782766902 -17.3816671561011 15.9009915620819 0 0
180.352081366477 -27.8502498440394 27.2888023179147 0 0
-219.937012181732 32.5891355515842 -1.67801428610966 0 0
201.273680772801 -33.4681931776452 10.5501490733905 0 0
-147.580372787816 -14.6576292809186 12.8502454504844 0 0
210.772201955714 -21.6951956380703 13.4285695607103 0 0
-233.093377486176 6.16347239675559 -21.2666131807576 0 0
-157.952710693057 8.593978758132 12.5375298110224 0 0
-257.063779891727 25.2422595245707 -12.9474398690265 0 0
-237.443106509148 0.649929500112934 -3.43788171455762 0 0
-168.59680794321 4.11744794322983 18.3570047737014 0 0
122.477557297124 14.4638760021288 -6.73300136827563 0 0
146.389547945739 4.99264147034511 3.00255082052523 0 0
-112.339213022053 3.23032973643017 -0.0488304888397754 0 0
185.664218991681 38.9947290965802 1.49801513929103 0 0
44.330088946447 -5.97031489242831 -24.5167207984618 0 0
196.034979094162 -12.2077916097282 23.411375615044 0 0
-224.103594501706 -19.3290753524831 -1.35891416750958 0 0
-185.324676024733 5.20024268715264 20.8176522220004 0 0
203.976357060878 -25.3485801087788 -9.37500363759723 0 0
165.857273607116 21.4237624305905 -8.2313649197945 0 0
-239.082659668873 8.95603570388317 13.4135998005354 0 0
-211.360952949484 -11.7962878242493 21.4169285578942 0 0
-64.8295110874288 6.00735309292399 -12.9645477732227 0 0
148.57762042702 -18.7952185631747 3.48893424110496 0 0
-254.643535117117 7.02089363470563 -5.98107891586221 0 0
-193.826475277746 5.60209778988623 16.2392220243628 0 0
138.727693800169 15.3646620051551 -1.63054144820689 0 0
-21.7605880394869 -2.77020440978739 -24.7144820154884 0 0
108.616906460861 0.414343512706408 0.732923038836861 0 0
-229.202652970225 -13.5572862353425 22.5945882690842 0 0
67.8801047720442 10.3410226071202 -11.816961058363 0 0
-225.762221753804 13.4562104702601 12.7487119921746 0 0
158.883573885236 13.5353953215382 5.7463121837362 0 0
-215.621934036154 0.759617695600697 -11.8700767665969 0 0
199.613225797461 -33.9749369103694 15.848800089237 0 0
160.42360004977 15.4680017726857 6.52095429075237 0 0
170.885700867258 -13.3177893359849 12.2433341231705 0 0
-190.634387176758 2.56644437849819 22.9927241568196 0 0
-254.57625925204 32.2925991709489 -8.61824716590723 0 0
-242.914333716189 2.07344742444058 -4.87575861983027 0 0
-179.401424695367 18.4183761079309 14.2360253883362 0 0
129.539586985838 -4.83173731747334 2.98105840133812 0 0
186.492251917677 15.1906018340829 23.6712021163217 0 0
205.73772928545 -16.3841766390963 -14.4395687874123 0 0
-225.009946558404 -9.71716912552458 21.0892003469638 0 0
-192.115188761498 -29.1097962463522 12.1408554044544 0 0
-255.778643008443 31.7976970180057 -2.49565692009041 0 0
188.919221398961 35.7696800260805 -2.66233942019832 0 0
-225.947427829403 21.2781141340524 13.966794307728 0 0
-214.484292456878 8.59306912730778 -13.4530460046712 0 0
173.518588178277 -27.5501521607946 15.1900634878937 0 0
-62.0545460985579 -10.2527700782995 -20.8061288859248 0 0
172.84782380724 -20.6075505289727 16.292976123072 0 0
-208.268197963052 13.9259376417946 8.25100703145429 0 0
184.804926143509 24.459891110921 29.1395598960295 0 0
-143.207733947124 -18.017082492877 0.341535608106358 0 0
197.888625415218 -17.9132438129591 29.8928237136935 0 0
-141.182811357286 -15.7840387304506 9.85316415092302 0 0
167.882050140332 5.76261796069396 6.17802978997452 0 0
-223.169862720341 -20.2315287102126 -2.47977213606198 0 0
209.311202012408 31.4430427959502 0.606612465878383 0 0
201.654079321521 -2.93315931489294 -14.165962569177 0 0
176.746240331908 -13.9423561247302 17.9127030521323 0 0
-207.93812911795 2.05402266452005 14.5570230144509 0 0
-257.123823082918 28.7654255875594 -7.54313342593117 0 0
131.524444273216 6.61530872228671 -19.3073525335855 0 0
-49.4006172016515 -15.1825105595119 -12.6807128536868 0 0
183.291426258122 9.93705442047839 -19.2663600065555 0 0
102.617192886279 -3.19296513797944 1.23670546269166 0 0
192.480233284227 -21.7042155878512 -23.7390584452144 0 0
58.2796772507943 4.88857962633583 -22.268072089315 0 0
-206.244104474113 -10.9930323164535 30.9763603889671 0 0
-75.6232553547523 -13.2242997364416 -16.3496670770221 0 0
-102.417706903641 5.10370823304653 -8.55908694850189 0 0
-89.0946229309401 -11.2730871109946 -16.8332769750327 0 0
159.318353653651 6.16425189857655 -18.9413350251534 0 0
205.421174183091 -31.3696615594726 6.45276054676282 0 0
-217.869487145194 25.3100131730835 -0.760161831632972 0 0
57.387785671073 -13.247109206608 -15.8430011835912 0 0
153.512671181896 19.270111557336 -4.6490937720014 0 0
-199.481182054065 -18.4159552242977 -2.2706573592414 0 0
-53.868097917266 -0.549535273444218 -22.932697120725 0 0
184.481037227132 -23.0994231305738 -20.0306938722392 0 0
131.764647556139 -17.1816515235159 -2.65897459134846 0 0
178.937973656981 8.86157788870967 10.8548032887777 0 0
-206.969608639168 8.16859739200267 -11.1527878006474 0 0
-220.823580847713 -4.45324298742504 28.791680515608 0 0
18.5605945606874 -12.5312232679957 -9.03623314979364 0 0
209.768821459216 14.6872699811438 -13.8533129041955 0 0
75.968891491313 -13.9657787170704 -11.966066202357 0 0
196.969033137137 15.1815652105335 31.8810067328162 0 0
184.161894310151 20.0445949807687 -18.5384908643892 0 0
-119.572515630336 -13.6821348289889 7.50534607962125 0 0
1.58344089667505 2.87352457743158 -23.969781899517 0 0
-49.8546404392644 -13.2680300737436 -6.39063418348105 0 0
70.8815614907499 3.47840382503893 -2.01880427276407 0 0
-150.71559577095 -11.4499025488988 -6.85237073166514 0 0
-239.9004277166 40.0285960323005 2.99440587266098 0 0
106.188621984485 -8.8508893254218 -22.5220785456153 0 0
-247.865840413626 5.92696207411517 7.28245896525901 0 0
-214.06534821548 21.2837307289949 -6.04736425737189 0 0
137.712269205511 -10.0710123001333 -22.4271528647529 0 0
118.294457702301 -15.2253088231905 -13.3455085570346 0 0
62.0218455908703 -7.02372766343956 -0.342115442951942 0 0
186.255023474567 18.1273554316269 29.0290494435923 0 0
184.193133952858 2.51513496697046 14.1017365838149 0 0
-228.070375679331 -11.5228770945028 26.1366262368618 0 0
-253.783630349244 30.3441610086156 -14.2395380611511 0 0
-245.952342164863 38.3189550273759 4.88308693935722 0 0
209.426791699823 -19.6180505925895 -5.22711903495682 0 0
-241.713321195782 36.8375573739494 -13.8135754704684 0 0
206.2134945174 18.5217116355822 31.5594146442145 0 0
206.394532594673 -22.2493237435727 -11.695674253533 0 0
144.460855554324 14.8235656711877 -12.6459755395848 0 0
197.404389764231 -33.7187070430848 4.78614617541191 0 0
170.741989149941 -15.9582810441451 13.7240065119239 0 0
142.132322764274 -16.6118381271749 4.27317347973413 0 0
177.025052775455 7.61695033374261 9.21783843939659 0 0
177.051666646441 -30.8301622765133 20.4291619160812 0 0
123.734259500219 11.8594283343425 -2.45147212792286 0 0
170.980938579232 -20.3840601893907 -17.836626605688 0 0
202.030431162529 25.7359515858666 -10.7360065964839 0 0
-145.219589443189 5.40459734395647 -1.07440049692726 0 0
-56.1954255110198 -7.1719388745628 1.13800061768191 0 0
-195.57905616354 -26.9871806027926 0.788496953607821 0 0
155.315348736594 -15.1383462053773 -19.6208187997364 0 0
120.759978153269 14.2829947747056 -11.2586855821957 0 0
174.457789765455 -24.7314933127604 18.5628706249308 0 0
-3.34872873603885 4.67779854893879 -8.36280549550601 0 0
-173.349873648003 18.8768390398797 14.7927812521969 0 0
-168.467682652784 -18.2635571415203 -0.210355335564347 0 0
-124.577254510642 0.57513686491774 -13.1916616452176 0 0
-157.411316119236 5.37018625527439 -2.44102270669532 0 0
181.184156172365 -8.45993005116243 -23.1948026076393 0 0
190.186007818057 14.8497876542676 29.2474572951698 0 0
176.747476665719 -29.2068932294673 21.9130020877584 0 0
-239.13914432444 5.48579102491456 6.358478435097 0 0
71.9806564939344 9.03620786045361 -19.1472408479276 0 0
-196.564843723354 -31.6940531061033 7.03582236993902 0 0
203.66092250792 33.57922182915 -1.67936524910343 0 0
125.99777567067 0.816037281859786 -22.3161928244524 0 0
180.61119736512 17.4476925384959 16.1749399609998 0 0
138.720991192823 13.9000268761065 -0.106711831550969 0 0
-75.9338562072848 4.89585929174126 -9.304342981446 0 0
179.860206935559 -32.6891743845842 21.4214122332693 0 0
-242.116774146486 38.4378526870716 7.00880358087377 0 0
-249.134208489837 2.04758805166417 -6.25166842985275 0 0
181.7991637829 37.8344180354163 19.932906976581 0 0
206.678481243475 -3.23225390918078 -2.68454196971449 0 0
189.982831434525 -7.65243140629036 20.5967113606077 0 0
-223.353401292963 7.37233221186583 12.1799915743334 0 0
-156.1734189107 -17.2563667893939 10.6074338137325 0 0
193.961602946226 -8.49175679949663 19.2114545728519 0 0
175.539947360753 29.8782105058073 13.7816763194582 0 0
-95.0166525647104 -12.6562682752007 3.52740727704939 0 0
-27.8522104809037 -14.5135354962123 -12.9163338326349 0 0
-59.4913787105 -9.9235511627912 -21.2891174865025 0 0
97.8410526104196 6.96982941119901 -19.9233814058645 0 0
55.788023354231 4.22402582072239 -3.76798905578164 0 0
-123.443578312878 -17.5714017354078 0.299761399133808 0 0
122.848914496721 11.9648446054158 -15.6009625253821 0 0
144.261079788254 -15.4479125544233 -17.1995487034109 0 0
-137.276775074952 -9.79663760226716 -9.85045015943782 0 0
-227.24311851654 -20.9757044226723 22.5349609214434 0 0
41.6734153402049 -13.0220531296449 -17.3803335917366 0 0
117.572830117559 -3.47019044147107 -23.5609032700865 0 0
-65.1225283906474 6.30479529114852 -14.7828234648151 0 0
-143.151599170313 -16.1330717231563 -3.72335853046145 0 0
-244.779474302425 6.49274756561563 9.46511900786152 0 0
-214.831245546793 17.5952192933518 7.0442789054161 0 0
-25.2207396330392 7.09686861224873 -19.0868978559447 0 0
169.840309767108 4.48739501484232 -19.127919239454 0 0
-114.012044885584 -16.3751002450841 -7.65141686916321 0 0
-243.112489349013 36.1025303634994 -5.78496480095788 0 0
91.6334571788422 -14.7404693141644 -6.06762465184163 0 0
157.299824802207 5.01970151860798 4.47885452395109 0 0
-94.3072061004146 -17.2335343792016 -7.05129162111539 0 0
-101.634159436042 -15.1181983437639 2.56671273631202 0 0
-79.6903536540573 5.0330796881866 -16.5717401947845 0 0
175.428187209101 9.28407120156857 -18.5974419228747 0 0
-221.245822893458 23.9970333037064 -19.4249235247408 0 0
209.880676431914 -24.3131641518471 -1.00284949591689 0 0
57.9060625354456 9.18498632493221 -10.9599393581512 0 0
175.676198786315 22.4968445353201 13.4162304566923 0 0
97.9326459336783 11.9035904962464 -15.366230069623 0 0
-227.480961629278 39.0155903529467 -13.0138508970195 0 0
-167.504480186491 -17.7222068156912 13.4538635772909 0 0
-220.664557100876 -8.22384406297649 7.36511189723754 0 0
-197.211799462831 -16.7783062136925 -2.73587344542363 0 0
137.644033009391 -16.4069014075859 3.346187552244 0 0
-58.8428215941716 -7.2229839826403 1.40027599659361 0 0
-228.03983264166 13.9791737956648 13.2788431499806 0 0
4.34642195993057 -12.9480056741255 -20.21943090418 0 0
-225.613324091251 15.3294115737628 12.9999223995702 0 0
-188.964830893525 -9.48647163715976 27.4176638567565 0 0
-172.297288156135 -20.6578824719123 9.7433656351823 0 0
52.7528324837627 -3.76992280406457 0.335642197516732 0 0
58.5995906198018 -3.34657200109025 -24.7794049293277 0 0
165.648974692728 5.72338606825194 -19.0088581606071 0 0
209.272080786247 -14.6035121618452 4.3287115837085 0 0
-192.330652838226 -23.1049844316655 23.8178825099506 0 0
155.400888499033 3.86206412774432 4.21917147947227 0 0
-236.752588290164 0.509004981248125 -1.72615966605317 0 0
-216.690593898352 15.6180971057101 -14.434956628806 0 0
179.41249382901 16.1928904331786 14.1928401435246 0 0
164.177568169914 19.5210740977501 -10.3316564549057 0 0
116.028409730666 13.9158588286323 -11.9092424677415 0 0
-149.238255070182 5.79524526536451 4.94803388361709 0 0
35.6253474543265 -3.78054892550257 0.171266692113596 0 0
-154.950498642865 -5.87393057550116 -8.32982983188637 0 0
183.26561228078 14.2012280174699 17.1659230841614 0 0
-191.010814619031 -28.7348918087619 5.72488303337995 0 0
192.883079581651 34.29804401678 31.2138480383751 0 0
155.337525922694 -20.7457042360676 3.454097169975 0 0
-247.383118414974 1.93708954122419 -0.968053837070543 0 0
-250.791881532854 31.1671938485329 8.67252154007233 0 0
-214.099575162824 19.5306513758274 -9.65704070358571 0 0
-170.541663868627 -7.84060047433783 -5.8092743537266 0 0
161.804419914289 2.52314853209735 5.31126966965779 0 0
-238.165644369434 33.5208706492324 12.984504873692 0 0
-106.997339409625 -10.0894207863589 -15.0349125395524 0 0
171.852943661642 -14.4390629717845 -24.0533679408578 0 0
-224.547600796211 -16.9877231679956 7.10114466825981 0 0
9.95457179449268 2.8796361375462 -4.28085438162225 0 0
56.269607075815 7.66251755054585 -20.5912701563994 0 0
-60.8214476828941 -3.71984997042453 3.37305338413255 0 0
173.998070393772 -29.7835059001767 14.3226541765016 0 0
9.05017126436412 7.86037353987696 -14.9533020005392 0 0
151.630660653948 -10.5883566401887 -22.5313859082305 0 0
169.175374393809 -26.7450178849108 4.33993709198081 0 0
141.973150804284 14.9368953507658 -12.2033150846885 0 0
66.8009462217111 9.7006846017266 -18.4114681998495 0 0
149.953621664428 -19.5427976238971 1.73818078028027 0 0
-208.012585535859 2.27183418560597 -10.7517424262688 0 0
206.825500176978 27.5210936157203 -7.31147810285372 0 0
-238.313300088608 37.0248582679261 -18.7398913485077 0 0
106.378689677577 1.93673629224929 0.251048161618535 0 0
-37.808554135366 -14.9063685397646 -15.550214281497 0 0
-88.5241198757297 3.14758996488656 -17.239925209505 0 0
201.654411580275 29.5844881364481 -7.79355730054346 0 0
-203.871078125073 -1.26048686885142 23.3353754093928 0 0
47.6596564093952 8.27437000647831 -10.5835243880559 0 0
-251.202234771173 8.12321430601843 -16.9914872243197 0 0
-255.387708947534 29.132759009616 -13.0036080762068 0 0
-193.002982143251 1.92015384519108 21.7160327041323 0 0
208.891289347904 14.3634742121845 -14.6000929883391 0 0
-142.927690721749 -13.9018095674889 -6.20368490520776 0 0
-37.5492092748853 6.94530899044009 -16.685450601677 0 0
166.060638605673 4.11317821319754 -19.3083825232064 0 0
210.079367113616 11.5326390900793 -11.7013987983616 0 0
183.820444590337 40.7461874206474 8.02129974146977 0 0
182.477641046309 19.9718766508228 -17.8184023067853 0 0
157.497732654034 4.78552011660744 -19.5353037395707 0 0
173.998590299603 -25.8768304728594 -6.07714497169756 0 0
-126.237655548968 -12.8788492896777 -9.86739514994213 0 0
-185.498265633599 13.0769979151992 12.5298861937226 0 0
179.027484167012 -36.9157904082728 7.78557394932641 0 0
-227.865168210429 -6.42544187114245 -5.03131642004265 0 0
-115.727612982965 4.75466839438839 -7.22099782030522 0 0
-175.198313346921 4.32995873981806 20.212716857579 0 0
-233.543146057116 9.2616894229769 13.1969795996819 0 0
-210.486149829306 -23.8486577253879 26.9922722198185 0 0
-202.297295017007 -7.61220026957696 30.7213351441348 0 0
169.78223317301 -14.9864000545451 12.7992429361931 0 0
-236.798191874037 41.110823192715 1.11785724165222 0 0
194.693557001512 33.9759329732983 -4.29502792600374 0 0
-225.69143013394 8.75513655458082 -19.7124271399671 0 0
146.049198169458 7.3129857244604 2.98699133163664 0 0
207.889582840582 26.6425127748628 -7.95896030776847 0 0
-69.4876037084087 5.89595986019071 -12.155132967671 0 0
218.33800495467 26.8639603066842 11.5879774841987 0 0
206.183270460446 13.1433812836356 16.6526193928556 0 0
-129.533474106112 -7.65368036876422 11.8674845546159 0 0
-219.697185261739 25.8653118363499 -15.9799276903978 0 0
-213.021254993017 -12.1672015711551 20.8510833347972 0 0
175.134798233297 -21.794780634915 19.0923157860392 0 0
200.671222228854 40.5010363110773 7.81560207526259 0 0
202.01427774358 35.112592426296 -0.251691380815624 0 0
-225.56200781671 -11.4856273753417 3.24167508965355 0 0
172.607958683707 26.4105937202774 10.0252695430884 0 0
-232.230970380919 4.17121321946314 6.89456122820065 0 0
186.205997351466 25.4198975796213 30.3212000449755 0 0
-251.542423680079 3.79175209310452 -4.86614066499776 0 0
191.940431638333 -10.6846544533339 23.3213301824667 0 0
-139.165955721397 -14.239193009411 11.1234436712441 0 0
173.333580811446 27.8656216607429 10.0536017331516 0 0
-194.151542155118 -18.6256882564229 27.016150082732 0 0
185.986697993725 -29.55509505579 -7.7547319278375 0 0
-189.705109897573 -28.1161088557859 7.20821886684216 0 0
34.8318428623571 9.27717139214989 -16.4756019851744 0 0
207.080219764591 -32.0240847109255 8.84559103263679 0 0
190.107445679583 14.0801303508891 21.202240810672 0 0
-124.434775029794 -4.70333694637509 -13.7376796113636 0 0
-213.224447766151 -11.7607153064757 18.2257809091191 0 0
182.89743980562 -27.0789711154585 -9.82619161372819 0 0
179.354779493782 -36.7894259791823 5.86719024351597 0 0
84.6865656337509 -7.60640656497247 -23.3299649223744 0 0
-250.848511189885 35.0341449454755 4.776950935451 0 0
208.411557895402 -24.5847449329326 -5.10161203398457 0 0
178.31921670888 36.9142875071847 12.7775236764659 0 0
-252.133894826721 25.2974147493895 -19.9241027300187 0 0
208.591143471012 30.1237485372303 -2.5232768791352 0 0
187.913068822532 -2.53347961283736 16.7595831045292 0 0
-220.042807696872 32.7760374000252 -11.0526920245903 0 0
-225.093432774671 -13.9282146788143 28.3722682422729 0 0
186.886486567076 40.1004859048354 2.93506983663452 0 0
201.476198788242 -31.8480894592706 28.5892374512169 0 0
64.0442220911088 -10.0919820274692 -1.7940375224997 0 0
30.9213941577377 3.67861456919648 -23.4363231289494 0 0
-8.64720275958178 6.46863531735644 -12.7991580162291 0 0
216.716985761365 31.9902863558874 7.50886590529972 0 0
188.160901796216 -30.0346970453699 -7.47200799778055 0 0
40.8423935960063 8.20875721701566 -20.2550184564039 0 0
197.628261790674 -16.924222457098 -24.1155111121085 0 0
139.12941943218 -16.3159137196832 -14.0297673858972 0 0
-216.525288400413 -24.0479294555151 -1.76641855663048 0 0
-249.509075076201 36.0156423835105 -10.4098760330749 0 0
208.421329159181 -10.4129809887713 -0.344601322917698 0 0
137.540841239969 -7.75429880500186 -23.1152625053376 0 0
10.1586288715438 -10.290807320518 -23.2036941388977 0 0
-207.40628912949 -18.147289956414 -5.44478667035653 0 0
16.5843942672018 7.88894276867575 -14.1667131434837 0 0
160.758787730392 15.0097143973323 -14.4820484102483 0 0
-223.098635918229 -2.85034974817045 8.27552660847354 0 0
-189.054948800922 12.449851933005 5.0359556258276 0 0
-127.4389231221 -12.1742357457163 -10.1599583350925 0 0
163.402020163161 -20.7857057581536 -9.60989081420962 0 0
136.946672093141 -17.5513542802088 -6.06782279954876 0 0
-122.761996390729 3.85072023948628 0.810532728035973 0 0
-237.771000301827 4.38893574479475 5.61019217007015 0 0
-216.812135592602 17.5699856084146 -14.003323107973 0 0
-213.428176526492 -9.56379034577493 14.0111562697811 0 0
149.317781393486 -6.3007894230442 -22.9818081663077 0 0
-230.825626165727 1.40344761930796 5.01851898779084 0 0
211.603457467945 13.925369398004 18.3419448252444 0 0
-180.676310785346 -12.2674197918656 23.5451088072988 0 0
181.550684563052 -8.3252358394708 18.8922464059268 0 0
199.355006167933 -32.92433452587 3.66879492998067 0 0
129.6905972505 -3.26522015921557 -23.2890804226796 0 0
201.869678382324 -25.2921992444165 -12.0687319683039 0 0
-216.577574956497 4.84998584854529 -13.144318569227 0 0
-225.202186059426 -8.43914208562616 5.37813638304913 0 0
186.727162732821 -14.2430872626542 -26.3332567487629 0 0
-169.237227178716 8.3940629306702 18.1713605278792 0 0
-195.792175189158 5.28069162145598 -9.07148441824286 0 0
160.400863463172 -22.5992597261584 -0.482583704173908 0 0
-249.23939016553 5.15615142620221 4.44871543814099 0 0
11.7687175952398 2.31086627896585 -3.05679351309104 0 0
-206.775540954607 17.2498037798959 -2.79464222825416 0 0
-85.7480400924562 5.25885863216679 -15.1927821874561 0 0
-246.771835650495 37.9008565202502 -10.3184721723857 0 0
-195.707421175198 1.40770505246705 20.962853286898 0 0
193.706037276523 -34.745436509657 16.3336006714707 0 0
210.780195736168 -23.0006477103258 7.99026119632721 0 0
147.688111481562 -6.95760888156881 -23.0376059753363 0 0
-218.305782923881 18.8627474171702 -15.2468518710141 0 0
-242.143977358819 10.9003712594714 14.2949226553968 0 0
-204.122038052285 -0.986857803859983 18.2386884557098 0 0
-155.602166381543 -2.75673844517611 -9.25927651147197 0 0
186.335234052405 -28.4498842554108 -9.16622752376897 0 0
-102.837195892817 -5.3967282300408 7.64536716694518 0 0
-196.737602701791 2.55971669081402 18.0583888539526 0 0
-67.025274707899 -13.7255294216485 -3.93805154971844 0 0
-163.400244868787 13.2370015698858 13.9795798624686 0 0
-219.352654751998 14.9020066947067 -16.4483287146813 0 0
191.68001057566 12.5124810197214 18.3415887290127 0 0
170.532658491697 -5.90428286183585 -21.6349840884953 0 0
-218.085973888 0.332103385494559 -12.21094113143 0 0
-221.786953512862 -24.3875554346282 -0.648436568187342 0 0
-210.586311863877 1.27559050497557 -11.1863469451217 0 0
185.566786301902 33.5579062889168 24.8770125985639 0 0
-141.790509652926 -8.76343947627899 -9.44029555806034 0 0
-225.631907363911 18.2272139351165 12.8391674051765 0 0
184.115750748101 -24.5373807949817 -18.2551166828748 0 0
-245.918505173034 0.755966779436157 -3.70245607176029 0 0
207.235529198959 -21.480081649246 -10.819293640629 0 0
-144.009040868347 5.34925911672863 3.0519809448018 0 0
192.990744108795 11.4745071734968 16.7792780654785 0 0
175.368563874406 -0.866362740465004 8.85427046763306 0 0
-246.661756110059 20.334779519708 14.9151293080532 0 0
-168.926638417329 18.1539833163514 12.8354162557852 0 0
22.8036888279201 0.0180266831300993 -0.288790665715328 0 0
-192.174285203719 -22.286480363689 0.214204262602016 0 0
-45.6249164516844 -13.6095528175966 -7.73487667815968 0 0
-244.602856597458 1.77969612238034 -1.38475365670862 0 0
85.877617702565 -4.44431617847428 1.03419499951845 0 0
-202.024602062226 6.1167701701087 13.6306695354293 0 0
135.28020209354 -6.39551676240111 -23.2895590735006 0 0
-9.73064913294556 -11.4882383853311 -22.4859225442878 0 0
204.885762222552 35.3356670756881 3.11767116846316 0 0
-218.479046374288 22.4936068365231 -15.2377717204865 0 0
185.338266657001 27.3276463906676 -11.9624188263541 0 0
202.398061923306 7.46687167017055 -18.2617740930384 0 0
167.439530236188 -15.6679037934848 -22.6303951921448 0 0
-235.541268314083 0.987108849991223 -1.60310130445901 0 0
189.480983976689 -1.92586590580905 16.0904937186381 0 0
-216.496200260635 24.2582902520923 -6.09177406861848 0 0
-249.08592449144 20.4556125784277 13.5558730314971 0 0
156.716916317839 -20.9385575738413 -3.14607867849783 0 0
180.683460347871 36.2880254704159 19.3604860357467 0 0
125.48725879794 -6.9078945954166 3.09740615646318 0 0
-191.615727827524 -10.0356646090442 -5.23943830205615 0 0
-158.702824139762 -17.0787375290903 -1.39711881035508 0 0
34.388967393785 1.06109983373984 -1.18231979375047 0 0
208.453902843514 -11.4877303761219 -2.08345625739794 0 0
-250.914533268625 23.126769739199 -21.6884061542388 0 0
-251.315187267938 36.0909947596732 -4.01603466222821 0 0
192.843584917539 24.9840703916325 -14.3328010212846 0 0
162.047906642566 -17.3439054815794 10.2510419930542 0 0
169.600063031705 18.1548003093418 -13.9003736264613 0 0
-219.154001639745 5.69277158227987 -14.5954710900175 0 0
201.108391562824 11.1874662043212 13.0726702440828 0 0
174.562393012341 3.01287928437698 -19.0631641743375 0 0
-94.4047134457708 1.36309389289759 2.00447088916708 0 0
206.276512819874 28.9591326291654 -5.05899075342488 0 0
-120.390240404474 -17.2686117248536 -4.21727589216706 0 0
196.560600747003 -13.6384753903865 -23.9357625279205 0 0
182.333862322298 15.108390277238 16.7075829779866 0 0
-110.269515030241 5.26452544972317 -11.2105766130578 0 0
-137.256789149061 2.88396452978001 -10.858128963108 0 0
-226.460080919421 -24.2296854663069 5.80441788326078 0 0
-177.622620734396 18.2651297264248 15.4615466584607 0 0
-97.5492225616806 -12.4306849382409 4.21970335931881 0 0
167.713337512992 9.748941269755 6.48360873507419 0 0
-169.187129990618 -20.1469708438278 2.91299947065535 0 0
190.131106065051 -27.0688170975292 32.369076644587 0 0
-232.122791645912 18.0125593483375 16.1446232765654 0 0
-163.048259880658 -18.4446270975926 10.0438217565065 0 0
163.901344141515 -23.9201674294646 2.83896832139425 0 0
172.344223886855 -29.5133470478972 6.19464469362521 0 0
-173.221174898031 -7.68844710538586 21.7240824917233 0 0
174.831767084846 31.0799776714259 5.10614381841634 0 0
-178.46946552072 5.86478258047764 20.4158500524908 0 0
213.783012432036 22.7578851656248 25.5616069756196 0 0
-166.816018725614 -13.6451737109402 -3.83548601260068 0 0
63.9853268918482 -3.0321379950323 -24.69652906916 0 0
-139.754133390918 -8.24506452980158 -9.96815538564691 0 0
-223.623719839175 -4.72699676125686 6.62350623139227 0 0
114.973566112008 -4.85663110228752 2.13793874940048 0 0
-47.147523078972 -2.46829503230092 -23.644180325784 0 0
-117.651785915791 -11.18915242495 -12.5117183406925 0 0
175.388836019504 -18.0983923101724 18.4084236199995 0 0
118.287345490044 14.213416395741 -10.9380902935119 0 0
61.5069655592421 8.77787031271913 -9.38705247323575 0 0
-101.788484902291 -10.9271574702184 5.61876707608952 0 0
171.189343817835 -21.3657580907943 -15.7867753617899 0 0
-223.884116948985 -28.8334934667077 10.7216547117769 0 0
-138.580268266947 0.963183044640813 -11.2060409984304 0 0
188.286438980676 42.4388873906753 15.1170171010373 0 0
162.847153405052 -21.5751359914741 -6.55606054081679 0 0
-121.387365533857 4.24935095181553 -11.5591685422381 0 0
-173.121072833713 9.47405012519302 19.0713689025093 0 0
175.036126085476 -2.69051086137801 -19.5998983761355 0 0
6.93214801280143 6.7871168519691 -12.3623688855574 0 0
120.979728206073 1.61329868098771 1.24116759474019 0 0
97.1569302371501 -13.8815324726928 -1.36657917435377 0 0
-207.189588867361 -30.1908139422394 16.532616571012 0 0
198.038620514182 -18.8427100143621 -23.4875603795018 0 0
-226.211805086247 39.5249178777921 -8.57303891038352 0 0
-190.232998285903 -21.7615385615899 23.0666468308828 0 0
183.942470275168 7.67156603709885 -19.1158467534921 0 0
192.795703893013 32.3665205196001 -7.07433941261854 0 0
-45.5953992521618 -12.1086176427204 -20.7661995007506 0 0
-119.870082102063 4.10246605660401 -1.88796083433109 0 0
-215.225694543934 -12.6049873836013 -10.8809575579641 0 0
-109.371713188308 -13.6582968831968 -11.8575645046866 0 0
183.556875298417 16.6350236844614 25.1323519389106 0 0
207.249549817549 1.6151284891949 -6.27603270850992 0 0
-243.012619505519 17.2651097792406 16.0372784556864 0 0
-135.39051817258 -1.91349101619297 -12.14132361078 0 0
193.743189788447 39.7913266380364 1.57552417907531 0 0
-251.352226119219 11.7470134920165 9.40838506789898 0 0
179.459309774561 -12.742784061749 24.3609664725169 0 0
27.7232453284727 7.60663146971171 -20.9090932877483 0 0
196.460409557838 1.87899196989362 7.13144362938602 0 0
141.458841448179 -13.5934744216345 -19.8817972305009 0 0
-222.329693963818 15.8007039738146 11.4971179264237 0 0
166.020802515265 -17.7650432075883 -19.5248635840965 0 0
7.23145380950679 -11.7374837603165 -7.34374428078824 0 0
182.000467666396 7.43812434924851 13.3346087363659 0 0
206.039299970873 12.1886256478232 13.5125743729201 0 0
190.964037812546 -33.983436180514 20.2180310860256 0 0
-231.851566500385 -2.57246299708841 -5.07722563608193 0 0
-217.615148565551 -8.06898916324898 30.9363848834068 0 0
-131.846846124669 -9.33300077209692 12.1922634346863 0 0
-132.805098629954 -5.0776350858871 11.8136534282886 0 0
134.436206054585 14.7908526436158 -2.50193884016496 0 0
-215.456178630306 -3.52454558469221 27.0693937072017 0 0
57.7037145223812 -3.48249938077365 0.271476490908006 0 0
22.9713367501027 -11.1403643576918 -22.197716858841 0 0
193.667191905676 -18.7024392972571 -25.9902059540078 0 0
207.309596941612 -6.11094881258453 0.922359030961692 0 0
-195.626481711314 0.310731756743693 -9.18952917327397 0 0
-234.066967207467 -2.34295325877608 -8.75225717355841 0 0
-249.373982199546 5.25812833441067 1.87008847045609 0 0
187.786259949665 9.77867762034394 16.0582192184718 0 0
204.16816422625 11.9904202870576 25.9431789718191 0 0
215.071060622535 32.9497627440613 21.1738374837451 0 0
-213.947312278822 5.22213120507297 -12.3689066384105 0 0
-233.57792867456 41.5898654298389 -0.176170912228259 0 0
208.086493032554 34.5272547371492 5.5189142172634 0 0
-204.355023096751 -27.5747562217511 22.789710307242 0 0
205.756999250446 30.1494102362951 33.0948512107234 0 0
-161.614733578492 0.27629578724353 -9.1962605170762 0 0
216.220826736589 24.224072948783 20.4910313634051 0 0
170.781662537261 -8.57777211802719 -22.7757349774384 0 0
-224.925767180581 -15.3311988362411 4.82446478528343 0 0
-204.023850039844 -30.6167881218183 17.0251347764163 0 0
177.970646110928 -25.7685340123563 -10.414896630022 0 0
-82.3606811295634 -8.26317643097842 -19.3272705363195 0 0
-249.804415990451 5.64497180732645 3.02996940181431 0 0
173.968655534512 14.6142552545586 9.69704847554748 0 0
-198.609381194731 -26.5462121675416 23.1837815560226 0 0
89.7924983911691 -14.6430925329872 -8.39901336971623 0 0
84.5506986238365 11.9076553201103 -12.7581030470708 0 0
159.341962434963 3.9991835401846 4.83902387905505 0 0
184.732810106465 42.4258436961925 17.7982869366243 0 0
-217.901573268992 -2.71878949164116 11.0625759870796 0 0
-221.588082795965 -0.782617229093468 9.9666898704609 0 0
-108.65239054559 -16.4834017180797 1.10125143970412 0 0
-177.992358613524 6.21832702123103 -2.62272737198747 0 0
-253.647271663394 15.0688482600119 8.63584614001502 0 0
-193.984240416586 13.0031784859038 3.17287465413276 0 0
193.614031815874 16.7304475407699 -18.8200111251017 0 0
-15.7208007751857 -10.9923948467117 -22.9208008611927 0 0
-224.383685999791 4.28908300068428 11.207022578788 0 0
-253.4734999241 29.1305697504899 7.02383336263064 0 0
-4.98690003423807 0.857739615779526 -0.296807265169178 0 0
184.467676414065 -19.9869747012632 -24.6666536264322 0 0
-208.445630202852 16.7041933266634 4.72088307746148 0 0
138.890239166352 -17.7093040139913 0.174327614070201 0 0
123.348576505852 -8.2498344295626 -22.8958928902886 0 0
1.52759115923926 -11.7100866402153 -22.1252562466003 0 0
176.635962769222 34.9454324570535 9.55563837977102 0 0
190.625997383934 -37.9508276080692 8.00872058983185 0 0
-69.4257174849614 -1.15116420880382 3.13229065587755 0 0
-182.341954137087 -19.649079210266 0.170885578606749 0 0
-41.3998726542977 4.10719896840031 -21.9383188594657 0 0
178.858678052438 19.8297842652617 15.7933590731026 0 0
-210.672598675483 -15.8526986941954 -8.61709933497595 0 0
150.990249915429 14.5802000055114 3.7027277467044 0 0
-227.877753333949 -5.85889088699564 -7.20165518291109 0 0
121.148383532673 -12.8939973280827 2.90026980441636 0 0
-175.525137102091 18.9804274513173 7.31089697889872 0 0
-169.206774547104 -20.2994498279361 7.57669317650462 0 0
-246.331392442622 36.9679420247746 -3.16717013051783 0 0
203.813040972847 -31.1359764513933 4.66080679760479 0 0
-206.459892093506 -16.910713733358 -5.79020590504265 0 0
-117.022159031346 -14.3669202487099 6.4615277592831 0 0
149.34510560029 6.06140954489839 -19.2020467883024 0 0
166.531761048482 -13.4587553495918 -23.3204005506798 0 0
198.71029021244 -20.457866339937 -21.4191686565897 0 0
175.236717049849 29.5056251407002 -0.760594279110122 0 0
146.415489393524 -18.7886536166935 -4.48368190637538 0 0
167.952056370356 -24.4879610601249 9.76461717449802 0 0
116.140126794534 3.33757372077088 0.589950330925098 0 0
-63.8538353533899 3.22725055162112 -5.73050212953754 0 0
156.52802917573 -17.5818364364029 8.29705425336522 0 0
-12.5968334006568 -9.00840373690512 -3.25903192612703 0 0
175.541865652266 -31.9199842374171 15.6924672619727 0 0
38.0883606650332 -12.2328766333252 -6.79947076309408 0 0
205.469727769944 30.7023822065348 -3.95159653911027 0 0
-138.86511570966 5.15189770350765 0.0700947605921476 0 0
195.565338420701 13.0251357278736 29.5593042071849 0 0
197.518380999723 -21.6409690554317 -21.6325871415 0 0
195.434693270016 3.49595247953077 8.84861419417946 0 0
79.699312923496 -12.6759375386133 -2.47054932755321 0 0
183.60012901116 21.5153454057797 -17.0717768121937 0 0
204.288110963919 -22.6347121839356 -14.6732247322331 0 0
-186.177045442383 -4.18022166312676 -6.99051246827013 0 0
166.324773676958 14.8397892733966 7.49694917207876 0 0
148.90941607255 -17.2410762287136 -13.6121862299069 0 0
121.200752388631 13.191934122332 -13.9744602080611 0 0
-184.131157731371 -11.6648963030728 -3.96929451197946 0 0
-200.36819842695 -24.0146885302792 -0.298873678617489 0 0
100.180288353292 1.87266381429701 -22.5553604574519 0 0
-59.3837560446197 -6.11489865553284 -22.522966432264 0 0
178.233074717329 -32.3993908770798 0.589189371017484 0 0
200.069901661162 10.971931628393 -20.8984876940874 0 0
-63.1313437882249 -7.69640902023152 -21.8131942649908 0 0
204.022972451677 -23.3772199604922 -12.5894636949662 0 0
-62.2246970197219 4.28706366905763 -8.64964925580782 0 0
186.409081931872 -19.5448451500247 31.5860704142526 0 0
207.089100459842 -34.5895349375204 19.4569303231697 0 0
178.367263955944 34.5894019671133 4.42279662981737 0 0
-200.486269160335 -19.5339164633932 28.1895886147784 0 0
-243.453608448091 24.5365084668464 -25.757124715041 0 0
188.189074802614 -32.7386750902936 22.3248828782346 0 0
-230.168352618661 0.369337200682946 -14.52668325814 0 0
-204.87178269944 -29.0264371461202 20.6635074370724 0 0
192.908291931622 -33.7373061346719 -0.604169238492312 0 0
205.821716026871 -2.24415523264993 1.98170556584564 0 0
192.564659726463 19.1280316610287 32.7513662903388 0 0
-172.037772173949 2.52546058348856 19.8189563425422 0 0
-173.652665235945 5.61015641533404 -2.50536574882084 0 0
190.123160922616 -24.3501736133853 -18.1666009540713 0 0
-180.418436690728 -18.1351331632433 19.3129320421503 0 0
152.9866241189 -20.2828187231289 -2.34176525647927 0 0
104.255031335119 -14.8080906477015 -1.96486971141798 0 0
202.260394077099 -34.5080343761194 18.9624728474125 0 0
152.192916249172 -17.4580545677629 -14.0708950703869 0 0
-78.3996626594823 6.08820869783493 -13.8279477220757 0 0
182.661498881725 16.7602524448438 19.4314776615781 0 0
-227.268021315118 -9.57688113136844 27.3951359461445 0 0
114.268978763375 -6.03443319266563 -23.5151764576984 0 0
-242.451440770539 18.0319780597655 -26.3774526605009 0 0
148.578002179089 -19.0768371530197 -4.75513969618121 0 0
167.836632929737 -5.88824537281045 -21.5331685227195 0 0
204.08140626387 14.6857797947079 30.2141241537098 0 0
203.77546114084 35.3407621942476 2.43509757793431 0 0
95.3155200536176 -14.6732818036693 -10.6590461816979 0 0
-228.971345539594 4.47204762347071 9.79498626888154 0 0
145.4713374982 16.955422360992 -7.96566681411994 0 0
-97.789391008106 -4.80778542915267 -18.0643557479326 0 0
-114.01978514124 -17.5064933675639 -1.76692088584564 0 0
206.78902624633 -34.9053148330757 17.7583664985713 0 0
-211.778294124175 2.30031532502728 13.789675000579 0 0
-235.921277181821 4.6057916812207 8.28964647556482 0 0
-31.8325462920049 -12.0955475035683 -6.52011493665281 0 0
-98.020626142451 -16.1636128686573 -9.89615527401107 0 0
-254.638577960331 13.1596197360724 -16.3638807823111 0 0
-226.00700485392 -5.65595881483362 27.017424633437 0 0
-48.0645880483007 -13.642870207299 -7.42208317616258 0 0
-246.845765874764 32.0984376887784 -17.0467517261691 0 0
38.6186007113859 -11.7723208672501 -20.631082423954 0 0
197.943407957581 16.9349060124364 33.1211760487234 0 0
169.72250155782 -19.1388573267483 13.6545724957136 0 0
201.343685472693 27.1481656235017 -9.86087290062879 0 0
0.541067343134574 -8.49439884295626 -2.94246387384729 0 0
-61.9897695069369 -4.85171249730116 -22.4319988041738 0 0
195.876810823924 33.9071685392919 31.4452796348043 0 0
193.995560168579 13.7755398405443 29.8992958068382 0 0
107.528132443811 -15.072466827103 -1.85098265667863 0 0
114.506221782174 13.0990647110514 -13.8887032381498 0 0
167.441758499622 -19.605915983497 -16.6886239120904 0 0
-213.918377552406 -20.8832911851153 -6.64372192892472 0 0
-192.390828879656 1.9647864517934 23.7298135199472 0 0
-255.023500274065 23.6868970352929 7.5950436400432 0 0
205.096971090453 -30.9180637180766 5.0947298200669 0 0
41.2474320570541 -13.5476629162413 -13.6185174894578 0 0
-147.786825466613 -5.02517284219774 14.8352834170372 0 0
-221.162739283238 -4.17638640225366 27.2133858587705 0 0
141.003235047316 12.2377499027917 -15.6629291836658 0 0
-205.540920087494 -29.9663559212165 18.1271898884604 0 0
-128.110723573798 -17.7348278543358 -0.155596679263898 0 0
179.310790745015 -28.8642959792787 25.4523161821804 0 0
-130.788049341059 -11.7421902129766 -9.87049715640479 0 0
-130.145376112949 -9.71255654530015 -11.1107497717832 0 0
-141.763363855544 -8.85934104473962 14.426760537065 0 0
173.512909315999 -30.3894982834728 5.65544650920176 0 0
-42.660632036642 -15.0666810940089 -14.5750751119473 0 0
-248.397482605374 37.9550722187481 -8.8427600190582 0 0
-181.281663230301 12.3846925823533 17.2741140923887 0 0
-201.451255526724 -30.7452948432705 17.6788964674743 0 0
75.662615195887 -8.37858769997369 -23.0847815152215 0 0
194.014834318994 13.2155023443802 26.8705035520837 0 0
-242.369432325966 4.80482529311612 8.63626469465428 0 0
212.563421954535 34.5964404671439 14.4202969031489 0 0
188.141435848499 31.5230876258281 31.2141660777245 0 0
159.869121627017 -8.16681608484736 7.22770665971336 0 0
175.101003049999 13.618234342643 -18.1924940882409 0 0
-222.379802208746 -10.1933785584246 7.8388378442842 0 0
-177.594515307163 2.81024017131302 -8.74622479943565 0 0
31.4186516394981 -9.24961232897246 -23.4105788471293 0 0
199.732182003142 25.0267898710953 -12.6260454291895 0 0
-225.142031478623 -15.0789816983152 2.01905435657933 0 0
-164.467949019417 13.3217218403805 8.31796282038568 0 0
-255.300621991977 32.5462164372783 -4.74077023667104 0 0
-67.8137370612654 1.44198745207861 0.665273001697764 0 0
-241.37203826043 12.6509287965681 15.2645329280684 0 0
187.336850890373 42.5353240238763 13.0849022848347 0 0
10.1588232144368 6.87433522914897 -12.2856665855944 0 0
191.852117042139 10.2732193381101 15.7027706844737 0 0
-164.420323923135 -11.4794946462605 -5.10761224429963 0 0
46.5935036188864 -2.05346673401546 0.0827980997589784 0 0
198.927999440197 40.0786388749658 4.1935210591981 0 0
-256.431480780659 30.7970903614562 -3.95834406920007 0 0
90.5985679684735 11.2527933979215 -16.2775253510968 0 0
-225.166761306913 17.0325774314807 12.5482582837212 0 0
-210.033543444328 -2.95493223446231 24.8788354439098 0 0
-257.63251454459 12.3188484011721 -3.33777208838549 0 0
-18.3624965830765 5.1170296345586 -22.310679654041 0 0
105.451305852998 -7.28494535721848 2.43550602597748 0 0
-244.582327989275 36.8990188198289 -10.1207896654159 0 0
212.593974898128 10.5924559845115 3.81866554509339 0 0
93.942921963482 0.235784306776118 -23.4196370087844 0 0
-197.123208723464 -20.222425599498 -0.856761400097438 0 0
-219.328615011516 -6.23814894500213 24.8483134063127 0 0
-55.6054460437143 6.29269134686764 -14.1327024687528 0 0
192.074235889042 39.0477299760891 24.0116987741687 0 0
65.5092681480455 8.15284985163126 -20.0430975779899 0 0
198.302325238998 13.7520640436406 22.7587817739366 0 0
-196.837859443766 -1.14069359375032 28.494363817008 0 0
-102.094056218651 -17.397133318176 -3.70487547053534 0 0
188.006394768281 -12.4740899512813 -25.8046937345824 0 0
188.347769986683 14.7149057580511 23.4687834857353 0 0
-146.622619832582 4.26968432378296 10.5240610205561 0 0
210.961690429596 -21.738616091907 10.1758710288734 0 0
-235.334567716078 9.2669830680344 -24.2113480450277 0 0
-224.610012549555 1.99065415800815 -14.7311491837459 0 0
198.042760456592 -11.9347315918386 23.7356874026564 0 0
-233.130644341214 40.5388696563825 -14.0214407734589 0 0
-35.7916133489393 -10.459346906911 -22.7318521075501 0 0
202.168302620167 9.93811040105829 -19.6518752975157 0 0
-168.20501201248 12.9387886432695 17.0623676915385 0 0
-199.286553041378 -13.9691187283201 -4.95836668338971 0 0
178.698976867356 -25.506844447595 26.3950097868178 0 0
119.107858823786 -10.4307979839997 -21.6190674032253 0 0
202.214766299299 -29.3802096530466 -0.396639620141505 0 0
-142.028418081378 4.31761236245308 -6.68817888041122 0 0
-197.769804049691 11.1273111859293 -6.11628819861385 0 0
-131.559629848054 -13.7456506337216 -8.18820528082169 0 0
172.040144016769 27.499358831676 0.689621055352884 0 0
-224.613690989085 -3.95638294480173 6.08977241545019 0 0
4.6929481817558 -8.53377408165976 -24.2058945472456 0 0
186.632636105958 36.2717141282018 -2.32456154659577 0 0
151.918040318712 -15.7079149933934 -17.9749066122694 0 0
-70.9942331989809 3.21578437423072 -19.6551063543355 0 0
214.038508971098 28.2351880198734 -3.76345242774322 0 0
197.83342713911 -3.33921317326491 -17.7280412143612 0 0
-169.208644057259 1.21745600623192 19.1803880006681 0 0
167.845486782042 12.289301459535 -17.1860301214846 0 0
-256.315780883986 20.4456840560534 5.93623271496474 0 0
-225.525105618602 -15.2252070382699 17.0902519185999 0 0
-149.423254079951 -3.3249168124078 -9.91867364072652 0 0
210.615510550622 33.6828886347422 9.61577588780765 0 0
187.191538684119 -9.56740401185412 23.1323124029858 0 0
191.710173039194 37.3108835155407 -1.37509597543164 0 0
198.21219016633 40.8813280765544 8.80143658403652 0 0
206.070419113158 -30.428019334253 4.97597136716969 0 0
187.921968142336 0.203178180574384 14.9030905815443 0 0
-211.495060831566 -17.2177926293867 -8.57541515093006 0 0
-182.008752385664 -23.0437577268612 12.0626951217336 0 0
-222.919231817714 12.8905328479079 -20.3005314377266 0 0
180.482302599164 12.7398436458448 -19.284330475278 0 0
-174.41860468074 17.7081955250109 6.85871514638631 0 0
-89.3222205936145 -16.996915143797 -7.63996278304603 0 0
-49.1369256141296 -11.623888310173 -20.9987061838407 0 0
189.933977567088 35.6785242507798 28.9375388781611 0 0
170.231277643522 0.660384485594506 -19.8747581050241 0 0
-244.417237627577 14.788313934532 -25.2025275324652 0 0
-107.646980377628 -17.4854369990622 -5.3981244966731 0 0
-33.361487056461 -12.5038845997702 -21.1915583222668 0 0
127.375402341543 14.8214371327863 -5.68287518829817 0 0
-206.491058996764 -8.03577689217267 30.6413586243014 0 0
-246.32333625959 37.5946001808661 -1.07170359152711 0 0
-196.076841243698 -25.0020872247447 -0.0567930300820848 0 0
211.248940933696 34.576468217244 25.2746565045999 0 0
-247.863511780221 10.5128919311397 -21.7608014805996 0 0
176.515599445525 -18.5871491533701 -24.1674410385162 0 0
211.984530429253 15.5701407864985 -11.5348963299664 0 0
-217.895985203238 27.4242256969071 -3.94649757076229 0 0
-230.93142047431 35.5384011268866 10.1037851969409 0 0
-229.933235659994 39.5246776022066 3.66083613236885 0 0
34.2290255979161 -6.46803167596521 -1.23681845016631 0 0
199.2853768849 36.8635918809375 1.03074448855463 0 0
157.258133370719 -18.3868129822259 -13.2589716840428 0 0
-245.277699924913 26.4862474386803 -24.3541779528218 0 0
-219.757444400531 19.9000786133782 -17.9755924783179 0 0
-227.896987791951 -5.22219760184126 0.92331286612122 0 0
-212.575084667372 -8.92343916609045 -10.376301904813 0 0
93.1649842144353 12.5656346654611 -12.5686155463864 0 0
166.26581628435 -24.9595011805241 5.87551696166077 0 0
197.236326575937 12.9408563878599 18.7328797083603 0 0
177.967276880209 18.1519748706288 -17.0326685726306 0 0
212.33935971473 35.4470851129998 20.0651127906147 0 0
182.513164653016 -6.81956920140898 -21.0091904008653 0 0
-103.97784843042 -1.89007620290771 -17.1566475317388 0 0
-239.150534071288 4.409303975425 -20.5703909865175 0 0
193.483059331721 -13.372890791196 28.3003805170029 0 0
181.271677782358 -12.4613415202478 26.0190740472428 0 0
-122.027362894471 4.39701130266342 -4.04465149530049 0 0
-254.639304075728 28.2023899140697 -15.2333359138046 0 0
172.161440672643 0.0927711600580434 7.54351561123418 0 0
-180.105349395211 16.8987913991215 15.3812864217732 0 0
-195.705082186628 10.0526619790683 11.3880107080603 0 0
199.717310951024 -32.8579153384255 28.7022233695358 0 0
-220.540675336504 20.7372042248031 8.56768668072715 0 0
175.8613071104 -20.2486424945447 19.8318420823908 0 0
193.931688577746 37.6963632148352 26.9256385587758 0 0
198.495060962839 8.4473627069089 11.2268287069202 0 0
-148.336115036451 -11.3431849468884 15.5744491450475 0 0
158.560012803771 21.2460659667613 0.464196348515206 0 0
135.367969226681 -9.06802961689376 4.11052199240166 0 0
-29.0421010846994 -6.53063797151284 -24.3405534245021 0 0
-182.159960103852 -12.2921627529703 -3.66253602183491 0 0
198.357503789508 32.3526055968164 32.951976900835 0 0
-224.625499500977 38.7440028903807 -6.00035383218522 0 0
176.04294688543 -27.8790788912101 21.5060985097119 0 0
-127.850690668898 -15.8547662207931 6.45942323133869 0 0
-257.450758063038 20.8379058290159 -13.3151752644345 0 0
199.504339913573 17.4928228196738 -18.1668029173115 0 0
-210.663270301513 -5.18358744513542 23.7701778362709 0 0
-180.397717265568 -23.6571261014058 7.94906215371908 0 0
-205.407229782232 -2.4776948300866 21.2188393538633 0 0
14.3669412859035 2.64665014482871 -3.68767711838669 0 0
70.6393501321669 -13.8604293262526 -7.88564586743342 0 0
193.783376284393 9.33155457934299 -21.6077053808123 0 0
-130.627833422559 -3.49182976299095 -12.8101964749698 0 0
-173.069908198218 5.30001202099241 19.5002210605493 0 0
-194.859274292259 -30.4941485059106 15.0730105179758 0 0
88.8514127751637 -4.23555171994644 1.04070206525178 0 0
57.1943947226754 -0.0899731603390429 -0.775287566648508 0 0
-53.8653531790889 4.15476544198396 -8.69528547343648 0 0
-197.467816077665 0.94964406745395 25.1700447689426 0 0
176.674971328479 -32.995038753161 2.94222774804495 0 0
-182.666509810014 8.29701000980106 19.279344587885 0 0
186.066025996335 -32.4947418768654 -3.36903045829869 0 0
204.145844871049 25.896269062654 -9.6829712643321 0 0
-142.11568019648 3.67451999457142 -9.74812495722989 0 0
134.245963304697 10.682242345976 0.569920363255818 0 0
-231.224281958616 11.9484998631242 -24.1931002932858 0 0
-166.521102239341 -1.42862954380049 18.8408691288908 0 0
-196.585342672761 3.28305638190343 16.5204983687156 0 0
191.689295579005 9.26755315365044 -20.901481083245 0 0
166.035023140456 -23.5978129102791 -3.28408741334514 0 0
-139.503450879906 -17.8453079789818 -0.42558613116247 0 0
149.381045060543 -6.4301623723962 5.06928418877995 0 0
172.229816934827 6.05704028941465 -18.8086306422636 0 0
-218.25436907276 -28.7443827316957 3.05665894935648 0 0
93.9661966685113 12.4417998099767 -10.3180543408644 0 0
-18.112275586314 -13.5400390575837 -20.2135833038757 0 0
-187.239422747751 -10.7691895317589 26.6940841890559 0 0
-214.198283578902 -24.0193983809676 0.0715119487636617 0 0
