"x" "y" "z" "f" "a"
83.1790029870406 11.3096954386994 18.6177517232947 0 0
178.78223868086 11.5154219287065 20.3223166615036 0 0
-216.765536424588 -5.33924924850805 -22.0167721909067 0 0
182.102993023585 33.2879213809119 -22.7506492251177 0 0
178.444439160255 31.8725260594943 -19.2108554179068 0 0
209.649820473856 -10.9236712663481 12.8088558932553 0 0
200.380636413029 36.0882138317156 -9.96325398062338 0 0
185.323216870562 10.2143330897886 -29.8878429965789 0 0
-128.8172461957 -2.47905444921001 -10.1719837933459 0 0
-250.255533983224 23.422726422062 -6.07085719243129 0 0
-36.4522758730461 -8.79760236308337 -2.63699343675417 0 0
209.370660900406 -17.4706539325083 15.3263120520304 0 0
201.894655263377 1.70919510892022 -7.81182443026189 0 0
-174.597033703839 14.1146191963494 -22.8755847036849 0 0
84.5836843700974 4.03245177446232 -1.39202698735487 0 0
180.38645609057 11.6343224593845 20.3145747615605 0 0
173.695220607603 -25.7215222046674 -12.3347032237743 0 0
-64.011254507505 -2.5420704434 -3.53613577516455 0 0
-184.260050634766 -16.5802782355993 -23.1274257586485 0 0
-49.423258677154 -8.38786966646298 -4.36359898519822 0 0
63.6290140849323 9.7684104098902 8.43763379959965 0 0
209.860070778662 33.2305109217537 -28.0078732483465 0 0
-247.132522865807 30.4667389659007 -9.80514453173283 0 0
-169.478225746946 -19.5063744354157 -19.4950776451619 0 0
-111.287909728031 -8.09633823495318 -10.1864068352 0 0
-246.858830469268 11.8756615795394 9.89675891064598 0 0
33.1081987971039 7.56256893604727 18.1867380543089 0 0
-84.9252676441454 -3.25893867898078 -5.17024433265493 0 0
164.378896721292 -18.3507659161449 15.6441734601945 0 0
-249.653901450664 46.0573397057831 -1.04487646130472 0 0
-192.993086079032 4.88159270896752 -26.8742047827983 0 0
-248.317321774976 32.6321875485987 27.1042163678669 0 0
-180.450594167321 4.73768230153104 -25.5858695340597 0 0
-212.195936369617 -27.4270538824173 -22.9445457277905 0 0
179.409997720086 9.13424146363835 20.4717893349831 0 0
25.0169131481392 -7.96625858645091 -1.01616446504643 0 0
214.747235661465 31.3829205360149 -27.7199818412839 0 0
124.301192798321 4.5086923959557 24.1958360390027 0 0
176.111675262491 -23.3419773451464 13.1520600087647 0 0
-220.399468185497 26.1501594392837 13.7905702279484 0 0
74.057565612118 -10.0371732782882 -1.16568729333314 0 0
-51.2494342537929 2.76115321197675 13.5028218128137 0 0
38.2078063862849 -5.49056176050507 -2.70265522567125 0 0
96.4776268920905 -13.1137636028575 0.0491658531883986 0 0
-240.309202170996 45.2237522700433 24.4771475581291 0 0
116.88291694831 1.42387554219053 25.5021824549537 0 0
194.550351744276 5.1015581146991 -13.4291771391876 0 0
-196.216288561267 6.67434875599158 -25.5301810798437 0 0
170.578272901098 -11.6853425745076 -11.9014661050656 0 0
174.845412593993 29.8954558909671 -2.80324406847568 0 0
29.2955909919448 -17.030496744863 14.9173930834789 0 0
-225.658123711314 30.602168988738 -5.64142696094647 0 0
180.646596628268 21.8657914802449 -27.773885045023 0 0
166.479577758507 15.5375406022915 17.7085691996791 0 0
-237.95061279577 19.1820058201298 26.5425397765958 0 0
-114.494971462427 -5.67536771029452 15.0059278866219 0 0
-221.013637165102 -27.9715782919052 -22.9614548184966 0 0
-234.823073051042 1.04206636503114 -2.155353421824 0 0
158.475072516897 1.23391769009055 -6.29215585589011 0 0
179.856453938294 -26.6644751189506 -26.0686619520936 0 0
208.113071098411 27.26153905994 6.1294824936306 0 0
-239.00664218845 22.2252889249929 -8.01990974283957 0 0
-252.8694600671 37.4330825324707 -4.52946803371185 0 0
17.1947837228725 -8.38523568262373 25.0686062322115 0 0
-186.790077775146 8.09437084587628 -6.9273133733995 0 0
-235.890961950028 40.4185894137919 -10.1142800699006 0 0
42.9285083791441 -8.96395826834498 25.0242621895464 0 0
-122.032098857833 -16.658888261265 -11.2467299989411 0 0
154.063604708613 6.48558822145942 21.9330333694027 0 0
185.091187661908 -12.3520939097779 -26.1332550736964 0 0
-213.85093976079 21.643564055866 3.3707725216208 0 0
199.991295117696 -3.70255908139052 23.6523678624214 0 0
93.8023406158717 -15.2296924253344 7.93622609541793 0 0
123.181896233357 -14.9029325715857 15.8282271732266 0 0
172.595387535088 23.0993312683928 -15.9153287378653 0 0
19.1347056480809 -15.1888019503985 20.8647412251129 0 0
48.3246075414847 9.65233498062307 12.1631592264081 0 0
10.7004961518349 -10.0123101662211 0.515173982763126 0 0
-177.734290789624 4.94861822854315 -1.91577612806884 0 0
-87.711778300072 -9.34204281272625 19.7725567929199 0 0
-84.158789244172 -7.15660221752667 19.765560637204 0 0
-5.101159951541 5.8148377474324 13.9035988374027 0 0
175.490983265728 -18.3528886905479 23.128852300307 0 0
-94.7496932473085 -7.18206677045824 18.4332157526056 0 0
122.154568496744 16.3608262376152 15.9656046889918 0 0
170.723309790247 -8.22953054015433 25.705483389949 0 0
-104.640862862053 -18.181278338877 14.8837673962864 0 0
-232.777486692465 -28.4796203819115 -16.5512293638643 0 0
-224.812496483262 -0.65843256694608 9.73223684456487 0 0
1.55984560482174 -5.52344259968981 -3.08329432234021 0 0
208.117038824414 -32.3366012360701 -12.4930561712172 0 0
126.296914237338 -14.0389936749986 -2.73613757880836 0 0
125.370416390261 2.78570709516364 -3.00444575981755 0 0
-138.891258126552 -5.88556040020797 -13.8601691709071 0 0
-214.203089522465 -5.25484074043291 7.26197602314547 0 0
191.610368293766 11.5725109717418 -28.07113002268 0 0
209.960325086808 -19.4715575643725 13.2676972925879 0 0
-224.201572776117 -21.5617671083342 3.69841665891815 0 0
44.0380820788011 -16.1510515052362 11.4485780942874 0 0
-257.926627421975 25.8897721118644 6.44614616098708 0 0
43.2671066174317 9.41091202921895 13.8672589524328 0 0
212.738488443401 -15.2132044720056 -0.421343751668213 0 0
93.8465090825253 14.3812107737309 13.1613127899571 0 0
-27.0525946920487 2.32822922262063 3.5326932883184 0 0
-252.418323812623 16.7122724505012 11.9423238877774 0 0
-228.920723839748 3.06568426365282 -10.4246350721432 0 0
150.783775247644 -17.1056023440146 12.8768006523102 0 0
1.29220662539385 3.14002367872598 20.7088820670185 0 0
-129.514776881523 -24.6922750758428 -2.79759369892029 0 0
-7.03078970765754 -5.05310927356399 -3.32030409084974 0 0
25.5247081434617 -4.21902969300087 -2.82754205717412 0 0
43.4336158504822 3.23211748465508 1.05999428772471 0 0
-196.406909709533 -6.84935833691348 3.301001249734 0 0
125.44945889302 -13.6532806902875 19.3692359022976 0 0
-193.115717413618 14.1800873939898 -21.3352691492377 0 0
27.7086973071406 -11.8667104752975 2.22691519214664 0 0
-153.613642701427 -9.16718223628271 -17.7255013295473 0 0
218.640498379452 16.8435653686022 -10.9622449848976 0 0
158.996452159755 -14.1696267671918 21.4444365281562 0 0
176.078001392636 -28.6986077870214 -13.6624271603296 0 0
-37.0287142149746 3.76857192097394 9.78587824444685 0 0
75.8217107153011 12.3288416316884 13.8695769518106 0 0
51.1668072587432 0.70056682566904 24.5094913461889 0 0
-102.028937762026 1.62252252540038 7.24989264972025 0 0
-211.969764293548 -19.246304562587 -29.0103999676356 0 0
13.4478512568746 6.44459929621124 17.4362063847803 0 0
164.684389674077 -8.65438975676674 25.087259215337 0 0
-229.29527882788 -25.9393084630134 -24.7102045934875 0 0
205.397155479092 -33.1141857572411 -23.6585988618518 0 0
203.534784696931 15.0052630556065 -40.2026170711758 0 0
-137.028750411059 -24.5008350772604 -1.15316775291459 0 0
185.225563236244 -34.7271778767404 -5.8856955426049 0 0
-13.4464309398822 -6.73902548711167 24.5676681394878 0 0
-134.226131145793 -13.8159538149061 11.9929582406728 0 0
209.244997992895 -27.3061552955213 -20.5091911424837 0 0
-137.473331122413 -16.6686138746507 10.2448091735937 0 0
99.894400036139 8.57683461817953 21.9587244302284 0 0
-250.098868721671 44.4114386884164 -2.46434689036869 0 0
48.5039078162819 9.77556149683314 14.7453977390603 0 0
-219.827351388056 29.6855537373214 12.4571018779817 0 0
195.565707701872 -10.7541906915036 -21.7304442757465 0 0
158.778024924092 7.16566389193214 21.4685051496726 0 0
207.635154774954 0.689066381777793 -2.18256969351292 0 0
127.986472415309 -14.4452661527276 17.6845396227358 0 0
-244.384828968296 23.6802889222292 -9.20478517911929 0 0
143.073471486426 20.1150778795278 0.697196819195235 0 0
24.8770182828893 -8.8016751507042 25.0453094524254 0 0
159.786633415684 14.0252187678863 -10.2435505236059 0 0
168.538710697909 25.348625684258 -9.36407502706764 0 0
174.423517993119 30.899092738751 -8.03704199966346 0 0
-219.223139664367 -19.3988860829503 -29.8881264597617 0 0
212.012610675283 -17.083281738888 -7.15357120197474 0 0
213.77936744398 26.2122251089862 1.55096016759423 0 0
188.245838440474 32.3545721885579 2.1902700918985 0 0
-231.84475512946 -31.0462438422341 -6.46843349660002 0 0
-167.792199294816 -15.9839430974908 4.0336031067388 0 0
-0.0556243786910016 -3.52516780748873 -3.28263020684477 0 0
-212.642335888068 1.29442673268058 -17.2010985080269 0 0
-58.9384698429262 -14.8803608510521 20.8547563339864 0 0
191.112426988055 -11.3628468056026 -23.2940537247117 0 0
-96.1882022891317 -3.59830219846425 16.328538347224 0 0
127.472388698814 15.9563622469222 1.28655460371145 0 0
200.665280960259 10.2575309058427 -17.3457126507232 0 0
-224.077196834282 -23.4888948670261 3.01694103160877 0 0
-12.3737470878899 -19.3450459411243 12.6487044528204 0 0
38.8311521039822 6.90266198718062 19.7936438283671 0 0
-203.848395235603 -1.92526777002689 6.25498644296695 0 0
-234.912299873034 -19.2612800115587 -28.3754115517088 0 0
-231.257165827837 17.891287542013 -8.52013025756246 0 0
-205.282963524297 0.939939192325572 -24.7623802922032 0 0
-235.796248808549 27.7489352667652 -11.5555642754151 0 0
6.00125938172856 6.37905668300483 15.5761278083762 0 0
45.5761874420384 9.30546912197708 16.3288747859067 0 0
176.048756125889 -11.0737119894547 -15.1197911637269 0 0
29.0061644840976 -16.8469307857179 12.3900958702632 0 0
-32.1120741301461 -0.729801864124648 -1.75130646006029 0 0
-229.342224157925 -22.9576001227396 -27.4846757265945 0 0
194.848425915512 37.7802676492051 -18.2719819768164 0 0
-239.647951307161 -10.4345797303577 -18.2512296757696 0 0
32.9833993034212 -2.36633516236824 25.1332648034714 0 0
152.928720524295 -17.0488480510152 14.0484494852524 0 0
181.081042410746 32.3612233326304 -21.4065160714755 0 0
-44.7239874041642 0.268683023691164 0.460495277449322 0 0
-93.0464506194545 0.711135018768871 2.70414742158668 0 0
-221.013727624623 -13.9393747497578 -31.6472013398285 0 0
-125.89175833223 -15.2116250938255 -12.0822796365284 0 0
85.0343658796869 10.6501451769978 5.67676057102909 0 0
-174.026985406944 14.4443699900736 -21.1032368115761 0 0
186.464507044908 1.85182212464409 25.1191788622278 0 0
-27.5140803222419 -0.211710120693851 21.1846854324638 0 0
-253.141035631723 30.8367599688601 -5.33168293861377 0 0
-226.849721012804 37.8890060135672 -6.09283358615002 0 0
-117.935631347731 -2.69482729989115 -8.36728130266295 0 0
-130.416090047939 -10.4136846831715 -13.9841372672921 0 0
-236.849796566297 -8.01237302129165 -22.4082386326203 0 0
-47.6372265464727 -5.89461917258183 -4.81372584850416 0 0
-207.043709867371 -29.5553954796125 -3.55993439006695 0 0
56.6052971527172 -15.525100886732 9.92202256173509 0 0
78.6203768664899 -15.2509811799236 9.03004567990141 0 0
180.196470388887 -11.2510958363631 -21.493150214124 0 0
110.665920611079 -12.0494754462617 -3.34301112204897 0 0
194.2194728637 8.32855070117607 -35.7419947263534 0 0
123.048339746367 -2.84767051589148 -3.8558760234929 0 0
146.328444917099 10.6002657171754 20.3702468389035 0 0
-181.657444724644 10.337645781917 -12.9083154511879 0 0
65.5376267419644 -13.603464318401 20.3863195028663 0 0
212.355000156908 -20.5680132101962 1.27098870190018 0 0
135.82564341955 19.7820706283561 8.42469227513472 0 0
-217.718338559355 23.7972652981846 -1.16425053575643 0 0
146.975857559476 6.91970325290426 22.1079326564 0 0
-67.5694068463138 -0.435999537296598 -0.375770726365053 0 0
-101.550799676574 -23.0792642702579 -2.14804380734197 0 0
37.0604850446433 2.64824253181304 23.0949485674512 0 0
-71.2391168511538 0.79616438590996 2.92816836336859 0 0
201.999979846445 11.2205638132385 -21.0383669551256 0 0
-216.964988923158 1.00640012930872 -16.0282305194904 0 0
200.180501059118 0.94214099410756 -7.99342341896143 0 0
75.5553314337653 -0.194180033267786 -2.3564933703955 0 0
217.856313350751 14.5590672590665 -16.1135829532761 0 0
203.401776536018 -15.2418036432888 25.1708081212644 0 0
45.8562085278029 4.29197024969794 22.5051283035342 0 0
-222.753322583056 -4.63463591018026 -16.0544364871779 0 0
31.5409415362486 1.42157165627281 23.5819880895705 0 0
-231.327604988086 1.08305346671669 -8.15280749115587 0 0
-89.6840764358955 -1.65454468188666 15.7109689079583 0 0
-227.520490326379 -22.0814990546066 -28.3743003874943 0 0
208.634154283077 -21.7348150148875 13.4396628896224 0 0
-190.547428403207 -5.26688491733371 -26.1458424915868 0 0
188.933462335528 -11.8500639243242 -24.6274555223032 0 0
203.584284286387 -8.4044253374296 -17.0464430036224 0 0
-218.192621084845 -26.5859568464127 0.986266774107943 0 0
-83.5210599265884 -1.62979641928868 16.4419145479376 0 0
47.7677509005753 9.2055343687483 17.2580407199729 0 0
108.430332648427 -14.9611710482044 14.0097237861448 0 0
65.4697313784461 -2.42038179612999 25.6565708649878 0 0
-256.032383459279 42.2908107574233 8.07483876226149 0 0
156.30109939865 16.0867795538062 -7.71266251466642 0 0
-228.660548018181 23.0311909530581 26.4009715180539 0 0
72.3333531069935 1.26048729963418 24.7761265124068 0 0
195.895053636567 32.1647443414931 -33.943755701062 0 0
211.538154494424 8.80167071112564 -22.1396556852919 0 0
-219.680134224721 15.9425677242062 -8.72649925210135 0 0
-165.067166407849 -17.5981612872647 3.67260261762218 0 0
-233.172018845426 20.7549024675878 27.0661768956451 0 0
25.4412841602102 -17.1670535946206 15.8670393784162 0 0
131.662639586358 14.6171395465059 18.4797294842628 0 0
-129.515914026529 0.612526846888464 -3.18644345136754 0 0
178.553550254309 -12.1510079638797 -21.2017504184644 0 0
-185.709617033706 -6.30279107480675 -24.8883088201708 0 0
98.2381993630272 -15.3160573347154 10.3747710333139 0 0
188.480549367903 10.2445270578217 -21.512169915934 0 0
-238.78193233933 49.0647181687946 17.2496585691108 0 0
-71.671395026793 -23.3296002112681 9.96695543962781 0 0
-208.157111933347 -31.7669480317531 -9.16662511937052 0 0
218.750341077971 20.5343458435425 -18.1253949129603 0 0
215.605125325696 12.4633581730721 -24.4676550111831 0 0
-172.530729561184 11.4160076137458 -19.1603366162129 0 0
-111.294732596135 -0.473840057798429 -2.60373981144502 0 0
88.8067628681941 -4.74688101867693 -3.9526565420338 0 0
179.15981628764 -0.653825433123084 -14.991447221353 0 0
-145.379721736769 -17.1191461199708 8.18245002253591 0 0
-90.3339673197201 0.775829431617391 2.93793672976385 0 0
45.5179455083125 -15.9892826667909 16.8810898144996 0 0
-231.033843656486 39.2231917754914 27.9810796171901 0 0
166.737236803252 -10.2609847166117 -9.85406332953088 0 0
201.219525925107 30.7620569388483 1.60910723794635 0 0
-66.5834473591882 -15.1918634710473 20.3042867095569 0 0
100.694789441627 15.2506893585532 11.7089215079356 0 0
14.377834596046 -0.138405539762231 23.7842138637238 0 0
169.547179833412 1.69497446019522 23.5399723498436 0 0
195.92825897476 24.4793147568403 13.8660204382936 0 0
176.770152817985 29.2495959811269 -19.6495565712546 0 0
-110.160590887915 -5.43123416248479 15.5668810058326 0 0
-79.8906444512371 1.16232899727728 4.54074260853292 0 0
-240.409058263939 -12.7090224402478 1.31030288492938 0 0
194.929020466049 33.3469605372135 0.0391791949769602 0 0
214.41443610562 13.062313443826 -29.1323945670114 0 0
87.652396326913 -5.52012947063942 25.9402961134721 0 0
165.734599719805 -20.9855278426943 5.75456013046031 0 0
-195.320629032067 -12.9508613664759 -26.9890094481871 0 0
198.411622195584 10.0278576661962 -38.6150431280758 0 0
-6.24787462708873 2.74395768208484 20.5387143494468 0 0
-179.395966005633 16.519177167399 -16.839941734387 0 0
210.476905898605 -30.0249941161112 -16.2691372344436 0 0
199.48387139726 -19.228171402647 25.5888546260603 0 0
164.108800143774 14.7076031518191 17.9964975423169 0 0
211.917223472598 30.0692485490473 -31.4826146287417 0 0
-177.230382490403 -19.1037815497466 0.864900391390243 0 0
177.645251816622 35.7516025058646 -13.6367352799672 0 0
30.8690306327983 1.24918951034614 0.0385296351881246 0 0
185.143436770126 10.9278546957175 20.7828987726744 0 0
211.864028129761 7.10305352393527 -10.1789551333558 0 0
187.842886729879 -20.8223582143278 -30.4312909307355 0 0
-223.231088064772 -9.83497217382236 10.0190251460845 0 0
180.374662093457 14.2049888872435 -25.7071814666172 0 0
184.4928933038 29.8376898612217 5.41429240480725 0 0
-205.769915347591 -0.852974762516072 -25.0553165041033 0 0
-112.032539233007 -24.1447995395204 5.29326935154026 0 0
-237.103916775039 50.1175759903766 20.1941950027096 0 0
-257.556749862486 35.9483241791589 3.1216639453713 0 0
-182.380389214494 18.8328152434195 -21.9972146677643 0 0
-69.3351508530182 -7.19881835464225 21.3328018107904 0 0
159.418245501265 -19.5054096683964 3.42082582320358 0 0
49.8962939816271 -15.2897068051946 8.36375674902817 0 0
210.676158030987 28.3092547895196 2.99904644873394 0 0
-227.335288951 49.5178393820105 3.04409453128106 0 0
-225.242978211908 49.1922552616668 8.13755226612916 0 0
-233.392554326261 -6.82824913493509 -9.05685127283645 0 0
194.370816527542 9.31838962677367 -33.1453539720986 0 0
-236.800200944551 -13.1472148550866 4.00589240911422 0 0
81.1780633611298 -3.15932996599886 -3.41609356138935 0 0
-227.675503985574 -7.5164706107075 -13.5798805067983 0 0
188.047567381185 -2.61907769485356 27.2909949740746 0 0
166.689467103972 12.7945147680445 -13.596693990167 0 0
191.592411697324 -14.4584423097697 -28.980148985187 0 0
149.590514409593 3.91047378127791 23.2467589032066 0 0
-167.396474544495 2.49134829501773 0.895667794492517 0 0
177.307673049183 29.7643399402183 0.406272337752779 0 0
-150.964037785837 1.91453661058457 -8.4921531200052 0 0
37.4171899057671 -13.1587916598147 3.84676655715996 0 0
102.463004396417 -13.7959831028916 17.9859049937584 0 0
197.791503154093 -3.00542978585893 25.0614316921526 0 0
-172.693147847622 -11.3213435255327 -21.9654621991659 0 0
-91.894047179344 -10.6562747345937 -8.29704431626731 0 0
109.168482528166 -12.3400430612397 20.8874878395675 0 0
193.606845418336 2.53523649064851 22.9026165439875 0 0
197.443288574833 10.5591417304437 -29.6361990152855 0 0
-219.245576649401 -8.51623669168844 -31.4647938641066 0 0
-128.535353886696 -20.2136037516294 9.37005599012945 0 0
41.7499722035634 1.36372098925045 23.9609005956021 0 0
32.8760372622965 -6.89528340237329 -1.96227512369539 0 0
33.6864593479107 8.42299232984209 11.0693776091187 0 0
-250.756337468002 25.7410472912519 -6.72272185344473 0 0
-173.326131477623 -16.0863418664823 -21.6706644233272 0 0
-124.143875789648 -15.576357715089 -11.7772799759085 0 0
-226.792768525441 32.6712838382721 27.5886473283361 0 0
37.0866743174342 -8.40963068616371 25.2651007932678 0 0
-250.526956611958 37.9740097606308 -6.49548364519263 0 0
-26.5212917177499 0.275804415682881 -0.250364845656452 0 0
-110.61445125719 -22.1592043660683 10.2727436809703 0 0
-234.447512324139 -8.97361687415759 -30.5559914678862 0 0
131.904345804787 -14.2862731757051 18.5606394224327 0 0
175.003375931998 -22.6941554333577 -17.7495216010863 0 0
-218.809392184455 -12.7557460451516 6.08275820335422 0 0
11.885637295622 -15.7822804105687 7.63856269461047 0 0
-243.502777874175 23.2326419832494 -7.22618550879486 0 0
113.012510520032 -5.3997302157904 26.1280837067937 0 0
91.5140198836784 5.15827906990562 23.5089740073736 0 0
-222.334626785202 3.64300498260816 9.97135551930644 0 0
-132.434585923362 -10.2479007790276 -14.1792660792781 0 0
-200.396479336592 -26.9888351426024 -4.31727539414538 0 0
-254.528904694079 25.0151761160056 -1.93456822372497 0 0
141.440641810537 0.912424004059311 24.8284938340022 0 0
68.4109155530016 8.25182452665409 4.6741288516996 0 0
97.8225258809105 10.6314039877711 2.71033859427227 0 0
205.540399718792 -34.0560799700711 -16.4979018351153 0 0
-160.372819318515 -20.4294642814257 2.29744070042425 0 0
191.806885025122 37.594691262576 -24.2803041241267 0 0
206.226544595955 -0.420457185140734 8.70515374922299 0 0
-65.2954122805264 -20.7968977715281 2.64964018411141 0 0
-178.121832390554 11.7566689222671 -25.9942567572142 0 0
120.197577790551 -6.0397557745952 -4.29879260895142 0 0
192.331529596902 37.442681811822 -7.84596019939351 0 0
192.052477296367 34.5225635163383 -1.59409850518988 0 0
8.23122341396575 5.82633808060953 8.06630488319873 0 0
-164.274122839606 3.72722042895445 -8.03312962727189 0 0
181.225037521528 -19.006263298081 -27.7251795548313 0 0
150.963879094193 -17.6083397390675 -1.82907108720458 0 0
-8.37264725732267 -18.7379010540599 11.5132237889438 0 0
-140.231672015551 1.63212445178039 5.14954414759572 0 0
109.169189581549 -1.85652205537558 -3.46053793479495 0 0
-257.447782372038 39.0444232356752 8.44159352682983 0 0
-94.3450770799611 -3.27250534606821 -5.95595986693547 0 0
99.2450547578153 0.554621681939303 -2.65978870635153 0 0
-34.2425734126121 -4.30407659113262 23.1795171124479 0 0
-240.720535816798 17.5042707661311 -1.06439473369636 0 0
-220.348291157619 -10.7528735408762 7.90606851045182 0 0
-11.0612797057446 3.37466741156623 4.53508816214026 0 0
-171.279087320517 -24.6349726145378 -11.4928594474886 0 0
-211.870469041007 -15.1569165077465 3.08608139848932 0 0
-206.080179700662 5.68498473591053 6.73530750837194 0 0
-235.329476212254 7.18050989442964 -3.72422996910745 0 0
-18.7060727482253 -14.5186102414395 3.92327925120177 0 0
194.66445879942 -32.9335288010345 -20.4748130430593 0 0
-234.957119982652 -0.255354916385879 -0.485793004069777 0 0
-214.237906713152 -4.19473804801816 -29.675663802439 0 0
44.3612516933369 -16.3570454416155 14.2570374805254 0 0
-134.064131493485 1.73140722769727 2.08968046213803 0 0
155.589689131825 -16.6374044925608 16.48665416833 0 0
-242.42416024247 -20.7176005534794 -20.2206010795125 0 0
-2.16988990650472 -1.18548500480019 23.6238537445391 0 0
42.4966311398178 -4.55987685433281 -2.76968051949962 0 0
-216.204844265995 22.5080183239183 8.5535804943945 0 0
-75.3830922450428 1.31567064406571 13.0339410769857 0 0
-216.134609325792 -2.28166033288511 -19.0926541028185 0 0
-134.978043679073 0.355683564311912 -6.06000641310509 0 0
-181.482764177351 -17.3442317256422 -22.3768259121376 0 0
81.7071150353054 11.4034621108871 7.86644452646867 0 0
-201.560990848787 13.3958388133646 -1.58539230383159 0 0
-137.875025755542 0.42235407383628 -7.12577281615196 0 0
199.969756014014 5.78705633032556 16.7228370862314 0 0
-238.20841788333 -7.15852761427622 -29.6497890748998 0 0
136.026519342345 -5.29149432338785 -4.69634172596952 0 0
178.410304006819 -13.8295958923342 27.4871954812895 0 0
-33.7483004243073 3.81112642907636 8.33320714097226 0 0
199.886814393041 4.61955044021902 -10.4269626919116 0 0
-106.925620499473 0.614613310287435 1.48119830540925 0 0
-230.908781565732 35.0800237348022 29.137859847508 0 0
-219.685489624973 41.5220708612487 7.93997171954483 0 0
144.297321593389 -9.8660885193016 -5.79277059797734 0 0
-158.620425456232 -23.3480359680095 -1.99835960089838 0 0
172.44019939592 -24.2062660457386 -11.8676955133808 0 0
-47.5777104185212 -9.10099074979244 -3.60536250152765 0 0
213.307443326387 27.5985494257006 0.799398647135895 0 0
-166.75259597027 -18.492230061894 -19.7162055969373 0 0
175.924824650106 -19.78262004397 -22.9948401658906 0 0
-236.09543099141 51.1717389559383 16.7121331868248 0 0
-38.9743360395375 -17.2009603821453 19.8120775508131 0 0
-255.053567550322 27.1773591728569 19.9562104261386 0 0
-78.5880692265623 -23.8527457076663 7.51028845350161 0 0
-233.466760822877 -20.5457787967028 0.316671981307661 0 0
-1.02599005285064 -0.22459179522785 -1.78905056644665 0 0
3.50230207281945 3.44405719061666 20.6254198665268 0 0
31.0561541210315 -6.34422497428628 -2.33283344215091 0 0
11.4520365554916 -9.52284975848945 24.7550867141792 0 0
-14.6728626351707 -8.8009813073875 24.389546447432 0 0
198.563570727101 -6.51617546239295 26.6688179125481 0 0
151.857800522052 -9.20951636549314 24.6607416757295 0 0
193.322279771118 -31.2409835122059 1.42699834470976 0 0
165.187000286814 -20.2122995893671 9.63864078704037 0 0
188.22920213209 -35.8399263760548 -9.8804909791907 0 0
-117.143677656101 -14.4909200123547 -10.7794327124503 0 0
210.386005930881 5.36473302974672 -2.17331371936554 0 0
71.1236911928262 -1.7882579536296 -2.64428729999562 0 0
-131.302574191524 -5.44704477053554 12.2216249086861 0 0
-247.819250563035 21.8305037802311 -7.02830718400385 0 0
-164.810901451149 -23.5245759966497 -13.2359399140352 0 0
168.628830482403 -4.68930136955039 -9.28651207333962 0 0
-127.809158681091 -17.6073141660439 11.6079491965246 0 0
-218.898632296501 27.5184704680502 4.69109458709249 0 0
125.674196261017 -6.84441954820361 -4.53457526732511 0 0
-208.342030875682 4.955788547428 7.16282900665957 0 0
197.430917759221 10.8846986048965 -24.4413405893104 0 0
27.179833466992 -17.1419718312019 14.2903948421246 0 0
-204.812394026073 -26.0357528714845 -1.41789413248769 0 0
187.029871561092 12.5093210573516 -37.9958944670947 0 0
136.783721327943 18.1178518547719 15.1503954602611 0 0
167.754207417013 -21.8771597412555 4.97764375891891 0 0
-218.588479762876 -3.38905167716587 -18.4439333801994 0 0
78.2904125342415 0.630810467115087 -2.28511990453998 0 0
-158.078828248114 -20.6011200622245 2.47907887699145 0 0
-22.8123814567083 -17.9036074164207 6.9512730325259 0 0
-96.7023913015555 1.23189641175958 4.20206556026041 0 0
208.202067701537 8.25835266270786 -29.7465231725217 0 0
-226.952882676019 18.1740473491948 -8.81839935298032 0 0
181.861506218791 36.0874921364742 -19.0361634478582 0 0
105.99091043598 -0.274853227921613 25.9984449599885 0 0
19.0560511153328 -16.2916355940184 9.34367517960448 0 0
-87.6348479493416 -22.7202437044742 11.4234762841209 0 0
53.6045271750392 10.1703449067095 15.0018458035447 0 0
163.355994396546 -18.7687613027316 -8.14569099708079 0 0
-32.5249066916822 -4.58078062596525 -4.01649166274856 0 0
126.205585472172 14.2433666176705 18.6334781267435 0 0
89.6740535227165 3.65985543001888 24.1806006748029 0 0
142.68781861296 -15.7852628033579 -2.51484205867099 0 0
92.9111270933256 8.39965916845493 21.8275595825111 0 0
-71.5678482004162 -0.227803419627333 0.118491791990124 0 0
-83.871159421014 -16.1793499112063 -4.65383541759687 0 0
-205.637847659664 -2.80220941514856 6.20523471229975 0 0
210.995690331095 32.0843265439171 -10.0211102734222 0 0
-230.28317324279 16.7419888498542 22.8257500890351 0 0
195.437214803981 -2.54584583676798 -11.6721593625788 0 0
181.140617735601 9.05789691380487 -18.3238164269697 0 0
-82.2943430483777 1.57720274998376 11.2581013417301 0 0
-119.125573088452 0.773464596448765 0.705357032115627 0 0
-209.364696164023 -12.1022806834558 -31.1769384445883 0 0
-41.3906718522464 -21.6218732434308 12.9806228335708 0 0
199.638877939886 12.4908471919182 -40.5550072584435 0 0
-253.55447467919 45.5504683990604 6.09484028661159 0 0
14.2125813530791 5.35989702591834 6.28017421560246 0 0
183.933073754155 25.6585233035606 12.2184876940305 0 0
-103.621893768748 -2.44862824867267 -5.96874315349707 0 0
209.010711284724 -32.5301342486418 -13.9677019169634 0 0
-245.278114997893 45.0829360084011 22.9589254099248 0 0
111.787672919909 -9.67129023184779 23.9042160341536 0 0
-226.367569563242 45.9812242033176 -1.93309469444699 0 0
181.921196410503 14.154001786627 -26.7986177610451 0 0
-194.807930806607 11.4286367592416 -19.0522226411206 0 0
167.591669149394 6.77707871428829 -10.8994240448952 0 0
176.503361212575 1.36144525605816 -12.5530570156628 0 0
-39.0561612609196 3.36611106686835 14.5946081718511 0 0
172.398244192997 -18.4760993683203 -14.5306631798529 0 0
-98.7989774939343 -22.161548809759 11.5848263073294 0 0
-186.498866892979 -9.05078405938703 3.04512545464038 0 0
83.8967891640335 -15.3548520703149 11.1248693650421 0 0
12.2217220787325 -0.194039214208775 -1.00415965030542 0 0
-73.533153743758 -20.1721297492755 16.0509965047329 0 0
-50.0204832882788 0.675736231008354 1.58973558016972 0 0
-198.371016005518 -1.61658556356732 5.49171900509191 0 0
158.463922503251 -16.6419801141707 17.2563037895644 0 0
171.449275126314 -10.7621468684634 25.8289676908105 0 0
-71.3930794661734 -20.1856718508232 0.715401032924845 0 0
213.903258174961 15.3202010460089 2.5718860275368 0 0
138.582605310357 16.1436596904389 17.2907692070264 0 0
-225.08854131119 -17.019711467927 5.83830296030823 0 0
212.917648334811 14.9101334199407 4.27419236542832 0 0
94.8671848397296 -3.43378699253636 26.2100442623458 0 0
-184.892426712437 -20.6033350548467 -20.9496796038411 0 0
-235.561232279785 -9.22135007736297 -17.6537917157724 0 0
-93.3163848695861 -23.5334947281571 0.426035023778703 0 0
-87.7466477016114 -20.9350777239975 14.1212707326945 0 0
-186.554996774578 -5.6109731114085 4.2383420890946 0 0
177.134758011238 5.47230311419159 21.7152619872574 0 0
5.47470925069284 -0.331124506466651 -0.965524334206478 0 0
-199.487865288338 -11.4368881044242 2.41850908080919 0 0
-235.357737561454 -1.73771380280086 -2.1020065333607 0 0
195.693232852378 -35.587146092748 -8.27691186971522 0 0
-210.678897969412 -12.7363393296948 3.9343445452918 0 0
-258.714658143433 31.9634164088363 11.26547555056 0 0
-229.703221666124 -5.8480209738052 -10.8149431058035 0 0
-182.254393177619 16.4616627794964 -16.6520647345814 0 0
-113.606670169811 1.26337385212795 3.42918143204338 0 0
181.152287899339 -19.5809459561235 25.3704089772924 0 0
-65.7379812155744 2.11081256286871 11.530271150454 0 0
206.804662638869 -8.9901676663191 18.7212340410442 0 0
-194.690291309438 12.4662225175599 -11.8519646221212 0 0
-184.411417841444 2.19993217587681 3.854044936199 0 0
70.9511161586033 -5.55502739094769 25.848217567953 0 0
169.053994222363 -9.61680005686074 -10.7300832367061 0 0
137.661978032481 -16.3805344401855 0.0737914617781897 0 0
182.303377492529 -5.57943972659189 28.5683928234 0 0
97.9419567381126 7.49943243221474 22.478145850639 0 0
-197.293328196429 8.32908529158969 -21.8576558996509 0 0
-212.228438653871 -24.4107640478393 0.976509997023316 0 0
7.9281293837886 -4.92382156054752 25.0518904745951 0 0
47.5013843119669 -14.9910928993498 7.38522377152989 0 0
-235.942471714527 -4.63109208179157 -2.78306984307394 0 0
-191.485611156611 13.7849679988258 -15.6231483259193 0 0
52.6349919442175 9.82049410932072 11.244653234682 0 0
155.124102369797 -17.8926696005503 11.4480102101077 0 0
212.850403944613 7.64140448233428 -4.06225445006943 0 0
-193.445957872205 -20.0042405491813 -0.189369471914398 0 0
-42.3573477238258 3.31575902964568 8.57711452055645 0 0
-201.484228599719 -26.8209336301064 -19.6771839552436 0 0
38.4393880965864 -16.3961569531454 11.9092578916704 0 0
212.058546147346 -25.4054712983961 -2.42690091907274 0 0
-223.162634009115 29.4989732780765 -2.4640227199202 0 0
127.261325396476 -12.4036418045687 21.5872042757821 0 0
-229.019613434768 50.8503481429077 5.41411673674821 0 0
-219.434691029587 -30.575164833084 -19.1688985553032 0 0
-173.233903921714 12.5261151949745 -21.4076670397649 0 0
214.181418010692 10.6980825248 -1.45758081287765 0 0
-256.559211041812 34.5946223604509 -0.305621617797688 0 0
171.511385984342 -3.11379633748305 25.2409536122992 0 0
181.362450069178 14.9208772687856 -31.9345025767703 0 0
125.071800836885 -8.82510678508585 -4.80327343981184 0 0
-211.457573420192 -33.3060604390082 -9.92457262658242 0 0
-186.727719989249 0.822565001150628 4.8006971367801 0 0
42.1368383010206 -1.93836042265029 -2.09660109424269 0 0
-171.117233907055 -21.965433902615 -17.3842683554636 0 0
-203.560210910048 -23.8083282209135 -0.723275497049213 0 0
-187.167879048611 11.0157311255365 -27.7838799406768 0 0
22.3216437684755 7.12095496505523 8.98202770833317 0 0
29.1905731031393 -5.80696286796248 -2.58541274538812 0 0
211.814498781996 -19.0329529589981 -11.9759818761176 0 0
208.47793402849 3.05688804296789 0.907425905293914 0 0
32.2391901177904 -7.50803329778726 25.3820314639803 0 0
-14.5061372440664 -18.2825662202943 8.78833765529355 0 0
-32.3611481745516 -7.13588827827182 -3.56828001266477 0 0
-98.6130908990602 0.436037224285343 1.31450905881298 0 0
60.7687811011375 -7.83684032294294 -1.97111412353535 0 0
-171.98896985295 -7.94872715159272 -21.6386698380978 0 0
213.027446030997 9.27057347620044 -21.799526517167 0 0
196.555991661827 -27.6117710024404 -30.4355054018687 0 0
40.2365613834058 7.68897521653891 7.33200072721723 0 0
203.062631133034 -5.09659676503417 21.5042328115272 0 0
-65.9488649512365 -22.5951732287212 12.4931050921579 0 0
202.635791979319 4.44504035230064 15.2528079648118 0 0
-120.455159748912 -10.0152600651048 15.1049568769262 0 0
-1.70757878283188 -18.6762918613974 13.357792810427 0 0
-114.831026752225 1.68227103987047 6.02614582923114 0 0
95.5002583620572 5.49449798816662 23.4415957609033 0 0
-53.5379896179742 -2.31087228174712 20.3595518366092 0 0
-236.580805484091 2.78558006014684 1.79877568334676 0 0
58.6246930628922 7.27332053292812 4.36809200853301 0 0
87.1857893028285 -3.38760793792773 -3.71156216066107 0 0
-78.1743057206164 1.52597966434052 6.1006113390409 0 0
-234.840234602339 5.39546459216424 -4.19729109492448 0 0
-225.3649430455 -18.4048441144392 4.64819774243721 0 0
-234.893310059105 2.62228130971739 -0.67611515554193 0 0
-76.5290908395227 -7.73357227262173 20.7065969721694 0 0
-90.0222727137254 1.62077505679703 9.11189441527924 0 0
-20.7104778165261 4.27703927714325 7.5525744222463 0 0
154.109579109251 12.3627004732591 -7.31020048598762 0 0
-121.567483397811 -22.0384948968608 8.52531638326193 0 0
-29.2514049831147 2.09775583273482 3.01333970699812 0 0
142.475061596051 7.50822945551131 22.1012455710782 0 0
-239.890537018256 9.98261072362964 7.67323954027177 0 0
-89.5540018188306 -6.14700196246182 -7.0425245078813 0 0
214.240233366249 8.91737723641478 -16.3932840515283 0 0
183.408050904648 28.1614212441338 -25.8057753727025 0 0
-164.518309013931 -23.1207085704546 -2.22025023853871 0 0
105.850287981337 15.8121245202322 10.5316535425293 0 0
194.077201102432 35.8787762538866 -4.77239119495867 0 0
192.026763746724 -22.786609988591 19.957839349793 0 0
-236.755501400856 9.80940939588349 -1.958972440045 0 0
20.872165908245 -11.329009378519 1.68699035881709 0 0
-139.761712963734 1.85115249599001 2.8609901132984 0 0
-63.2446772860009 -0.847074225170323 -1.14052238080012 0 0
103.621319717257 0.354615168687794 25.7920055004518 0 0
9.09975927894994 -17.3160081008146 18.3342528211168 0 0
105.6053721173 -2.05704304784371 -3.44795518517389 0 0
73.5419637641071 -6.00465664591036 25.8353033280536 0 0
197.721906677258 19.4894946731335 -42.2147898865922 0 0
-73.2097521386463 1.81077820559211 7.23326450627014 0 0
-255.38556886023 22.7444799122867 1.67062767715214 0 0
-209.251433411551 0.368390663941608 -20.832458181646 0 0
152.156063818735 12.2640449154194 -6.50098235437732 0 0
193.630455109767 -0.699688046211638 -12.099305156882 0 0
200.136448602164 -33.9054754644812 -20.1683420371593 0 0
-161.366751069369 -21.6095910698709 0.761184620141783 0 0
-228.016929994025 44.6144778597595 23.2380813892612 0 0
38.2439725557204 -2.18042459069105 25.1977144621242 0 0
208.935582173536 -28.5832421459461 -2.60094229034516 0 0
204.166193072401 35.0017606128579 -10.5174837904722 0 0
199.17019565043 21.9812168653618 -42.0371472811812 0 0
167.116809160861 -1.30252078071325 -8.5209275690668 0 0
176.246077763382 -6.09715505949547 26.8400812623824 0 0
214.347989161451 8.88182355200401 -5.80800682066058 0 0
153.568903222952 2.57114056483303 -5.6039599707979 0 0
-209.005150343891 17.6894240346787 1.26532444671514 0 0
-156.875415832717 -1.76071024316178 -16.1980731012111 0 0
3.10015470915081 -7.18337926588406 24.9330987818858 0 0
-249.997375836067 44.580036361686 20.0964179255403 0 0
-227.472150117245 -13.2059118619135 9.87602761879474 0 0
-32.7446570706788 -12.3718440521702 0.580582564765774 0 0
-149.183226121787 2.19375118826556 -0.801069909370185 0 0
-215.212851415019 3.71057182045133 -15.2091597323814 0 0
7.1833985952783 -13.7184707202198 4.32107835355655 0 0
134.622674492212 -16.2401818340119 11.4315754575921 0 0
197.522939695557 3.63057927443647 19.2749440223952 0 0
108.596811487009 -12.220558307325 -2.83852983524338 0 0
206.064013349599 -30.8110695061625 -6.11288434094839 0 0
-13.9613140378035 3.26583978769214 4.39739426518623 0 0
-65.2277465060237 -6.45416086781794 -5.63131798853602 0 0
195.04311153518 8.76269237694205 -18.2438036866771 0 0
71.9434943320252 -8.93426273627542 24.8518964036797 0 0
-151.117568150861 -23.8521192304574 -10.0222399292308 0 0
168.909361117702 8.35372246449139 -12.5006804379644 0 0
74.1961860206579 7.91417773676901 21.2095248083282 0 0
20.7647883309026 -16.755952065934 18.2805591489829 0 0
-251.866571397009 35.2405726787222 24.0964174165009 0 0
-118.581058382122 -12.8408892052381 -11.3575951136839 0 0
201.230232535374 8.75091976090351 -35.6245550221934 0 0
78.8348329309534 11.2714373829582 8.26801436903638 0 0
-244.493750455935 14.8515541582675 20.7928796180403 0 0
199.422861699856 -12.0171946562421 -26.4283741762265 0 0
-86.6588534183107 -11.0730390171159 19.8731611044128 0 0
200.58438736113 -3.00945847756432 -8.95685006421837 0 0
-78.8607436965594 -17.4609577542892 -2.9386981316791 0 0
15.9316690571029 -11.4146118726693 24.0060865977157 0 0
178.65689971087 6.51880704311467 -15.7522393547294 0 0
201.998310415025 6.46883091647052 15.6723620827628 0 0
12.0513281572071 5.56825573555593 18.8810454958652 0 0
194.75122614406 30.9119289061857 -38.34705129247 0 0
-188.981788913789 8.56632164912512 -6.15525773019915 0 0
204.228096742479 -11.2348537676015 23.7565078447187 0 0
-159.935444531211 -9.13386169647807 -18.8737518499327 0 0
37.4988718938034 4.40708780876802 22.0002754797775 0 0
180.640817316516 20.9948069641669 -25.2973015867431 0 0
-257.533106406304 37.5240828837875 13.5964509799412 0 0
206.219752471544 -33.8781780403995 -15.1791885041348 0 0
45.2600841819323 -15.6126108307603 9.28357069418068 0 0
-54.5805093518483 -22.501942511213 11.6748443401029 0 0
-120.747149766292 1.6580178114816 4.79753409588481 0 0
-26.6881169083756 -10.9855986580326 -0.188368768322359 0 0
204.336830738755 -3.03560528897584 17.0984668018035 0 0
-232.776891757247 38.7673401817408 -10.1988755637895 0 0
100.023137607571 6.06047409480391 23.2304621983403 0 0
198.238005001836 22.2095821505666 16.6659949595958 0 0
210.875678491978 8.55027655999964 -14.0394701404413 0 0
117.585946066986 13.0550151833328 19.3755792900836 0 0
182.293898329284 7.93178878767023 21.1007817302577 0 0
196.901498913049 -12.1528193448929 -25.0093935338087 0 0
186.290820709693 10.6665583075075 -22.2611312086572 0 0
-233.163433373989 -27.0308898070327 -2.64459245393028 0 0
199.779031854783 29.8881176256875 -40.182226836963 0 0
150.361838933805 -17.4382641323808 10.4591817915595 0 0
176.350357038524 2.32661139159857 -11.9821121295941 0 0
74.1375569433432 -12.3435451545085 1.1287965291476 0 0
1.75879479923713 -16.0685759567866 7.55729897360549 0 0
201.258578125629 -33.6597821311624 -26.3937785627741 0 0
-109.656069329802 -8.3033871271751 -9.88289122571787 0 0
-233.695492602872 6.1495192193569 -5.86459163476095 0 0
-174.907807905219 4.30954270985647 -23.1983151500151 0 0
188.7484166173 -35.6316487672915 -11.7053368163438 0 0
210.67191634518 6.3177035503281 -0.245922986728042 0 0
68.5195784947268 7.15349273156823 2.72175958619295 0 0
141.063374628883 -3.20173089672752 -4.67164098373385 0 0
204.136737522463 3.11839266233032 -7.57822740086703 0 0
188.268516977853 -35.1120558460755 -13.2081905283592 0 0
-222.396272328944 27.3375937037433 -3.17508523387185 0 0
-49.50668163715 -3.74244406943317 -4.12343075863889 0 0
-20.5512580330628 2.39598803745262 19.3666326800299 0 0
-201.46958033888 -5.56267362358429 4.03963354567695 0 0
-14.6546279658204 -6.95592108448465 -2.64193855917024 0 0
184.133745117283 -32.5673271646819 -13.0808946346127 0 0
-223.06007322434 -7.57688751946297 9.91205851338609 0 0
173.858469606887 -10.0723225157718 -12.7762551195649 0 0
4.54900502084933 -3.95133884249358 -3.19778115935399 0 0
103.027452690585 0.573001952033197 -2.83289820824359 0 0
127.919379137933 18.1490072835454 13.5514760466917 0 0
-221.072519626574 -13.3363381111048 6.79316620764897 0 0
200.08238514317 30.9796713497387 -34.2318836327191 0 0
-242.711456242188 -13.4403918903475 -14.7920781842985 0 0
-58.6964117278161 -3.08601767911464 20.3306395213665 0 0
-0.284395438153782 -0.426333633456388 23.3288125403893 0 0
-173.454231982942 4.7292177072055 -3.02544130594531 0 0
-20.9593675331384 -8.55975415676722 -1.63914172493907 0 0
-119.277281992677 -21.927948329061 -7.72899853977482 0 0
-220.876018084158 42.8756918963405 5.36795084350342 0 0
176.870350821876 28.4405898147604 2.92943978121349 0 0
-211.571560455723 -29.1928421742774 -20.7589517429403 0 0
-235.966418073984 18.420760334818 -7.41830577955915 0 0
171.269868383567 -23.1807848250298 -11.1960926556322 0 0
85.9452730544417 -4.21740851940476 26.1114952492423 0 0
-192.24984980799 -23.7996990752317 -19.844051730783 0 0
-210.747030528746 -32.0593185258151 -5.5318796782966 0 0
-248.141003714367 44.3066875211066 21.9976324857542 0 0
98.4700414182301 7.02565772175935 -0.766000324258421 0 0
1.53730187298286 -0.588448662365728 -2.02817854586347 0 0
-242.309002073029 -9.7091134190756 -27.0690788690778 0 0
-126.781097350112 -10.0159925632797 13.9556394586596 0 0
-239.756455047381 13.3047817360387 0.557670677547167 0 0
-162.498992288394 0.660952150033631 5.44367007962977 0 0
-191.436690327727 10.2467950225579 -7.62291769536291 0 0
-174.502703863772 -24.105936511846 -5.15580986324638 0 0
206.419416334727 -32.2209360729851 -11.4109769364304 0 0
-95.7784026322691 -24.2641821561978 2.46548663696359 0 0
216.379699383415 30.6371013982036 -10.7594497421161 0 0
-14.1173497669813 1.34755884674759 21.261983735551 0 0
204.764907378978 34.0790963964296 -25.0445605700263 0 0
-237.782553103902 51.7245462997664 2.22501942988314 0 0
-199.614533572475 9.41254023091212 -17.1685170741187 0 0
103.516111602747 5.02155794827776 -1.87543521678456 0 0
185.61658243972 -28.0997235153606 6.25269792099718 0 0
90.5235490978425 13.8847162732886 14.40502451795 0 0
202.868757307515 11.0447938729412 -19.5849219347272 0 0
199.326754755479 -14.5207040777733 28.6224196586204 0 0
209.537372230636 -9.65144604781494 -8.62623137907004 0 0
-1.19945236294088 -13.3769766581593 3.57708337683181 0 0
-121.431161210747 0.781447723153622 9.1753335478363 0 0
181.271084449563 -25.5907775682192 10.2475046905814 0 0
150.75709195091 -17.9695247576371 4.00017164396381 0 0
-240.080460044526 48.6288613079775 18.2518155401745 0 0
172.440362968784 10.489111043718 -15.1091782496052 0 0
-7.62010385232522 -16.7914227215414 7.7163427995191 0 0
184.359855182587 -16.2177969538119 -28.4900212107731 0 0
162.83155068376 -18.7480727136775 13.4837277986587 0 0
-134.029786858079 1.80027893060051 4.64594096572354 0 0
194.164758086042 -32.6823460911319 -1.20730225919061 0 0
52.9447695296989 -5.62537070780336 25.6669897029496 0 0
-18.3963029117769 -1.52728530711291 22.9118321380451 0 0
217.15353535857 21.5535399712333 -26.2283428836909 0 0
-226.305705744096 -28.7075564673712 -22.2818140723503 0 0
-226.286575592412 41.677312493095 -3.62275487776258 0 0
191.909270970989 31.4000755025625 3.75894034462418 0 0
137.804293247089 10.1271434199455 -3.14048807095336 0 0
10.7682650755995 6.89039658850319 11.21360237324 0 0
81.8797489909681 -5.39160481217253 -3.79359923275085 0 0
144.109132629249 18.8546118083484 -1.45974468470882 0 0
55.5976329052889 10.1897548919268 16.3500091464321 0 0
209.945638899292 22.524505075143 -36.962200488648 0 0
-241.26837052022 -20.1757017527218 -1.68541524590831 0 0
-153.202947059047 2.96725832031267 -5.59620448724104 0 0
48.6635804297114 -3.46811164856316 -2.57384784246418 0 0
204.081495100509 33.7117085212015 -6.54836184070054 0 0
-190.563576309032 -22.0851888076606 -21.1210935898632 0 0
24.4090182569628 -6.58782691841798 25.3723214125914 0 0
-183.600780773216 7.52315373434099 -7.43885236972705 0 0
199.412298662591 30.5474333235371 -36.4465591582506 0 0
59.3494347175373 -15.7285145152478 11.7005212433721 0 0
-51.0271547242998 -5.73661288217392 22.4482259360246 0 0
-142.799424264789 1.85280754697961 -2.9930519323983 0 0
-229.87626415218 46.4212509851249 22.6058420495713 0 0
-190.776964774567 9.62280888904351 -26.872172925508 0 0
-112.222855645624 1.18424675563154 9.00783570699131 0 0
-128.342736156738 -22.7373128376481 5.55699356071078 0 0
73.4317519276186 4.75195541554086 23.2113010926474 0 0
-248.943192557569 17.911212258029 -2.92590569785814 0 0
-58.1658957121132 -19.4799378260851 2.91615667162139 0 0
8.89636541796644 -8.29561070159603 24.9321007757003 0 0
-254.870891222076 20.4075170934794 4.10631421012844 0 0
-237.940569304229 42.889939858053 -8.88073229614179 0 0
146.540558216969 -17.5169730907366 4.22045039984273 0 0
-234.570773065462 -22.8319734885816 -25.6773155936282 0 0
52.5128642119422 -9.3958948843176 -0.517195994154097 0 0
206.009234009558 -6.58807857439943 18.1449980792089 0 0
207.102827395798 -19.8259461022625 -23.9708469995599 0 0
172.215270494001 27.5819034761827 0.562381158256065 0 0
212.432560822891 33.4285183079215 -20.5547371574435 0 0
-3.1774043670777 -5.99408229891748 24.865435877656 0 0
-221.628753492605 -20.0343712570874 3.17665373069968 0 0
211.530488457707 30.8906502894146 -4.62273006010318 0 0
-241.902784858656 49.8951081021968 -1.4883238781206 0 0
102.515395568957 14.7440175842892 15.8730239805649 0 0
-183.773831588878 -25.1758763978476 -6.94589666667353 0 0
142.133811665387 11.85147540731 19.9364202949716 0 0
42.6170432538437 -13.6847799257878 4.53620473219938 0 0
193.681119618495 -33.2569250324021 -16.9979418185772 0 0
205.852813825659 27.327375994206 7.4210989537929 0 0
204.960219379942 -24.3969253593808 9.91857198467788 0 0
148.488351331957 -12.5942588641694 22.5418667268519 0 0
187.581420548371 39.5356556763391 -17.9805612164052 0 0
-3.30718398777065 -12.4786850411401 2.48754887838526 0 0
-202.484236731089 -25.908418508745 -21.3016289791499 0 0
154.799635683399 10.3757589469115 20.1440522388937 0 0
-219.666649404297 36.3398898478385 19.8875903718792 0 0
134.100597381832 -13.5879451029666 -3.59233946069332 0 0
43.099016092285 4.84980882904672 21.9695842318196 0 0
193.602000676776 11.0189806112965 -27.2694210522128 0 0
-94.0734016345174 -24.3375190998665 6.36333916272911 0 0
116.962074467792 1.57971120786922 -2.97588048262011 0 0
183.543684597329 -19.9320603486645 26.0593203484175 0 0
-229.200434865667 -14.4850865631934 -31.424595028087 0 0
106.258796585094 -8.29469547652741 -4.42895868771749 0 0
-214.523703498802 -10.0459541454882 -31.9743254406199 0 0
128.949458639868 13.9417902726334 18.9577063877715 0 0
-16.7930239660743 -13.9410753254593 3.46379816506559 0 0
45.9046979209381 -14.8341782384536 19.8586611910244 0 0
118.966899376651 8.62346724224792 -1.51280086402614 0 0
-252.943934764428 35.2900560132633 -5.26348863672438 0 0
145.834323448872 13.2418748475815 -4.36720366810746 0 0
-201.387954764445 -8.21859025245576 -29.2854565416501 0 0
-201.155917313262 -1.5159236905115 -28.4498265393382 0 0
-182.382299490324 1.12656558746946 4.25334673555481 0 0
-227.6782649577 -26.1147114579514 -1.54543731398075 0 0
