"x" "y" "z" "f" "a"
198.908294544436 28.5946065659334 -32.885221793934 0 0
-227.984009859479 -17.1659822213865 -8.20043049007726 0 0
193.272748703934 -1.36476383923648 -17.9544599241939 0 0
183.503357107257 -14.5973069712917 22.9192795238076 0 0
88.9455763885238 9.83177321693275 4.94549276803608 0 0
5.94645763205396 -19.2732273169241 19.8716018734195 0 0
223.898374833919 44.4803843795896 -15.1739455685133 0 0
-211.005499321492 -22.7870366044402 -28.7996043364743 0 0
198.567790917832 12.1291892896024 -18.5854099189035 0 0
19.9209683464807 -20.830971622685 18.361479439935 0 0
-54.2303989748148 -19.0710594962543 20.5719781121363 0 0
180.494133403891 26.4525370493308 14.7378935027132 0 0
-197.597801424973 -22.8045032534765 -27.2040296712279 0 0
216.280799093971 -27.9342867914124 8.6555336205097 0 0
-44.0932090411496 -8.60786345577632 -5.97660972094809 0 0
-130.499883885292 8.47715139575375 1.3617944730174 0 0
-210.996616513262 36.5755548025155 -5.72867377305044 0 0
218.894874962245 30.1691409780042 14.2892321102503 0 0
-189.262853848933 7.75761790995787 -15.7218956555634 0 0
55.275332804425 0.118567922516719 21.8939563555899 0 0
-111.937965329161 -23.6383797086055 10.2407140497947 0 0
-210.527094635462 13.1338051670622 15.9948531332068 0 0
193.35383886003 18.577056063313 21.0044295557588 0 0
-133.480589373437 8.79455346234235 1.4092985985003 0 0
-73.2723317763348 -7.02661181288716 22.1985107540191 0 0
201.896361972241 -15.8752617470896 28.0156932644832 0 0
-134.695787037564 8.09537973861515 3.51626272551829 0 0
208.748037855337 -31.6475436206433 -25.8568296686184 0 0
93.3160628102312 -20.8738128714754 2.89733965487838 0 0
-172.713211634644 -24.7109786479047 1.54349217399099 0 0
201.445194199227 -35.8718090060488 -20.2204837426287 0 0
-221.258091762987 -29.9440854478103 -9.91209453201118 0 0
-11.6608794063618 -18.5359825191191 0.557366138366812 0 0
-206.623732558793 0.692296366494909 -24.5377280667361 0 0
147.231762195657 10.0564496826795 19.0140211164679 0 0
-196.630621147356 3.27811040613328 -20.2509386506792 0 0
182.498007771611 7.62330724681892 18.1396239283923 0 0
-199.982691524178 7.65248781198053 -12.0350418769924 0 0
-205.287271090028 -22.074889940817 6.62037369586922 0 0
-182.359286652632 -24.6612476641765 2.73508999951313 0 0
211.973146569353 -23.2126698739902 25.7401841619524 0 0
-62.6078535437467 4.22626376607054 10.0272761602433 0 0
0.582462032141785 -15.8882455228281 21.92638148381 0 0
-240.502513540803 6.91097023636792 -8.32347696826412 0 0
65.5315026623385 5.02535098761292 1.23399484114928 0 0
182.539598287369 -3.69797802614135 19.0820729913359 0 0
152.503609171784 21.386916123603 1.12604867688431 0 0
167.792209397375 28.0361747164791 -4.11477455756351 0 0
138.88018363125 -19.8115422828204 12.3692249418667 0 0
130.874465207693 -21.0843646398582 -0.355306902606018 0 0
-118.826607971829 6.69032369957521 3.39191263849424 0 0
-125.566013813913 -0.814666517890347 13.5967064565691 0 0
6.06736861248434 -12.7986586705761 -3.46814671236479 0 0
-241.708080465192 45.2379690550718 13.4309952693356 0 0
206.944518813012 30.8334271624103 -36.8085255468056 0 0
47.9420669691589 -19.8216585060131 16.4897014467163 0 0
167.276409870935 27.9279834791278 -0.513601870115289 0 0
48.1225389355918 7.85670460287131 13.28514054534 0 0
105.90645928009 -19.5109941552845 -1.848416873585 0 0
-200.129245969227 9.26384114856771 13.4156467930625 0 0
146.544152779846 -22.1665774704046 4.21460762707478 0 0
177.467811817794 4.57347518114749 18.1530751542651 0 0
226.082163431148 39.4783629293725 -0.269217643524886 0 0
218.400568140418 43.9064298388694 -3.10423737462355 0 0
231.433606879671 39.2289524697227 -4.11019446090853 0 0
-241.139541625996 3.45205340931299 11.2304665074794 0 0
-70.3504241987906 -11.5086577783429 -7.96747291950237 0 0
-227.14519449181 16.212800044028 -13.4710228790685 0 0
-111.420794719988 -21.552310528777 -5.05945123192526 0 0
-175.635904313898 20.1709997047908 0.836088536968963 0 0
21.666344221199 -10.4137823742123 22.8587152121772 0 0
71.1306240310886 5.61637816960903 19.992441791861 0 0
-40.7647325012565 -11.0553568025191 23.765277367006 0 0
90.8695490132799 12.4673393547087 14.0523467884609 0 0
189.984695497972 -8.42837830079909 21.4826216241816 0 0
175.714005719858 1.73582325133286 -10.7380231989748 0 0
229.684639427834 36.3038739489828 4.38409285141741 0 0
-178.138928224881 16.5516369519076 5.17456727105422 0 0
-29.6070264010201 4.00279452489974 6.07652036599741 0 0
-212.789435499323 -2.8932535471945 14.3854905725561 0 0
-20.3010143963145 4.85749383120413 10.1783215467722 0 0
-178.065392088329 16.2598277134284 -14.4576423872454 0 0
-82.8174360146714 -1.27249876628527 -4.68843913477233 0 0
195.032088459629 20.4244450410671 -22.0842020051595 0 0
208.616577544437 48.0529255238798 -16.6069939314926 0 0
53.0861554019136 -21.6540324512049 12.5847722721921 0 0
137.903064872511 -16.9643293609381 -9.44923782937165 0 0
109.085602621905 -12.3748851381448 -8.38280674096847 0 0
167.072758808725 -22.7865593681877 10.2896908503711 0 0
-38.6812774342892 -12.505396720594 23.5580155243033 0 0
-46.4785437023065 -2.26555826484427 -3.98063132827623 0 0
227.776311013832 22.601689644754 -22.7022978093856 0 0
-45.5876749349286 -16.6844726922107 22.0998268247164 0 0
-189.631445841609 10.9503257956383 -12.4107977200162 0 0
-224.685389709611 -24.8573297276075 -0.760022250975416 0 0
-154.698034944088 4.86078726687252 9.56392269639695 0 0
197.643870139526 -11.8022288324707 -31.2316002740578 0 0
156.041445090583 19.8960246533555 -3.00319970195545 0 0
-205.508809020404 -29.97009734395 -22.5720830702886 0 0
-112.289989085252 -4.04085329496771 -8.72987916862806 0 0
-173.72414394223 18.0509164122993 2.06751480462811 0 0
-136.683460164878 7.93577014077067 4.05209968345278 0 0
-51.1242463020799 3.90383762313647 11.4871296494971 0 0
-150.849247187144 -15.2168479675696 -15.8062151485465 0 0
122.500748473458 15.009662978741 4.63118278250422 0 0
198.351961268538 0.508212704704567 18.0668640897575 0 0
-107.694143425772 -5.83922356494246 18.6941835537607 0 0
-204.914785685898 -4.79248831511622 -14.1393059525557 0 0
160.431067398579 23.651125823858 -1.80583602735439 0 0
-230.943342497446 -17.6048247951906 -13.8458961795032 0 0
204.988217735074 -26.3033301361937 21.0933689909373 0 0
172.045087010497 17.9769188431366 -8.57371923970876 0 0
-185.889318331379 6.5092393748565 -21.3614774603253 0 0
-11.9699766409177 -18.7759424037318 21.0795118484028 0 0
222.512621152703 -26.0631275618129 9.22031679412392 0 0
218.519694503611 -34.6384194671221 -26.0462534720209 0 0
-37.9732544665301 -8.52030872958503 -6.02997527345307 0 0
-187.940533327588 -10.1553002903276 -27.2828152936 0 0
32.0474954538759 2.98392400328665 21.0104720819666 0 0
201.772408418392 24.698260019832 -33.4867823335581 0 0
226.39112672491 -24.0009042348715 -2.41455776854504 0 0
219.411377717945 44.0536786924432 -5.34257648961711 0 0
191.612166585917 24.5891384320302 -23.403805130035 0 0
-102.749912980204 -6.45456696616736 -8.40708533371417 0 0
-164.77181137981 26.2088853484532 -13.0164047726378 0 0
-101.97491202514 -25.8634108962425 6.89810874324711 0 0
-84.6323145181253 -5.56389253324974 -6.61976230900071 0 0
154.17615587408 -12.2800178799697 -11.32495034733 0 0
-205.266292746482 -3.08565798173441 -18.9274753475192 0 0
-129.385087554085 -23.425504181027 5.64265086161666 0 0
197.194727082274 -9.96042465824796 24.5172795260316 0 0
-86.2347692400341 4.16035998124446 9.78311775876993 0 0
75.7457826827147 0.0263295592342579 -6.21070315560886 0 0
-248.504172273939 9.21948319865539 3.22310900087029 0 0
34.4693033231817 4.81201612228983 19.3815814902501 0 0
-231.576146938481 5.19906148736379 19.4300781577688 0 0
-212.056170403333 1.99478585721739 -10.624755337281 0 0
-180.815690462481 7.70613650507165 -20.2209838292318 0 0
-230.831735367092 9.24281407404905 -7.14854835824116 0 0
-200.531302729197 -12.4479617234167 13.9947442990968 0 0
221.388633491551 -32.9941699830935 -13.4813152809191 0 0
-180.122957227041 -28.1845984346739 -2.01322961410866 0 0
-250.672245422443 40.4874412298138 2.4741073650641 0 0
-223.023244261428 -10.3846669269424 -12.5646829393799 0 0
-116.234122801881 -0.0735857596943357 12.8938642289546 0 0
-253.060291233279 22.0366559833108 -3.86698339247923 0 0
-175.378675311382 16.6014121653655 -16.2794965617586 0 0
-98.5047534856663 2.49951927162941 -3.25074805521723 0 0
-167.477106510931 -9.22848455766629 -19.4183629970494 0 0
100.255325911009 -20.9873720157299 8.31134652951585 0 0
-65.7498203413921 3.19153136273403 3.01239118894958 0 0
-33.8538901368974 -9.58408674594926 24.0844941103989 0 0
217.626481529592 -4.99435877675218 -14.4307339141368 0 0
203.101929960767 -7.82122748956791 -30.3187604815175 0 0
222.426461706942 -28.225487390848 -27.8710868435332 0 0
-233.499117665034 21.142307491236 -19.0461968614797 0 0
217.225923155675 -27.5836713452621 11.3198216705393 0 0
-217.497885412212 -13.6551011704303 12.313350785952 0 0
-113.049176679594 5.66341492954674 0.161964145691627 0 0
183.659631247029 33.1425797228664 8.69088778428244 0 0
166.964257585818 12.4781046050723 18.5140696154487 0 0
-142.948045721953 8.05706139884465 5.25014738568088 0 0
-196.712095832813 0.800801558247307 12.9866466765202 0 0
-140.49552964244 5.57989373515036 7.88525590252231 0 0
-90.2168495470107 -14.2929515016787 20.7409491150066 0 0
232.935568339991 37.1844852843444 -4.14801878000072 0 0
-189.939451708621 -35.1296702615376 -12.5402540883888 0 0
-113.75541926676 0.58500184860038 12.4510810838296 0 0
-191.493269491516 -33.5504230161493 -18.191960762016 0 0
192.669123551652 6.77224126846473 -16.2221023687612 0 0
99.0447894783943 -19.8972623585306 11.7277201978592 0 0
168.909666369113 -24.893125411746 -4.9271668327769 0 0
171.912069180873 7.13944230806636 18.7394099067105 0 0
-154.930056672409 -6.50744182307753 -16.2178875969869 0 0
-87.5697864175126 -9.39749833316685 -8.50183404174259 0 0
-244.742607522858 10.6031163626786 -8.02803146512551 0 0
205.643115243872 19.5174961495993 -24.2788691239691 0 0
121.048875490765 -6.66943011971734 20.9010895820759 0 0
61.0348347106563 -20.7579034342047 3.70367497927638 0 0
211.925443450855 47.8431191106026 -15.2405961600251 0 0
-190.300135824517 -35.7772310831085 -10.0468449400615 0 0
-120.439907504705 7.02197699308738 1.89038182891101 0 0
-115.1142795722 -22.5416476118204 11.5286407636031 0 0
149.514241212844 5.83874926048789 19.9568733422333 0 0
218.373118532323 46.2508613843338 -12.494959062969 0 0
193.960583333139 42.7320730532587 3.4480856197077 0 0
171.971182899451 29.6192235846109 -7.32686176636936 0 0
-208.629144844712 -7.93606495526608 15.1378882534873 0 0
13.680332352916 0.580315978003175 -2.72311985791079 0 0
-15.4152276027895 -1.03717920168961 -3.72856457335792 0 0
187.463372511269 -2.25466100986581 18.8025222040665 0 0
51.6154192099393 -21.5416153042793 5.72285995776891 0 0
173.469972101992 -25.6169711221969 3.98566194255347 0 0
186.533515311684 7.45692611802421 -12.6482955239377 0 0
-56.3384609503632 4.04162236146168 6.19056524021558 0 0
-206.192760868556 -24.2354357138925 -27.5261259118305 0 0
177.627440735181 2.794428536393 18.3862928927665 0 0
-80.9488857410204 -21.4722211602958 17.4525613055831 0 0
191.291402805294 27.3340103334995 -24.329413529804 0 0
180.985052726579 34.9025941590093 1.06741080975227 0 0
215.473554235829 -32.7143293779652 -6.85766839281115 0 0
-197.146079245774 -4.00480505087484 -30.2562909527571 0 0
-153.874818521456 4.11464256002744 -14.1583027209306 0 0
-219.870504199217 36.0988384588374 24.670685094585 0 0
55.5704883147673 -18.6858486590721 0.416748861913176 0 0
220.568243309729 40.639786486755 -34.0731846310782 0 0
-243.035730927161 2.65742354818281 3.02750366292986 0 0
121.894634764826 4.9229219932201 -4.9890790758096 0 0
-204.702759409072 22.5470903202437 -5.9933077354563 0 0
-53.9523285091727 2.34683590473264 14.8200298102072 0 0
49.0533391229215 -2.68060738389795 -7.00686492347896 0 0
-137.220821938383 9.11435652458239 1.76184687310888 0 0
-0.21404339886358 1.95095827476824 19.9019195722429 0 0
225.574808493297 -22.089573352634 -21.0379719715964 0 0
-199.801205806382 0.479407379243876 -27.4870438258052 0 0
-226.797744617465 49.7750345903229 11.5976245741534 0 0
115.494602450663 3.53542215327007 -5.20088958556753 0 0
-149.492257561149 3.40931379994622 -13.3678268623057 0 0
220.60999552788 19.9868230010749 -20.8582219037283 0 0
122.350980778736 -6.67873463650445 -9.24763072704224 0 0
-143.019079745695 -13.3863406020723 -16.2478177901198 0 0
-247.281657839231 43.8104418086158 -0.110578847762015 0 0
138.286629129879 -19.032537410044 -6.5606492789715 0 0
207.169503927035 16.564529209347 -18.9735972447808 0 0
93.5750067669823 -19.798463996453 -0.239403451847295 0 0
-121.335859537725 -12.0933372744378 17.2317426623023 0 0
64.1759224615881 -20.7839938327247 12.4630291299803 0 0
-62.937864362771 -15.6307344931759 -4.97772047945354 0 0
-155.385949066004 8.53746162735055 6.58140683591932 0 0
-213.200909659866 19.512544203998 -11.8604680085631 0 0
-78.806569358853 -22.6976262011281 -0.629250914436776 0 0
-239.978719299754 38.6155908448752 -14.4890764331644 0 0
-228.830986508924 -3.59556653312277 -26.7432102743843 0 0
189.538529628158 39.9232879398245 2.84511187770177 0 0
30.52666869836 -7.54817831865451 -6.78802493913276 0 0
184.320410961061 8.84593164568416 18.2612119552772 0 0
5.37944943428141 5.38691363254623 9.26492943606895 0 0
-179.747019525954 15.6988859659775 5.64279505576678 0 0
120.117520655912 3.81632512799057 -5.41821257459986 0 0
230.596759244224 24.5699926689021 -18.3198137346124 0 0
-237.748723052356 27.1486255515203 27.8245986504754 0 0
-186.718245030066 0.733233352314881 -25.5651643592363 0 0
150.377535189987 -20.0857281649729 12.8244968106687 0 0
89.0548650277574 8.26661508021492 19.1369063948758 0 0
145.951268407792 9.95257082491893 -4.75881544200301 0 0
-37.7913879894327 3.14092449852207 13.8426009626302 0 0
42.7266385840146 4.35055965763879 20.4423517374965 0 0
173.437152076823 -3.0532950796524 19.0946902943689 0 0
-183.399375889311 -13.0831266617524 -24.7802236262972 0 0
190.281656009563 -32.7495482145715 -4.79188506487538 0 0
73.0250769523866 -7.43875255211879 -8.23078530815098 0 0
138.766441901153 6.77401739397513 19.9937527599747 0 0
-202.022701199044 -28.1606457257587 3.03767411532036 0 0
-92.4253333982959 -16.4747468957335 19.7444354990732 0 0
-58.5269761095185 -7.117710827653 -5.9976252444899 0 0
-7.42468649137595 -9.44613829063785 23.956942859912 0 0
51.3286339222756 -7.31983930563085 -7.13497466713982 0 0
-226.392099701758 1.37304949137222 -0.805301825540497 0 0
131.130217521718 -17.9931720739105 -6.41728704314723 0 0
124.227520315485 17.2497908312089 10.4585506126964 0 0
202.471604188966 -18.510149865432 28.5167486969745 0 0
-165.176232849571 -25.0568763668803 -2.14352446010386 0 0
138.926554327228 -21.0999170745338 -1.54991810454181 0 0
213.240868769263 -27.5253053121275 16.6536796643647 0 0
69.4566815604817 -3.37122806107845 21.9416186949497 0 0
79.5358835419082 -13.5527648053373 -5.27505268710606 0 0
214.871943566285 -0.818487627702312 -7.49610222953535 0 0
-120.835828331483 -6.31698178473353 17.4660679549826 0 0
85.4224161845772 9.35254196865091 18.1368667937755 0 0
-49.6832346422549 -2.70892676594203 21.4522327311087 0 0
174.559794248838 11.727090994904 18.7146699428199 0 0
166.250444102241 -21.2202547365635 -9.58218963949581 0 0
-226.86703046517 -22.9370871173102 -2.31400848368557 0 0
-23.6747632607554 4.69917813507072 7.92559578418675 0 0
198.558913218397 -27.4780093115513 -32.9352462084311 0 0
-148.324494626505 7.41190750516848 -12.2046779117529 0 0
-67.4769273270237 -7.18875777320374 -6.57408551194673 0 0
-90.7187931997429 -19.0766227719301 -5.34473485141145 0 0
3.97340340555289 -6.65486699427617 -6.05161373655474 0 0
43.2056585956749 1.30910250261086 21.9717512167981 0 0
-18.5355087277388 -3.85332657820694 23.4363892563972 0 0
207.995554672172 -36.2929937549429 -16.4622549707234 0 0
-119.747759072959 5.82229383796023 6.38357080367162 0 0
161.592124392075 16.8874894320486 -5.60594421351208 0 0
225.051489663063 -13.6556601716801 -13.5839256795212 0 0
143.451586959738 0.271871573864392 -8.56931143610995 0 0
95.4079435211119 -8.26990213749061 -9.01130534775232 0 0
154.265442716945 -2.04605642546736 -9.87016654045426 0 0
-79.7798316938621 -9.54922350842185 22.0615509198335 0 0
6.21155053159862 -21.9350068156531 18.3789742143349 0 0
-187.697500976901 8.34725318730324 11.6709128361949 0 0
-73.1491252169854 -1.60813427353567 18.1371379741338 0 0
-241.031591114946 4.83335182571334 13.4199393691675 0 0
195.29256818071 23.6320999254993 20.6104168455788 0 0
214.142144038647 -26.491989306025 20.3671719747432 0 0
144.010771851275 -11.5468155050315 19.4001644279322 0 0
-144.159067091714 -21.920738781147 7.08343978613442 0 0
158.48081481868 20.8890388713806 -3.26087543449252 0 0
230.466084884803 34.500757534772 5.00365600377923 0 0
128.042546244563 -14.5695019096938 17.900065466778 0 0
192.744073653048 41.8118626150105 -19.9779981716446 0 0
226.076360943984 22.100921304368 11.5235728253029 0 0
-237.421273116265 8.64649948134302 -9.89358640511918 0 0
197.870642614825 -20.8404362590037 28.5670536995695 0 0
-181.862669161023 4.1229503290186 12.7097878478662 0 0
-166.522785858254 10.4686184616775 -17.6515279353781 0 0
31.1306171757547 -11.7678841919056 -4.00779274564931 0 0
228.138223152227 42.0445284275702 -9.07292100867484 0 0
148.213791064691 -22.2290605309058 2.08790458298513 0 0
19.8260549969116 1.20057012409681 21.8131997657966 0 0
224.122047248989 -30.6095800850991 -3.01007065553751 0 0
141.160855881823 -21.2658850830593 -1.26384277301188 0 0
-188.428741730676 -4.90290923967154 -27.3886588181026 0 0
132.004262529766 6.55548205854164 -5.22863478117587 0 0
197.469878675578 -29.888345817597 7.47550856341268 0 0
9.93218536591246 3.82656400281423 5.28093074620167 0 0
-92.6144719157057 -26.3320169040653 5.99599120884599 0 0
224.316873147501 12.573255297267 -6.0972401195462 0 0
190.721688938373 3.3400442716283 17.5702332658917 0 0
-182.362702626465 10.4380434799386 10.338358038181 0 0
-149.984989913346 -16.2606732912999 11.9162299596844 0 0
-252.184471206799 29.9031580399416 14.3048774716622 0 0
222.317671482796 -6.16491133990232 -8.51833186328749 0 0
135.453328925181 -9.49789919216041 -10.0870448981909 0 0
-5.44691464522543 -10.3152851189705 -5.41224900614975 0 0
-105.215377409881 -7.56006080162908 -9.20502151626916 0 0
-242.648568101955 19.5036227976336 -15.990852044546 0 0
179.358135128664 -3.85557765688023 -12.59647589731 0 0
-159.929274618476 -15.0484508845475 11.0134588534546 0 0
54.1277990209824 7.66850045877246 8.17486057538025 0 0
217.847287284404 -28.8696378648987 -32.5691675915289 0 0
-230.559653757833 -20.1111822002992 -16.1558986288659 0 0
-152.726063338801 12.8309076343661 -12.1957444221648 0 0
-185.716681352433 19.209051227375 2.96125314872543 0 0
-180.154924220218 -18.619230717377 -21.5101874901882 0 0
88.6211493180675 -4.30665092107394 21.6408868934281 0 0
-224.481961064711 -3.77352514137693 2.80886679112897 0 0
195.75107192607 43.9210479435536 -21.3676530266955 0 0
-161.378093308012 -20.9374880097448 -13.4094993851573 0 0
179.973222275832 2.6909588544928 18.2109679696996 0 0
155.003506561005 -19.6700331327262 -8.41503893741888 0 0
195.738016009501 41.0513587359986 5.60468398367605 0 0
188.383497695254 40.1458705983297 -16.3442688364506 0 0
-146.14808603545 -13.052608725029 -16.6021031354147 0 0
222.465363580216 -22.5633859276237 13.4148126893884 0 0
125.431033607153 7.85392791065055 -3.49120023350751 0 0
-218.569540520622 -9.4435067079787 -11.8673386449979 0 0
188.485323013277 40.4347038609291 0.133305615775917 0 0
214.748103254591 8.5584309336831 15.2973973688584 0 0
167.814661412215 21.2598527327056 -7.0081320432707 0 0
-148.370780434719 11.6321621673925 -4.97931333727351 0 0
216.83009997695 -6.06475299223133 15.7564280706334 0 0
213.251506065908 10.2998026535554 -9.54479182893835 0 0
113.924848203683 -20.4645239015491 10.083772436326 0 0
192.957251184508 10.302364427709 -16.0184111667704 0 0
-212.566439251985 0.727242531049911 14.6618375260057 0 0
-77.2750933937279 0.740626839576972 -3.16783590148145 0 0
151.450880863458 21.0424280101697 11.2306527487323 0 0
210.64380194668 -31.9768851093761 -18.4198421333194 0 0
-240.472863099674 46.3874855938202 6.00594581169469 0 0
197.128019454668 46.90844060801 -6.27091465114028 0 0
-237.011532628615 45.5538094217112 8.54128449763964 0 0
-223.099500372283 10.5098924250883 -9.48973358763233 0 0
206.886378265377 -27.7010681493103 15.9478126001772 0 0
145.548839278597 -9.752447905086 19.9106710325044 0 0
159.269513435492 -13.217175050289 19.3669539696509 0 0
-1.91142099942743 -14.3476436567041 22.6022665914929 0 0
-206.872925792231 -28.1350095993215 -24.2237401905278 0 0
174.415464270567 21.2649921348133 -9.61512729034239 0 0
110.435449971238 -18.9621785098974 13.2070530498972 0 0
189.48621792848 43.7781023875065 -14.904656778377 0 0
-244.070723345224 45.6323177415872 -3.71011471378578 0 0
-35.6258906660706 -15.9645489986378 -2.34255225009713 0 0
172.488923242358 -5.85398275030355 -12.2719164683983 0 0
34.6918005877196 0.934098620970179 -4.13475182401135 0 0
165.408114537866 13.0651881686089 -7.08326073210415 0 0
-196.365674706108 6.89231401122891 13.10100618938 0 0
216.788588462623 -32.2223245278522 -6.23588559992588 0 0
113.753671374854 12.9636734527243 4.05623477786845 0 0
204.508873291448 7.37834044766138 -16.3421157989961 0 0
210.439123589103 23.4969359946702 -34.7353555811924 0 0
194.185239934582 10.4923742338479 18.7010573595063 0 0
-201.92744499429 -23.8019848690263 -26.7913803722642 0 0
216.000616852926 31.2760420956441 14.3279244954327 0 0
-177.658278749212 2.46035022013947 13.5524579907775 0 0
-199.414549292956 -14.8850896697627 -30.1898157732775 0 0
-129.534816749751 -3.83190908840443 15.8019032282838 0 0
-172.35864541064 2.15576388065629 13.0204487966117 0 0
-220.130996473979 -9.75389496784558 -13.2829079369538 0 0
186.806384474671 17.1959059470472 -13.5248606659485 0 0
-96.0895279293275 -20.7500868001238 -4.44433339125801 0 0
219.295690915648 -33.6714362287614 -28.4941181832197 0 0
-175.076506038448 23.7033723271958 -13.8528253400874 0 0
0.179287432127005 -3.79246884474915 -5.56328616693064 0 0
189.079866217821 26.6968458963281 17.3387519380765 0 0
-6.4572178992384 -14.7743357012793 22.6243354119396 0 0
223.162833974823 -26.2531652069543 7.65537481922103 0 0
211.011574508986 46.4791823277067 -24.0798572576832 0 0
-217.597959987004 7.73765158320751 -9.78703143276834 0 0
-145.748424713139 -23.4722260120381 -3.069057427789 0 0
-97.4471911961081 1.12512294653119 -4.49161987284495 0 0
-53.2188128356838 -16.6912778887021 -3.36952496531038 0 0
-167.734133410206 -21.9187993126212 -14.4085240825323 0 0
221.145386681144 -28.3696123654759 -29.3997359496023 0 0
-39.0424409606005 -25.8892014278771 13.958622375171 0 0
182.196546569278 12.2489340538992 -11.4998724802654 0 0
15.8150365861745 -19.0039854079086 19.5195608565936 0 0
-126.996699640319 7.96952167059237 1.18744043113579 0 0
-127.813694607893 -8.35187331206986 16.7857039317196 0 0
-109.753205996241 5.93460378990511 4.48978053884077 0 0
-72.1113596585904 -9.01490254323921 -7.06738834608808 0 0
166.275453282283 26.8923366373479 4.74865378599615 0 0
-146.83947639695 -10.6874615139167 -16.1690866266427 0 0
-181.353107915638 2.68586307533748 13.1243372169536 0 0
-236.255089336521 49.2878461996799 -3.94896581427945 0 0
209.377764531611 8.8372169639744 17.513825663379 0 0
220.884319575458 -0.276520681941149 -1.25074208083891 0 0
217.964050514871 -32.7816526967463 -17.1496765403289 0 0
214.437841840062 -33.3794396138637 -7.0662316156812 0 0
192.576734262435 -34.3045832202446 -6.83138908319876 0 0
-79.8950351787627 -3.92975018258221 20.2013847902696 0 0
118.718681758854 9.80900033786933 19.2281622002751 0 0
-171.349310988077 7.90639894668585 9.74686272764468 0 0
-197.024049289227 -11.5778159317035 13.652489902792 0 0
222.002624719672 -30.9798682659621 -4.09871676306939 0 0
147.571629290267 -7.92134809289357 20.1991626404993 0 0
-228.951918009534 35.5021547575872 27.368911509169 0 0
124.378448541709 13.6103940740091 2.22274028054621 0 0
224.981894903609 -33.0202511136366 -20.6044782426744 0 0
203.551048827005 35.1625166933159 -35.9504892955107 0 0
220.9342450781 -5.14669428340374 -14.3363965067657 0 0
136.229239180801 -17.3227371882859 -8.55797362379261 0 0
215.215673571892 22.2696916143194 20.634167543682 0 0
-180.210437228435 15.0292447402101 -13.6740577195254 0 0
-224.529911785859 14.3248884451274 -11.8868970175491 0 0
-71.9189570644892 -2.46922761694173 -5.32302719706333 0 0
208.535502130727 15.021207492983 19.8611115000517 0 0
-212.194233835144 -14.7997119918478 14.7161503194906 0 0
225.478193180522 12.8667489443492 -3.45517429816672 0 0
-159.058010801983 -18.8824496842326 -14.6207589151191 0 0
134.685380673296 -4.81118790356241 20.8448382109965 0 0
209.720243030016 -36.0242221935599 -11.7989679291053 0 0
-218.270936398919 -4.32368127065912 -19.6073530355948 0 0
-85.0443194051595 0.14602136769034 14.4248932574469 0 0
-225.488657328921 20.4035824915538 27.8087070037415 0 0
-155.600111552514 -20.3119138661889 8.28046372552354 0 0
-155.875744194136 -7.62502272308594 13.1075415535524 0 0
-229.849394135079 -18.3605630895338 -9.13873409031868 0 0
211.103813252472 41.9094379922422 -35.7381020258239 0 0
196.620725159744 -14.4494322256543 -32.1331625905958 0 0
113.645052427055 -12.6163190601775 19.1403591580835 0 0
-214.522835869381 12.3318207466003 18.4091456793747 0 0
185.376405520612 -29.4509094289599 2.15413852864655 0 0
-231.038128696446 -0.621684172875484 12.4364350689228 0 0
-123.453826927936 -2.39569081421528 15.1253030969776 0 0
3.57649812726978 -0.00661446713830672 22.1151865711841 0 0
196.629883625605 -19.8071180567385 28.0589298114089 0 0
-62.692101296701 -5.41200005367147 -6.08280216260171 0 0
-211.72815259911 34.8257615380195 10.1037407775978 0 0
55.6951666803088 -12.5585002711187 20.5824857987745 0 0
22.3304066682965 5.59414419616947 14.2513113498127 0 0
-173.734466369029 18.2727064247399 -16.1611378422555 0 0
200.686319372637 41.6528164153981 6.23046723093597 0 0
-215.957864540357 24.516681216588 21.9545737807975 0 0
148.664128178662 13.4396802254656 17.8534562758048 0 0
-191.719419012719 5.02089004683502 -17.1278227720474 0 0
181.55371535523 -26.251546801819 -13.8611261134015 0 0
212.805696349184 30.1719665735618 -36.9743992795018 0 0
210.743459415727 38.2933347579403 8.8604270421694 0 0
218.616371047529 14.3102479155636 -9.59703323625241 0 0
-151.747255226158 -19.7800485581286 9.23811152986751 0 0
186.128869297544 9.22704973105172 18.3494672530966 0 0
-220.875233797186 -6.00233396563901 -32.0327600775534 0 0
63.6412600245335 9.39760981571589 11.7043515751928 0 0
-170.186990019726 8.62498873694987 -18.6617383972986 0 0
57.0364534742149 8.14746869566222 16.3262051203606 0 0
175.318864754476 23.6076210943844 15.1934853444629 0 0
155.852971147025 -10.7852564869327 -11.474735662855 0 0
-135.783317530643 -12.2521653082907 -15.5549809853331 0 0
-192.794098848814 -10.9515827961109 12.0732142860849 0 0
-199.517437916467 -25.0138048894 4.31029211856584 0 0
-219.220287942734 -2.64454696687852 -30.5867142141056 0 0
170.577788910725 29.7464131550917 -3.33636942681737 0 0
9.87923379642717 3.89536019816674 17.5667179604175 0 0
226.420771267919 -21.9502697183896 -0.870785793733459 0 0
-207.613582721928 -3.08128425300702 14.0624700825511 0 0
210.609360944722 -35.9801157446 -14.1542572436666 0 0
140.836982226212 18.3206499172126 2.48000753100742 0 0
108.041252335416 5.53751801470925 20.7952445758893 0 0
28.2765786069425 4.01018325986618 3.83036626114981 0 0
86.2912556622274 -20.4145797845231 10.9562157036485 0 0
-250.871280879955 16.2625901126665 -4.7643376894001 0 0
186.117078530447 31.0606636570633 12.5998479683846 0 0
-93.1665558893753 -25.9779793644815 8.93474540426734 0 0
119.905000363052 6.78839917373635 -3.49174354365451 0 0
-147.753351055565 10.314634569506 0.673624871622188 0 0
-65.3909116923712 -14.5706151546426 22.2660104458292 0 0
-186.9182068506 -2.95547097084022 -26.5545031042695 0 0
-25.1567927335342 -24.6051254491603 7.0825701866902 0 0
190.422544826987 43.5805196847694 -4.25756590435557 0 0
16.1158901384928 -8.30848398039712 -6.13856087476132 0 0
72.9016230704313 -16.5829396245592 17.5286132756549 0 0
16.979681049588 -15.236881908702 21.5789104427784 0 0
84.2037816848331 0.690926113392478 -5.74153039422681 0 0
-88.5837415355476 -4.7570227808798 -6.53272810150548 0 0
16.4397123345063 -17.0251088139472 20.6304068279218 0 0
217.499304210193 -32.6628151007397 -7.71363844183579 0 0
181.871497486594 -8.43313116327621 -15.1164049414341 0 0
-111.724507943306 0.805782945982775 -5.56759795961187 0 0
-6.56778881014959 -16.9857733171797 21.8080628881541 0 0
-234.41325988789 16.5153769078073 -15.7972452522918 0 0
186.009973218706 -1.70628745010032 -14.3240785655748 0 0
-239.423800197554 23.1051436304442 -18.3339001587653 0 0
137.097841263178 6.19571620388306 -5.76841569227934 0 0
-244.811413012516 4.65455105414377 2.68876292117223 0 0
145.455014553035 -19.9469919299273 12.6182902064302 0 0
48.9159524964498 5.39734120325822 3.95618284031431 0 0
87.689055996707 10.8596963932077 16.7162586180068 0 0
-167.579132553325 8.16261608173157 -18.0169803748236 0 0
189.942658166803 -6.39419841710284 20.3426182736009 0 0
-138.279024786336 -4.86105021034076 15.1734184298984 0 0
69.0693234119137 -18.1010834530299 16.3182451550621 0 0
40.1426677176695 5.68028358435607 18.7521875605061 0 0
213.809896595006 12.4352659536446 -10.8960013579793 0 0
220.941481135608 -5.06282108654935 -12.2556525265357 0 0
-64.9624716883233 4.37408285974044 7.79837084849076 0 0
-140.497217182421 -11.0241634891161 14.6616899277597 0 0
-184.637510559484 -26.3924288457422 1.49185465630347 0 0
-244.950424199933 10.0054330002556 15.8359577914358 0 0
187.851133214442 44.3594092527327 -11.5829504761228 0 0
211.634853589208 46.2748548122857 -2.53434402240289 0 0
85.0310322573621 4.26558429279852 -1.98291537958312 0 0
132.711690358112 18.5988849971809 10.4245480600523 0 0
8.05054043564756 5.56508902317018 10.5389551752551 0 0
-143.712199632178 1.23285676816268 -12.7628735465692 0 0
213.535288633483 -7.44945904385825 -27.7551769705404 0 0
-234.419596022131 24.5841594749771 28.6219853577977 0 0
-1.65153534420902 -2.02644212991054 23.0024431442597 0 0
166.282692509683 21.5836990522079 14.3522652053303 0 0
191.597677881594 -28.1835707905116 12.3565992381678 0 0
192.072361353939 -15.3785727272076 -28.966577801518 0 0
155.19328352272 -13.8561666439631 18.928746958673 0 0
-169.42246420212 -18.3725661986589 8.2926956268177 0 0
11.9732739457135 -9.81111131504552 23.3507046158621 0 0
140.032579339669 13.2173087616271 17.6903631178076 0 0
-242.178878272208 18.781787279763 24.6192835264911 0 0
-156.048960463198 6.7549731614653 7.88435296850759 0 0
-216.577864993511 -2.47185632478174 -8.74629642614734 0 0
-236.629007591642 7.61603427706659 19.896790191202 0 0
-199.779257552054 -12.1600063080962 -30.6140000561652 0 0
-170.673026438188 -22.7444575768333 -14.6022986062483 0 0
-132.802838771693 0.360627708791453 12.1558553913147 0 0
88.9236834636594 -20.9340863925286 8.79621359171598 0 0
199.760475692868 42.2802328083456 5.48292222844263 0 0
133.823319924683 -14.7599792947508 17.8674612350639 0 0
-219.528434429324 43.6391731934446 -10.0940244257878 0 0
199.909325457939 11.5373415961115 19.0595838016133 0 0
227.738364980249 30.0847929269053 11.2142473739776 0 0
-215.342353522745 2.91925831381269 -9.69086963598555 0 0
225.286001553953 -32.9482982663436 -17.1955323700871 0 0
-114.570168655109 -22.9572301667864 -2.81474751243842 0 0
-62.271019209841 -10.7746513781318 -7.00379119789712 0 0
230.565081859964 24.8438475928328 4.37442391643585 0 0
200.051494200898 23.1870729409398 21.081203113886 0 0
130.990361383166 -12.5003149364141 18.9958689785235 0 0
180.622553895827 20.698281780209 -11.9316700423354 0 0
196.656694832493 -24.1927369230961 22.636383696229 0 0
-203.76813702217 -13.6384117222518 13.5496642983406 0 0
18.4969727238206 5.2911693037081 14.7346775482176 0 0
-13.2124654881705 4.10158037162885 6.30896104166106 0 0
-243.327117416166 25.9799071976217 -16.4765557864042 0 0
145.166900507159 11.0117803876905 18.7456863881574 0 0
-149.024751211285 12.9396169443296 -8.78869625908159 0 0
-240.80081447092 46.4295961508256 -6.11264010241194 0 0
223.209912246492 -26.5706268225505 -26.5728011881046 0 0
-217.373713813063 -0.422033334318164 14.8617467648612 0 0
182.117606896087 -3.52770067689486 -13.576547359029 0 0
-219.059438349256 -9.34449882533785 10.1995834168769 0 0
222.675320149665 -33.0731182919477 -14.6128138260375 0 0
186.097561141979 0.530922101564253 18.0279315082117 0 0
-174.137768024014 11.9138856850603 -18.5662129564195 0 0
-83.0356343595197 1.55986545772824 -2.37507920836579 0 0
-177.747574410916 -9.90047221060704 -22.5532513990031 0 0
-205.685194805937 16.6892512878606 14.5303562677705 0 0
26.9124190217533 3.0584274998348 0.788777576061639 0 0
178.544364765003 -28.5079902929209 -8.31418659312053 0 0
201.695508343802 -8.93777158175904 -31.3802639719974 0 0
218.015740895901 -14.3225531300704 20.3811436621406 0 0
-174.930456457861 -17.8696959502891 7.71148315860415 0 0
212.499214226175 -1.10326544424577 -12.582230363425 0 0
219.273107983786 42.3177445881874 -1.18328729425389 0 0
-33.7308597528496 -6.61021288186701 -5.59598076797489 0 0
-206.922357780983 -2.81977655001523 -29.5844358555237 0 0
-168.53302257315 27.2030956353255 -6.68822996766073 0 0
-217.37174333433 -2.24008726145478 -29.2028187516394 0 0
147.407945470966 11.8940593079124 18.5023604994526 0 0
-222.48718344486 -26.8993221671417 -11.4493643164279 0 0
185.356088629956 -5.5423307221576 -14.9806135367738 0 0
108.207309375611 -11.185766716917 19.8996693155754 0 0
-158.140377809052 13.6653284813871 -14.4869988987969 0 0
208.834665172878 40.4432138067775 -36.3032525056296 0 0
123.985633403322 -6.62912722128976 20.865330207946 0 0
-177.695940648727 -12.5552679373558 -22.1981857687661 0 0
-209.368324736093 25.9784963832458 13.8168973849024 0 0
42.8760228061851 -19.9997462110076 16.823469459425 0 0
191.464227611181 31.7190029446871 -24.4402488386233 0 0
4.74561083188688 2.36311267272815 1.47180104140097 0 0
-226.597815096557 -17.8969162924123 -3.22725434107213 0 0
-230.975336594756 20.7790699447788 -18.6537183247146 0 0
182.130994146362 20.8935900804964 18.4502776938107 0 0
-218.949499589511 41.5799693345898 20.7305319937888 0 0
75.0967299984261 3.76799190257921 -1.56976128843095 0 0
-188.024417387364 -14.0802885170481 8.66712104567985 0 0
215.081977954743 -4.49188403129462 -14.1434794192609 0 0
-214.696323311858 42.0259177704642 15.6852265685644 0 0
-108.351567996578 5.1395834752692 0.244426910183215 0 0
-198.09579716011 -26.4642050482403 3.59233080148507 0 0
-115.156526196412 -7.58875477684473 18.3007062872684 0 0
97.240576794724 11.513461273899 5.92973874993072 0 0
-86.6241915768696 -2.79526304695739 18.5651786934308 0 0
-251.734955116653 16.8734181975049 11.880431418102 0 0
-180.062342132841 -23.4402727627783 -18.3474101486074 0 0
-226.521626166946 -0.766902875450148 2.57890576154526 0 0
233.491402477954 36.5054206100177 -10.8393696750009 0 0
211.19814144795 -0.71057808723432 -13.421199060191 0 0
-74.6810139993955 -3.47939115305693 20.2734092905592 0 0
119.398295566401 14.8493098321899 5.35173304779132 0 0
11.3121433334101 -0.75296424036939 22.7081886773877 0 0
203.516328463263 45.5343183210683 -0.0999983294522508 0 0
204.728821415058 41.733766422977 -35.0181616960937 0 0
196.897056860139 38.4059449213278 8.80037291259167 0 0
-111.035675339259 -20.3253749780677 14.7671631872527 0 0
205.380604456319 -24.8379316235592 25.5114005398104 0 0
25.5410488450816 -22.816736920281 7.35827954436478 0 0
169.365219571299 -13.7236415466056 20.2830346057854 0 0
209.238929100404 45.9226755209627 -1.06139123807783 0 0
-97.8837273717692 -19.4058689374294 17.4471669915892 0 0
-77.5494186939006 3.21494637429291 1.76923677347793 0 0
217.837598391741 35.4887814392231 10.102915997539 0 0
-225.9127985895 -15.7640040976427 -0.991188543277889 0 0
-194.852325212294 -27.5788054399091 2.22671729392596 0 0
-152.707963069861 -17.9150897590769 10.652323152723 0 0
-191.859195370233 -14.7943114308249 9.34691138753287 0 0
-223.810734510971 -13.6374775567624 2.98874824628807 0 0
4.58128629826858 -25.0030743426029 12.9448568734125 0 3
198.71455908946 -30.976044439046 -28.1893498023397 0 0
185.593423299429 35.469324029253 6.42275633100404 0 0
224.930326633431 33.3271876854969 10.1438661063269 0 0
204.771429757376 10.0374859818552 18.2092978858213 0 0
-225.072135474429 -3.1315113729068 -29.6984746528236 0 0
233.766167656049 32.7785988962362 -11.4723206948057 0 0
-191.238200210666 4.66753556825084 -23.7234025509198 0 0
-108.504766797571 -0.572843327242505 -6.05547969625005 0 0
-253.212630150659 35.5783220578815 3.38882115860121 0 0
-245.206085327667 17.7515738280333 -13.3608410527953 0 0
74.9607470952311 5.50163878820094 20.1005427059954 0 0
-112.021899263892 -17.2463207812516 16.7058317586101 0 0
-250.569782813864 12.7278019975088 0.106073210192311 0 0
-232.386030735636 -15.4652619657644 -19.3618073693341 0 0
-239.0281237118 46.8615804602916 5.58538530638555 0 0
-213.743010690418 -30.5726209770106 -1.74596340583572 0 0
-115.539465648661 2.05002486617777 10.9648730010489 0 0
179.856083386684 -22.4778855907946 17.399769594948 0 0
109.861194885874 6.42610554966831 -2.87138350833458 0 0
212.278402313325 7.90975444696465 -8.70108967155876 0 0
-62.7237958117812 -23.0178545319522 2.23528952401836 0 0
179.587244108575 28.4167051596533 12.5224489361119 0 0
26.3612402934536 -16.7266791845962 20.1148655776317 0 0
216.110789013526 16.8108962609199 -15.3151633560375 0 0
-104.98136146909 5.14612135313618 1.29469377961289 0 0
2.62645888545485 -18.2231181764065 20.6327687352709 0 0
-225.343951000149 -17.7994408187354 4.346681993869 0 0
200.802162557203 12.5518801986404 -18.665903657527 0 0
-212.296173125375 32.833244051426 14.6354817439294 0 0
152.808476528265 15.9373731709712 -4.01375257815316 0 0
-30.1098267182091 4.21041841217886 12.1320811733281 0 0
211.478938732715 -25.1589942231434 23.9340637278078 0 0
16.9738880612617 -19.1587100106811 1.49566833295564 0 0
192.368600379655 -19.3377147840108 25.1281563892407 0 0
-91.8971712823701 2.93976548882659 -0.878725577025666 0 0
-10.886939552826 -20.9264475702448 2.98025386390089 0 0
161.415065674291 0.133105447418497 19.762482155609 0 0
-181.248394694881 15.8921913874644 -11.3651833670998 0 0
-53.1126138093444 -8.48465595740042 23.5842022347527 0 0
-106.112402236894 -17.4984631382367 -8.4651785833362 0 0
223.341363169305 42.0351169792955 -4.04080588815388 0 0
-74.4967343390126 -13.5183690575635 -7.245527835175 0 0
-54.7301691548365 -25.3433710531929 14.8689325386351 0 0
-56.1205596165806 -26.2679529916342 12.8018725547865 0 0
-43.5427464448746 2.2943482256327 14.8113211151813 0 0
-41.9999513496501 4.04523502560105 6.60434752803031 0 0
206.268479389069 -31.618123235394 -26.6963900423253 0 0
-148.649799895746 -5.02190651855546 14.0714714746997 0 0
1.63011822091914 5.09683672327248 13.1987253645966 0 0
14.8954798902594 -21.6735880924333 18.1951285496071 0 0
-168.541265234928 -9.49831702112612 10.9472953870859 0 0
-205.412608482761 -22.2521387483478 -28.9589928333085 0 0
66.7409351418687 -12.8350763028765 -4.80841598375079 0 0
138.531313291348 -12.6507318796864 -10.5651677069694 0 0
-149.386249562351 -10.8129482454199 -16.3308828788088 0 0
-57.6798906076602 -19.3927416547917 20.2568531192505 0 0
26.7140462883637 -1.45183563752511 -5.49605349582531 0 0
-183.779063319263 -4.91606009973748 -25.3074648485168 0 0
21.903094037851 -10.0416165779883 -4.94149139875962 0 0
78.7936441828914 -7.57010794343233 -8.4061375042913 0 0
92.6687979183901 9.42060565067986 3.51820248053181 0 0
-178.055273818284 -2.79159666116535 12.766465997965 0 0
-109.172218730365 -11.7485304045736 -11.5387988502041 0 0
-179.694086239554 -10.1849931514809 9.75813796511261 0 0
-220.139209102691 -2.76783354618975 -5.71772474630321 0 0
183.572771990393 0.782084583483351 -12.9442556001082 0 0
-10.383819363477 -10.4683209597848 -5.31017569062784 0 0
231.919085572402 39.2862608554542 -5.7741856228973 0 0
-117.810311784087 -6.71408133044454 -10.5619869858037 0 0
-179.704036270761 -16.9991225335985 7.56587058199231 0 0
-218.817437364446 -26.9578510119586 -20.49594498171 0 0
-198.416646455981 12.3409963735401 12.5163695266731 0 0
232.589703513628 36.9428515909466 -2.12845015847186 0 0
-218.865159502892 1.28673057637455 -25.1004082259719 0 0
-244.480446849413 18.4280427311803 22.9432181838276 0 0
-108.047708106317 -2.57007736273984 -7.20874566381651 0 0
-119.248575601105 -18.3894149279667 15.0256996922366 0 0
-231.209272799761 33.6022926099358 -19.1861599463802 0 0
-38.5865214133018 2.42231494523551 3.00089738950043 0 0
-225.03495946327 49.3106789896232 12.2162378762246 0 0
-208.551699453468 28.3349812877572 -2.29086920705495 0 0
-81.3111768678845 1.89690767946944 13.2534531201619 0 0
-71.4259427577565 3.97422705661949 4.8120307888533 0 0
151.846054553148 -22.3834222184983 1.12262757488437 0 0
219.297150308965 -34.6033412573384 -23.7995093429322 0 0
-184.920100047558 7.38067543745363 -18.9480987196583 0 0
140.771337230206 11.5573802683205 18.4410076423351 0 0
155.342575036007 -16.9524468637564 -10.528713438719 0 0
-82.4953998996434 4.24480899237584 9.61652070612334 0 0
-199.62528433983 5.27518356111711 -13.3097450319963 0 0
-85.5498556291498 -10.3502783658216 -8.73978006451213 0 0
-238.205581191915 48.7908542302477 2.34580251194223 0 0
-239.176164411951 45.4332565745154 9.61366774039723 0 0
102.646357098325 -1.09604191465132 21.8818373047089 0 0
-2.34141733886669 3.31972736805726 4.75841831638707 0 0
-228.186719030238 -20.0259799490723 -6.47417960256867 0 0
63.9296313308417 -14.8005966736129 -3.47775185796597 0 0
52.4235768404757 -13.4503577292165 20.3895586969846 0 0
-208.366071549135 -13.9151526176892 15.0106746668779 0 0
196.164290276003 9.98168768237537 18.6563545952157 0 0
-65.6812844585426 -22.0296015334408 0.444535124534014 0 0
61.436765586857 -3.93368026676768 -7.63009810077461 0 0
-240.14078627919 17.4448901756104 -16.4034494887501 0 0
106.313230711177 0.573601796111917 -6.55216184926773 0 0
-215.452947424087 4.98593189876684 16.7804981784836 0 0
225.919891157102 35.1041655907006 7.84920808440765 0 0
150.525335738196 -22.3528981322591 2.49796036586266 0 0
-50.6721672646408 -10.6175152666992 -6.20819583606505 0 0
50.1053860986086 3.99001846487943 0.967726326779435 0 0
195.543514261282 27.8592589297619 18.222266665068 0 0
197.28352624239 -30.8618321935158 4.11529242302681 0 0
-221.253259234475 -30.0940448813804 -4.41227462764459 0 0
-134.915823779158 -14.5510404732866 -14.6789908468737 0 0
-141.790147487251 -21.8430048764508 7.56346655177365 0 0
154.891761011084 -4.66080838407421 -10.7032738298554 0 0
-227.439264039107 29.8096093766072 28.6794688323708 0 0
-170.221568297711 15.3770399066041 2.7868781447327 0 0
99.582771643887 3.67945032128068 20.7501268398475 0 0
-224.63024885514 50.6334552909703 5.00199125486492 0 0
136.009636134413 -12.0586407693302 -10.3859171289379 0 0
-200.931547329663 -25.6300955278157 -26.2166625997306 0 0
-166.438382579912 1.03610924407951 11.6383160965288 0 0
-254.486990270549 29.4303684774519 0.60041589656806 0 0
213.977069937655 46.3287672285484 -22.8376671812686 0 0
-107.977476369638 -3.36722502322202 17.1278140907936 0 0
-17.3258983587658 -7.63688052696472 24.1524063969469 0 0
123.949153553245 -9.25907750925447 -9.71934124321497 0 0
177.961003456615 33.7757130582817 -3.90479623536482 0 0
-139.572964322546 3.570800729706 9.38076299177297 0 0
92.4566746949876 7.01930711829333 0.403047919407802 0 0
-206.905328584949 -8.09857716878756 -17.2287531496268 0 0
-103.914177246354 -5.089152896578 -7.97409678366489 0 0
179.47152084262 -8.4694630252977 -14.166818758808 0 0
19.3987799791172 -22.9346910273428 16.2805900937352 0 0
-157.825117583881 22.2314202823185 -8.36924958964092 0 0
-195.451568064842 0.71555651685453 12.4253987105155 0 0
-212.011720626586 41.9063947095854 5.93851563925913 0 0
119.360707649432 16.1100317444019 8.17808079482295 0 0
135.125103750501 -21.715283409117 4.25082539813695 0 0
-223.829120482629 16.0894145950015 -13.1920479607546 0 0
21.2164544669123 -0.228503431678942 -4.08993650086742 0 0
-194.201340133155 -14.4326904235401 10.5846916370812 0 0
157.558302440272 -14.8654173721143 18.6549129817347 0 0
-174.598464758154 21.296840046979 -15.0048643234829 0 0
30.5132147394799 -18.5429776135719 0.630243888473228 0 0
233.642815274485 28.771538093274 -9.61767332690926 0 0
-231.332773179308 -0.789114494636682 7.44224665361224 0 0
111.018958932708 12.736778171673 4.39297364226348 0 0
-152.802213287496 -8.43518063223464 13.4603344916674 0 0
-231.936484090702 7.7740683979516 -5.64602039311899 0 0
201.43465414575 -15.140738418207 -33.8996217841537 0 0
-76.1455526325776 4.35005224496679 8.79707949722683 0 0
191.839878887884 14.0640471004101 -15.0625084151086 0 0
-237.573914398186 8.25244691569906 -7.69193612511461 0 0
26.8608456461903 -22.1103991650712 16.3394819048781 0 0
152.5575053764 11.4878550149457 -5.14210968200042 0 0
-79.9150918161191 -8.96525791441033 -7.75249911152462 0 0
203.053855367519 -5.38768098017052 -24.1070381563431 0 0
203.86272787256 36.9083083198388 11.0833041791915 0 0
205.203649359223 43.5857498357916 -33.3891546396974 0 0
215.050254805207 38.8333557202001 7.00881722206157 0 0
-133.711801901259 -23.3445381994125 4.69543010519455 0 0
154.112450162379 -19.3658769998625 14.5086562234961 0 0
-84.5308206366947 -5.59999071910407 20.7353425431203 0 0
-109.670122560876 2.3653172113739 11.1814889470632 0 0
89.4063648107706 -19.1597026044796 -0.910150265024922 0 0
202.647006599038 26.4775803900102 19.6346545711523 0 0
-103.68675616863 0.599906934595034 -4.87419032612831 0 0
210.255596465975 -26.6386516414074 21.3733843083459 0 0
208.90396293765 -20.8631561093542 27.9527322520811 0 0
197.402739052188 -1.85348846201332 19.1700186519182 0 0
209.307510111042 -31.9461589951647 -32.9628067339378 0 0
229.676093658848 27.1663641306296 -23.420527687366 0 0
-213.052529854571 -29.0118792868422 0.47774356447067 0 0
-49.0201225643658 -3.27611536086149 -4.3438218504961 0 0
211.305641662223 -33.302624804013 -3.60792003189798 0 0
-156.650879145129 -4.35497762048553 -16.1176463647694 0 0
-207.948410404835 18.1424579501421 -9.43564043198023 0 0
65.4802828147027 -20.8676779170811 4.07769151103206 0 0
-213.830105850522 -24.3899906635805 6.2395996518666 0 0
-242.632337912283 47.1930348571729 4.49521422438823 0 0
171.104360565947 -25.2167951297105 -7.08072665767903 0 0
222.174822537659 38.2345501561295 4.19005386707631 0 0
207.567887465241 -32.7089669390279 -0.536574142678912 0 0
208.330958230502 -27.9869336327537 -35.4723314148194 0 0
-1.04369107633399 -0.680760595690505 -3.44185953639737 0 0
-155.04270335686 -10.083402150558 12.9506450059587 0 0
-36.3587724062961 -11.1069579534885 -5.43248605322462 0 0
210.385301357962 -29.3598792124221 6.60803674708048 0 0
-154.596242873353 14.5520848946748 -12.5941398680213 0 0
201.619466399529 1.62229743263412 18.4545681166419 0 0
-230.758316749648 -5.39006745642581 -24.7305326275326 0 0
178.723800993535 -18.8548256948864 20.7366784469801 0 0
