"x" "y" "z" "f" "a"
179.472063583589 -19.5975625693877 26.122106637103 0 0
83.3643550052642 1.0017407760215 4.07295146139624 0 0
-20.7312720863591 -5.00302608847945 -5.30058263301154 0 0
-125.262722997336 10.8594074856758 -10.1677967033643 0 0
-196.807105158591 -24.4696904469183 -6.50428092853795 0 0
184.487972429013 -21.592077705874 32.5633722625167 0 0
196.4240098901 -3.09776932926411 -4.94696069331766 0 0
-58.9287571090495 7.31389934054246 -21.3689297515272 0 0
-106.373613294998 3.23948276772177 10.8194599779606 0 0
-176.620057489224 -13.066146285161 6.76075546717717 0 0
-140.752849008481 -6.96499798095121 3.98934468078526 0 0
-153.295950783949 21.1486682845401 9.26941995795765 0 0
193.845168877048 -37.2242103347762 5.91992987529949 0 0
95.4075305061415 -6.31948726892303 1.2037376173268 0 0
170.668312321016 -22.5827150180185 19.3664549037342 0 0
-143.319157467081 -4.15482456718674 14.8185534416462 0 0
102.100315213917 -11.7373445911083 -13.4661441613722 0 0
-220.442288438957 -40.6700778554722 -8.47302071352254 0 0
125.244633051811 -8.94510698718772 2.73369167115558 0 0
-125.512998235959 12.2611755780577 13.8135003791454 0 0
79.3801859984888 -10.5051201768159 -12.1085544691751 0 0
-7.24932264141638 11.4805524537011 -2.66118689776665 0 0
196.090405052107 27.2952872554785 20.7660195642342 0 0
-234.018719457975 -28.1948504253326 0.859464465203763 0 0
185.261187246564 29.6900722380856 6.01703086721434 0 0
145.719332828402 -5.06838730005914 -18.073159418102 0 0
-166.808202249067 10.054550978891 -4.76503765479107 0 0
-72.7785164392567 6.26456950775552 -20.3886432724484 0 0
-95.0148475316109 -5.36083424648669 -3.57152113583561 0 0
154.670035655318 5.49030052784987 -16.7512088078443 0 0
-184.293920410754 0.151541529958044 -8.2412454898205 0 0
-209.271573597488 -31.9796286400173 15.0741720950096 0 0
159.077261234989 -14.1556923914589 8.57129621313171 0 0
-170.393893061371 -0.448121243670723 20.8195347402092 0 0
132.963377081063 15.3056782163165 -13.9871867130844 0 0
196.588226712478 19.3566567612141 -9.15555912293239 0 0
172.135811091456 -27.1305576311475 -10.9452845375715 0 0
166.801760535628 24.6405319205612 -6.16633329488207 0 0
-226.064300106555 -17.2045127068585 -17.3155090451488 0 0
4.20455447866911 1.35286683679449 -24.0142617014095 0 0
-198.869190624775 -32.439994200087 -9.0379799281075 0 0
192.464391151167 24.7101410420977 37.3770053189991 0 0
142.296664388666 17.2709838393227 7.30576355142796 0 0
-13.8819474780608 13.9724656044229 -5.38053862054607 0 0
-136.142423302957 19.4198868937915 7.08843589162203 0 0
185.894753066007 -35.3187394503284 -3.06019062030877 0 0
180.987004021997 1.96063838305252 23.5791978771897 0 0
-187.89600965161 -16.4697126784022 3.92976511809256 0 0
108.241432354788 7.9134513563053 7.46073810774004 0 0
11.0534533542924 16.5831502485046 -13.4057811610132 0 0
165.118654854708 -25.3378609123665 -8.71578263276285 0 0
-83.3167404441931 -0.55004158977698 7.6383432737172 0 0
6.91282433908479 9.43878427838131 -0.797874746132363 0 0
205.792114187328 -26.9611649845375 0.793269263173652 0 0
157.343810005941 -15.072242745887 8.33063012783107 0 0
-164.251856287355 0.758367959575378 -7.21157150636022 0 0
195.758819538162 8.48686042802519 30.3758207298083 0 0
-199.920614519393 -27.4519156812171 5.56007137621704 0 0
80.3369575646663 -6.83858528625634 -1.2264155406942 0 0
-12.710906462275 -5.68578411485888 -15.7887182577571 0 0
171.94434486254 12.8325612062086 36.8254237824422 0 0
187.20219877976 24.0544868893343 39.0242162477707 0 0
-174.826242652852 3.25712625889158 -7.81660207609233 0 0
129.267585492503 -12.748552889258 2.0529163160122 0 0
124.89945092037 -3.81833354866355 5.03146221433766 0 0
169.842494301677 25.6197272292962 -9.78240055573263 0 0
90.7159197395527 11.5471001173588 -20.1870091003993 0 0
-227.368907266975 -35.9462894594108 -7.92509986583046 0 0
-183.230076320194 10.383391753623 -8.13399051286012 0 0
192.340317043076 -17.2148064177341 25.2041505804603 0 0
-224.633716951545 -37.7538178835458 -5.68686209630246 0 0
174.231980901152 1.70090358717819 27.0098036835536 0 0
-179.956400422662 -9.47851542962297 -5.12351289941657 0 0
112.864057375781 16.4404900693648 -9.15077359465143 0 0
-226.003326422673 -20.0402034128108 14.7483340318438 0 0
-156.19826910703 21.1269842933227 3.63257325072585 0 0
-156.008546404534 -13.7315192311802 9.33732436138465 0 0
-214.500784066067 -36.905153674171 -15.463892760307 0 0
159.652222677413 21.7328197766874 1.5447173620289 0 0
191.088541690597 -41.0543291234364 23.9712344211142 0 0
145.998513674155 -20.3543806900232 -4.04262318042522 0 0
-176.952939788548 -7.34183354851205 -6.07353969331323 0 0
-219.517062265757 -15.866200726946 -19.9928753849439 0 0
199.387852650476 8.67580100644235 12.2889111394959 0 0
-212.986031011944 14.8696523761323 13.6294779414052 0 0
13.0396297769052 11.9982899358574 -3.21569720492643 0 0
-85.8421516698187 9.09622698883596 9.59858325718311 0 0
-49.8559964159131 -3.66986992986164 -18.5116557036658 0 0
-203.818890627761 3.1104871284903 6.9059172007356 0 0
-212.278168511395 -37.4416539541577 -14.7574100697768 0 0
92.2199947398481 15.5508058824911 -3.08440399796898 0 0
145.197935867286 -20.4207214479146 1.84922965468087 0 0
-75.2126368351383 -1.87818782077991 -17.4189357030325 0 0
201.035397014333 20.1338845166761 5.41423600636123 0 0
-98.8010221733169 9.82488906544225 -15.590936870707 0 0
-197.219253940583 13.7892205713108 13.6122708541955 0 0
-202.897539662032 14.3991943861948 -4.47449189868829 0 0
-73.7973641877555 -0.419948556976213 -18.9185092789094 0 0
48.2508734692925 -3.61355323752984 -22.0618608038659 0 0
-212.121482429257 -42.4508145685754 0.522811782015196 0 0
11.7508038034734 -4.8700155248794 0.0841346029373537 0 0
26.9182710392286 6.39722460876796 1.70979353990976 0 0
24.6162101556964 -5.2802641677717 -3.39061159522266 0 0
177.547048669847 -15.3017742784017 18.6316089969788 0 0
151.799791919669 3.96496327053368 -17.3307328999005 0 0
-210.982412132821 15.2540872218362 22.4470371989634 0 0
31.6756855685498 15.979261576274 -11.7778966806961 0 0
-217.970517049884 -3.68144849292458 -7.53812862166424 0 0
85.5709986962922 13.0704302503362 1.44640865697878 0 0
69.5153557358698 15.0928807282405 -15.8951881420307 0 0
122.299891819667 16.8363450316769 -8.40225641552806 0 0
177.988365473462 -9.84773217225394 16.8483779812305 0 0
118.693718079742 -2.73870798298719 5.01087252412106 0 0
160.148975039514 -16.6411737430914 9.50038153712689 0 0
4.48198539347553 11.7289208338938 -21.9651926395994 0 0
-205.410291100505 -24.7929610102147 15.653468022605 0 0
172.161554223042 28.0528717998797 22.2699889065406 0 0
162.115047697089 -23.6198217383723 8.94466341260262 0 0
59.8919160958932 -8.21313098975182 -17.6831349210715 0 0
-55.0997576371949 7.73237823850781 -21.5744640026279 0 0
-50.7019401632596 17.2400164741942 -8.67895463285174 0 0
-45.9992468653135 14.6555234079633 -3.29380095837406 0 0
-196.17356321579 -1.55335861363585 13.0714216965533 0 0
177.404833918068 31.1057502065795 16.9290239863548 0 0
-214.887344684792 -3.93112046906841 -1.59299652086688 0 0
15.0787313282554 -6.28472488087323 -19.3796093354569 0 0
170.533757326672 -29.8649916096568 17.1640519334511 0 0
-154.504678508879 0.897237303172056 19.0893197684943 0 0
-53.1998819432244 4.96307177136622 5.88008053314079 0 0
-152.02609561611 20.8045440208286 4.82277516108166 0 0
58.9086609734886 15.5093378911914 -14.6611609837116 0 0
140.066221940894 16.5632109705235 -12.3292508946984 0 0
173.93062127729 -9.60914927195083 16.7075405591133 0 0
121.615048583159 5.63406694251541 -20.2837054091307 0 0
161.938813365197 1.41161198141297 12.8646659279289 0 0
183.154970514747 -12.5996094384756 -19.8657306365868 0 0
-202.058321996979 -37.7007813485253 1.15935139960754 0 0
127.371674864579 14.6552664137352 6.7010084491578 0 0
-184.81782673452 8.54423526463265 -8.59089240637801 0 0
-7.24244084452347 9.98748961069865 -1.23885510952832 0 0
133.005287820513 17.7515066516458 -3.9144482576089 0 0
-49.2057516528806 11.8202619700976 -20.2156134130439 0 0
-52.9531132041999 14.9047115982618 -17.11289937218 0 0
125.374565455118 1.88811556971236 -20.05806563516 0 0
-55.581219904821 11.5779715001361 -19.8872235075715 0 0
115.4899761132 14.2494477506004 4.82090416381567 0 0
-207.097667307974 24.811740107362 4.52482659967944 0 0
-126.788390835211 -1.16813996451104 -9.89055599472584 0 0
-199.439866542125 -33.4507703112008 -0.304640842569614 0 0
-53.9502899176217 -3.93177669452749 0.0459866582653429 0 0
32.9131629472375 9.0126559045556 -23.1800480462827 0 0
-196.21539312809 15.7265313395282 -9.37048098560121 0 0
-4.48029848704046 -4.57820062492266 -4.04880330141932 0 0
-202.385310463664 -13.9289990499436 -13.2446820719021 0 0
-118.189477166149 -2.00440290823531 -10.0059878305817 0 0
21.4470502620405 -5.53930772303118 -5.32049675984917 0 0
-154.693686944367 -15.6673254450649 13.2584695835757 0 0
93.348280212419 6.41428572690744 6.45788202196366 0 0
-54.2625960759653 2.84825902891422 6.84431264706405 0 0
69.9519531376205 4.34256905032779 -23.5390375745369 0 0
190.311892603409 28.5096479823045 7.84622133785181 0 0
186.880699895797 -20.3928507038799 31.8143713595395 0 0
147.022299408974 18.9852156886461 -5.141334085679 0 0
194.564039768866 -13.7779405693354 -17.684737519888 0 0
140.573625310416 -8.16862553885795 5.1176257054566 0 0
110.255469400341 7.51868404890308 7.53162286616449 0 0
28.4497275568957 3.58123558347183 -24.1067778761757 0 0
-85.6623230314837 5.79664650226363 -18.8926276032248 0 0
186.364663684391 -19.7395912454633 -16.4780403452257 0 0
149.535633007195 -8.24093408692992 -17.3347920925258 0 0
186.311828804887 -1.79360168065504 10.5730033894723 0 0
-97.7898581983897 1.59886801918129 -16.4698663072715 0 0
63.4602769102793 10.3766523919847 1.39768510746843 0 0
-210.527281592747 22.5653385989274 5.84693775022981 0 0
35.7337646256196 11.6962627011744 -21.5881994822418 0 0
-188.726251022743 4.75135359290311 16.3003453523557 0 0
-185.742166544439 7.1410007167981 25.6081191501912 0 0
-232.761786663096 -15.7002793723237 4.7196370075352 0 0
48.213476013197 15.6270500846585 -14.942574285665 0 0
85.7699186187288 16.1323358776754 -8.45627621105804 0 0
159.015232024726 19.0525140474295 13.7523628929563 0 0
170.207777691455 -38.6257894153901 8.28728770726178 0 0
-157.070863383609 19.3959084715598 -0.0500484437169512 0 0
-42.0701977760886 8.64773107131663 1.49306959660586 0 0
188.936514178864 -36.6046220288899 0.419699830411609 0 0
61.8551702371334 -9.02543042273817 -11.0758014407044 0 0
153.005516034759 8.0982002911798 -16.8950903098989 0 0
-48.5221069401603 -4.21288478218529 -1.4282332048442 0 0
-71.0495312518461 -4.31732490718244 -13.8606022515348 0 0
190.698381027468 -9.1710349403143 -18.5362279213004 0 0
69.2713372198049 3.50085033269153 4.7873525271447 0 0
-175.947934852559 -11.7924348970597 0.300360727607074 0 0
-51.1808094935918 9.1182264509999 -21.4145752046259 0 0
-2.24284702809502 -6.10140521889221 -14.6821378443088 0 0
6.56341834402568 0.803867177013884 -23.9667685091046 0 0
-155.437683201343 -15.3807244358207 17.5868083121012 0 0
135.190951819447 4.63359570352018 9.11236935454174 0 0
191.067002495119 -37.96096394817 6.7131476786184 0 0
-127.316019334262 3.88873354273613 -12.0281923522508 0 0
-83.4873158209657 2.22849321881303 8.58162305172479 0 0
186.406801964953 -41.1870700532741 28.0432485002887 0 0
-211.052460271774 10.5704902120614 21.5174850309758 0 0
-95.6585666097606 -5.46183010191385 -0.547937834365844 0 0
183.749192592601 -8.9297754245495 14.33206793952 0 0
-130.728297982184 0.59413834227471 13.3162366343685 0 0
-70.4967780036659 11.3076943918563 4.615811630408 0 0
107.767292545024 -12.9430973247772 -8.47241103145993 0 0
-199.515309089538 -17.6083500297714 10.9050738601915 0 0
183.343177191598 -40.0496945805694 2.96356727557295 0 0
188.881192925643 2.54738855981817 21.4639909478477 0 0
47.9495495461221 5.54413942589249 3.18679212500156 0 0
203.217725658854 -36.1671087657851 11.0935329764785 0 0
97.1629310911618 15.2372935633004 -14.6435239533901 0 0
-200.013198493234 -32.1002581899208 2.04599524705873 0 0
72.3958607160229 -9.99307583091521 -12.4301253839462 0 0
-97.675013218096 1.12484438035329 9.06775805346854 0 0
-3.55166590166657 15.4293500613497 -8.39112589549891 0 0
195.226247954437 -15.7423843202356 -16.518792039597 0 0
202.104162922604 -37.6222477736611 18.7305344805788 0 0
-199.474990269901 12.9126639138085 25.5566487848818 0 0
180.830981334033 -17.9885570728024 -17.9904093285489 0 0
-164.027350913989 22.2052736237611 15.8518886577034 0 0
-115.727569601496 7.09198914626537 13.6773364007475 0 0
31.9211421750741 8.44246575958575 0.690190688082622 0 0
185.596497325852 26.3271564266726 -15.5211320984967 0 0
-193.515828799562 31.3396832684511 3.81403680793089 0 0
148.030661616663 -21.0608119543952 -3.63994619839009 0 0
150.253111846086 -7.64568799167007 6.75067534942614 0 0
-30.0082771750875 -5.45725922347194 -12.9473719364203 0 0
164.843413752455 23.6603048707313 -7.23238298989144 0 0
-23.0174661317937 16.9386783523486 -11.8162782553562 0 0
68.412232834074 15.8673577857047 -12.2330908236297 0 0
113.724759719678 10.3414106790583 -19.4624051756522 0 0
176.178639566478 -40.2325293982159 5.32068810076394 0 0
-198.960439325813 14.809508811262 15.4850364074046 0 0
184.220303398692 2.6517014429488 32.2955091879674 0 0
-118.648021401475 10.9267919152908 -11.3624641431184 0 0
169.889136019801 -4.31099270316773 -17.5855420272005 0 0
-105.251406247298 -4.22991250248955 -7.67291068296878 0 0
137.75635542553 17.001092749141 4.95566085513951 0 0
-167.152804875472 25.1289734432496 6.070751517159 0 0
22.0184695417672 12.8190917540815 -4.01987534024171 0 0
113.791166543478 10.0220193646587 7.99389226231341 0 0
109.02206541704 4.05437911593436 6.6225752898482 0 0
-45.6548635217367 6.94052402889304 3.23997782081922 0 0
-10.2253807150844 -1.65291859242153 -22.9212792645748 0 0
-177.930716739737 0.625831817538136 19.9443503087654 0 0
-81.4414114214363 7.32396770605243 9.51533693020105 0 0
-24.9711767725842 16.3022953943948 -16.7236120088373 0 0
199.773663896873 -38.1819506572636 15.4048964948643 0 0
35.3493802139127 15.5703203482234 -15.9807994684294 0 0
169.790451502531 -6.03558745091317 14.8976156255274 0 0
-121.657714587975 15.8454012269892 11.0430194095414 0 0
54.394171461503 7.57172505359612 -23.4393392716233 0 0
-88.2973705415222 17.4999765628542 -2.84928297613307 0 0
179.700971778503 2.50149475815839 26.6978608735538 0 0
51.3721088440464 13.8342068367192 -18.878848227273 0 0
71.1714480295138 8.45769524258875 -22.8136604134812 0 0
183.565363343018 -27.3102213095363 -11.7949569400342 0 0
82.0914545077395 15.8300089776701 -12.8061360419795 0 0
146.835535066167 17.147059990745 -12.1578997443234 0 0
100.968129025845 -4.22404651342953 2.80290725634375 0 0
187.053502607179 -29.7900156255297 -9.42129898129079 0 0
-44.2438918136808 11.6265055095858 -0.512770416862787 0 0
177.408363164922 -18.9118585989785 21.933364696335 0 0
42.1602769843892 4.59951656525362 3.56311757334952 0 0
177.552529337716 -40.2840271131127 26.0233815102651 0 0
146.962705756878 -2.98307375692248 -18.2668954490812 0 0
200.847343016754 -10.3780460074298 -1.18440975057367 0 0
-177.247184102716 22.81267036747 21.3266883751355 0 0
167.898940413676 -3.90654385625476 -17.4288998088642 0 0
176.020338980293 23.3671786955079 32.1736693708031 0 0
163.957491079987 5.16962092681019 16.1120116601032 0 0
193.005796760453 2.53925556134444 14.9871450330212 0 0
-168.358635276401 -4.35761710582761 19.4291052959368 0 0
-208.831303065769 -39.3390939019241 -10.8853356681288 0 0
-97.1237339971229 17.5217455861643 -3.96590879637501 0 0
43.6846026255822 -6.49079968054486 -19.6150874812181 0 0
-195.025014316233 -12.9172803371551 -9.11344819958908 0 0
59.708860605809 -6.33677994294421 -3.85555159042203 0 0
-196.725920447667 -24.8362980999603 -4.5625365715959 0 0
139.533526403204 15.1632871674091 -14.4244062358993 0 0
197.72685123663 -4.61866688654129 -2.56145159890926 0 0
-148.112173289236 20.3271164895271 9.02972009021136 0 0
185.251594840532 2.30606125582199 31.646452614612 0 0
93.0107747162099 10.8746919254569 -20.5670315074161 0 0
171.336341908238 -15.1937846285103 -18.5050677876097 0 0
99.6555854063611 16.3308786971958 -7.22717669895238 0 0
-135.640317496655 6.09804687614516 15.1445297838906 0 0
-215.599081989075 -7.74258848574075 5.79993741184623 0 0
-36.2945976978559 9.24335906817989 0.582010423063489 0 0
134.525353130539 0.825470490245066 7.68896669661974 0 0
92.6123912367464 12.1736310634219 -19.4972548615023 0 0
143.174159412934 11.5558715896128 11.7699774965477 0 0
-214.132065221321 -8.88891753136577 9.94710184197196 0 0
4.54286482952826 -3.68320137713318 -22.066365817995 0 0
-187.256465072405 7.76020786900122 -8.72398250236325 0 0
59.8938055174334 -7.13639040248022 -5.60418915751605 0 0
152.678525479969 -15.7487081518886 -13.4063387599387 0 0
-221.535975005931 -11.1012717066476 12.8224727040753 0 0
157.458055600014 19.9557768587917 9.0692410410978 0 0
131.500988708264 -11.2637168907174 -15.8053354644963 0 0
152.85811623087 -20.8735734023668 -7.38834586143763 0 0
158.729051004812 -26.6981663682438 0.789694450633271 0 0
151.25105395625 -0.789255899735925 9.39212914851087 0 0
74.7255476992197 15.9254304130032 -8.45874061067137 0 0
-193.697207881753 10.4317561829488 19.9199254015213 0 0
-129.485865421921 -5.48610327430314 -1.96422820166235 0 0
-206.538499259661 -21.4064861346733 -19.5666328576274 0 0
188.156355475725 30.233048403519 10.7877581763064 0 0
191.599979299061 -21.0253020063978 -14.3305536889155 0 0
-155.330344771501 -7.68914110460002 20.1224740537702 0 0
10.7574448479385 1.43063423286066 4.687382242444 0 0
155.272890208047 14.4492733724781 15.6155956198767 0 0
183.309113683164 3.26004131744832 25.9347155210595 0 0
56.0763684023496 -4.45699961486549 -0.0665726307505474 0 0
-204.065904429496 -29.5862998087904 -16.733275371507 0 0
195.448924608642 -18.8662890561735 27.5982800155633 0 0
174.942125084833 -29.2004998001977 -9.54357194012534 0 0
12.3439853437894 2.10782478692414 4.33851299434924 0 0
-194.81002866317 29.0849777470699 16.8127445361218 0 0
-218.944340349742 -3.53597696720844 -4.63688106177199 0 0
-170.823550837106 3.38924269742478 22.6608419493129 0 0
154.495543532151 -13.2180934161297 -15.4425733443859 0 0
195.636146939327 -25.2747825315059 -10.0305270503067 0 0
130.067194581227 -4.1563422757138 5.38603636058944 0 0
-51.2006977511577 13.0342722027535 -19.1893759054355 0 0
-212.73362763061 -13.6061545288223 16.145874964995 0 0
109.630361511872 12.2924443072754 5.96271165014247 0 0
-191.973455190979 -13.9454443511978 -7.56881394367643 0 0
-196.268817987928 8.79340751440875 -9.37639252768221 0 0
-141.901421525356 -2.75876477734432 14.9046275973056 0 0
-105.942519522794 10.3190556258441 11.560476014823 0 0
146.341898870506 -19.4733623029376 -6.51049135204715 0 0
-55.3694404571495 15.0395710947137 -2.54954705707192 0 0
188.895225503032 -40.1511725727042 29.8642133766244 0 0
106.984936002621 15.5735181790692 0.178250607065305 0 0
-103.587442021473 15.3097089769796 8.42487263236088 0 0
86.2465572270219 -6.89947477502629 -0.186575573418526 0 0
78.8825060038137 -4.94076577656873 -20.9875072193028 0 0
35.6311369789415 -7.74324775305675 -17.0045330384677 0 0
49.6756461865073 6.96939252602516 2.45031188515217 0 0
176.81094068513 6.42019704434324 -18.6262565679079 0 0
126.233026395544 4.16988420153727 -19.9922917798193 0 0
-204.726732626112 1.72442092557386 -6.33188402021733 0 0
180.743475110592 -40.3811843634224 15.8741663383955 0 0
150.811109813661 -22.9001713257783 0.314944624704332 0 0
-78.8676362226009 6.1876487221033 -19.6537610739553 0 0
-218.047674636346 -30.6639203037286 16.0670384978239 0 0
140.437031659774 -6.41097705910723 -17.9470136118856 0 0
-33.792776335505 -5.18514555201288 -15.1078528647522 0 0
-198.540617364554 27.042085708806 18.9777016198989 0 0
162.206286846055 -15.822907459378 -15.7773785201606 0 0
114.254328841877 -3.61660310749645 4.23081254909604 0 0
172.111994019245 4.68063458807821 -18.2115244817639 0 0
126.393677667295 -6.67584505508654 -18.362681916684 0 0
-207.680309376159 12.6330910839519 13.2957850065897 0 0
-155.405139565005 -5.97781962757672 -1.16587780387584 0 0
179.66737265871 11.7145240491718 39.6004004180974 0 0
140.948366159327 2.27996072761653 9.05868607248285 0 0
160.420288934812 21.6989400757404 5.35823056385633 0 0
51.012400668505 -2.1987535055022 -22.7690674364778 0 0
77.4575744314215 4.62787997885367 5.27887082000673 0 0
95.5253040304902 -9.87912317147468 -3.64131828066235 0 0
-124.345934489855 -1.33330507982517 10.8150981265345 0 0
40.8026614013998 9.35228592524655 -22.8822682993233 0 0
126.325233610464 1.47642064186179 7.16327194572094 0 0
-126.822237460234 18.1577399751243 -0.395721851253921 0 0
-204.701241195196 27.0483770622171 12.9084972296672 0 0
-188.038356744167 13.8258309193011 26.4243792182614 0 0
-100.000410898976 10.9218290828186 -14.7666201662058 0 0
-112.177464875958 -4.41019497713719 6.62494953210513 0 0
170.495597120996 27.2351621902 15.2775243627827 0 0
195.915766711736 -22.8129869843622 30.1177952482545 0 0
66.2098794951631 14.796505972161 -4.48648755975693 0 0
-31.0293372377062 -5.41168202795778 -10.7152291143322 0 0
113.413311478595 12.6245968711769 -17.7194813890637 0 0
-115.287588116135 0.286613565597526 10.4093739349372 0 0
197.756627055155 -39.5839758339368 22.68398579334 0 0
-165.064314523503 3.55338722941894 -6.76510655358759 0 0
99.0933314206737 -12.1380787631563 -9.28040618026512 0 0
-172.836658000244 -11.0473507488858 1.41481680044785 0 0
-155.884617125867 4.78880061719515 19.4995320327462 0 0
41.9300124368486 -5.21564049311392 -2.79786127815943 0 0
52.2635779242367 15.1645342955476 -7.01147596901328 0 0
194.446746244922 27.944456202785 15.8180506934497 0 0
-39.4991216925793 16.6324644053945 -8.145030863598 0 0
-209.536000552844 -23.7336431703367 17.6482660610374 0 0
190.23487402807 30.2182348761922 18.1343817086424 0 0
197.195422614852 25.7839868250504 -2.82355995323184 0 0
201.308559997818 25.6583602509977 20.3573898760303 0 0
-22.0179276559398 14.9829015074433 -6.38042055398354 0 0
143.144964926259 18.6204389006165 -3.5686412600816 0 0
55.9517490245923 5.56054510265003 3.75528637218263 0 0
117.380887830787 15.9347226640713 1.6558955850988 0 0
163.56547719457 -4.53988246048736 -17.4883621934401 0 0
-233.31915875819 -14.9214149940765 -4.81371375496363 0 0
206.221373549869 -27.5128017554588 3.83994366693546 0 0
-74.8216190209092 5.55829687274951 8.84249507595556 0 0
195.285510409014 -1.91213510993016 -6.88410075031869 0 0
200.992807510878 12.9653353791252 8.0158962577007 0 0
181.844892161 -3.37296163768483 15.922687186208 0 0
169.520084615838 -10.6299451730952 13.5609716990309 0 0
-208.06037068752 -22.8958712991325 -20.4165925716328 0 0
179.913556267753 28.9846718895209 1.77749939103621 0 0
-182.851084115578 3.76460298297648 21.7624456922056 0 0
6.35441219440359 16.4521607846337 -15.5795993036593 0 0
-134.819189543332 1.36796047097011 14.3215024928039 0 0
28.5081580246301 -5.52703333321306 -4.47304944074408 0 0
-218.783004685722 -38.3398373971343 0.443079911046328 0 0
-140.805435403522 -6.85782552189417 1.20575948839 0 0
-59.3863357443775 15.5795692690176 -15.8105295225288 0 0
186.564924689335 25.6071882560717 31.9689441580957 0 0
151.257142455019 -10.6177663040367 -16.5212111416091 0 0
99.9311269217673 9.83924508042599 -20.776451440223 0 0
-205.009576843502 -14.6442823994823 -15.9791018145132 0 0
192.89841669944 27.2256436961802 33.3721535942107 0 0
-8.43569363438684 -4.77611413418064 -3.75914420354909 0 0
145.129860171634 18.8446498656187 -3.56512480570617 0 0
160.787736976366 -7.97439452716066 -17.7383742716896 0 0
107.4281592381 9.70650244710417 7.40246254933759 0 0
82.1046108947225 -6.46350986778437 -0.224492578380597 0 0
-169.717734962671 -10.4198294882515 2.20619950645253 0 0
186.454414347872 -4.43636482071148 -17.9069088869481 0 0
162.707105722853 -28.5489608453681 0.233002575765865 0 0
85.6135395153998 -4.76836288920769 1.43857168770967 0 0
-212.99087765506 -19.4019976608755 -21.420842176993 0 0
180.116517674938 -34.1557564803933 32.2921354422083 0 0
128.646033819916 7.06858650517193 9.03220828369978 0 0
-122.926037277272 -5.32660365651181 -2.72822737980994 0 0
28.4861161944592 -5.98770976165619 -6.46448988204903 0 0
150.314109320714 16.5372770948553 11.5885171139737 0 0
-48.5444435773229 -3.64835375787398 1.0408568076186 0 0
122.743118469163 1.59017049986903 6.89959152846652 0 0
168.970068271444 -23.9507943969835 -12.6033685405934 0 0
202.85390368426 -17.02495139733 -3.01986024050191 0 0
-148.185131149641 17.4420751984176 -1.87906561032942 0 0
127.341549565261 15.5043355303906 -13.4229181043689 0 0
-149.084128910089 -4.80118856745219 -4.01789855728594 0 0
79.3554098699596 -3.43663402451411 -21.7508010367929 0 0
163.480805183941 20.1407816885789 17.6268245303671 0 0
36.3861222466358 -4.04878472212701 1.25755859459641 0 0
7.35981139666966 8.38015510482611 -23.3037244107716 0 0
173.629004731905 -2.32563481327063 18.5937071355487 0 0
127.44640251775 16.8167006550521 1.17167208262542 0 0
-135.891375712159 19.5947756465534 4.51770561686828 0 0
-74.6010011513853 -1.843792184114 6.4656235917891 0 0
-94.3550375311195 -3.13408354675026 -12.1812338305571 0 0
61.0634005470041 15.8481927164184 -9.64481102663449 0 0
180.342164304855 -7.42223530308091 -21.4973414840383 0 0
-200.873193700702 -25.5390162348021 9.11110434959891 0 0
193.114006782086 -40.372504061054 18.3877988471739 0 0
171.534963889816 -3.51829759912107 -17.6455129473641 0 0
-225.008841297977 -36.2333847119379 8.80319505944438 0 0
40.0459708987713 -2.30961100413639 2.44693106461758 0 0
-211.646025011287 -6.56426127303244 -12.9128170449733 0 0
-198.610022416435 14.5848364101177 18.6954388810479 0 0
-92.3854091614815 12.4561935521495 -14.8985753333641 0 0
-78.7277025010823 16.2021064175878 0.193078975882426 0 0
-125.974387574912 -6.33294376959272 0.233751824398648 0 0
160.69682292527 -15.054683541353 -15.6903671576295 0 0
-209.958451167242 -7.40199754205973 -13.2845825250523 0 0
-18.9054012271319 -5.27089273295551 -17.0709406823652 0 0
17.8227780856871 4.70493465009084 -24.1114249530536 0 0
-83.4728399394627 5.60942525850444 -19.1805026561515 0 0
-213.168476968187 -8.56902115260457 8.43159596064542 0 0
19.3004797424845 -7.18594118431016 -16.870380574388 0 0
5.15063002427999 -1.00341312300814 4.77293536806652 0 0
-182.862220408869 10.7306569054481 26.17405041315 0 0
198.878806144915 8.20734297164073 15.7987358059066 0 0
123.962273669622 -0.525058141100259 -20.0016520638968 0 0
33.9012522997884 2.16053571940486 4.79861796289169 0 0
122.406711231034 12.3231039906957 -17.4921261048105 0 0
54.411663789743 15.2967274960615 -7.23857638714395 0 0
195.467303482639 10.4741726393165 32.9175936941342 0 0
16.4093461248211 16.2208643905401 -15.2916673443363 0 0
-177.954942201424 19.9378680153105 -2.67521477107847 0 0
-65.2195931644754 2.50513712151997 -21.0996376210279 0 0
-58.2552772979642 16.5660917869475 -14.2047653617893 0 0
-216.013357806311 -39.5568495600661 -12.0940502752741 0 0
166.439942453629 -20.2723197235495 -14.5755092405097 0 0
-229.6278247606 -8.67113101925331 0.516458955476976 0 0
-41.5546896230607 0.586475337212403 -22.524553083604 0 0
53.2737836912891 15.6079278468857 -14.6721284629589 0 0
81.6556538991918 14.9626774169938 -15.7582465833766 0 0
-203.589182184109 27.341490828011 6.96646368175167 0 0
-178.327242865251 1.41860463531724 -8.65071598451441 0 0
196.502511583818 -5.9159189775552 -8.90584187484626 0 0
192.962745856945 27.3436980664506 1.58404950282466 0 0
-138.476461467667 15.0203301936245 -4.7952130459868 0 0
1.88924549468295 4.62703735549601 2.55887975673131 0 0
195.869323510362 26.4439412247708 12.5848783613819 0 0
191.106003625523 2.47024983403419 16.8985317929614 0 0
32.482877903462 -3.32588164237857 2.17024229492367 0 0
16.0987219918037 1.48745776794306 4.35594835717465 0 0
22.3303755609673 7.67980625830746 0.784910944113734 0 0
-181.238817033844 15.3122292777424 -4.95439258758285 0 0
-201.762720849227 -28.3358282790725 -15.2083987543537 0 0
185.798774253942 30.5134208614359 21.4103289099363 0 0
-223.648247567725 -30.5306353141933 14.1454872729654 0 0
165.348445979532 8.54946030970003 -16.3656167489635 0 0
171.792022652312 -12.7573820097343 15.5776157216725 0 0
14.5491960518757 -0.277445495935164 -23.6946976583716 0 0
108.326903665938 -10.4238588268841 -16.0442073854371 0 0
183.209928983916 -40.2238876399007 12.6324070139261 0 0
-171.89221212462 5.28339831693256 23.4090415051832 0 0
181.275647424159 15.6151936457424 -19.6631939818521 0 0
-160.907374843894 10.0034908195796 20.5911917374271 0 0
-136.007242045778 -6.406169505557 -0.258000296286291 0 0
156.03310784601 -24.6374996852369 -1.13236086212567 0 0
86.3017147648116 8.04319576515609 5.34623665269249 0 0
9.32602615516733 11.4119496784712 -22.0658710143183 0 0
193.96918689271 27.2938737559237 21.115777920232 0 0
-202.256299599687 -0.891655026691416 -9.05515735894502 0 0
196.896260009896 -1.69958886868694 -1.11154224954405 0 0
-160.712876453402 -8.01129537050909 2.29625872900653 0 0
179.996701835909 24.3372570064461 31.4698524130201 0 0
-95.4544030029376 3.53493401503931 -17.4574685004429 0 0
25.2357656825906 -2.51412796659934 3.05549424215093 0 0
164.366047134114 19.1816923645182 19.8975624135548 0 0
-128.892313610142 15.8681506813689 -4.78506730549424 0 0
10.4455817697864 -6.86432917382216 -15.6900895286617 0 0
-196.675717492534 -19.5725459875245 7.50589130499249 0 0
104.732779522352 14.7421939359993 1.88288266427327 0 0
-219.814777398235 -5.90380756097718 3.30434822079585 0 0
156.636172414277 20.9192448868113 -1.73714677787082 0 0
30.3269799664983 -7.00996823551865 -10.5095767916299 0 0
158.371591080654 20.5237383836236 7.58424399475208 0 0
57.3549922913978 -3.3633515118337 1.12878162466881 0 0
-117.868848079412 13.467959149451 11.8934833856451 0 0
-214.4578440712 -21.2457797298322 -21.6736161891859 0 0
-16.4765432498803 11.479398396705 -2.41931954017378 0 0
201.566907481673 24.3682843885946 15.2920035742205 0 0
6.21268382843862 -4.4097044398915 2.51353900272828 0 0
175.533172553101 27.3885550228162 -6.79452614499674 0 0
-81.8392425867995 -4.38107012269169 3.69770574612351 0 0
83.508702002499 -5.38505599246692 -20.6418003101567 0 0
181.426898932499 17.1877746789337 40.801829703725 0 0
-206.602155669671 12.8918142376588 9.85169938207 0 0
-42.4628242824612 -4.59691495025857 -3.29115462439519 0 0
185.496407894985 12.9403575240472 39.8298252834193 0 0
187.642099096596 3.78042276318196 -14.2377274264058 0 0
-116.2310066338 -3.79883799606691 7.47612195436541 0 0
-225.403371457032 -25.581118837683 -18.2172412745754 0 0
185.316977305907 -27.6041519033951 -11.4352996048331 0 0
34.0902388810398 -7.00763872481103 -9.83486126607279 0 0
-124.828320442037 -6.07096695502204 5.53663154260484 0 0
177.813345168749 -14.098606465312 -18.8554447147897 0 0
200.7489137157 -16.1303948429923 -8.26169613743984 0 0
-195.40367365167 0.538885955903983 -9.10691008977556 0 0
89.4481910701117 15.900253439739 -5.26221806578276 0 0
-112.839803458544 9.80638809645224 12.5250857075702 0 0
202.568230704992 -36.7188644602709 20.5903601581902 0 0
-33.4026992124685 13.5009058299322 -19.8833788282503 0 0
74.075630789754 -10.0068480167002 -13.956876473868 0 0
-43.2691126545185 17.1877773954476 -11.9721807834138 0 0
-87.6508710253065 -2.01687784894714 -15.2107649134684 0 0
-196.844327578435 -24.1117708041151 1.03593265089439 0 0
182.392275928591 5.35558644125308 -17.0637731230445 0 0
26.5337698447347 -6.10194179299051 -7.29698354150007 0 0
141.458939566279 3.00294387021562 -18.7088152809484 0 0
24.5795213600965 -7.19668235133233 -12.5774103784062 0 0
-152.019449732495 0.438068023900723 -8.13378660471063 0 0
-192.09141545157 -9.35991006575297 -8.51485717781942 0 0
54.1607341750922 2.24587782077503 -23.8046033514068 0 0
-127.77949126387 11.2318783250626 -9.48325678563588 0 0
48.2561062263265 15.8687337787423 -10.6063781672916 0 0
186.828223561489 27.9696543487788 24.6476586348061 0 0
5.01638316277933 -6.43250306224925 -13.4563002662187 0 0
144.18904976762 18.7125116039976 -1.47648751262742 0 0
198.948128766355 14.4269049573852 -3.74282336446135 0 0
204.49466236555 -33.8641715077576 5.32376765987977 0 0
55.5976450851576 0.278216594169145 -23.5086092790085 0 0
-179.867208279771 -12.8696185690404 7.62895185632861 0 0
-206.039117188942 -29.6971196701006 14.704817705222 0 0
194.826511913802 15.80053435321 35.9334115722601 0 0
-181.750247563536 30.9800462459678 14.215767869377 0 0
-28.1359512659652 0.85701179793588 -23.2371226671123 0 0
-102.358831763366 15.4438979189759 -9.79159780223617 0 0
72.5043662081328 15.8736217327216 -8.38566145719215 0 0
-164.912021420158 -9.40563283943769 2.99087085583156 0 0
-157.214323513904 -11.7791602866861 20.5252943967062 0 0
-22.5388490688593 12.3092740344743 -2.94940413843341 0 0
193.442547573315 -18.4975364411043 28.5558552639613 0 0
-132.689673723698 3.65288746916782 -11.1035705892646 0 0
-132.654473121826 -3.34380478823003 -6.1230736301803 0 0
-33.2243938102666 -5.4153429962297 -10.5969687862271 0 0
-71.0873960247964 6.90700163459585 7.77628973764464 0 0
-92.3349911981586 -3.72066712967095 6.11568390321606 0 0
172.957252072527 17.879329818414 -20.4354713362511 0 0
-172.093802222864 -12.4955051243011 9.92547379878065 0 0
137.922376543888 -17.5789868267139 -6.7023875102232 0 0
17.5213958403064 6.70113110707315 -23.875123896813 0 0
77.8940255317656 7.65085555079669 4.41530698291931 0 0
70.0649771721304 -9.39338600153919 -9.57064628431241 0 0
-180.862269360538 29.0364337555015 0.0227705003188674 0 0
166.591821684629 7.49747449470941 23.8522813948498 0 0
51.045708248963 -7.31443768115033 -18.7417203563702 0 0
106.521690920135 -12.8720241354869 -9.50271011083519 0 0
109.935213280082 15.9066909440435 -11.7729133011587 0 0
-140.726749918775 -4.63400687957664 13.5054467490161 0 0
18.0594769013231 14.015771169868 -6.02632427191245 0 0
-218.233412663803 -7.89119928167332 8.12602733571724 0 0
196.728182578011 -32.6115199122965 -0.833901848064995 0 0
-114.770738929884 18.1684641023137 0.357850396350981 0 0
-44.5257372854428 13.2283418815298 -1.91263844621172 0 0
62.3951398346682 -7.232371453333 -19.0387594355045 0 0
-197.86874185057 -25.9413750351721 0.47244002418881 0 0
34.1684905779561 0.535492103834237 -23.8170110848805 0 0
-100.943265008648 -1.84323576482828 7.86358298182168 0 0
146.204004486077 13.8507179601593 12.0860591240085 0 0
129.475300243882 14.7258042325471 -14.7270921997766 0 0
62.4275148822893 5.05060187384035 4.71819621609732 0 0
191.951931188864 22.6461452183811 -13.9120041452313 0 0
96.8249625842841 3.30152715606864 5.74530310922423 0 0
-172.465786413097 15.3822447257004 -3.67655783592034 0 0
198.293538072368 -16.5103257922276 -13.6227663165125 0 0
-204.263650006055 19.6325658245891 -3.64301040765142 0 0
-193.469522645514 11.3806313329441 14.5501018508941 0 0
100.44440383247 -7.81790650734783 0.616863746437446 0 0
185.466679233171 -29.4414241063422 -10.0669640623195 0 0
-134.113008669896 16.7203986412066 12.6057105911564 0 0
198.06151968875 -16.6778976161835 21.8290647924463 0 0
129.827783734249 -6.67121822952173 -18.2455938634907 0 0
-211.621241298078 17.1235676693277 20.5135729524671 0 0
-175.731292426142 1.43202167215887 -8.29790038916149 0 0
-67.6374933874926 16.3539759896069 -2.6025663802517 0 0
97.5795850741362 -5.08556851640923 -20.339162621882 0 0
-27.800733201958 -3.85877055401496 3.99119311423201 0 0
-208.789559802521 -2.19940732116977 -8.22827627613315 0 0
-41.5096873341679 11.6793197994374 -20.7995309434295 0 0
-80.1299529426754 -2.68798505577332 5.93298112952538 0 0
100.369833400138 -6.56491329186427 1.44170877420636 0 0
186.326817676804 29.1210012258504 4.01175997356723 0 0
43.4744988585586 8.9126051007136 -23.0213042438131 0 0
-213.241900173693 -32.9363564581528 15.169216868758 0 0
-211.409876337848 -25.0703475343132 17.90212237651 0 0
-153.771036091438 21.1015344086357 5.25917789113586 0 0
-204.292686198034 4.88143402250351 -2.78847820936903 0 0
-101.879218938836 1.39588141335269 9.60758566680207 0 0
-166.917882651088 1.41462004840021 -7.15324180790858 0 0
-210.122189065545 -42.1253788266831 -1.11096368067227 0 0
-110.843165376587 -5.94215766398607 2.60611779556108 0 0
-208.35490368243 -9.91636361163589 -15.0964284089781 0 0
-25.1079104848439 12.0473330299665 -21.2331504341745 0 0
29.0502079609855 13.5794383803739 -19.9929262527308 0 0
-218.89044126482 -10.966692818083 -17.6620714798626 0 0
-12.0666810503306 9.48723202726323 -22.8029440777455 0 0
-223.584253752766 -38.8896775226729 3.63537961065517 0 0
173.420936668961 -19.5118437456679 -17.3726774662718 0 0
81.6052097676434 15.6794105976595 -5.56980973359773 0 0
-51.1187411686326 17.2388140705727 -12.0693241468694 0 0
-112.265368840924 14.6597248983036 -9.16560268331363 0 0
-87.6145600808754 -0.998006662004103 7.75115665261027 0 0
-14.9904154998197 -5.66070197450343 -14.5921140824364 0 0
166.903135632651 12.376677143311 -17.5639670840066 0 0
-205.516896232877 9.7101408402882 3.97122843412103 0 0
157.597695404783 -16.5015711918767 -13.8827649764806 0 0
168.442477449914 -28.2470147019149 -7.46603699411932 0 0
177.250261811438 -38.6082559936617 28.4952244055128 0 0
-181.122177655032 -13.7764408358559 6.29811018852497 0 0
179.248599963405 14.1138624650944 40.0684333907419 0 0
-18.0994114353735 -1.7962054353255 4.98245226067995 0 0
200.278277624647 10.6472349819074 9.47053854154781 0 0
-182.077104006095 20.3000357167057 23.7474679676606 0 0
165.998332713669 20.2603988295412 21.709169738608 0 0
149.059503157265 19.3635171650928 -4.20336235830596 0 0
-208.783511628319 16.5308760432707 4.69309300725314 0 0
64.8260839810916 -6.64535168033091 -19.6538329995167 0 0
140.565736819582 0.383396394889741 -18.8416466546241 0 0
136.380588791123 4.72504626794494 -19.0978745559896 0 0
25.4642678668922 7.3173218496629 -23.7328501281696 0 0
147.169923893417 -11.3266601179126 5.45656343430438 0 0
157.580869498985 -25.6840110457557 -0.0353189110352736 0 0
-203.205170654039 10.6013839138784 11.1229018059785 0 0
-121.68563809481 11.5184804400963 13.2964869072936 0 0
2.13883978319354 15.8854338018192 -9.6641239366259 0 0
187.19466437949 -1.91299557982713 -15.922855447719 0 0
-152.733193963434 14.3041629801348 17.6854444585584 0 0
-184.488520942942 -15.2753749761548 4.00664979833522 0 0
30.9322726490252 6.75530246892143 1.62042265143021 0 0
-199.265718479972 24.6244513859305 21.7199856906919 0 0
173.829710996769 21.9294546557783 33.3372309502097 0 0
87.5519458588313 -8.89743031113317 -17.4721937045703 0 0
-193.685577537719 2.09500224200867 -9.04036701902612 0 0
72.4342291153081 14.8017310739877 -3.70699489879742 0 0
179.698720469605 -19.3722434935543 27.1925873454183 0 0
-181.346002213092 3.76239868562429 22.7038773204361 0 0
131.457651312941 -8.54379350232306 -17.4295635176831 0 0
-14.4368665961654 15.6299202115024 -18.255430802265 0 0
49.4801747767754 -7.74375521699556 -17.986407844189 0 0
89.682762619905 16.1918850264776 -9.88114665318414 0 0
201.033393919984 18.2775330451632 26.380977541954 0 0
-184.762970143669 9.43024249034054 26.2100211494554 0 0
197.595294094984 7.78753949144941 -1.92665864909504 0 0
137.773469785127 17.890854610096 -0.0084532816165711 0 0
79.8605686705381 16.0348547348753 -11.3127050931909 0 0
-205.093867215395 -18.7818255055163 15.3200982513987 0 0
74.8111703248931 8.98293326013264 3.38803299854537 0 0
-198.04256393328 -22.084518706505 6.49881611196867 0 0
21.637963456204 -2.63891452298052 -22.738570362428 0 0
201.798470191177 16.7194453256797 13.2192653567116 0 0
163.822063647656 22.9104991463564 8.82375020918287 0 0
-175.69242283968 31.7757254031137 8.03044678315572 0 0
-83.4458778728495 -0.951016329085296 -16.9930699097762 0 0
-173.839291752009 -11.9200048317045 2.29435200578427 0 0
27.0845900384732 -7.15573964476673 -11.8287626502394 0 0
61.8720817839931 -8.9154343444722 -16.2398087788082 0 0
-173.209549610947 -7.96327204714418 15.3442846449317 0 0
179.851144566215 31.3665861355813 14.9928415155442 0 0
-213.039087126841 -30.6722354932888 16.3446610550203 0 0
199.930192875092 11.1897922233066 22.613744095771 0 0
-165.848767191741 -3.27585853591373 19.9922927169157 0 0
82.2070144379431 -8.60542770351032 -4.36060715560266 0 0
-222.215371657061 -35.5233316095623 11.4131968457934 0 0
147.569504797048 6.39327096105913 11.8266971053922 0 0
-171.880948739718 1.64668814324889 22.0778247307476 0 0
-37.7561830497654 -5.41289042894726 -11.2019344382998 0 0
50.5350792258387 7.23379770952419 -23.5553316928182 0 0
198.988622643144 26.2143930719839 10.4244261687226 0 0
-57.723900135488 -5.28074059413657 -8.85037086079151 0 0
-73.7311663045571 -4.18190455676561 -13.9074050991129 0 0
-76.3864268486824 -5.09135413349603 -2.88336296492259 0 0
-67.211319205031 14.7365262767887 0.205841709986877 0 0
-51.7607244157586 7.25915640056143 3.90600165491362 0 0
186.458313101677 30.3643832113747 10.2836742295172 0 0
54.4916929260653 7.31477482616778 2.47196336623994 0 0
-208.166788618167 25.9245355469393 10.5552615671791 0 0
148.174241300496 -13.0549262652703 -14.9584625293922 0 0
178.024142461681 -30.1608620377798 31.8497394066675 0 0
-176.161732308107 -13.0265665016604 3.56419998088479 0 0
7.03209426704895 -5.33366918432956 -20.5082218330186 0 0
-28.7202395417863 -2.16828743297672 5.14062684381052 0 0
96.3859065671752 -7.62738225120909 0.322206018646654 0 0
-85.6906404752381 -1.84506427051298 7.14173212975944 0 0
98.1486753823622 -11.1559936716951 -14.2469988193482 0 0
-22.0279839545845 -4.980378753073 -17.9413385699638 0 0
98.7559696601863 6.10101541840039 6.56193974679304 0 0
91.8832392074865 10.0574173114299 -21.1979994680043 0 0
-74.1459612716856 -4.8299441667092 -0.119249910068749 0 0
-206.474393902357 -12.683668828368 -15.6044595042416 0 0
159.304042700914 20.0651777542293 11.9707920947878 0 0
-124.561381548153 -3.17843226194391 9.20548968274047 0 0
60.5641188054793 2.08769512017304 -23.6381410204185 0 0
165.113419471884 23.2062092968087 13.3566059267625 0 0
-180.666632040464 11.1237806776496 25.8889640306498 0 0
-81.2941759198495 6.03442907441582 -19.3988962900757 0 0
-197.70505462555 10.848028235687 -9.11817401401664 0 0
-171.400710956694 -4.928713301099 18.3234538650709 0 0
-40.7945543180313 -5.19284239802751 -14.3791234495799 0 0
-232.754704975474 -13.2923371967156 -3.39761947156773 0 0
-160.95434312455 11.8519953564943 20.2363164088922 0 0
-191.457089192497 13.2875994463782 -9.07625131328468 0 0
44.6670417627894 3.59779048068596 4.22816997205947 0 0
-36.694065762371 -4.25727811027302 -18.376959781667 0 0
73.2733637181238 -2.40473170232992 -22.2890224860087 0 0
-223.039331898617 -5.88488992651462 -9.76429162389116 0 0
-150.922247938445 18.8024053084062 -0.20138776440845 0 0
171.992861231074 -37.6134762527743 3.2027626847783 0 0
-160.93697518784 22.0236003421505 14.1625575175722 0 0
-225.296751679443 -37.3136698918143 6.97571833679173 0 0
-51.1325020312087 9.55960145586676 2.11723019245058 0 0
147.445186433203 -15.5278007110287 -12.8812383806206 0 0
-99.2947389585003 13.680590655104 9.02849829117931 0 0
85.2991534602863 -9.50270359446341 -16.6177436084616 0 0
-28.4529558671892 12.7450835074824 -20.6326449736695 0 0
-163.052298520809 13.9165662389632 -3.74626193430784 0 0
-136.995825042901 0.050881574309039 14.5577253248597 0 0
-181.617088837815 0.72281277290516 -8.88654901347068 0 0
173.690426495054 28.1316208307844 5.02678147458603 0 0
69.2626223595568 5.67573993427625 4.74860114459133 0 0
-143.615247316589 3.79568993439585 16.2308549580908 0 0
102.195586354028 14.6084946327895 1.66966899249515 0 0
-202.9382958168 -7.48074448559072 11.6405572965699 0 0
-233.400060810367 -19.7434192491202 5.81438456476091 0 0
-106.348528353851 10.946289086485 -13.6784116452637 0 0
-182.16529971784 23.9225179630299 21.7700858352352 0 0
187.105682107611 -17.5751926549136 -17.4749129090539 0 0
-52.7760242632421 16.1528186160469 -15.3240789334096 0 0
-206.589408535236 12.3357158084797 6.6378195960646 0 0
170.798276456353 -4.41665914903694 16.1131868240404 0 0
-59.039851864731 15.4189824859257 -2.4201736308162 0 0
195.152520865235 -19.2135379415066 -14.4356834248793 0 0
182.551773217923 31.6625389341696 14.2313410733099 0 0
150.221749148885 -21.6538457412139 -3.76952804334074 0 0
176.657890928115 19.4051455651477 -21.0220314279266 0 0
-171.181758594862 -12.9068089290743 7.93827653257534 0 0
3.19613444555965 -4.52252982499304 0.938552906256302 0 0
-14.2647941244746 1.83157570159672 5.19792230451464 0 0
-46.5981748907116 -1.27760776408724 -21.3372850271355 0 0
46.4683119080164 -4.59530974542439 -21.4139630670496 0 0
157.409487237736 -18.9106360650268 -11.9152310515375 0 0
204.634694616763 -35.2705482630263 16.5999446333936 0 0
164.648101781523 -24.1002258788377 10.5045250926427 0 0
106.119634584305 -4.23398962550672 -20.3220980496955 0 0
190.018855987688 -20.3161302372081 -15.1549600713596 0 0
197.94105747202 11.0638407285583 -3.71848532584028 0 0
184.782637477714 3.19573411888962 29.389484630723 0 0
196.339935006915 -1.28523624652135 3.62249436551351 0 0
100.49966697415 15.3590328279836 -0.726988366662454 0 0
-24.1280866856033 -0.877820380525528 5.40601426960219 0 0
177.934953850716 -34.9831366619457 -3.80134958180723 0 0
47.6074765021396 15.0530587617886 -16.675281749715 0 0
-215.700969725378 -37.0664454861003 11.8557524033546 0 0
-60.1951046845183 4.29574808057302 -21.7003739543515 0 0
-178.898908211757 -2.89967939017201 -7.55374665057081 0 0
-171.611345096637 25.5148312677138 3.13196376917727 0 0
165.990165975954 -5.2859101472622 -17.6115418811379 0 0
64.2327259697162 3.33803209328444 4.73199752707184 0 0
-208.421867575285 16.0189690676682 -0.590765074589611 0 0
-107.656918566232 10.9207894035741 11.3480419743039 0 0
-230.449593079381 -17.3710971164286 -13.1167917162587 0 0
-58.6926144937701 12.3817814721356 -19.1055944216376 0 0
188.753584046907 27.8372987567441 -5.41532601611778 0 0
103.84521917179 -11.6689054439573 -5.20819712763111 0 0
62.506141946341 -2.47252898288456 1.67344507833903 0 0
-227.606813910407 -37.0921329879082 3.09338532933586 0 0
-195.911374756185 -23.0761705118911 -5.08175321632702 0 0
75.7673860718417 14.5647230637277 -16.9543230250221 0 0
-54.1425240901562 -4.76170187334656 -3.61827522912568 0 0
188.755796291637 -28.5572847260782 33.7660747004023 0 0
-218.281870186631 -6.3790365885283 -12.6196147641135 0 0
-12.1230869226086 2.94145585544554 4.26451580138699 0 0
-41.7501633000565 8.88913096700728 -22.0201983346433 0 0
175.000362906637 24.4055679542764 -15.7863892759993 0 0
22.4571736649385 -5.94210153118201 -7.33244536907667 0 0
60.9864772146356 15.9192977789719 -11.2792843791961 0 0
-220.322157519942 -7.62907114202819 -13.7397840466843 0 0
164.596442376587 -30.0821228699099 7.39542505315926 0 0
164.344643872809 6.77040062166041 17.8595657107029 0 0
54.0823448828504 -8.24788600215385 -10.3413690194983 0 0
-173.695093447628 14.3133375092587 24.0471696972211 0 0
-97.2915341977217 -0.658163573144294 8.25349446710871 0 0
-191.5324965586 31.4931395239962 12.2025964876444 0 0
-97.7040104740173 5.28291014462376 10.8966365590259 0 0
-6.36845597069281 -4.65702472939854 -3.10569256781521 0 0
-2.67115346908636 4.42834711798373 2.76433428851559 0 0
171.645491246972 -34.2516754183966 22.1473732411669 0 0
