"x" "y" "z" "f" "a"
31.3734170649915 -10.5140231130959 22.0517275487477 0 0
124.920801381532 -15.2723187629306 -5.73270141046851 0 0
198.430358137768 27.4764349221588 21.8108823148216 0 0
-204.642661641521 2.04742760486285 11.4383238336975 0 0
-190.33402858247 -0.819388310631883 -23.3803156419132 0 0
-204.430635465281 9.99424124846556 -11.1855519440432 0 0
186.776200853153 45.2694568678333 -28.1590637246986 0 0
-137.047140529296 -1.89721708408969 -9.4825871364503 0 0
-245.53451890277 45.9045529574364 2.40797302678951 0 0
215.864804861556 14.619580404069 4.83924094297053 0 0
-212.280934342487 24.1695933287184 22.5093801914196 0 0
-226.032096207363 52.7666947694235 -12.1714333493898 0 0
15.1976897431156 -20.4600616886949 22.1779602941984 0 0
-208.335480976108 -34.8082957267398 -12.1192591018984 0 0
87.2741172248615 1.9995506708447 18.9078327472449 0 0
-162.224728777421 16.2016916805321 -13.0233309067833 0 0
-167.830148423417 -16.3768637946797 -19.4350838656221 0 0
-143.786156007125 -15.7319898462906 10.9586111390962 0 0
215.055318572972 12.4592960698391 8.43332614690478 0 0
-188.457273346626 -21.5549400679619 -23.1965461492737 0 0
210.057637230215 -16.8461095723607 -35.4661949179523 0 0
-97.0984963478382 -2.3350431636173 -0.194566140883831 0 0
186.774800852718 48.5489733544033 -26.4670275857246 0 0
-221.286521950101 -10.8874469029445 10.3289840362952 0 0
200.746402949945 -30.235061758309 -22.7774561269205 0 0
176.875738054176 46.6510719083395 -5.80258062180353 0 0
-187.789210710566 3.87418868875799 -17.9180832429019 0 0
-223.355994536293 -26.8671557934614 0.454827699161603 0 0
-222.86471413163 15.9789801396081 -7.87586935198796 0 0
-209.339349841494 27.2166520271342 21.5056331122475 0 0
-122.729295277956 0.341961752978714 -2.41145091414757 0 0
-123.578602246404 -8.03819123042376 -10.1357313293704 0 0
64.9248151725193 -26.309329974964 7.73123131546477 0 0
177.784576884424 -4.04309020332904 -19.7660487209139 0 0
142.767248238707 -2.77532592813069 23.1020961479533 0 0
-14.5493233789736 -7.09439498022675 -5.91936088127458 0 0
63.9157110398397 -26.1782677533211 14.6872280850718 0 0
-231.986957254796 58.8115849389066 7.41057863288334 0 0
-54.1766417025731 -31.5192512347278 10.3834252782834 0 0
194.356313033833 -29.2522422971198 6.18827435675829 0 0
-124.550527764298 -30.2036665301375 -3.91601833544939 0 0
-72.0661645920608 -29.0169557116256 14.2566056074457 0 0
35.2750929656518 -27.7892261470374 5.33544906956798 0 0
219.396486506824 42.9931031133485 -2.58946959837641 0 0
-220.603796466204 5.45336863826704 -4.81644917857871 0 0
-198.414655557918 -5.89326248741047 10.7427006973965 0 0
204.449712311831 48.4208116040823 -28.9614745360239 0 0
214.962120802225 -22.6159121982935 -30.7922115796006 0 0
-231.652980465935 39.0707323802122 -17.4745460092796 0 0
-188.221136882897 -23.3395548275925 3.41692774144247 0 0
-207.6732492097 48.7665185446774 -9.02142372415068 0 0
208.053238166389 22.8591926794838 -12.8690198435399 0 0
-196.409921766539 8.35370762184234 -13.2753853360939 0 0
158.720748045438 20.5450971074003 -3.2267072322316 0 0
-172.149022281697 -12.6084970631959 7.66980976867255 0 0
196.25747202104 -21.2668087806981 25.5845669489114 0 0
190.092866153384 19.1104760454171 25.7869420470393 0 0
133.492390796715 2.62922218550333 22.2912489768868 0 0
200.83528474917 10.0029259853075 25.3426319992525 0 0
112.742685274994 1.43324561514477 22.1889707144108 0 0
218.573278869631 -17.5146533646964 -7.86325958177261 0 4
100.833136141093 -11.050423629021 23.6545880367525 0 0
-163.730366531132 0.840712214436737 7.41054994076941 0 0
144.980378909457 4.60872766868845 -7.01494032999011 0 0
203.385452278044 44.4239652634164 6.52111613602122 0 0
-187.733212429244 -3.48589989921234 -24.7430094395645 0 0
-232.936516771521 58.6163129271627 5.23676200486589 0 0
-52.7744628568342 -17.3781880940286 -7.70544111104227 0 0
170.608901911775 21.9052675608783 -8.99085990453805 0 0
-225.619818289856 8.38536215394278 8.0234357681948 0 0
-166.535725498827 15.3255864987912 -19.996417251267 0 0
-209.171706779163 -6.93338057674521 -13.8999436143084 0 0
-132.756703263819 -0.145307788880489 4.53897950594249 0 0
-164.736174802487 -0.651533138904159 8.80153704669633 0 0
-226.739039624056 12.2399608695143 14.7209591970472 0 0
27.648309803629 -3.101833620498 6.88664865814422 0 0
-29.7041554193294 -23.1523483950168 -4.21473773386017 0 0
162.469922857559 -3.21199752295648 -12.7279277446333 0 0
176.242296424063 -4.84868635522036 -19.1300783128092 0 0
214.298322273442 -29.3080510289495 -25.4492717799452 0 0
-241.317950363185 19.6512787251477 5.69324628093253 0 0
140.208106749003 -6.43234957869717 -9.58191132792272 0 0
141.871523750363 14.8398449966403 14.5022133736411 0 0
189.047138102166 43.0064827313 -30.0086071910135 0 0
-202.594127081096 -37.3413322964395 -8.25771981948269 0 0
-121.864426154902 -14.3589591865522 -12.4650252261858 0 0
196.335851403203 -0.754447988146125 -27.6659309128728 0 0
-191.718502617196 0.464713357091021 -18.0357140083718 0 0
-207.830039786759 34.6138960327654 -7.88172145246871 0 0
-102.183492338557 -27.6973968474837 12.2409041754857 0 0
13.5599139232954 -4.7569161460277 15.5249382359376 0 0
-145.589385956056 -19.1980744211059 -14.9663237473437 0 0
25.9687796746479 -3.16630216793879 13.505234485678 0 0
-230.497207632566 58.8207828709556 10.0167832973337 0 0
-83.4104735252881 -5.87111589269912 9.66685906888093 0 0
-67.0717939490484 -31.2321487716967 10.4487011207486 0 0
-193.78208291823 -6.11631845349928 10.1348948683739 0 0
-110.78142024956 -5.25290362999614 -7.70898125765414 0 0
-222.918713212126 2.80013820654016 4.13804404765355 0 0
-47.8926987270808 -14.8357084245243 -8.0075726582231 0 0
72.4421170581615 -13.1878621481579 23.4425546043689 0 0
-226.777373385933 -23.0519141729026 -17.37975812153 0 0
25.126226058008 -18.9958462412115 -2.85451362147446 0 0
22.8827629740267 -10.3445142096414 -6.54101986983279 0 0
-93.3225773279291 -25.5638446449497 -8.63046378112781 0 0
-148.955266412629 -4.00994360458807 -14.6327835930008 0 0
-226.695922337491 9.89960953065559 9.96647793512312 0 0
54.4357935298234 -12.4152837151344 23.041346143888 0 0
145.877347257179 4.81466288934504 22.0469310454063 0 0
5.07666718139427 -4.51208345999173 13.3379864100552 0 0
-91.5479862061517 -2.7411203648775 3.39085349509977 0 0
-191.487941575907 -29.695525141287 -19.6857292884435 0 0
-154.98391580526 -18.6337695432745 8.66881718409917 0 0
-242.026671628088 37.2657249342042 20.6390940336403 0 0
-232.233583682661 55.8533070236101 16.7482190030548 0 0
218.110708655482 -20.2466238424403 2.77658373349028 0 0
-145.18128988385 1.50408023084681 2.37242985893571 0 0
35.6123132640597 -2.96332075957256 15.5081633901939 0 0
-211.967070554709 -12.6689548283593 14.0704020476744 0 0
-144.129519539379 -5.2384260507868 10.1054119939625 0 0
-215.606240887132 -25.657928230814 -25.3029757296088 0 0
76.1934562669093 -4.44050792841779 22.4389275643154 0 0
-43.4094209643388 -4.73295164842646 -0.700737027962992 0 0
77.4153017954127 -24.0836351203445 4.7619830550851 0 0
185.236332206992 47.9159157477203 -25.7616548946619 0 0
71.1985292048929 -6.22831549797016 22.744648182123 0 0
-85.711045342774 -8.55738827259934 13.793831527603 0 0
-193.414922083901 -3.69629092551577 10.4047418860205 0 0
198.109447487204 24.7397776681329 -27.8500965310908 0 0
176.095243697739 -24.2992405812735 15.4367918882996 0 0
185.058285556675 -24.5014426872114 -33.3203025044589 0 0
-26.7634321061517 -20.1010828375807 -5.330181409553 0 0
31.896754901312 -28.6657038796758 14.6218855125397 0 0
-225.550647966826 59.5358820207096 9.06907081751132 0 0
-231.980890845259 36.0693673262483 -17.4209872293433 0 0
-32.9858607788182 -11.5057154273245 19.2222655630898 0 0
-31.2586890850199 -17.3212512952772 21.2675616318435 0 0
-226.614090594003 18.8397502221145 -6.92629399180707 0 0
87.2850135826002 -24.6972617683864 10.453884916187 0 0
-206.845261776298 30.3128958978528 -7.14526592080316 0 0
-177.520550883006 6.00510009094731 -22.1166753348231 0 0
201.118969940454 -31.4275856350763 -21.6714756147423 0 0
-208.029242725559 41.7447551642914 -12.4874704963741 0 0
-79.1194498197399 -21.1275095497594 -8.58150998615847 0 0
109.03924647219 2.9213378540863 -0.820853113568254 0 0
121.290880933935 -6.00194300199516 23.5767004512755 0 0
184.180330965119 45.9367821324638 -21.5603026478726 0 0
-19.6851503898228 -30.7247466854916 13.4910420515943 0 0
-223.936437052191 -23.4157810295881 -20.2326502520884 0 0
149.877113753796 -18.2484819553543 17.7488588565059 0 0
-217.029136037291 1.86906626948484 -7.21746444749069 0 0
-140.027658027589 2.95634027481201 -2.93749062149484 0 0
120.727128196412 -20.6802692141004 3.20533219731985 0 0
-48.2391153586725 -4.14437181904134 7.2461904828961 0 0
-238.160072201545 49.9262141711711 -8.09839731916796 0 0
102.30429917238 -6.54524746053783 23.4666568655189 0 0
193.562128419153 4.16127863595487 -19.8210873859117 0 0
-46.8124960977682 -10.8324664995831 -7.77954420543811 0 0
-180.693639388648 -23.2267377350356 -20.0593964078266 0 0
-119.055466456592 -3.8466875345825 8.77734510584798 0 0
91.9049053621052 -9.05156356699758 23.5694772106704 0 0
-242.513128911211 47.241617096128 15.8385941568969 0 0
75.940706961905 -14.0316657511625 23.3522451062359 0 0
214.655157503308 48.7252216590618 -7.22645341815085 0 0
-125.107576838928 -9.12204678354007 12.2118713351671 0 0
-229.441588105272 -24.8309707977712 -10.0545515875044 0 0
-151.127214350815 4.67432333558484 -4.74775101422866 0 0
137.190491918911 11.5928449272749 17.7421006794421 0 0
-182.799415052677 -10.2764460094434 -23.9254189202619 0 0
185.247893805656 0.685584921032014 -27.755242953289 0 0
190.720339131379 -30.4409392843259 -5.18663866105665 0 0
-3.16978866993297 -19.5663197574667 21.9673467773444 0 0
-239.499800277668 26.0500261146301 -9.25583063415654 0 0
156.755266497372 7.85986739891401 21.7209953005588 0 0
178.576122227031 45.3303535322839 -10.3771922305789 0 0
-94.645563251573 -7.06304384232099 -7.62666785799672 0 0
201.317497061285 7.1711608284801 -10.8879543045251 0 0
-189.90277525021 17.6726950510993 -8.03781531775105 0 0
-223.977002032611 -7.72858159806197 5.55020832663987 0 0
183.69815074099 25.6424169193556 -24.9204293453418 0 0
-8.24232448807626 -5.09511773771814 12.7088113540404 0 0
-214.095311348764 51.3070682656628 21.8255353975235 0 0
-190.190760896914 1.01969586546344 -20.0257858451539 0 0
157.073609090263 -0.851575586070441 22.5832265558677 0 0
204.400371700262 -30.3209976675073 -11.2367348495788 0 0
-176.895782783271 12.137378782694 -18.2406856151644 0 0
16.0078750780937 -5.08706294883814 16.6185438121439 0 0
-187.62785140674 -27.7991176588408 -18.7404491054701 0 0
-224.772297801351 33.9919805047331 -18.7385365713897 0 0
-71.6034199211541 -20.0103421233004 19.3443822013789 0 0
178.784125627595 -6.24904180284191 -23.7376794413806 0 0
208.532308964019 50.4336324930861 -11.1368367063327 0 0
-158.083829596136 9.93345237372522 -5.64552109517472 0 0
190.465259055376 32.9115948658273 18.3333371285993 0 0
-37.6961290868029 -29.6418599138891 15.3428803720698 0 0
-93.5058123826763 -12.4519395797179 15.8490827544393 0 0
23.4575486070727 -3.3212006927054 6.48366614738273 0 0
36.8458114787513 -7.41937117880905 -5.28078057298662 0 0
186.889403451605 -2.75537512816483 -31.2121472368534 0 0
61.4381228083394 -26.7497511511371 13.3493595218834 0 0
-104.691882420483 -16.3219113708811 -11.2088845512554 0 0
-230.641777692262 20.4372365544882 -6.87142211485259 0 0
-157.276995808018 -12.7720789474906 -17.1678509606744 0 0
154.406249219547 -1.15722943393585 22.6634068043468 0 0
38.277751370955 -19.3102965550911 22.5444765529485 0 0
203.888527804582 -0.803730039438651 -26.0450725340852 0 0
-52.2437206727102 -4.13086683312652 7.30194566541078 0 0
211.630947254517 1.78899239025875 -11.2687544308033 0 0
-36.1624073490098 -23.0997168325401 20.6084303666421 0 0
167.290142116256 -19.9133060377471 -13.0789190892917 0 0
207.596947918224 -29.6194913108545 -19.3556836556048 0 0
-182.954467430826 15.8865283100088 -9.03857274497312 0 0
-160.557455958526 0.218524419721738 7.84633129649356 0 0
215.891868943523 14.7160297759583 8.6852037453921 0 0
9.14194650709507 -25.7351578871953 0.594343919997034 0 0
201.574023069389 51.0653722983891 -13.6541227693238 0 0
208.25382492828 -28.7823544474283 11.2985042061839 0 0
213.718430714187 5.50533714691646 -6.94117715448106 0 0
166.764122873335 26.9602383331085 10.5246209479102 0 0
-155.266868136811 10.0183300552477 -8.06207438196988 0 0
194.832100516949 -27.2881127866852 25.039054577598 0 0
-213.68677381814 38.7715864422167 27.3458990389391 0 0
-188.82531786716 -11.7103115901119 7.43209352829401 0 0
-206.832536364926 33.5432793272205 -6.185037931063 0 0
172.211799290744 -23.3015273181233 -12.4168524481905 0 0
20.3138412692827 -10.9875547297944 -6.74087266064394 0 0
59.7672447073321 -2.35922986835964 19.1623672016693 0 0
201.65387100362 43.7849775078233 8.32044637960456 0 0
21.5366535517628 -3.14665917545917 9.28651047261424 0 0
90.8119206731312 -6.52380246254297 23.3419434795277 0 0
205.807889402031 50.2429005980398 -26.849623145358 0 0
-190.518836455339 14.3081611043717 6.10801105615558 0 0
154.254530015526 15.0728025035865 18.0705373043362 0 0
-53.6914096492459 -9.34929092476442 16.3986807715219 0 0
-231.9285377474 29.3865723713706 -15.9500593796476 0 0
-120.879739984406 -18.0574016337674 14.0110304023191 0 0
-79.5128435779976 -31.9741458061181 6.97387122499122 0 0
173.107094372533 4.23239747861104 -13.0607786187227 0 0
171.718425301548 0.961698459370612 21.975877451053 0 0
5.09835226035818 -3.70611825986926 7.26234160204921 0 0
220.551221412948 30.9749892505774 0.718693090747608 0 0
-23.3363369731066 -4.17733691561057 7.57583857510901 0 0
-109.111252193434 -29.9113922785079 7.72603122740218 0 0
187.120235829237 -29.3972706967333 -25.0206707535403 0 0
-162.014537910187 -27.1365118529162 -9.37724359024342 0 0
203.91781896258 -13.8238666064522 21.2000031108044 0 0
168.224643977698 1.72016409621248 22.1530404312783 0 0
-137.072735216832 -15.4444043072795 -14.0540063821036 0 0
134.453624845017 10.6974971997918 18.1072903366961 0 0
35.4874973133519 -20.4567644828916 -1.51226905902351 0 0
198.582559416671 -28.3545813609723 14.2248323708691 0 0
21.702967576616 -19.4570901738469 -2.76559888505881 0 0
-235.627286222686 52.0069947658042 18.9446138897992 0 0
-113.730948210251 -18.6806119300335 -11.2927348228159 0 0
-199.446502941398 20.9908938971743 -7.45255755438044 0 0
193.62816657689 40.3215032336111 -31.8162230604797 0 0
-165.0120099998 5.41125444183511 0.303018715567479 0 0
-75.4399170522065 -32.328186564269 1.73727700909193 0 0
-219.181340923041 59.3531179254694 0.504978861072211 0 0
-114.393585275619 -16.5659803894489 14.8328402503925 0 0
37.1124870304649 -28.7744611810873 8.49998790124428 0 0
213.051595295858 -28.1767312598463 -16.5964797241648 0 0
156.162468024275 -14.6002763164564 21.1759824067096 0 0
-206.557992185516 -13.7391972993611 10.7060949313563 0 0
130.314525571461 11.2900183441521 4.20468280188723 0 0
-131.67682275022 -2.08057485889834 -8.06843789419199 0 0
145.230174712928 16.8440703516697 11.7650792250106 0 0
-62.2265772529324 -32.4020816581316 7.1766831039711 0 0
-181.64498536859 15.9806135448179 -6.98566262637158 0 0
188.641859615724 25.8048123150667 23.1801989800266 0 0
-166.64014298547 5.45872237563912 -22.1480957981805 0 0
-169.821152391274 9.78094411430778 -4.11123894394722 0 0
-195.180550075437 17.9387657756592 -8.53574720431396 0 0
-111.04209759267 -23.5987128218335 13.9614775611344 0 0
-159.148390228436 8.49167382465483 -4.97168719218949 0 0
-172.941786451222 -22.1249422118722 -18.7443135402726 0 0
213.397766454798 -26.5205606189277 -11.2086831854316 0 0
194.957285646414 50.8108125034751 -16.841275261457 0 0
-214.539686425459 -8.83662485136776 -19.2450721265629 0 0
188.98447079846 -19.505593151212 26.1375434742672 0 0
-152.244562633446 3.70946731662693 -0.986154888380585 0 0
-223.729711622057 -10.0994694507849 -14.0718546609165 0 0
-222.044530228437 17.924841951965 21.1039987210092 0 0
-159.282510437603 -16.6644028251723 8.58505040005097 0 0
54.2508253792496 -17.7093423641947 -2.67197064989073 0 0
-203.760837347292 -31.4142208149056 2.25202464004579 0 0
177.582479283748 -26.7433467451081 -13.1572066003052 0 0
-219.473542563953 56.6749219350168 3.20728347850819 0 0
-231.013592922322 -16.3897808164925 -12.9015492895504 0 0
-8.18758302352109 -3.98261423147675 7.8545367475962 0 0
151.443488772592 -14.6877972673766 21.0428062259991 0 0
-186.074671591916 -21.4506790663767 4.4475433073336 0 0
192.424858787819 -29.7471587716175 0.0531966060095651 0 0
-147.224319569254 3.35611145160756 -5.30011553036466 0 0
-106.739412380721 -5.6378327170348 10.0834105707581 0 0
200.901535816235 33.4552914836204 17.0328684974989 0 0
-59.7390119093946 -5.43870227564058 -4.58157639674398 0 0
195.149739435378 -29.2673106333473 4.0136026262313 0 0
194.716255426077 -1.64508871434021 -31.65393943773 0 0
-32.5994564742052 -21.2855587193117 -5.15976581405466 0 0
-5.82931903681465 -27.8254968301691 1.26669961765186 0 0
202.783026521223 -29.0528201582115 1.36631986069262 0 0
-114.978446810982 -30.9290979934843 -2.38152629431893 0 0
175.877002823629 11.0712273568081 23.1103844635172 0 0
204.602174025467 -29.8232509907446 -7.26368511772283 0 0
85.63076112374 -22.9565337933266 3.79395602969592 0 0
-119.067734298989 -29.5983771523927 5.86436253744294 0 0
203.39555134659 40.1029914872795 -30.551875228709 0 0
-201.837186651958 -3.24211467081786 11.5061572130755 0 0
208.552774683337 -16.4904723182256 -36.5934707586134 0 0
-228.811821703378 -22.4271102527352 -14.0480511686758 0 0
194.443078993944 38.9806304174609 14.055840329213 0 0
-242.041970044703 38.3620106256699 -10.4326384022478 0 0
-171.283428217758 6.34378671070833 3.10415699802829 0 0
-227.011253817151 -14.343994799664 -3.57210762281735 0 0
97.1498563379996 4.72542375737751 10.4729576340522 0 0
-227.227585248131 -20.3405149433277 0.979743481664643 0 0
-199.190132369522 22.7994255458612 -6.37254693864163 0 0
-11.0398972979982 -14.8791801410904 21.5491605516944 0 0
127.449206970415 -9.277316381302 -8.15689641745185 0 0
-212.329562661299 -6.52349830891578 -24.0509172652236 0 0
172.307267944355 38.0212041894613 -5.49095053296947 0 0
-162.234275841746 -4.92386768841765 -18.2088480899384 0 0
-172.568055023261 -19.3705697850778 -20.087460600383 0 0
-29.9733384700735 -13.9095310060349 20.5723220167196 0 0
-230.463073662694 -12.5496857623548 -18.3563508934993 0 0
217.220554684632 -12.5331937279716 0.348545437942723 0 0
-217.390942460391 56.9100997643825 11.2364632481122 0 0
185.219447346333 22.4863417274258 -20.3075632605848 0 0
173.694551746122 -14.6376251092676 -22.051336755962 0 0
214.002754345435 -23.6468039531874 10.7118131266578 0 0
144.832357076345 10.2716694244003 -4.02848717535081 0 0
-210.044895522454 -35.4860765230289 -9.29201740068699 0 0
171.537749716972 -7.86792562801895 -18.2085664547389 0 0
-24.5489716326513 -24.9303405856673 -2.83873685411937 0 0
163.567629731619 5.63360098591696 22.3444990851288 0 0
192.108020376519 20.6556489364947 -18.8919963693169 0 0
203.613240362001 42.0085446257172 9.12474751907656 0 0
-215.431502779896 -33.5817601694273 -3.39893195666142 0 0
-50.3741343178087 -7.08599062208865 13.7489811658746 0 0
-219.791871226656 -17.7222446591437 8.89096382466627 0 0
88.8761324438266 -9.45242113433432 -6.3665978479296 0 0
139.475128612074 -19.6515887538199 15.2808208214297 0 0
182.789626655977 -17.4460972716174 25.3695130767994 0 0
186.8417260737 -19.5208276322311 -39.2811128532725 0 0
-212.97715920732 -8.59788299347005 -13.1582551548593 0 0
-170.813077515157 10.2777507265734 -22.3157531120493 0 0
209.415112872985 -4.35632381159021 -26.1172907025821 0 0
-220.287945511068 -30.8706702061177 -6.3719819353419 0 0
-226.714174621169 9.77195065858778 7.3441056815414 0 0
-223.696175658921 -9.40339003965379 7.02356785966343 0 0
13.5096688055779 -3.51936980308462 7.86895911301055 0 0
175.189630324026 -16.3149096246999 23.1102606533429 0 0
144.69583724394 12.1165010041958 -2.58607996993928 0 0
-170.518650103283 -17.7927422787549 -19.9462394647327 0 0
-92.0425322437323 -12.5517615778612 -9.78308847789536 0 0
-133.229434733195 -3.75736949929383 -9.55096429774588 0 0
202.850162421816 31.7996482705797 17.8342249035154 0 0
211.883553519396 44.8619836314752 1.21369899076918 0 0
-16.4564939390232 -5.54420573446752 -2.35223969860995 0 0
-127.488344564285 -28.9528364902631 4.5208204698425 0 0
-218.663808160759 57.7848045663565 12.6706003204346 0 0
133.599582894294 12.8559305498426 5.62347550926531 0 0
-78.8080054665643 -25.0328670622745 17.2443604092464 0 0
140.761093255289 -14.1332582009372 -8.34515492880025 0 0
189.171713160803 -23.3995212191014 -37.7330827051924 0 0
196.201774159173 -30.9751271829549 -6.56254053392207 0 0
201.691020662388 -25.5212923390008 23.410100332811 0 0
69.4800644085338 -22.4134823297117 19.8540714063641 0 0
210.061560049029 47.3811227425873 -5.0280759355115 0 0
133.713257485652 -13.8864252550451 21.7746388649393 0 0
157.744881961806 -20.8756912413559 2.24244548781107 0 0
-237.072566843661 46.087073042948 -12.1780799671129 0 0
205.573365906546 17.7390837469342 -10.3131111329391 0 0
-193.728825673558 5.38297172959094 9.3750166134183 0 0
-218.557138406668 -18.852917793814 8.31484938093345 0 0
193.953500648985 6.919094598106 26.2243640188515 0 0
-159.01661897131 -5.80536306085301 -17.2651092966847 0 0
-65.1245231917281 -26.0119046677514 -6.10843023162394 0 0
134.521803398342 -20.1719397893762 2.7199054471558 0 0
180.839103531241 10.6741313113038 -15.3774904875339 0 0
-152.686864051809 3.32007640080697 0.949436843471762 0 0
-229.862781380001 36.6283144554405 28.6184977991034 0 0
-194.167780122852 -3.30485991052844 -21.3209868308647 0 0
26.4732564262075 -29.7065516987139 10.4803409172787 0 0
-220.164771713529 5.35520258369874 13.4771573772989 0 0
205.924068261424 -29.6515817851699 -8.84871179156296 0 0
-206.382414853937 47.6296359565929 18.4712813039626 0 0
71.7454318807248 0.34270194525668 7.25455449930416 0 0
219.306006905582 34.5910772251033 9.49020742994747 0 0
165.153612126737 -20.7301906821646 15.7204554426066 0 0
192.36333176985 -7.6359344880749 23.4801202996101 0 0
208.719426071212 -9.68354577449613 16.3587521306201 0 0
-217.362155185868 -10.1770307658572 -10.9332323153367 0 0
-52.6750660554736 -12.4055726287555 -8.07309048697581 0 0
-83.5735205062761 -19.3839468220629 -9.22625123903789 0 0
-171.316386039957 14.9227086723757 -9.42382237066609 0 0
-186.497969363039 3.176044046768 -19.8401011501448 0 0
218.98666153106 23.2742089497384 3.60845358123243 0 0
-222.399407864028 -25.8350113763193 -18.6329468411649 0 0
193.079666247373 16.8096340310669 -16.8832383346009 0 0
185.36427273353 -28.9547489498078 -24.5984160421743 0 0
-235.356235820231 22.2902403920047 20.7584749966232 0 0
187.253128180324 -31.5299894272731 -13.5625127801276 0 0
-96.2834425849204 -11.5987181405647 15.1314406117474 0 0
218.283264923735 -15.3620326019042 -8.27876275999474 0 0
64.6818344696259 -18.8335822079429 -1.75706122763968 0 0
190.289708387743 16.6062238995505 -18.1128023557203 0 0
218.773360787627 -21.8314408692862 -13.2841533325483 0 0
173.298123331607 32.6411916748491 10.3852578589513 0 0
189.106760622414 -10.4353431436407 -37.6612020644233 0 0
-150.74926813859 -26.8354570415346 -10.2496591407707 0 0
154.774181888787 19.9167759253655 -0.893164409601149 0 0
177.725537639155 40.8899043845116 5.18041000528816 0 0
-78.4032393119198 -14.888191321893 -9.74071539567207 0 0
163.395771371628 -21.5870765412221 8.13942306268561 0 0
203.989342372615 19.438514521235 -12.3133883653339 0 0
214.927451895093 37.2505330110334 -20.477660684486 0 0
209.06565750311 -27.8481197707477 -23.8677206108399 0 0
-214.370867573659 -32.3053562522105 -0.960459253502344 0 0
152.75818415132 -19.977812210527 -0.441663724092114 0 0
188.502784961072 -25.6491606693679 26.60565437543 0 0
-73.8289672357223 -30.4822232869759 11.6544399851626 0 0
-19.0285747407096 -13.469918566158 20.795127833043 0 0
-21.1514787945503 -16.4467269066922 21.5035310805203 0 0
-43.0355466544234 -30.2384881296365 -0.0580373919068317 0 0
-145.448396515074 3.25774713705508 -7.69843644392118 0 0
8.92356366558516 -12.0580079606693 -7.08446934671 0 0
24.7077326169893 -23.5889966434309 21.1324066584156 0 0
-121.103015114758 -7.65863270925654 11.7151788445388 0 0
-192.325115433936 13.1172488867388 7.32584402944522 0 0
-80.9333223148456 -23.5876228323182 -8.31229628599552 0 0
-173.461082484708 -27.6628819269311 -4.24975707588652 0 0
-226.87665440922 34.8748057227535 29.1853011834806 0 0
167.852952077813 -5.72144239874771 -15.6192281631867 0 0
166.638398357985 28.2921906966411 7.469432474997 0 0
197.87742693004 -29.2503296802422 3.53228325615727 0 0
-204.229491353292 -20.6345372320897 -28.0487033719867 0 0
10.661119361286 -27.621723833529 2.40298166150945 0 0
153.37435958045 10.8571529032701 -6.0847356995491 0 0
3.41645588227992 -27.7526924760841 1.97029328128215 0 0
-84.4046416326231 -30.4773729023328 10.7289093182594 0 0
185.549962176945 47.2870429282092 4.36808155069529 0 0
204.399034418623 -27.0567277589596 -38.3906455981847 0 0
156.571692595456 -8.17082464933965 -12.9416665755639 0 0
219.649523109146 24.878102130497 5.17144964066909 0 0
186.366566245214 26.9248061118656 -26.5659559816413 0 0
-155.513717391035 0.319813154455097 7.49720948718531 0 0
213.556429188692 10.3775275544298 12.382715227548 0 0
192.333001547947 50.613394887772 -1.85388392145978 0 0
-203.899802487484 -20.7625306124271 6.21138029710385 0 0
-214.293419623946 49.853021944023 -13.0511438271357 0 0
182.820875305873 -27.5439752012371 1.31184132088558 0 0
172.656859964474 -2.52069675777126 -15.6927457641761 0 0
169.880184301865 -23.3703888657939 2.09202393174974 0 0
167.943298427785 -15.2614832603118 -17.4209366559398 0 0
193.791795482594 -32.0461987480851 -13.2957600516116 0 0
-173.839909085019 10.1624824248894 -2.23485408273311 0 0
-16.9652228890926 -4.08201139324435 3.31590608108474 0 0
-236.574026991636 19.6618603878233 16.8345458152881 0 0
36.6435604470694 -3.76384519089889 17.5440184618224 0 0
209.738860460431 -27.2614036613797 -3.30010034890088 0 0
-196.47168105941 4.86688523972543 -15.1664586166081 0 0
189.677177182448 6.57291508334431 27.3673095993201 0 0
97.9704360254826 -1.08979580071981 -3.87813547865192 0 0
-232.50232322795 37.5856412254938 27.6545476945473 0 0
205.686759226588 27.6306149212837 21.0868959960139 0 0
-121.427032418942 -0.372054651161447 -4.08336477706844 0 0
165.352178854704 -18.706462790324 -12.8619004546136 0 0
87.2172523425683 2.63292911870117 8.7413499893636 0 0
-168.91670819734 -17.6684367375573 7.17881892336198 0 0
213.780401326728 31.1483365494728 16.0128277554949 0 0
183.691844727299 43.8160613185017 -19.9536429561755 0 0
209.268725385458 -1.25163769875277 -17.0041544139117 0 0
84.8646305625997 2.4791506799692 17.1449978996161 0 0
-205.464456667956 36.155335377156 -2.47415219865931 0 0
218.688028978908 -19.3185753472165 -4.03490787410088 0 0
-139.742369961172 -8.07804157894231 10.9375534457299 0 0
212.66151586105 9.95407894948164 14.6484611385797 0 0
-212.312013684332 25.8273268349695 -11.8898533941492 0 0
-218.194013677314 -22.4896407625133 -26.6431568826242 0 0
-240.143122735952 19.8087757344531 -0.869191511466709 0 0
203.832007959094 24.1584151982816 -21.5050470035029 0 0
-80.9222494581531 -10.1917829704993 -8.24013028726246 0 0
77.7280013981659 -18.7412383932579 21.8630850683161 0 0
210.775897963272 -27.0490525168733 12.4732844347127 0 0
178.328014486624 17.8513630967917 -12.8494173471463 0 0
15.6433502425009 -4.6367222943073 1.36481746206587 0 0
216.717954419192 25.2635492230104 15.0793726997055 0 0
130.697978689454 -14.5559766030314 21.5564172770441 0 0
180.465721720823 -2.84694382580302 -21.5376168759655 0 0
117.914340675927 8.32331208308933 5.72809863700327 0 0
198.978353265363 5.62677667421905 24.0718446302236 0 0
-213.37628745041 38.2499770157973 -16.8669495809639 0 0
13.8055318451173 -15.4695906708443 -5.37038519451167 0 0
210.177700704976 21.6317528667221 23.241146685262 0 0
-215.336979812649 28.2674017912693 -14.8356783377556 0 0
-92.7333886937256 -30.9201419296148 8.61394153756476 0 0
183.82663667966 -0.123445344955196 -27.5987092130846 0 0
132.452814344513 -20.565867980205 13.3709449086052 0 0
-91.5296616634378 -32.1472490997264 -0.175020890329218 0 0
151.394916734596 -12.6345880817785 21.9153656398561 0 0
-230.743620273307 14.8465044552881 5.14782396549302 0 0
77.807023511332 -22.5145543388481 18.8417853683692 0 0
-48.7890709977625 -11.7306911052434 -7.80894545348583 0 0
169.403321957851 -22.5889433614784 -9.94608804237863 0 0
-245.582636960504 44.3723206871049 -0.528495156810784 0 0
190.596326740024 -28.0720030392546 15.229823194525 0 0
-89.8616472418466 -15.0408094985228 -10.4185181604799 0 0
189.250235414339 12.018676824483 27.5349526053398 0 0
-127.859261864986 -27.1594417720424 -9.76311640947819 0 0
-62.2317008558598 -27.2760050502608 -5.14970676938732 0 0
-185.30391387852 15.9375952909054 -9.25488022692955 0 0
163.336046793106 -17.4944431216231 -13.2600150859131 0 0
202.017909759052 11.4812596853362 25.6997563645527 0 0
190.330857385832 7.85900907305061 -18.9902756147643 0 0
-161.441522083472 3.4846656467095 3.2383535131982 0 0
218.002982690009 20.4007451429905 5.50511677392686 0 0
-207.376294141857 -12.6349326998459 11.8258589639556 0 0
200.626918569323 -29.5981797163412 -0.676438778803473 0 0
-221.212855989188 57.0437977456328 3.12381450181495 0 0
-71.2334202470521 -5.53421338844748 -4.52704329490724 0 0
-168.09010504001 -10.358829821516 -19.6209516967209 0 0
207.446758469959 -29.8887094866124 -15.806710879272 0 0
193.125741413147 23.2904428667293 -26.798833215782 0 0
-191.335552379217 11.413435903588 -12.2048431072382 0 0
210.014292217986 -28.0344210745625 -12.1231674325748 0 0
71.5477821717537 -22.0977960096846 1.49502930601202 0 0
209.889858155094 -6.65316442549437 14.0593182168462 0 0
-189.22172382549 -31.2705884700231 -13.2954731442556 0 0
-231.457960142164 14.1480996622544 14.1060946975579 0 0
-228.85463742774 -21.2020972616587 -14.793952206641 0 0
38.738195452821 -2.0108248930396 10.8790775999844 0 0
80.897190009834 -13.4488897325189 -4.74672302544951 0 0
212.176030713778 45.7739222205146 -0.615178821841901 0 0
-149.355702991194 -25.8499261551294 4.21820798295396 0 0
176.470932804488 37.2755328819539 -11.8165824404383 0 0
-240.201321534791 53.0973094963253 11.9114658410882 0 0
119.516399286644 -21.2310881039543 13.415572994933 0 0
-1.7316235741945 -8.38387883556835 18.6567630704076 0 0
-109.740867541861 -17.1384001704819 15.4733916094513 0 0
160.788292839552 22.1936454761798 -3.5071919837398 0 0
-204.002660225508 -18.2092167056969 -28.7739759623814 0 0
-189.468992287896 -31.6392961097818 -8.87959693246075 0 0
134.200015962453 6.10073817399803 21.227001310199 0 0
81.4676415646197 -25.2328631115507 9.48652429254442 0 0
170.348557524773 -17.2838863485136 22.1545060737207 0 0
-214.238754614252 -34.0198196482307 -7.67617396334606 0 0
-236.97088839465 32.1573877029415 -14.3819879966137 0 0
-15.7512968889919 -6.30119064803709 -4.24387048084733 0 0
63.3651111562477 -8.01574440332136 -5.62317440642756 0 0
-230.621295893271 -14.5455146821743 -16.8247152641378 0 0
-214.59001049459 1.61084274104418 12.953365095263 0 0
210.66612241532 -13.496782064454 15.500405282877 0 0
-180.395371644312 -11.4329540867562 -22.9283207129602 0 0
187.672252318966 30.2005044989876 -28.4374794420165 0 0
-202.826658792898 28.8377875757305 11.5879445829869 0 0
-55.8116650131409 -8.12795125324243 -7.57335898091832 0 0
-198.345260512008 -25.4711072241488 -25.6416409276851 0 0
-189.230211515782 -23.9901003025759 -22.6144551665339 0 0
188.484541798866 32.0338888919078 -29.4208777421971 0 0
-51.0377149320328 -8.70168036446878 15.9599288094391 0 0
-202.689986857987 -16.0514482095726 -29.2244096798666 0 0
48.1726497319719 -1.50064832898833 14.3323449035351 0 0
23.8973156934134 -3.02855311225152 9.27437398590558 0 0
181.116843108658 37.3855890224007 -23.5924415875779 0 0
126.829273356026 -11.4652122649315 -7.8657503500724 0 0
152.406018549029 2.95281850978298 -8.7183874333683 0 0
-2.46014158439377 -28.2628461142834 17.5510285827608 0 0
197.433698721409 11.8891172841919 -13.6627542187661 0 0
194.059811077749 -5.83094761002714 22.9738661210879 0 0
185.246394503883 -7.58718852730724 -34.1130202588361 0 0
205.578190375113 17.950034218805 26.7243411879487 0 0
-91.5799548196799 -27.5611792211213 13.9105964056232 0 0
-240.897355702019 26.0846454472857 18.3514400854626 0 0
204.585403507741 -12.4752205576211 -37.3539255280262 0 0
179.373925139886 42.9022144936044 -12.8301211637798 0 0
142.943484808228 14.8819321580521 1.75934575770145 0 0
-43.9056492343286 -13.7932335380544 19.8755528038995 0 0
181.072042681564 -27.9702130330148 -7.50591303932011 0 0
180.340813740197 40.6077321344702 8.41347270947096 0 0
-86.5286893797087 -17.4369564839854 17.947933797652 0 0
20.1115702876416 -25.8312432823914 19.5169324312121 0 0
83.6362408248086 0.85400825834517 4.13255565906891 0 0
188.868849349406 -5.48399555675001 23.9197166417338 0 0
-186.397116789365 0.698684209006037 -20.9637666382138 0 0
196.735328886685 4.10936017255118 24.1897931077419 0 0
216.629032009597 -6.97996711668876 -6.69123273215225 0 0
203.528232962832 22.5819066493677 26.8261980739625 0 0
-60.3400950044156 -12.2879056072333 18.1742012493752 0 0
-197.170462791779 -33.6700938631867 -17.7072986900975 0 0
-70.3776379689104 -30.5441501137519 11.7939136389742 0 0
191.004816371186 10.6496628890321 -18.0751052735709 0 0
75.7361316764031 -25.3008787359874 7.30817881090635 0 0
-218.072865882917 13.8671039845439 16.8665653052333 0 0
206.694664369653 24.2883208880657 24.0956231638099 0 0
-221.47329408822 2.36211183049572 7.86226673145338 0 0
-175.704064256673 -11.8488025694962 -21.8311610484409 0 0
-223.029875561096 -1.41066740671539 2.24941878658785 0 0
212.11679118529 -10.0609241845575 -28.1758930201278 0 0
-234.270046495246 17.1062725061238 16.4578407172647 0 0
201.228439244667 47.5130606456629 3.70620984285533 0 0
174.535000756072 -24.3638367658592 -14.5942975461159 0 0
-179.010129851939 -9.10993124035675 -22.3880501223379 0 0
68.5290545391568 -25.7285151270716 6.85556235819367 0 0
-115.344350035087 -30.2728039571802 -4.60370127455421 0 0
-139.847918807203 -12.5525514441874 -14.3590392363817 0 0
-206.156608691705 -27.5884985396387 -23.3514889849498 0 0
81.5718747912473 -2.79806074030197 -3.54305443702541 0 0
155.368721725466 -20.198547615915 12.9813161046557 0 0
-102.152471989518 -30.7390196227144 7.51736293121756 0 0
-113.763915878798 -31.2671302899124 1.66668313048395 0 0
191.360309517234 37.8831480344326 -31.1745959554076 0 0
-121.629274381775 -22.4808203395401 12.6910638527547 0 0
-173.864688680523 -27.2021178773939 -2.199087382571 0 0
209.036229247243 -29.0845624827808 -14.7446533043674 0 0
-138.078574997611 -23.495639376861 -12.6674288372542 0 0
-186.239753750032 -29.0101110263587 -15.3138866824878 0 0
177.089371138333 12.8565846666729 23.5631735552071 0 0
111.977819572332 -16.1603747232016 -3.8563636432081 0 0
-154.432412926147 -13.7553276208493 -16.7952253022129 0 0
198.265416654148 -6.5987949711553 -36.0841126204956 0 0
-163.291496881535 11.8732702710533 -7.36669840174943 0 0
-233.947351595253 43.5649239696827 25.6506043568164 0 0
8.18806158604196 -13.858871993513 -6.48961545425409 0 0
-187.621062233128 15.8566887793891 3.05408620925372 0 0
-203.896666879524 28.857526160237 12.748517808667 0 0
183.817255624787 -27.4014453687791 6.26289129057663 0 0
164.76812567656 28.1077494632232 -1.37362943622617 0 0
-188.632079997479 1.11000494857595 8.9515206455459 0 0
-46.0708491102335 -13.0842829191633 -7.8639741113682 0 0
-27.7140449992738 -5.54979030609722 12.1926187322125 0 0
165.279666892329 -6.15447238434255 21.6399579241688 0 0
181.415489959871 -2.85038284617481 22.0954731975093 0 0
-143.003358334592 -28.1477853022029 -8.13108393522197 0 0
98.1306979810878 -16.0876383869986 22.2029013742115 0 0
-171.45924623505 15.492264721448 -19.6810341959116 0 0
-193.372639181177 -12.8027851949167 7.56107896496464 0 0
198.897903643569 49.8685705274316 -3.78192705592572 0 0
76.0559385891632 -25.6499867494577 12.4081539712327 0 0
210.089365713367 43.9667394421388 -26.8209591362164 0 0
-161.131875007588 10.2300792923055 -6.5317025520002 0 0
-211.113834267843 56.8133653069345 3.00730166280072 0 0
-238.605394170187 30.1150327018764 -12.7464103491948 0 0
164.983774401802 -21.9604151034756 6.4740765923126 0 0
-204.11604820731 50.26051595669 11.0113513777537 0 0
-200.187585464525 -25.9452397987842 4.40489028931363 0 0
200.885316256403 -22.7242733599667 24.1804463691828 0 0
186.513958279791 6.23969585572522 -19.8405730889472 0 0
65.6813761155959 -2.43798814929134 0.290682840452125 0 0
148.235540067461 -19.0911730073793 16.1315906148273 0 0
113.289484424484 8.30404614805883 13.2359097970099 0 0
-232.519986266473 19.6805917231441 -2.88363666318725 0 0
172.979769432214 5.92029328061702 22.7653405820196 0 0
87.2938439265092 -23.7423164095915 5.65191948879138 0 0
214.060053199342 49.5665102452632 -14.4571433609165 0 0
173.77034029708 19.0202213737688 21.3590146297692 0 0
151.330446928135 -6.4530582043492 22.7175834774285 0 0
-150.950731890838 5.81888188414507 -5.89282147046175 0 0
-216.95537102957 -12.2916067211224 13.2189142832722 0 0
-189.479369993595 4.70079876769394 -16.5499947679424 0 0
8.32682649803268 -6.77966138467369 -5.49275521490223 0 0
-203.607769275552 -33.2308127656241 1.07185954821191 0 0
-18.6926498396917 -10.6176709180344 19.2119565811386 0 0
125.044253230526 -1.04392539992743 -6.80631233798198 0 0
198.372956920468 -1.71446067593424 -31.2617270982309 0 0
-159.172251850061 8.80515707112923 -20.8221350579918 0 0
-130.659862201845 -28.6872561728989 4.12678321334958 0 0
-35.7148060472609 -28.4502675419423 -1.22660775096784 0 0
-155.845597580071 9.34970621104046 -6.62444812260887 0 0
187.701195748635 15.5345157532958 -18.5232242717456 0 0
-207.671662758292 -7.72163651910007 -27.1071420552504 0 0
-56.9394665744843 -25.8793671905012 18.515224375222 0 0
195.749807829607 23.797798921838 -20.7615357006984 0 0
139.469642492201 -11.2253348761683 22.5742856980528 0 0
196.086428731648 9.73386825055598 26.8707892336149 0 0
161.918012727483 25.5503403696521 4.43368962069611 0 0
-210.602064003497 -29.7915759675609 -20.7608674243 0 0
176.728136207865 41.7150087369234 2.7723388218145 0 0
-238.43622118857 34.1425180959527 23.9204932658595 0 0
-6.90751119970308 -8.9057298790931 18.6743210415315 0 0
195.392073733385 12.3888770839201 -15.1340673349294 0 0
77.3057971256832 1.35478823549894 8.70043200323468 0 0
101.755554208398 -20.989294820556 2.03044129706953 0 0
-201.684093156854 47.4623308884783 2.56151125128415 0 0
83.551671893802 -4.87114373529081 22.8668695643588 0 0
-228.048487860214 -22.4984687321017 -15.709862758564 0 0
-242.028477342523 32.152703375212 -9.75941624178207 0 0
-151.749648010179 6.7210886402178 -10.1379812128966 0 0
213.5770409947 26.1888242654569 -17.5980525996849 0 0
182.204666808484 50.3422930659146 -10.9309828146169 0 0
83.5427442093666 -22.3920221769474 18.3025394870168 0 0
-96.3292859091517 -8.7914732407667 -8.17227967556805 0 0
-72.0376587328454 -29.2220157661689 -4.75186265072629 0 0
-194.868246529868 -35.9767057049476 -13.2452070366341 0 0
86.6224397403007 -3.66420562956582 -4.64561515981657 0 0
-104.151705579327 -6.04496402174925 -7.56455706321412 0 0
-62.4708405669373 -17.7800173897146 -8.1782127513544 0 0
-221.822251437464 -15.1374687302209 9.36408661402379 0 0
129.400808507612 9.64791625756328 1.68549691574041 0 0
-179.050220685703 -28.3033147270251 -5.11578027069758 0 0
-233.485743973869 20.1018618651488 20.2474861361172 0 0
29.8160631514333 -13.0026143703644 -6.10127138239851 0 0
-210.919420860428 -7.33551386898205 -18.4260622803596 0 0
-175.051161775286 14.2868937445745 -18.2159573603726 0 0
-141.728998395005 -21.8637942450398 9.27323657878585 0 0
200.771276423231 -17.8880603687396 23.5818632971941 0 0
2.75186054846177 -9.18777077915854 19.806557677611 0 0
-52.7207908820451 -32.439476107604 6.44330499200191 0 0
-180.015344905911 15.522370466783 -9.41177004928939 0 0
-200.401983672643 -3.76767744140644 -22.2536379342921 0 0
-224.327964860724 -19.0797138631021 5.58928335382804 0 0
-52.485897760851 -4.85471025776922 -2.23820017287912 0 0
-236.569424713284 56.6127846681012 0.940219505812459 0 0
201.449489221159 29.1088004395814 20.3761343778776 0 0
185.635312388567 50.7083499775269 -4.22314481254147 0 0
-135.122170315622 2.21842503482428 -3.35210194167394 0 0
165.568847285429 20.0370746034359 -7.3955868945559 0 0
-225.57276123811 11.253275518437 4.10967693296563 0 0
-42.2002942981717 -27.9770621689999 -2.25927757252085 0 0
-77.3728481042724 -11.0536780956082 -8.43262629868873 0 0
-74.4765349852382 -6.51274130039253 -6.48342513113916 0 0
34.5883499892316 -5.2099233164638 -2.2617763438406 0 0
-12.2890992572046 -13.9412355497452 -7.29293848611197 0 0
193.31279645601 51.1030255375777 -27.4067608794998 0 0
-164.033523187998 14.2094686032119 -20.8118770184124 0 0
203.900869799005 49.7498284773352 -6.0695425958531 0 0
132.717464749292 2.84646988937833 -5.90881686076303 0 0
-67.2153321866404 -27.9321166265211 15.922693658467 0 0
-190.990021422187 1.46640866281238 9.22079261664338 0 0
-122.413857958903 -26.7248201842257 -9.98652997605241 0 0
176.078824760538 3.26834796626642 22.598809707759 0 0
212.646951452796 13.3775372875955 17.8397719289698 0 0
-238.624925706182 55.3993081637913 2.62988493382379 0 0
-94.9448263672249 -2.62721239274967 4.07657725420835 0 0
-25.5011350064507 -15.9027422537817 21.2578750877505 0 0
109.906737168767 5.78231554313833 18.6874334514125 0 0
102.422034380844 5.95079168993055 13.2455027384985 0 0
174.663538581478 34.4835067081908 -9.48174077422537 0 0
211.166707280341 31.4222637229324 16.7691684783855 0 0
156.322550343392 -2.79460080824927 -11.287244327661 0 0
-61.8695213513458 -6.38425071325041 -6.93319483135464 0 0
181.697852106177 37.4459316381369 12.3235142689503 0 0
198.706566985914 -27.5662860973578 -33.624095583891 0 0
215.458066160656 12.6138224630086 0.401076602410082 0 0
186.207167302677 -9.65871652821764 -35.8193927969961 0 0
-220.166692516859 -7.08045750175562 9.28304865567297 0 0
-15.70022320849 -4.47543997501912 10.346336733867 0 0
50.9014077630958 -3.79015647609217 -0.520038959169117 0 0
219.023550911958 24.7619384968089 0.12924761131481 0 0
-214.817484616599 -8.85680950112684 -9.66797275231386 0 0
-78.5045171144609 -31.077925704844 -3.21964657608333 0 0
109.642719675092 -14.8181837471893 22.3784636685226 0 0
-210.74067033566 -11.0765828759437 -27.872713908185 0 0
-144.1830077014 -27.1877369229617 3.45808365478383 0 0
182.686601512107 1.90914845200701 -19.6243180975129 0 0
-183.453795170447 4.5141937449158 -20.3281004757183 0 0
45.9138276285762 -4.07874149805065 -2.07087686837707 0 0
85.1545162815768 -17.0625620403464 -2.77310440990982 0 0
160.232501590835 -17.3547633915236 19.9110907004495 0 0
-220.579985539635 18.4312557074707 -10.4381569065068 0 0
213.521006752201 35.0466901538578 -21.893146429753 0 0
16.5163030018163 -17.4942252791441 -4.17348538384561 0 0
-209.974564831448 9.40776133017509 -10.9222207037703 0 0
103.356256440524 -7.41431940856211 -6.8054539316281 0 0
-206.35557496542 53.5794451780096 4.36763640233008 0 0
-56.914187161223 -24.0195634923951 -5.84205915958729 0 0
-221.296164297206 9.28560368877765 -5.19890187179627 0 0
207.56102471982 11.3458088333028 22.1641393137779 0 0
205.813974154775 -0.605518832219619 -26.3505121604744 0 0
42.797596941987 -15.8265795604129 -4.06250331429513 0 0
210.483971688833 2.64414317329538 12.6978695288856 0 0
173.454679205439 7.77578850226192 -12.581197021161 0 0
-22.3942395871324 -27.6977121726671 -0.496734320926439 0 0
-192.372945809508 -2.55605707756669 -21.4183542806559 0 0
-168.593647658216 2.68404886358634 -21.5154968098354 0 0
-81.6313200280223 -23.5623688479025 17.7111840757816 0 0
189.591785907476 34.2040072349137 17.2925475451717 0 0
-81.3052841070855 -7.08670042596273 -7.42481493205625 0 0
128.413504996061 3.7695389945585 21.8398816523412 0 0
-196.132899104667 25.1231487389378 2.29584727372721 0 0
-53.4684056584026 -3.97976095074028 2.80262634394451 0 0
-25.8377581442039 -7.12439868612338 -6.07765398048272 0 0
180.762149790332 35.7368538136099 -15.3349260287026 0 0
195.332932836546 15.7868945589719 -15.2987007176823 0 0
160.412304284681 18.1331941399814 17.1168312605886 0 0
174.435790603018 1.03027411342621 21.9937325580235 0 0
-155.110133495355 1.6799128735901 4.69864539647529 0 0
-33.5053052623407 -5.99329809191724 12.5606976215438 0 0
-214.016934026677 26.8343025746645 -13.2359673678851 0 0
-175.239021156386 15.3159843627942 -11.4204857525471 0 0
-228.526396158852 -14.8883166168561 -5.39919748074836 0 0
179.006116025729 16.6190145619401 -13.1967667836967 0 0
-186.967347038251 -11.1793856984892 -25.3447299639713 0 0
-236.029139180401 37.145798264657 25.8815870159227 0 0
211.814918477143 32.9493954536956 -23.0959775233368 0 0
61.1518580106703 -13.9716063881451 -4.5811852697321 0 0
110.286122918896 -9.34861706059763 -7.00190924636184 0 0
197.505609760697 50.5265729313069 -14.111814879156 0 0
191.251687647046 -0.582385290584733 -29.8461114526531 0 0
195.756833695075 -31.9515072225059 -11.9100176678004 0 0
163.884594795635 4.99038451079317 -10.1798450673856 0 0
217.339471163035 18.7840308326152 7.72790693600298 0 0
-9.35918353428585 -8.63224012928981 18.2110828652089 0 0
-218.983862231079 47.6544406870695 -15.9288384515894 0 0
-164.822202419472 -20.6255451374616 6.57997098879137 0 0
141.494208512464 -1.5464376215588 -8.750616954633 0 0
-225.345966308705 -10.3656833034924 -14.7346269349122 0 0
-202.487072957077 -22.743734081224 5.26999390127416 0 0
220.036861150609 28.2240992410109 0.339818144523397 0 0
165.3233508469 4.40801400985041 -11.0168112759827 0 0
-212.507514349538 -15.4889229272899 11.3855350722784 0 0
-208.592647022196 31.6805627510152 22.862298896285 0 0
-219.372645140662 6.9746700671533 15.6239302349344 0 0
-76.4350171937207 -16.2157677228281 18.6118283366931 0 0
184.213983673215 20.3237928220815 -17.074444852412 0 0
-200.343641239642 -14.8122205624884 -29.4649240029412 0 0
30.3703037509976 -19.010104162805 22.5652453524135 0 0
96.2548328955798 2.96461329348563 4.19150653726854 0 0
-2.21204471326675 -14.5168937258284 21.746685560819 0 0
-10.3836062338802 -22.2236072690193 21.420613947438 0 0
-214.414101856288 -32.0211005918992 -16.4463760354388 0 0
-232.150725947985 41.9940681171027 26.9913120332425 0 0
57.203388291685 -13.2710104714266 -5.12752444850037 0 0
148.302690851599 -11.7030027679842 -10.5803345085228 0 0
-51.9037364281944 -10.4902302369385 -7.76885081145842 0 0
-117.495401281273 -23.1498022253053 -11.347568758186 0 0
210.808549591502 47.0179717727174 -25.3466803136753 0 0
200.642415796603 22.2642946998669 -16.2127672872719 0 0
-219.692762342717 30.7158067175714 28.5432778026301 0 0
-32.0981774105171 -30.0570852212946 14.7992411763795 0 0
-209.020678279713 -6.26249108011169 13.9158318811052 0 0
-205.102327841702 52.008863846115 9.65274440403297 0 0
-212.098390121974 32.3929827241807 -13.7983796656794 0 0
128.112433689438 12.1229879757025 10.3231729884566 0 0
85.9672998240518 1.67828012492338 5.77208856193332 0 0
123.613033069388 -16.4631445041137 -3.99108698116223 0 0
