"x" "y" "z" "f" "a"
211.556681369265 -24.7597962226349 -8.8056020973641 0 0
192.44286671578 16.6653131421908 -22.8244803164817 0 0
-47.0513167263532 -11.6330718153826 -24.8381864573585 0 0
-142.736744435272 1.93995488636495 -10.9338905146046 0 0
-43.225374434829 -1.57151699742588 4.66901114640357 0 0
-1.55954940306551 -17.6112120845508 -20.2386171249199 0 0
-215.4488029425 15.4054895262257 14.312081584472 0 0
-213.038737005529 49.6152717820777 0.361004062513691 0 0
-159.404625863546 9.47259953977819 -0.551981569955976 0 0
128.208790496616 17.0399033372505 -9.11005761229696 0 0
199.426325649082 -18.3698060582747 -23.2279002240547 0 0
-58.3461205546245 -12.3780890469137 1.31087881891732 0 0
-108.236317118805 -5.84440454110501 -18.8583596262 0 0
90.8359218264455 7.31650235145446 0.315495802733903 0 0
7.48116480451005 0.822664843942308 3.48944863927059 0 0
130.083736464639 14.3210035976154 -0.529518661521348 0 0
207.193094983158 -8.8775850708337 -10.8034865868236 0 0
-224.863922384889 45.4169486653071 -3.27305364411758 0 0
-136.393632279385 -2.67723570026308 -13.6513588652234 0 0
186.428659688662 4.57376421448313 -22.2129015103076 0 0
-197.028522927233 -8.05388166409264 14.9078652918122 0 0
18.8049525031263 -4.79962094006375 5.97026470495944 0 0
198.410999703912 28.2192660972885 36.7386326097107 0 0
161.66202907489 -5.71238365574592 12.6027553070176 0 0
-190.927321323758 -32.7531030331656 -3.42633570332251 0 0
-56.1049066468183 1.54298215579806 -23.241890114853 0 0
-69.6490614578815 -12.0321681628534 4.36039250039042 0 0
218.992246992763 28.2761919847047 -4.45553015711124 0 0
-212.667353367469 13.3685990593772 13.0735713310826 0 0
-96.7202061006814 -5.32939860706541 7.7203442183788 0 0
-221.764720447041 6.54419431359508 -12.5192225697008 0 0
-136.996720732787 4.09778864499092 9.08445454827928 0 0
-144.529563130812 -21.178639751341 13.7911492582472 0 0
170.846655598027 -4.34516645342888 14.9105738855262 0 0
-157.673478184624 15.3298233624674 21.6091972541477 0 0
-215.334606748186 -30.1358639279741 10.7611625632724 0 0
-137.626314720534 7.39091178108797 0.462219233368776 0 0
213.352113894596 -28.9885679324357 6.81096333192583 0 0
-165.417708813404 13.6983822620605 22.3177496526832 0 0
196.97050440636 39.6071653359117 1.05278073608845 0 0
-202.151993888553 -30.2792056200524 -0.147535236678615 0 0
40.9589377006483 -14.3674703336428 -21.645885799492 0 0
213.950081273697 31.5140272052335 -3.75724123199384 0 0
198.153448866416 40.2149116495542 2.09052970004421 0 0
-159.54803885749 12.7514600748638 8.14951282886692 0 0
80.927208412909 -1.81646243916762 5.4763273858116 0 0
203.46972879762 35.9566380629561 -1.35137465406356 0 0
192.670229728232 -35.3361923726713 26.3220061432658 0 0
-159.813458984525 18.6255295383042 12.1968709849213 0 0
-229.620679052262 36.4947067908167 -17.6409967917936 0 0
148.420611298144 -8.08009268804171 10.3812393875601 0 0
79.7141916069288 -11.6546246124458 -22.2584923387415 0 0
-208.423682989255 36.8110692069645 15.4755963521544 0 0
-196.00187042763 -5.00937045848559 -14.6529099353709 0 0
-204.578984734321 -9.86059667960326 -13.4400279910723 0 0
201.016505266259 -36.2365774699813 8.38637221505625 0 0
-112.130134804785 -3.25118921570573 -17.8766728804199 0 0
113.693071531865 -16.5379781217022 -16.2427289691663 0 0
-213.419469655599 -9.35638778266642 15.3438905240542 0 0
23.027439917946 -16.7120188105162 -9.58167274089733 0 0
192.835969731489 23.6833606578995 35.7143659345164 0 0
-103.868464859673 -9.67875858003381 10.0500451106814 0 0
154.20894289301 -22.5750073629704 -9.02167452457703 0 0
207.415960337222 -7.56510470728462 17.1175453973203 0 0
-201.628741457719 0.0379977288569538 -12.7381298481331 0 0
15.1728682227386 -14.1188577410644 -23.4684153961047 0 0
119.434042065957 -18.8396593147918 -8.42375091023908 0 0
-105.833550186576 3.34022390995112 2.00306259328335 0 0
105.923353159834 3.31885888274487 4.3847340740619 0 0
180.188801319209 33.1951288927644 21.5559272039847 0 0
40.4078077236316 0.0994703958300535 -24.9547855241826 0 0
-205.067805366888 -25.3680314693066 -4.04567751219077 0 0
173.323690930942 -2.41332385038891 -18.905776947278 0 0
63.7617931443332 -15.4458205702093 -4.61263230921398 0 0
202.573883801995 15.9247936611234 -22.6577481138549 0 0
80.6335852866932 -14.154472564949 -19.5495550392688 0 0
-49.1074442787603 6.8245591011222 -11.9403932715362 0 0
112.409727734812 4.00354099149943 4.56635916038961 0 0
-177.711956882714 15.4144957384051 8.35077813666602 0 0
185.280273071989 42.2604769239781 28.5916030492546 0 0
197.05834213037 41.542124511452 2.90076516869373 0 0
212.644173739726 12.6388361126856 11.2022122217577 0 0
196.536548118234 33.1922239234216 37.0068923258759 0 0
210.080993351633 5.05634558262445 -9.42284871236079 0 0
150.531470430093 20.7349931205483 -5.0125627738821 0 0
196.742624931253 16.4788472343938 28.2175072678158 0 0
197.745230848838 -37.9797136247727 33.2953800488053 0 0
220.924454068337 32.7362452858715 4.80861875686952 0 0
-103.253839725712 0.150973323328422 -17.407901520483 0 0
157.917541541925 24.1506989833373 2.4533179528521 0 0
90.968542939858 5.23739359396854 1.94990262636529 0 0
208.191330070392 -18.0311866066529 -14.5774488133364 0 0
-64.4596427002127 -0.346111543069009 2.69910262205459 0 0
189.420567532993 -37.3837965707058 21.8745287080123 0 0
-156.709124305825 -10.7017215354114 19.5090456242196 0 0
32.8790460542994 8.25869050473684 -6.98194590563984 0 0
-196.92918188695 -31.8994788106736 19.3042018982121 0 0
148.753393350154 -5.99283610310457 -22.0928914337894 0 0
200.444530518401 39.5615603981408 2.08861236363773 0 0
-200.157896719382 -4.47660236875984 -13.190538322596 0 0
202.579085784494 -35.4587958823855 18.4031628523203 0 0
-64.9841110923053 3.46011490339533 -2.13599170057261 0 0
-223.709555138915 29.1104304907028 17.5755058289293 0 0
-110.468030580843 -10.7724608625315 -17.9373202605794 0 0
-89.8389169433371 4.59477125637252 -13.0980941525535 0 0
-78.0927457118591 6.24622151915191 -10.3296709649917 0 0
-5.27709776796098 -0.851231792209689 5.12625408792796 0 0
171.965864696951 -9.98250779429998 18.193537764424 0 0
164.485846230575 -21.2863902008577 -18.4831254927016 0 0
-148.742183216544 1.14714867896664 -11.125097656924 0 0
174.179365513842 20.2783921392936 15.9352326351656 0 0
-212.54170975198 6.53260097414459 -15.1580145077874 0 0
1.56782945724967 2.86231949336727 -0.537828742464394 0 0
42.9181034782947 -2.34865992930008 5.91323205539641 0 0
66.231644542983 -16.7611406296014 -8.94344798816858 0 0
-32.6056380825727 -17.6812594050684 -7.81479399157173 0 0
156.654071667284 15.9936929768144 -16.2734572216486 0 0
-168.970888957727 -14.8956177893799 -7.98670248370732 0 0
160.674524340921 10.0767269769774 -19.6775135410186 0 0
185.258747567619 -12.0975045088455 -25.0050219885841 0 0
-67.0043401334231 4.84779528198492 -4.20726965096542 0 0
121.041821954562 12.5481850662291 -0.68213280251731 0 0
-75.2806014775932 -3.07131676899194 -23.1236952081601 0 0
191.606196344496 44.2628924742059 27.1193572728736 0 0
171.177675917842 1.07368911963714 13.292308719092 0 0
-87.8907718520888 -2.59643249435918 5.98779035206896 0 0
174.131800657688 -19.5279569124439 25.9577317221898 0 0
86.4160095683878 10.9061481296045 -18.4590112704586 0 0
117.485670929845 11.1507943732864 -18.4032052764372 0 0
-115.744631718165 1.39720456373972 -14.2291471531419 0 0
-85.0503496789178 2.70968606576747 -16.8379093381337 0 0
198.374803194713 -7.8802784484476 26.2363886361574 0 0
216.880649061095 35.6353320470646 3.75875524833824 0 0
129.694883737196 12.2616407782657 -17.8689098570704 0 0
209.021868692741 18.01952769726 26.5612665953749 0 0
-53.024059290358 -2.98891987554406 4.93466360288201 0 0
212.138078952836 -25.7926969070917 -6.55227756587047 0 0
211.857618518856 -15.0593377020315 9.98449211942857 0 0
100.324445231884 10.6028580208039 -1.08150785764458 0 0
88.3333642051041 -11.3170221143011 -22.2590499487192 0 0
-149.308135108905 8.43022140188021 3.74415298039748 0 0
-192.761287301622 24.8125159382924 -4.91040501943105 0 0
-79.1242786007008 -11.2872749026213 7.40069950635479 0 0
-98.7910564429263 6.48855562177517 -4.92703353919051 0 0
183.126926876295 1.7949602955252 -20.6757256382586 0 0
-222.78166824604 32.7665765031861 -23.4693711087778 0 0
206.760565268175 -27.2205545542747 -15.9574459489418 0 0
106.718017889222 12.1739006686512 -2.08762227161106 0 0
65.6810459631022 12.6171988523277 -14.1116568186826 0 0
-122.812158684551 0.0227359181171748 8.07976448599863 0 0
72.8584803992441 -15.6619628950684 -3.6267003844344 0 0
-54.3177837547299 4.3017210272915 -19.5995098475624 0 0
-167.684617922726 13.3082880422953 19.9175912182206 0 0
-218.354817383212 -9.49019583737094 25.8554068220966 0 0
-218.395133773934 -11.4147156525363 26.3391656965046 0 0
-144.821157527237 -16.0854589200646 -10.1404397381599 0 0
-198.596201804918 39.4368083741256 -8.52362610205716 0 0
42.5060109303072 -15.0460515709488 -5.64141089683335 0 0
-170.008487341187 8.69328392600248 -8.2145883930928 0 0
-103.134319401599 -21.2728290567318 -1.5035077111775 0 0
148.915568721474 -15.7557330887816 11.252234200486 0 0
197.792472923131 -35.5848682817497 36.0169280389227 0 0
-204.741232134686 27.0268878512636 13.4952902927273 0 0
178.602341069747 39.2838337599237 4.41329543782567 0 0
-77.9849498722931 -21.2672439829852 -12.4541172726367 0 0
-111.539027815386 -4.86448686711755 8.73679294578677 0 0
-221.807853363513 -16.9826560075477 20.0248488563299 0 0
213.304072801145 -27.1544418250761 -2.30782798724832 0 0
-115.727498498575 -2.8105932123347 8.54698666014439 0 0
158.434355190079 4.81669611747941 -20.6415671802418 0 0
-203.469254529491 40.2529628100124 -16.587161443925 0 0
62.293177127752 -16.8377256808115 -10.6766035860669 0 0
7.85204019178748 -16.1240714334461 -8.65303611945073 0 0
18.4590400812348 -18.01958740061 -16.42855961896 0 0
-222.521199038679 45.7459980230034 -10.6974048876647 0 0
-210.326912909487 39.2421185679341 14.9277666653852 0 0
181.582520088388 16.9782459797476 21.5242530596307 0 0
-105.308246062577 -21.7278422005903 -4.3941065870151 0 0
-29.948622784921 -19.2636228931691 -17.2828407898189 0 0
-194.850407871455 2.19198357715603 -12.2153383573475 0 0
-105.352060361154 -2.02144199206516 -18.5725267698931 0 0
85.7109712918085 6.13999008064095 -21.3746493784834 0 0
146.871183970111 -20.4386068788495 -12.6144578512445 0 0
-148.049488978648 -19.2816214804915 -7.0537767464452 0 0
-39.2263384156287 -19.0278628548346 -9.90505085916493 0 0
161.781474245422 24.4842241876696 7.60093334306261 0 0
215.52921909907 11.2378265876278 2.01733226542944 0 0
219.367844590685 23.192333403359 14.1008216953084 0 0
-27.3405823083157 2.89159423178829 -1.56478620778254 0 0
-204.577012332657 -14.003304057256 15.4222811950768 0 0
84.1599038668425 -10.5784117687435 5.35192748132651 0 0
174.223203527411 22.3645913309009 -15.5636082076676 0 0
-213.06591675733 -12.9890061861859 -2.65607589251305 0 0
93.4104399034786 9.05454188405472 -0.788906240691105 0 0
87.4466561734482 0.763201732567475 4.6027355405319 0 0
5.05142515512371 -17.0331609297367 -10.0931182261078 0 0
204.61313960944 -7.30995523276026 23.3051858678258 0 0
-23.6831696241897 -18.2162084667382 -9.82365243814192 0 0
187.548348635889 18.5164269876281 -22.2568120872866 0 0
49.0923894828643 7.22966612973641 -21.3590903632094 0 0
159.301192599619 -25.5907093660761 -0.600554473935234 0 0
58.5739642322907 -2.09659562808045 5.2128935134023 0 0
-160.782950359087 7.42642802626929 23.244109645043 0 0
134.912723976477 -13.9688469250656 -20.501984793506 0 0
-228.618977982998 11.0481572978755 5.41360594864568 0 0
45.8058393994041 -8.80339551247607 2.33868524546334 0 0
188.556396152374 11.8618998833054 18.7716534505476 0 0
219.640787666118 21.0788165567105 -0.233612207223596 0 0
-238.125274091622 24.6587965466981 -3.89945520673373 0 0
178.477211260692 -16.3861346339145 -24.087371709108 0 0
-95.4253861228403 -17.8618721446344 4.77462281474753 0 0
170.437047860417 31.5753013077801 6.86599328629804 0 0
-37.3052872407679 -17.4943694731533 -21.3984363513896 0 0
-198.683303870325 -5.35635582890643 13.2987500337423 0 0
-174.051558567255 -28.1026641542167 15.3740767869118 0 0
181.845696981362 37.4475270945947 23.0115166884286 0 0
176.175794848538 33.5424258471553 15.2571456385996 0 0
53.1948751879984 11.5763812208082 -10.4874703894254 0 0
-226.82755848674 30.7945616581987 -22.0263637456225 0 0
161.706061724191 -12.0518148861178 -22.3328966673764 0 0
194.851987047386 -35.5951756724653 29.9998584350001 0 0
-222.67861611875 12.4948838118386 6.64006843239646 0 0
-188.350474777923 -7.19522449227489 27.8641840549686 0 0
-226.67078957313 17.4939874705951 13.6928781449065 0 0
-237.89150904175 31.2417030557191 -5.03779982825908 0 0
96.4867450735466 13.026139395272 -16.3683067098541 0 0
169.460777794665 26.0546348681116 -8.5315719230282 0 0
189.539214094415 10.4838177847041 18.3065435106546 0 0
-131.594106085312 7.48714729161389 -3.06056239992411 0 0
-238.001236981752 30.5264800327604 -0.850162588466118 0 0
173.692442410567 35.840945244917 6.82635171885215 0 0
-165.525679207355 -19.6485838130823 20.9797563885121 0 0
-135.957252676537 -4.49343274115483 13.6080823309695 0 0
-121.934806516981 3.11191266204699 5.15943872442522 0 0
-181.976203765496 13.6729429876329 -7.79340349680889 0 0
-215.249877520009 -29.9569393514992 6.54443812106488 0 0
145.502938495572 -6.27143625682997 9.73328884630091 0 0
107.748163274448 14.113333358074 -15.2192946128892 0 0
-213.644914839534 -20.8743608163044 26.764381238141 0 0
209.67848065967 10.8788527141326 11.3135387422324 0 0
-157.42127992408 -24.9426214437606 6.49747176887239 0 0
208.263540212951 -9.31229107500367 17.0244800765998 0 0
191.358114043933 21.6820183521916 34.891963691743 0 0
184.037872412575 43.6915826947931 13.035428301023 0 0
210.944661903853 -13.3010392404567 11.1374869833614 0 0
142.451207256847 18.1073718029546 -0.429897118749404 0 0
-162.800403693928 11.7888097829642 23.3421935950952 0 0
108.450817301196 -10.7651442883149 -22.2377227728301 0 0
141.019513409461 -10.1967260573508 9.90088454657029 0 0
-159.968647286925 16.8980886593368 20.7626453999931 0 0
-221.951657116299 45.2091587560358 9.46010201646136 0 0
-169.142183345683 -4.02920053230007 -10.0680749909048 0 0
204.472200651341 15.6233160984187 23.9270114306545 0 0
-78.9983598989763 2.08980108136804 0.618174426843625 0 0
-159.002659252911 -12.6137539772974 -9.27000303979745 0 0
183.799127855559 17.8160547102726 -22.5895850206055 0 0
-231.911801240247 26.114901860653 12.3115172329735 0 0
181.897810332941 -34.1623797054081 26.8035973915269 0 0
-226.451208945721 25.8128515352476 16.3990581723139 0 0
-24.4602553559061 3.30015587514829 -24.0617557122765 0 0
-142.169987648916 -20.1278677821962 -6.3727102624926 0 0
-200.011951559311 -14.8521762025804 28.3514396698911 0 0
-228.39493529925 17.1955830317939 12.357527620437 0 0
206.809192714134 -16.2623650448682 -15.8086778242244 0 0
-206.24820654919 -11.4742976215015 13.9573067723721 0 0
-97.9363109331 -10.8762700537483 10.0659372831131 0 0
-42.3631214845095 -10.1562986231876 0.816489363870518 0 0
-46.9262109792327 5.59883216223216 -6.95357339964962 0 0
-222.205781181051 46.166071045364 -1.09384665324507 0 0
-16.6736709045006 -16.97890381144 -8.89164976548958 0 0
-37.5021287256615 -15.0950589859221 -23.6171081077828 0 0
210.081688906997 34.9539526385269 1.81679085456509 0 0
-210.38239985861 48.9018009688218 0.713820035926797 0 0
195.21784575148 -36.9200251628093 3.604245331029 0 0
-200.097293770833 -25.9400139847227 -6.48732561859328 0 0
206.620470411568 39.0362159758593 8.3448009884431 0 0
43.3844489120977 -13.7715496735472 -22.1387409632665 0 0
-12.1430265668543 -5.96834678737069 4.37131765180617 0 0
-176.067290279911 6.5665174732463 -10.1828190328612 0 0
-93.8114523283361 -21.581344511766 -6.77621803799605 0 0
-26.909882856156 -3.99691893539099 5.96475322180398 0 0
194.469302321962 -13.4051823970172 36.2124726689266 0 0
-166.527123062282 -9.18042713235472 -8.86370520849746 0 0
187.242075297933 -19.3126615390594 -26.6877225415756 0 0
-130.316306788748 -22.001628304178 7.8423120425043 0 0
-196.28020383459 -8.03819457958533 18.0205820091492 0 0
-110.761186017368 5.08006631785896 -10.0109941014108 0 0
-193.141652007278 -7.39934300247836 18.2358644905016 0 0
-148.478380981241 10.8705546719475 15.6279110357913 0 0
178.595526492729 -33.2518756528163 -5.09669977627435 0 0
-203.748237967695 8.00774031731986 -15.7171070724462 0 0
156.047644453938 21.2996954807885 -8.64504267264318 0 0
177.522977531418 34.9819474611714 -2.71411974118928 0 0
203.108803682529 36.9157131459564 35.5626854136694 0 0
-96.2637527128228 -14.9339035196059 8.21082659670933 0 0
153.990704268523 -16.5066453320823 -20.3242359036043 0 0
102.512469479851 -17.9449492038501 -7.27106213243505 0 0
175.793349086598 -2.76544513676263 -20.9070080862024 0 0
-228.255284016338 26.5518693035718 15.375256585218 0 0
-205.817526555534 -12.3365327027344 18.9153929194773 0 0
169.183606740546 13.5812155333727 -19.7541973008813 0 0
216.287670264113 13.8446172040496 7.49193535571368 0 0
182.307922166341 -12.1833966693923 33.8441873863321 0 0
191.194562667225 -13.9576165620053 36.8234601514315 0 0
53.7200940977488 8.70024152195751 -4.94772833065904 0 0
172.656205180497 -25.8960370183272 -17.4198205494551 0 0
134.680009539447 11.9852777916674 3.03510946773808 0 0
-202.252523507903 -4.19288167193678 -12.9425713130575 0 0
220.297859294246 25.0104824114888 0.753548975795041 0 0
181.950790419283 23.961054759814 -16.9322086784958 0 0
-196.8714304057 24.3897285567229 -10.7679049428382 0 0
-203.773476048468 -15.1649609661497 27.9500827524403 0 0
-81.7320445817993 -4.17973718873579 -22.5305574221124 0 0
-214.902622564142 49.5616823507783 1.83224575664999 0 0
187.558592043778 -40.4622606962873 9.46253734798175 0 0
216.386107810794 15.124622534581 10.5945087830696 0 0
17.4836724614409 -17.4949874353741 -18.8883900106824 0 0
-214.698935198315 -22.4405565803693 25.3049037881461 0 0
-237.574737016144 23.2629661017744 0.821406389455026 0 0
-55.04106511911 2.07566473570978 -0.604645401888709 0 0
-202.222146260672 -13.2337692049121 27.8292004310163 0 0
1.86154148595624 5.87475539618103 -22.3259065759057 0 0
184.385291877756 -35.1733971227886 26.3312353861479 0 0
118.640395996045 -5.80440018330394 8.04271253144256 0 0
-176.951448077273 -10.4338676060932 27.4843718078374 0 0
207.972152733413 -7.5409199832076 -8.30147885986414 0 0
176.835607265395 14.7304220855134 -21.1298251401983 0 0
-211.508536776455 -8.37384288435956 22.3563185879577 0 0
-94.1909014557869 -14.5770349585055 8.0493298928379 0 0
4.2592117136315 -10.4467913567595 -1.93496821546159 0 0
119.901378255666 13.6268794566246 -16.2586150849445 0 0
208.020441181411 42.4474288918272 23.9236363485234 0 0
-5.14542795279194 6.38388000050414 -7.73437469675321 0 0
130.564541798093 -1.78157037289429 -22.5408528673083 0 0
-191.007539382164 5.65278309955901 13.4497184352105 0 0
194.067443120485 -35.9003926823627 21.5069293834107 0 0
152.957547456142 -23.9938554282362 0.585185598164648 0 0
-47.4537822976519 -1.52600348667628 4.59129167183944 0 0
158.020160492367 23.2086097849601 -1.12148437464024 0 0
110.982622936608 15.7595404187446 -9.47018605937496 0 0
140.152997293052 6.7558249231512 6.06102480159335 0 0
-68.0261241789892 -21.0379393426915 -12.4781523535975 0 0
-131.42782828971 -20.9621394321412 9.85146905440838 0 0
-77.0146829271421 -7.34038366740813 -23.1567175661355 0 0
209.791611730293 -35.8428755976503 11.557081469745 0 0
-133.433771994472 4.43534095757227 5.90734809299845 0 0
82.4132107529544 1.18318038362073 -23.5414328930625 0 0
113.07450901023 9.59151092048849 -19.4196593849401 0 0
-195.074270505183 26.9799750788477 -5.89798327833241 0 0
211.294798097289 -12.2494891909963 9.1272332275873 0 0
176.279980108167 37.0402149970265 13.0329355998335 0 0
-124.565749695589 5.79727488500438 -7.6305566548067 0 0
216.059503199269 14.4103555600613 -7.3066631423272 0 0
191.221240311069 -37.873291155874 3.02001243755494 0 0
-151.938135352048 14.5335276384075 13.0027937470892 0 0
-219.89818414992 45.2775019646918 -13.1165778523085 0 0
107.105875267497 -14.0161814978005 -19.7164872808354 0 0
-108.967127991491 -21.6181531012093 -1.03491643218742 0 0
190.573963050117 43.4608610862497 31.7902777094623 0 0
-224.708098453274 44.3022597366121 -12.8970694481549 0 0
173.674781645176 -7.09930151750567 -21.2087495400798 0 0
-186.60812581862 -22.174983033413 28.5009644637642 0 0
-167.318930194259 2.79221416315192 -11.4126132641361 0 0
188.040067413272 -8.77330503390468 -23.8415986227596 0 0
203.929488247206 38.016076867886 2.64862893554456 0 0
-73.6121434424516 -19.1114617749501 -17.8312321873522 0 0
-224.339102129893 8.96729854600655 3.07287146041863 0 0
155.038123973573 -20.0516329998132 -16.2565768933483 0 0
-164.20985703475 10.2299030365295 -1.09912026688055 0 0
188.001284227424 4.69845487241052 -23.1069485649837 0 0
202.822021135291 -18.498002244268 34.5151449157735 0 0
205.886916531935 15.551789738248 25.7611090000728 0 0
177.378226862225 21.0352801453402 23.623008663692 0 0
-125.205393465589 4.128529082747 -10.1710519514068 0 0
-188.33768727043 -0.623075887384226 -12.5926499815382 0 0
158.04705937451 -23.0068930826103 -10.5462419581201 0 0
-86.6454630278571 4.14556853211385 -0.819278360083112 0 0
-84.2844027157023 -20.7834681415779 -5.31874916862701 0 0
-153.365125992886 -21.4431756589754 17.356158413027 0 0
-176.526105308738 -6.82691814909819 -9.78686991421135 0 0
85.8456722510948 -0.361352335533912 -23.8452256470805 0 0
-120.294782170531 6.78355288647036 -1.82798718673537 0 0
9.1692999210038 -1.72459079537313 5.86537090992068 0 0
192.088363483288 6.55764102911227 -23.6474438666489 0 0
176.627756502128 -31.8162104550013 23.4883061625014 0 0
206.703761459823 -31.2524705360266 -4.36826267351877 0 0
-87.0966448286947 -13.7565614146993 7.21714216234903 0 0
25.8435112355479 -13.8232383840525 -4.9943943211828 0 0
172.479955048768 -18.4248260947926 22.322700165335 0 0
-220.30479177144 -9.63228738083492 24.3036779669972 0 0
-200.998316104711 17.9906821861607 11.3467395246532 0 0
-13.2591120392662 -18.1564707339612 -11.9332074071863 0 0
178.302015310098 -32.7793084419949 22.8387222733841 0 0
-162.517381465801 1.51313858909617 22.4459813156705 0 0
151.027885501891 15.2172604881283 6.54570999767978 0 0
-159.635041575158 4.62856704668114 -9.77870686137805 0 0
131.157527173227 -11.5804875956755 9.37463458311741 0 0
198.949354364478 25.5700576364026 36.1644163249522 0 0
-197.607481777684 -37.9557621006901 6.94750712538479 0 0
181.057480930717 -31.4389877093163 -11.8191982401925 0 0
212.366008990018 39.4512602650037 27.7448654741668 0 0
181.943960700006 -22.6191608132203 -25.8971150527019 0 0
-203.651759887916 17.0402208405041 12.1565096841614 0 0
-85.0807677385202 -20.9221600839166 -13.7557897858838 0 0
206.195013535545 21.2942726599442 31.470559623257 0 0
32.4918872075812 4.57590168250751 -2.36855341106027 0 0
-226.721570070696 10.8149741448084 5.08394772799419 0 0
0.644620829245971 7.8907595815647 -11.0412840616169 0 0
202.749950460708 34.1110883349387 -3.75585934735007 0 0
207.328668006288 8.38323409508996 -17.5643753743544 0 0
-237.283923289531 26.4719464263518 -9.24768112507773 0 0
217.901204881818 37.4872845839831 8.55641817742243 0 0
-219.014713517142 26.289289115847 -24.9400099536753 0 0
25.7897316462188 -15.9234412042896 -7.98196565491208 0 0
-188.171220215699 -15.8273044204987 30.4314307465766 0 0
-50.2409693230353 6.18262341119307 -8.00888223439699 0 0
-93.9772248972087 5.89067159208967 -3.20048652358564 0 0
180.704947642071 15.9704513090037 19.6818219883182 0 0
-35.2436711411369 0.277036734100628 2.8474084601165 0 0
-158.15423286196 -24.8642943876472 2.97538370583294 0 0
-197.996829801629 29.3821087307064 -8.94302141069556 0 0
-213.937137049466 -6.16191770361059 -0.657480691410911 0 0
188.058661337882 -3.61536558014362 20.4452669176599 0 0
-71.6411055109287 -8.24973265086493 -23.5643321274986 0 0
-21.7910635125863 -16.8265766030807 -7.87070404559802 0 0
-138.743613510768 -16.1776596949393 -10.9538783149594 0 0
144.351055776363 4.79760697416344 -20.8833487355809 0 0
-176.365668817778 16.1735926729076 6.81753049443675 0 0
181.076065888255 11.0072643366767 17.9735898906967 0 0
-143.877597830399 -5.48089170596853 -12.6589496470844 0 0
-125.990727066303 2.45859443810928 -11.9453404769847 0 0
180.675554747385 33.7207683269628 28.5859766458412 0 0
-141.419022176261 5.89951333175226 8.59153018168522 0 0
-182.11684727457 -25.68232064501 -4.14776161054276 0 0
-156.863410010595 -7.24820900452648 -10.0938793507041 0 0
133.88907712508 -10.7511643068662 9.44089799372693 0 0
-189.214115350486 17.9941233873019 -8.60571814668098 0 0
-182.560151848283 18.3417391513307 -2.91596844518244 0 0
-221.770081031331 7.19783367010562 1.15931791991545 0 0
-205.707537045483 -34.6231511347773 6.91797064824805 0 0
88.6248374234446 -15.0751756530338 -18.0912955165881 0 0
138.048801048871 17.1334413061303 -1.88458228744731 0 0
83.0183780135742 -12.2047682937012 4.01636563844918 0 0
107.492227755582 -2.87209196253572 -23.5586467282197 0 0
-77.3293686668502 1.57784172866468 -20.0498084447727 0 0
-45.4513424205887 -7.73794970748252 4.37038130340857 0 0
174.684164732472 -24.9763383479179 26.1174858483653 0 0
77.1231996981981 13.5778835379241 -13.1106393088124 0 0
195.889699147164 43.0429929443908 14.7812807755656 0 0
-80.730655168844 5.11685249029622 -3.12056317411535 0 0
-79.6041840331636 -19.4550132062302 -3.27879064472375 0 0
52.5929248199829 -14.4827632428946 -20.7253350899236 0 0
-35.6957877265806 -2.12283261057388 4.94331024438533 0 0
-174.22336458509 0.269581883080559 21.3930853428121 0 0
182.839777345741 4.95030545405745 17.9172227083962 0 0
-41.563844117523 -13.9364618982618 -2.9238342449902 0 0
-224.780682281405 -19.3624882601414 15.2849874047455 0 0
-202.408702209875 -36.9412629219941 7.91652161008397 0 0
-42.9348543136105 -13.1730408462059 -24.4622067600516 0 0
-180.146951115727 4.85017786484076 15.810422137613 0 0
-223.725248154758 -20.8798047609423 8.32245584482284 0 0
-184.786095260494 5.14916306954244 14.6877255930501 0 0
113.309832473447 -18.1384806095336 -10.8931346719907 0 0
-101.783378491006 5.72635485701984 -9.71416775222746 0 0
158.156571205999 16.3453531686616 -16.1936040684057 0 0
172.591121672639 20.2244715527588 -16.9182553971481 0 0
-209.464393258373 32.08024043845 -23.6748684931464 0 0
-206.406948851707 -11.1295562402312 26.7024040980542 0 0
196.524647056666 4.74142451860098 -21.5442038003228 0 0
24.1156673757937 -6.24339745624426 3.46051943649434 0 0
138.340225725673 -0.668615214316529 7.9938254900451 0 0
195.984317639713 -31.939489004823 -10.2554940514471 0 0
-194.806013558804 -30.7805921305841 -3.41902136190824 0 0
171.31356976705 29.8671176429883 10.4035386086068 0 0
-186.129529522241 1.61753672670295 16.3841106362393 0 0
94.4116828131316 -9.30842585914966 6.83153428153567 0 0
42.7731660061227 7.89848693853809 -5.29692613047405 0 0
25.4833333397836 -2.13128837132394 -25.8327006168546 0 0
63.6419781804077 8.09180104217106 -3.33041699198762 0 0
-177.602262970639 -22.9320408793913 -4.84001180343756 0 0
-215.447363650357 0.224245583421022 -2.53126378396877 0 0
207.280190172348 -28.8567772541191 -13.4873950098423 0 0
97.7739734856066 -1.57513710989179 6.1535712042557 0 0
-197.677185839285 8.30534341547598 -13.2541382516769 0 0
-218.728626571861 44.9535657247911 -15.322508605668 0 0
-173.088720271546 -26.258317266149 -1.22989395631853 0 0
-6.53930200286687 -9.95161158148582 -1.26996253141164 0 0
24.4368314244429 9.88908318663593 -13.1569786319405 0 0
11.2329211417734 -2.78634723822449 -26.2574363834892 0 0
-187.8414868828 19.5154157590488 6.4107028768597 0 0
103.496873219385 12.9702277385088 -3.47768920333376 0 0
-212.290086821228 -31.5416067998238 10.6569523382623 0 0
-34.2843406239704 -6.84534664597277 3.95802526867797 0 0
-236.377566939209 28.0270186764442 -11.8996053139797 0 0
-230.154155646058 42.0389012394823 -11.2540294581535 0 0
-156.077508925032 -24.3198816720666 1.46962780839811 0 0
4.49007584466473 -7.78821820970109 1.23790735563366 0 0
-92.0990109238743 -16.8363965476258 5.30352042829007 0 0
-217.861941694507 -23.6082168762849 20.9515140621778 0 0
207.108569023006 -1.58599030331788 -8.2947720641581 0 0
204.606147733092 0.528326671035123 -12.8609098189194 0 0
-44.0080466171052 5.15808520878999 -6.20972846798356 0 0
200.814525405459 8.05653790509454 11.1353808813638 0 0
-135.195312146999 4.27908158784904 7.12015370243436 0 0
-211.326682540954 -1.51531789300813 5.53652952685015 0 0
188.721567993863 -37.4952869958388 2.71669669325614 0 0
-172.553455101296 -28.422477924657 6.65318248097599 0 0
100.024311461989 -17.7977916953568 -5.08972909885674 0 0
213.13232014309 12.4128040325817 -12.0881741771893 0 0
170.962804523297 3.08966242747227 12.8161229105104 0 0
0.666727590597779 -10.6555462439766 -2.13012784845708 0 0
-170.261430886023 13.3608578607372 0.813234699318396 0 0
-146.212374949295 -6.31543665121708 -12.1271323906327 0 0
-226.850049812196 8.97244226299731 -11.3953090577536 0 0
-127.149409570761 -7.43646431387109 -15.4083732178515 0 0
182.768582554802 -39.0298361825034 9.28565695745333 0 0
178.768835335521 20.6783846224301 -18.8455230790818 0 0
211.465052936373 -19.2767486755775 -8.89852832843812 0 0
-147.859344703175 -11.9994797200459 17.0021772533065 0 0
-79.4762228809734 -2.71300864977004 -22.6316525083135 0 0
-14.3554107450536 -16.9493760138503 -21.9709072472725 0 0
92.4653285210073 -7.52469659068791 7.05073488472935 0 0
110.281846115878 -16.5805044006664 -15.8604972089261 0 0
196.332161841998 -28.524965774079 -24.2279188011525 0 0
-142.076681869539 -11.9306827139084 -12.0277074969567 0 0
-206.034186048193 -19.5616675188404 27.771056725128 0 0
-112.184299099167 0.957998446653683 -15.2529708801177 0 0
-143.480434463354 -3.68768931372164 -12.7487847868411 0 0
-80.4767303399241 0.811759915401482 1.94691370603701 0 0
-120.695374529549 -21.0918376792428 6.81631246399721 0 0
-148.695650849103 11.5095566858261 12.6453944941264 0 0
-21.4139969243977 4.10734229268686 -23.3769523354594 0 0
54.1199461756479 -11.1123571025958 0.960801599805885 0 0
180.222077552445 38.9881920865248 1.08110535669282 0 0
-206.418286282054 25.597877317972 15.2081265083715 0 0
215.019797479421 15.7073658733498 -10.8687613303246 0 0
158.904108569628 20.6602392176435 -11.4682396946669 0 0
139.723523932993 0.836179013037871 -21.7892127544463 0 0
-2.38137824309384 -12.5800321538427 -4.1762120238905 0 0
-32.5850355490202 1.90190073996133 -24.7700066737421 0 0
211.971812668414 -13.2127811884352 2.22151417505539 0 0
184.731875796687 -23.5758536172894 38.362802854679 0 0
212.750402786887 -27.8195041832277 18.8391249916626 0 0
-179.933006266291 0.613416006700144 18.5651625900215 0 0
-21.539364923738 -2.02407870782936 5.78002809258574 0 0
-180.641483006445 -2.24724001358806 -11.6218686397635 0 0
183.129633398986 -25.4162236164797 -25.8222174850248 0 0
-162.63611870787 17.2829503864887 20.7811731703009 0 0
203.954467786637 3.958215562475 9.23086555821674 0 0
-187.77517602725 -5.61078997157704 23.3266016342179 0 0
158.555026308299 17.0636842122734 10.9625173228407 0 0
-22.9910645015981 2.07634807580314 0.336087826676985 0 0
169.002910785803 23.6028336279372 -12.1420501516979 0 0
-196.85523394679 -37.6512690495621 8.92427098661765 0 0
-161.086046505313 8.60180873727934 -4.40918302502486 0 0
-145.533002589727 -4.66340801730906 15.5979930245664 0 0
-227.163464113989 20.2365970427434 -20.9443368475628 0 0
207.388013348255 -36.8273007852143 16.2161315997067 0 0
199.09116445348 43.1893284786849 32.6156690848064 0 0
-212.026618177776 48.9169533254547 -8.13945115787325 0 0
38.1377678480145 -12.9680331377722 -23.0952634708703 0 0
-161.571074029327 -15.1383822956952 -8.37939794573607 0 0
178.599547274472 -21.4729884048662 34.8875430913376 0 0
-168.033214947941 -19.3154160034252 22.0891395936362 0 0
-87.4424645742195 -20.7854278581775 -4.62112350229877 0 0
-83.124106109554 6.45036901480469 -6.14851571007134 0 0
-156.436942139113 -18.6589121474694 -7.08586536751186 0 0
-147.521887431743 -16.1732080301536 17.8831042389873 0 0
203.339492155946 38.8879158504089 4.55383370825974 0 0
210.890395888423 -16.357335492375 -8.43936196251782 0 0
178.906962514028 -33.918995988626 -3.02525428473808 0 0
-184.357035297793 14.293226040209 -8.52014013463234 0 0
185.335727834189 42.3843453659863 4.84677153553531 0 0
187.253321852796 17.6412451339631 30.9574472650355 0 0
-145.639911942583 -0.892961889357896 -11.9895328101373 0 0
-214.48638641367 -17.5075859591676 -6.43670182711104 0 0
-67.9369984523255 -1.26471302881852 3.7278760652189 0 0
169.989812460634 -29.8322942710148 16.7251559669348 0 0
108.549205224227 -8.76625365009419 8.31993930079758 0 0
93.5824046859064 2.36996419449001 4.12993495074011 0 0
-24.0578213172634 -3.18504098404204 6.08391933778054 0 0
198.555586665759 29.3168613343423 -10.1029135734527 0 0
203.81622576636 33.1295001202793 35.6068001564161 0 0
-110.157087443103 -13.6640180941986 12.0075972136681 0 0
112.263312738189 -13.1415734086232 -20.5980496967601 0 0
71.3142570553436 11.665487429928 -6.53951626733378 0 0
190.939836273555 -26.1077645089742 39.3642600743422 0 0
-222.714575009908 13.7274918820296 8.96136296437349 0 0
161.151225452056 3.1880613802612 -20.7145879071102 0 0
-196.425682311799 1.64204116077652 -12.2873888860845 0 0
179.852252860711 13.2256241887163 -22.289650837117 0 0
-206.466770603731 -24.5277108336979 -3.66647616279 0 0
157.443435695702 1.31537205215678 -20.9361336447812 0 0
100.932282539359 4.01245372778663 3.62400190204536 0 0
38.5262954220956 10.8482604898251 -12.8644510038954 0 0
-209.197783677645 -6.19683841101793 -11.580886990684 0 0
164.104711163188 9.34631056569374 -20.201574756128 0 0
214.152006533921 10.6304805168286 -7.67343778293553 0 0
163.225310433674 -26.9566286962935 1.74061132558215 0 0
189.626307356336 24.3169605915834 34.9596975791886 0 0
184.294903139653 11.916644469234 19.469548782315 0 0
213.091420192274 21.1169253968033 -13.997395438673 0 0
185.774735608557 42.057788609453 22.4855102544289 0 0
90.1048116215205 14.525526868073 -9.59164952896051 0 0
153.179081066032 14.6582858363176 8.18152898754949 0 0
191.922576493289 -21.9724617069831 -26.4444552690749 0 0
-144.973861914879 -23.7233880215661 7.30634951963645 0 0
-223.000710166338 46.0221906635275 -6.81770092671343 0 0
-197.245760864923 -24.5283352042285 -7.71377248537232 0 0
-76.6976127392051 1.97526583329635 0.580544929467043 0 0
174.603296894607 28.2342022809835 15.5607701693933 0 0
-141.470404474681 4.05299694044314 13.1345961258117 0 0
-73.8852184475459 6.32482495115527 -9.53288317395779 0 0
94.8727043692777 9.9694181619521 -19.1842663681588 0 0
213.48745219844 9.16541391416778 -6.85254991842922 0 0
-175.496641685013 -14.8622963695523 26.4206798250045 0 0
190.320923849904 -40.3160280009167 9.13989826520898 0 0
205.114338503538 17.2893209656473 -20.2314399185606 0 0
-41.4375210299139 3.49371804168114 -3.31494338288439 0 0
195.108651255558 42.3339729967108 4.34645027427871 0 0
1.52161404857267 -8.26993087826951 0.708113626579369 0 0
192.194142744831 40.246193168516 0.0326095065582412 0 0
122.609561194821 7.23715290061882 -20.4800450743834 0 0
-225.568956379338 22.894906429788 16.4162441904706 0 0
-206.373061704182 -21.415869331238 -7.75941443430294 0 0
200.903426040172 28.2961564290748 36.2800592073769 0 0
-218.970355277249 4.34668966560471 -3.43141662845031 0 0
-70.4409956699131 4.04708862453994 -2.43015627966407 0 0
79.0359893525355 -7.50039586238092 6.01471262839131 0 0
-188.235676013904 0.947515957217124 -12.3667419175371 0 0
-167.959601679636 15.6764063887322 15.8396021632877 0 0
194.030362464219 -31.8151867087966 -11.958066350186 0 0
171.469237585756 -0.2002381683519 -20.0179334535511 0 0
-225.935543111615 21.2532001110787 15.7139110069504 0 0
82.5869068964973 -13.8206953367832 2.1603751940873 0 0
-210.103435783377 45.3705456627276 -15.1162898509247 0 0
28.2642837439571 -5.36117027520775 5.19842486972623 0 0
-207.399245828537 -3.9339944789311 8.11257176355558 0 0
-209.305795266177 -10.4868536458469 11.7785014414408 0 0
-210.482138514303 -32.6406614712009 1.62928808254547 0 0
205.921695986445 -17.8905681377407 30.8976742380962 0 0
130.804834267855 4.93855293032087 5.62396178379305 0 0
-135.440844085601 -21.1997750842144 -5.15499457847818 0 0
177.774949008592 -11.3057240545766 -23.0322805943722 0 0
61.8375859409199 -6.01220932574087 5.90312221636969 0 0
6.96738098383284 7.00100305410931 -7.82532022237198 0 0
178.450901805706 33.0414821949446 -5.7857181773077 0 0
112.772142670888 -12.6898388134881 7.59156884487723 0 0
-163.41667247973 -25.6709872659674 4.10591010708823 0 0
119.2068117412 -1.48387041138515 -22.9353853147671 0 0
-14.6943485485807 -13.9505678323088 -5.41786178762883 0 0
184.454480607455 42.2838662313279 20.5932657974 0 0
-180.506557075655 -23.0032683858786 -5.35580000910057 0 0
-186.436384737136 -36.8201449718102 10.4631895866987 0 0
198.577067898425 -0.37152030405716 10.107442908442 0 0
-164.841694448698 8.96591338939038 22.3925931995206 0 0
133.682769783351 0.704357701192598 -22.0876095730104 0 0
188.54225576491 -34.8832029185021 -3.75660388787046 0 0
-202.882047285701 34.3097470575587 -19.295757380897 0 0
163.746326077498 -26.5075470261556 -4.13936300531387 0 0
198.942483249742 30.6689719385126 -9.41468241230597 0 0
174.219543526362 -31.9976839148166 -2.46996142776262 0 0
172.169208731453 -31.614069777816 2.48989678057598 0 0
189.585314274471 -32.4227613021981 -11.2489906785698 0 0
160.732010387481 -6.35226268038868 -21.3993764848031 0 0
-129.808055618784 5.08838206477198 -8.447043355168 0 0
-227.552446925095 40.5925994523488 -15.7513520336871 0 0
-2.08040436235851 4.15740602210449 -3.05065901716532 0 0
-55.7843616024167 4.96042201553554 -5.39357592962297 0 0
215.742538934551 18.7080212692586 17.101143591788 0 0
86.6507066770267 3.19080618139884 -22.6533084176603 0 0
-65.5247900150697 -13.9244823804228 1.19397201504965 0 0
-235.636259127604 36.0900574017797 -9.13761235254886 0 0
190.90511787213 -31.228615362768 -14.7326917670364 0 0
-221.506663563752 9.0181746721662 -15.6350847949404 0 0
137.163467233515 -20.7341825655254 2.41101103868292 0 0
205.745535231307 -31.1826007303464 -6.59071060444044 0 0
-155.291893373696 5.10112672730607 21.6577604820731 0 0
-91.0028051001149 -0.757971374080193 4.27756847941703 0 0
-116.104525698226 -12.8691550053267 13.6137092372102 0 0
-16.982248829327 3.76306746894439 -23.9351256995983 0 0
199.171432291652 5.04955715617068 -20.3628271025482 0 0
-90.0112319544668 -9.77309651920103 9.23175267059687 0 0
-66.485880691817 -2.68285128424043 5.31568554617935 0 0
-55.4298237515371 -19.9396782456925 -9.18280862020099 0 0
165.191957926506 3.12283189788073 11.1274442865995 0 0
176.223757584798 -30.8743628208607 -9.88693020862486 0 0
197.094144059709 30.8423612889083 -9.42532042206392 0 0
-92.251649139157 -8.94043646935135 9.03293792631518 0 0
-213.594612014366 0.53647268948056 2.27700895378643 0 0
170.976817223955 -23.0652208516012 20.8486257543469 0 0
-72.1494476666557 -12.5379188036976 4.40824541805513 0 0
189.347772715953 -38.7314331696363 4.85189275045229 0 0
165.139438482162 -19.8106358957347 -20.5472147841015 0 0
211.411570983861 29.3128997145809 30.7109495008472 0 0
-157.281442469568 3.28110441841285 21.6706598574537 0 0
-173.054940696815 -19.2142210158804 24.2278447856596 0 0
-218.181135139368 21.3727186837208 17.6860613350262 0 0
162.170447902099 -20.8555719226553 -17.91038976702 0 0
-233.887416315232 14.0890043435054 -6.44748528131593 0 0
34.5787134554759 -17.389170663834 -15.2023744446697 0 0
-36.5001147466901 -4.35740189810251 5.20087567905339 0 0
155.97588941572 -24.3490481342552 -3.11336143977236 0 0
4.57039097748372 2.75055602308021 -0.231737493845356 0 0
160.109312736619 -15.795364925673 -21.7036262247552 0 0
173.113854946283 -7.70867253801193 17.6596664159338 0 0
212.910289670645 -15.9757056913595 5.29286835086106 0 0
185.819789338686 2.72441728881831 -21.8124089992103 0 0
-67.1366733855996 -12.4273001196983 3.42317964365119 0 0
-12.9340669284743 -1.14610019292219 5.65344967767555 0 0
174.968171474558 1.86512085954877 -20.2042344021096 0 0
-93.6471676916088 -19.9548084343244 -0.428928030081454 0 0
196.875753969363 32.8091711305294 -8.08699915189563 0 0
-167.050302656989 -11.6801810373333 23.3356522852254 0 0
131.466340655356 16.9758561677861 -5.33540574014769 0 0
-75.9735318197787 -14.0812379087815 -22.0025763059344 0 0
36.8493895106879 -16.9815118815505 -10.1299270820841 0 0
128.1847091344 -14.413460932088 -19.9684077775163 0 0
-47.4596304543372 -2.30302070167463 -25.486154559427 0 0
-71.8288176307673 -20.7167263438048 -7.94077424118327 0 0
-201.273283119917 -27.176040822984 -5.09538528873203 0 0
170.490893832122 -33.7240705052381 14.6639258868808 0 0
118.313905642962 13.048197573285 -1.65447097500628 0 0
181.342642490803 17.5156414439538 23.5728845359941 0 0
-212.207619851458 -9.96272780868551 -7.0957803302774 0 0
-149.512987240968 -18.220439218269 18.3881756026177 0 0
21.5601959652203 -17.9747902839812 -16.3056852898117 0 0
199.913909533362 11.1964450099109 -24.1750707022554 0 0
-238.244117772527 28.5454230451559 -2.95480770730313 0 0
206.490306599018 -13.1928068495726 27.2098832577432 0 0
-211.734045504439 -28.1743667638803 -3.04936006561173 0 0
207.810935958841 -31.4120192735198 -1.65625452589769 0 0
-203.389397078137 -15.4307900263174 16.209259863723 0 0
-57.1670581082664 -19.0551524519443 -7.00161448685967 0 0
61.8431246041439 -3.16642690873351 5.55197942876222 0 0
96.3009815922701 -9.13857704046421 -23.2825362263975 0 0
-94.041679955859 6.03139546292807 -9.44651464298084 0 0
68.8561662657489 -15.0905345240552 -2.92176025493981 0 0
-186.177653462338 -9.4645396860523 29.8425062715345 0 0
-217.786626275223 -14.8576430264322 26.6218486356912 0 0
115.996827949029 14.4257306256398 -15.0800856068711 0 0
-210.071566966345 49.1418503528654 -3.00957656317231 0 0
-150.32341993066 12.825013571343 12.1273876908647 0 0
-199.50399910749 -11.2812717969993 17.0160615176061 0 0
168.02940489115 -28.3034091295142 -4.46461367796188 0 0
107.77447707382 5.09586169540841 3.46696875091624 0 0
170.397362108999 24.9509053518981 -11.1030112257918 0 0
174.859826852894 22.9160090347537 15.9473166921986 0 0
-186.61126594477 -27.4019763997313 25.6654796234304 0 0
43.0319719821709 10.1258951936542 -8.91900408917527 0 0
16.0457850536481 -7.55618357387693 1.51604877366375 0 0
-206.610792346107 -12.1296674307385 17.6318547251336 0 0
183.307476223977 39.6700701060236 24.9551543647873 0 0
-225.284914383466 34.1397077739007 15.8706002362912 0 0
-168.86087768866 8.38092413760229 20.4914712000381 0 0
-106.845619643382 -12.6461925334107 12.2526645596462 0 0
-221.886492916158 27.9213660027734 18.3152940098405 0 0
204.945414932529 42.1495191245773 20.241550814082 0 0
-194.350483545715 0.949343468819849 -12.3315947046121 0 0
63.6392530158836 4.4545911128365 -0.0222715488097098 0 0
-226.588649564219 43.7780522292696 8.1182756318867 0 0
-203.148384042939 -31.7612193876512 18.7896168374467 0 0
117.374744532968 -17.4538570604506 -14.4857421073927 0 0
-119.616511185393 -21.6438591683545 4.71737308415712 0 0
-25.6464646963005 -19.2340426187245 -13.9934087759162 0 0
-78.8272470588241 -0.586123658903747 -21.9818266731645 0 0
194.310855064057 -8.87670629683683 28.6205828498331 0 0
212.066663886784 9.6835475486304 -11.7962350151854 0 0
-156.643533016216 -2.2992890971512 -10.8349027592178 0 0
-179.031107541482 15.91734218281 -3.30316696312093 0 0
-1.91981578009673 8.39613629768096 -14.7645323716769 0 0
-10.8671194302978 -16.4494013152083 -8.62334870642077 0 0
-222.715705463304 43.5688762464754 10.9082426689172 0 0
8.19114705929964 -0.32335773342465 4.77095011253584 0 0
118.231058911851 -16.1943965844124 5.58747092148926 0 0
-196.579487284394 -8.03170100176586 23.9242832390832 0 0
210.527346429564 -27.7977094074208 -8.66374256612147 0 0
172.842526269314 13.0142339992457 14.9525745768154 0 0
4.75428948610063 -3.96640696835467 6.38712371488996 0 0
-153.834617696914 8.98169339338813 21.742509637384 0 0
57.5824275166406 -6.4085548995129 -25.070722594447 0 0
-155.167849157028 -20.3918587459599 -5.28112779004445 0 0
117.686355115164 15.2656858628609 -13.6684719935268 0 0
-194.168153953882 -12.1751345568736 -12.6429048278928 0 0
208.364047340355 -3.7487578471263 4.93808235590098 0 0
-93.4382601312509 -7.47725163448715 8.13988628626285 0 0
213.281125735808 10.8971322883126 -10.4456340322665 0 0
-229.041091414861 38.3302870125077 11.2080849215133 0 0
198.124944541956 8.08638644046739 12.1037389348035 0 0
195.20296236056 -10.4734018756601 -22.3950908714554 0 0
-41.9306613870306 6.86384003459583 -14.1170295877871 0 0
170.864595884972 -23.0701494894557 -20.2597670618177 0 0
-173.546667436563 2.03489017325558 21.495417879202 0 0
20.669744691477 2.50359152169622 -24.6245930090125 0 0
206.345554341776 3.00839653886065 8.48158696974234 0 0
200.925023705527 32.0425872801947 -7.8503272870997 0 0
-195.127951666342 -3.94762186576731 15.8118195480037 0 0
-191.638881090801 -35.0061085044688 16.8377276389694 0 0
94.1548500443226 14.9009999361013 -11.4540028593689 0 0
-153.366240402592 -24.5140064401635 7.07377467394988 0 0
-174.423415987871 -29.4361024096222 10.7393842777548 0 0
151.111844571661 -5.66756833790662 10.3236636804379 0 0
166.369389188274 -23.8624945638039 -15.0035480043971 0 0
173.167753435871 -27.3052408626239 -14.9553870733125 0 0
-157.142013004915 3.04577740547239 -10.395142394524 0 0
-215.24623945978 15.5480598291869 -21.4357842062849 0 0
130.36964440036 -13.3511325555413 -20.8323045396319 0 0
192.738644358889 2.74118166603795 -21.8918862142323 0 0
-177.913071356479 -29.7694436392213 0.724835675223601 0 0
-170.491196749582 12.0149448230197 -1.45406570735184 0 0
179.559863977901 26.4449924112644 28.0702967317023 0 0
121.575396010666 -7.66464354385659 8.38735359214133 0 0
-219.392709554385 48.4149172797084 0.585993293705559 0 0
198.910782080032 -6.85897383158128 22.791082672625 0 0
-151.728360896374 5.55505472036976 -8.14045103976656 0 0
-79.8363144110712 -11.1902023619237 -22.405831003083 0 0
118.365809911463 7.82200482572733 2.77323400005731 0 0
168.861014928424 30.2327205182885 5.91449103624517 0 0
98.2027387987794 -15.3034352884552 -17.793042178755 0 0
-65.0965770832495 4.45642915170867 -3.7006097676839 0 0
179.518693645494 -38.9834223427588 12.2666092440329 0 0
179.998308470492 17.6043926233717 21.7297805009429 0 0
-183.257822552491 7.50044250875103 13.8017414546635 0 0
151.832981715015 8.25828780158633 -20.0114789737356 0 0
-218.62334269996 8.30617714198703 -16.0282587920001 0 0
207.471664453011 5.64908692066305 -14.6392465713212 0 0
186.872981348973 10.873802644173 19.0153978421071 0 0
-168.839413251347 6.4141910944098 -10.6080712777251 0 0
-222.778755473779 33.7869347787098 16.9686253963395 0 0
160.705606061746 19.8764741759803 -13.2636062728295 0 0
190.294619176986 43.5056311972339 12.7965200996104 0 0
-100.028234876182 2.31352211512542 -15.3108039479112 0 0
135.756059192649 7.21560536240506 -20.3183125647377 0 0
-204.604987191454 -35.4770479721227 4.55699249435887 0 0
-149.40755713454 8.08448387415882 -1.44258083143203 0 0
-109.928662946236 5.8224093604596 -1.06872981432228 0 0
-208.332890400588 -11.56375914827 16.4284320064853 0 0
