"x" "y" "z" "f" "a"
180.980035849058 15.0740814544082 15.7346535780432 0 0
-96.6942593464338 -13.2221920725609 12.2447170015534 0 0
-192.930925991362 44.9221821626243 -2.03629856341164 0 0
-137.048800691361 -23.140273766149 4.4370945190299 0 0
135.610826283608 -6.54692406201884 -5.46494507739994 0 0
116.679618954989 -2.26133760556749 -2.37359428676057 0 0
-183.559524288316 -20.2738544907044 6.77594968147036 0 0
93.1651001776384 -13.3780364951158 18.7849840706019 0 0
-83.2904185161427 -25.546693259827 2.54658990764129 0 0
-143.304470187922 8.16506349504333 2.41964212690328 0 0
163.953346624153 -11.0253130488076 -23.6992904962404 0 0
-124.962631124718 3.23947464147503 -17.3281119152489 0 0
-183.800262394208 -24.2487174971618 1.88765749745162 0 0
159.582251561267 15.5137537029543 -26.138555525941 0 0
-182.496133210939 6.87804327696439 5.50646280534612 0 0
1.20993144687366 -4.51195062417883 -3.06238518249492 0 0
103.463612914045 -2.37880917704807 24.008876840808 0 0
184.372424246148 -23.4307308771375 3.34036845882513 0 0
171.667757243802 4.94847331517363 -12.717792101149 0 0
-186.261792016142 -9.28822151455251 -22.4448551323726 0 0
-134.551082332445 -23.0966923874435 -17.699674520086 0 0
166.686545956719 15.2529498994309 17.6989723979149 0 0
-185.220960282976 11.441142772774 3.38341978664736 0 0
76.8020715191209 10.6485774035202 19.5753490859721 0 0
164.559143104646 -31.7781821634048 -23.6571597522491 0 0
105.929028710903 -0.903722747349472 -1.19492461318749 0 0
-69.8078379326935 1.57682165629459 11.1107826259348 0 0
-144.02137665984 -3.07078896508543 -25.2257711593243 0 0
157.92389410038 32.4120690988473 -18.0565560381381 0 0
153.420305531798 -11.3932511500439 -15.5416064589925 0 0
-182.350814765703 -26.9231243447667 -8.58797625976483 0 0
-197.603451356715 25.6208409679584 6.24666942837507 0 0
-183.868805888282 11.4230384567041 11.6962589289519 0 0
-181.342300607796 -8.04456197312791 -17.6350421269876 0 0
134.642008375464 -12.102331555851 21.1915663657073 0 0
78.6638740091703 -7.25925345053034 0.620857933781941 0 0
-94.6089449682906 -2.50319798065027 10.5941567326129 0 0
-169.737609651292 0.492788187950971 12.5426017272663 0 0
173.792821993459 -9.90491685528487 -19.1772074457399 0 0
-57.8883449246623 -24.4106090819904 4.74312764324429 0 0
-76.3896461694158 -25.060003357692 0.209778479322662 0 0
-188.446347056868 -12.682228248524 -7.21563585679063 0 0
-78.3272355179287 -5.44460451886459 14.5743488388527 0 0
121.911188749091 -14.7849421871452 17.9965213397662 0 0
-11.7304672953505 -16.5339911076975 18.8172391476573 0 0
-182.556727457592 9.55883892623431 11.4491963981212 0 0
-149.030930008642 -2.33852356167991 -23.1418639405822 0 0
39.8332525302979 -15.652045451409 10.9383869241004 0 0
-154.649325827956 1.34352203094166 -17.5391868696128 0 0
94.7254160331172 -11.5512148516467 20.9460617739033 0 0
-92.1953389480662 -1.54323601958489 10.3694999358377 0 0
47.807805928043 5.10161461391135 5.07065830992134 0 0
163.838360931957 -5.98181072138116 -17.6013986379264 0 0
-194.180820734997 19.756366387567 -2.98546791943873 0 0
158.47455221125 -10.0001881888728 -22.037031894058 0 0
182.968523936838 -10.2931608385368 -2.77048521704301 0 0
-181.319030496934 -19.1532418124991 -22.9789135152932 0 0
-151.585213902532 -25.4640292415106 5.40131292002747 0 0
183.64138015335 33.5764764149259 -14.2585273924333 0 0
158.141952506324 2.28289680329798 -14.8548250685203 0 0
52.366922381181 8.87350585600245 19.4349032888596 0 0
-52.2691755090528 0.556606332967683 2.17196884286148 0 0
174.249765754337 7.3423943786234 -28.3802365705435 0 0
150.828149478764 -27.4195599614823 1.15835761445548 0 0
-151.395052275221 -5.21292629464844 -24.7257128667757 0 0
150.213305922292 20.4026286712582 12.7369593140865 0 0
-44.7122333314872 -22.7086609853119 9.54636532526458 0 0
150.88966042818 -16.9204180452378 -13.9377137119165 0 0
135.687148277689 21.0723745513407 10.9176277751608 0 0
-187.628867892019 50.2159412501249 4.15551438460336 0 0
-191.037258636677 18.3988470613017 13.6472983913448 0 0
-166.438690497165 -28.6529251762056 3.58891776545758 0 0
153.507273476682 27.0661489031827 -13.1636093518933 0 0
-188.263974035425 -22.2374243673218 -0.692620485082611 0 0
-185.095215401812 16.0520362679123 -6.22483004994266 0 0
-39.0553039214047 -8.30634577653621 20.0838632815986 0 0
-70.7574298396448 -0.894666894676226 13.3498375755927 0 0
-176.408335693351 3.60272989443462 -9.74832936208025 0 0
181.124712259601 -24.4414204019701 -20.7870032268816 0 0
-88.6014868791586 0.451925565579459 -1.25115588585368 0 0
-175.53752365996 -16.4469974177485 -25.8546972033181 0 0
175.675926849422 -9.47888243960159 -19.9303029441727 0 0
158.796456608425 15.6830153527283 -21.9970892562064 0 0
-18.9441376780606 -4.64579399790335 -3.77166894207941 0 0
140.857359070462 13.376359855748 -6.64237994656683 0 0
22.9702305780821 -8.62799480349692 0.866419343608171 0 0
-169.665637701291 -8.75694544779233 13.736843690927 0 0
-146.740996338968 -16.9543073912441 6.40023281823938 0 0
184.751389393726 22.3038774421494 -32.6644913840181 0 0
190.230175546372 19.0198318187785 1.5446840640362 0 0
-159.565787989518 38.7851299890864 10.1135924625714 0 0
-0.614365638168556 -0.91444675811454 21.6083732794891 0 0
-57.8744645999113 -18.5414582032878 14.6418873057063 0 0
-173.880895010181 17.7227994813615 -11.7984674495552 0 0
-189.334805247459 -18.5896860569899 0.986640675065917 0 0
120.437787034595 -17.3051073813957 11.8032700752558 0 0
160.683534041242 37.9701997626837 -14.0827999413005 0 0
154.743288369612 -28.3937756265112 -17.5094585786723 0 0
-145.814580478802 -8.40748124362469 6.71872623402358 0 0
169.575968803628 -32.9830516754965 -23.7679750647844 0 0
-187.857801231362 46.7952346482393 -6.65895425050584 0 0
133.083193839139 7.7078064945649 -3.76400120775965 0 0
5.77144845422709 -4.17222391502915 -2.71848362634337 0 0
-186.302805154759 -11.0597133175644 -1.80910652726783 0 0
153.168474049817 -28.2179503478943 -14.5456088000869 0 0
170.272039022937 39.1867892186347 -9.33121981600318 0 0
81.1066828097632 -11.0238062723251 3.76698279279669 0 0
-169.471506656188 -17.7639648228825 -25.8453939284611 0 0
22.5913055462834 -5.31563143461437 -2.17757182781754 0 0
-13.649169584935 3.23293048260603 17.1772479015791 0 0
-7.74461339672034 -19.8045633297163 10.6482190657711 0 0
169.080966799455 4.92747391791489 16.3413267346561 0 0
-171.061342462691 51.7777620261537 2.39099587827785 0 0
181.503660363885 -18.3598628962548 -19.9325814558536 0 0
-120.04963035555 -14.8666223807521 8.73842117481236 0 0
154.796424511564 32.4241793885368 1.01628541513372 0 0
170.676390169607 -5.01896115261144 19.2309824498419 0 0
145.873040899046 -10.4241058895707 22.4507621988245 0 0
161.945454898717 38.3459139555726 -12.5725474809078 0 0
9.18653161151098 -2.42831724366936 -0.419012597408467 0 0
166.537639922254 7.8164204903602 17.1200090611782 0 0
83.2386033894973 -14.5182856516266 9.46402718196878 0 0
-141.890718026401 -0.812473366040082 -24.9800448539442 0 0
148.11543475464 -27.3482668445175 -2.00132392763386 0 0
5.61413105164436 6.76411367147716 13.105756543563 0 0
-90.8420292249219 2.35116435590148 6.02893965733611 0 0
-131.99451303434 -3.97095649504774 7.13820539860286 0 0
55.4038190027996 2.36003350691234 3.11966717224114 0 0
-185.547426130152 51.8214520922612 4.04763347981493 0 0
78.664775496189 -11.0478483483408 4.04427682259863 0 0
160.954005459479 -29.8882016595753 -20.0065551884619 0 0
-150.913157927311 10.4644591218696 5.93862772035407 0 0
-183.378598950938 -13.3721495465144 10.0660432213282 0 0
-161.883467880905 25.9046088511618 9.07877554891344 0 0
168.822212366721 22.1638489504044 14.7734511640667 0 0
-163.37106355779 28.9860221550028 14.4559071512755 0 0
-106.641110295837 0.790969578501513 7.33710350639091 0 0
144.146004666615 -19.2556852897853 -8.50539612915477 0 0
64.5234060844599 11.9737501100577 16.1631916495305 0 0
-159.509818061462 25.592400077615 2.03781800717125 0 0
-81.5976696299986 -18.2331725379674 12.4811776264535 0 0
134.544897917724 -15.7306965399737 -4.66550304829413 0 0
-55.6379356604562 2.58265406055728 5.15068963917651 0 0
-56.090815798549 -18.5958976493903 14.7004395095578 0 0
-126.566345881184 3.63678262465125 2.1645660574705 0 0
-79.0073255395274 -23.6404011760018 8.33327343867127 0 0
-5.99204282375059 -16.0700838218505 19.4060581906187 0 0
-91.7411705562116 -6.8560472113269 12.8346402315959 0 0
-122.212097677389 -20.4490598335636 -17.8318491040794 0 0
182.302123045471 1.51703514635902 -2.25568401964643 0 0
158.04633860532 7.60928848179622 -14.9757486009018 0 0
-160.329931944256 32.0380868996593 4.85126437426375 0 0
144.181808801002 5.98317340599563 17.994075077395 0 0
-186.265317419109 12.2840169907035 6.81965179345669 0 0
-114.803236949059 -24.8788366681681 -10.391256495059 0 0
-58.4491050330535 -0.609247132074238 0.559473480757736 0 0
174.536340915246 -17.9777743225553 -26.3327499028966 0 0
66.6956546229859 4.69682245134572 3.90406340591615 0 0
-121.204653214916 -1.22652301613757 -16.2474754380372 0 0
-60.0768177829272 0.608985918106968 1.86614221073904 0 0
-21.5987854001144 -20.8587472910375 12.5652773597395 0 0
-86.2123016114251 2.00545299351483 7.93164568727811 0 0
-154.255875633457 -13.6600122853489 7.31721341958545 0 0
-143.264295741314 11.0458720884367 -6.45620837409389 0 0
153.300513454538 -24.3456402547424 -19.5819323799508 0 0
71.9738131514614 9.41240322074996 20.404359434902 0 0
-191.190732349225 46.0887770203419 11.2038024647432 0 0
-120.826128758175 -8.10845717751686 -17.2669916356203 0 0
-181.724818407455 50.8773659613311 -2.97896269706108 0 0
178.437530207247 16.997995917112 -35.2052643112409 0 0
-71.1136778654592 -19.3059501859152 -7.22933644238139 0 0
81.7367214559365 -6.94318865021876 23.7978723167541 0 0
47.314647874608 -0.271492039469932 0.814682979701874 0 0
178.778848504036 33.0558365114955 -3.76325626262812 0 0
-186.738593061418 -16.1133162794466 -16.9028159240363 0 0
-140.525402378221 4.57399692154607 5.06847711552144 0 0
-167.312913235924 21.3374215112297 -9.05965291253818 0 0
154.956109261847 -21.9902462232436 -22.6300720385481 0 0
18.315567213107 4.69365337840611 19.7751598139619 0 0
-96.248799317983 -7.87509577678706 12.4362699302407 0 0
-169.73008403226 -28.990424402033 0.902527445816934 0 0
104.498361621915 17.4496244947049 9.38529721302385 0 0
159.576900701704 25.4984279723085 -27.2269171054136 0 0
-188.345125222375 -11.9553996771953 -16.1982832302357 0 0
-14.9873339646176 -11.8090934561298 -0.420435652726993 0 0
-104.413613761457 -13.7770552984226 -15.3237877553655 0 0
152.54578555042 -22.807065576814 -17.8064729924901 0 0
104.289153805365 -2.64488671491892 -1.33906533558438 0 0
-174.133147014259 34.2945859755196 24.4136039829898 0 0
-174.985265316295 -20.5218239327291 -24.0790765688755 0 0
-188.622350531361 47.5646225862479 -4.80750864314308 0 0
-178.109660551519 37.2428356878984 -15.8265137147574 0 0
169.418339366182 -7.78558485829784 21.5846094270437 0 0
-180.503859864779 -4.52650719575499 7.22141204198168 0 0
-86.8015311459601 -7.84580676575778 -10.1325752108338 0 0
132.568120328502 2.31290688440156 20.6132767637222 0 0
152.889292251703 31.213304571401 1.53207334941786 0 0
-126.85198911588 0.730969642240911 6.70086765661031 0 0
45.4161731533899 1.40600373360974 2.66894448440765 0 0
34.2929636613544 2.38150459403295 22.9574540438973 0 0
173.813822127158 -10.3353374267784 -21.1731388626513 0 0
151.287779640317 24.7677498192516 9.55493174118879 0 0
-166.508824235853 16.2188427722023 13.9094840142492 0 0
-74.5776665083739 2.3081413695549 9.10032619233717 0 0
-168.508200323302 -5.06588667778299 -15.4963408126205 0 0
-114.366430811127 2.60198002012742 -1.00334681136764 0 0
-152.954965964336 -27.2388961484268 4.96480556577647 0 0
175.826334143964 -4.08625833350563 15.3498525421755 0 0
-165.601392360404 43.126841784812 15.878704896718 0 0
-9.28898215099463 3.85766664637482 16.9132294891011 0 0
176.284949358583 -17.7282378159129 -25.2282856389496 0 0
-194.042205173201 44.8212383776792 6.29487374392496 0 0
-53.8039664009754 -19.6079893416288 13.9796204381468 0 0
-62.2959473229887 -16.9322451007008 15.3921957318023 0 0
141.296292658618 -17.4798305637486 16.4417869488761 0 0
133.020548145974 -15.7500623340531 17.7326685526825 0 0
172.106315554416 -13.7205695176823 -25.3041947139913 0 0
-131.799399716512 2.8221122433987 -27.0612381483116 0 0
172.556262421159 11.9566159214503 18.2035197266588 0 0
-42.3909920765615 -7.2183827461878 19.7287558020486 0 0
178.564903047468 32.4390392533132 -1.7740020481474 0 0
173.68477812248 35.4261527939272 -2.91229337304583 0 0
175.768327193395 -31.8222745691437 -7.62287100979888 0 0
177.509257812769 -9.36831091631962 -19.1396732683863 0 0
-147.375304027978 -1.2613816983187 -23.2320804632783 0 0
141.763757649223 12.3225628111723 16.7293914030582 0 0
50.7072034050074 10.8137651101336 14.2800628935074 0 0
165.382545430721 32.1379019309053 -30.1195915193453 0 0
-187.829230841953 19.7065732920473 -10.3839583397399 0 0
189.61166877387 29.3129327514434 -24.9930169821793 0 0
93.764859573985 14.4888544152067 16.3464458189562 0 0
-180.43511410313 4.24752221121847 10.9375072213704 0 0
182.815713494624 17.1171757614816 14.0657242206174 0 0
161.828695495705 -10.2936336024116 -22.2347224147168 0 0
135.72857298049 -8.43801464852843 22.3577757883132 0 0
153.527906587193 6.04618154508705 -11.1419233181488 0 0
30.1277119717251 -7.70586712717016 0.585630130791963 0 0
-184.854374788369 -24.5350512217499 0.734322200848878 0 0
156.727970204567 -28.8711858533011 3.57013568495301 0 0
171.27767521928 36.6152031555205 -20.8660449573346 0 0
11.0917097444696 -15.6804462777402 19.3285877587344 0 0
183.145085871807 30.8023100430553 -2.31397054984428 0 0
-59.9987474063661 -12.3006538390342 17.5581491441623 0 0
157.607656373237 26.6173554309502 -19.5378388254147 0 0
-13.9828580778144 5.41292981229741 10.9135534211584 0 0
-186.982950218114 39.268696128752 -12.6142090792101 0 0
-169.484962936493 9.88270157148123 -11.2220377383002 0 0
-190.17398825842 -17.1880713621355 -12.2737940073089 0 0
110.469836219989 0.521974968244589 -1.41468983354134 0 0
-117.266407369414 -18.9241335995043 7.67264176600928 0 0
75.662402659111 12.7925189533523 16.9998920335067 0 0
-170.671581720183 -23.1551919389441 9.70795526863298 0 0
-156.284099228825 -5.40606300161786 -22.4774554682657 0 0
45.6381934194572 -11.4605087806504 21.8706233989826 0 0
-98.0819847574501 -25.428065003555 2.76392532420643 0 0
53.3999875852686 -11.3522063014022 21.7801900073228 0 0
131.889762000877 7.68091219537534 19.3485583655911 0 0
135.455315120489 22.918216572873 7.25051521078085 0 0
163.43197570017 -31.1044698166654 -22.0915932026581 0 0
-159.89235000306 41.5607486411193 5.68466521037255 0 0
158.343665951946 9.96499094492238 -15.5464971693459 0 0
139.377809595845 20.175146721402 -4.64746854257798 0 0
-36.3205681886634 -8.30626800148767 20.2799887970725 0 0
-183.402346216419 -7.2935067937366 -16.013008474283 0 0
-188.046839884122 -11.6725221862274 -11.4098526733397 0 0
102.08400133384 -12.4034367057296 1.86105654718498 0 0
-84.0138549522035 -3.58897835168729 12.8616013255415 0 0
-98.1961705233322 -2.52967930038157 10.0634003719803 0 0
-86.333584477873 -17.1831399377533 -10.8911130629624 0 0
163.661702034443 -27.450471730269 -27.1061713143277 0 0
-167.290789197684 -33.2049929810424 -8.84952573332864 0 0
165.157212084449 -19.1006354680713 24.3775370289501 0 0
-70.2742282001746 -20.3477615953342 12.0469705604262 0 0
-66.1020633671407 -14.6380884791082 16.1878215986911 0 0
-172.276805376913 46.7127492061753 17.0484658972647 0 0
-134.840321305557 5.81621428561522 -2.41475918900683 0 0
175.882181510942 -10.2070855795155 -21.5965559636396 0 0
181.546766990422 32.3456447203552 -5.14176435165625 0 0
155.138343957269 -29.7935375959517 0.739567361261518 0 0
-87.4704326328082 -25.2369544830166 -3.80627212795441 0 0
142.282651277617 8.77601782615386 17.8506960338449 0 0
-142.538431856152 -20.6328380273596 -22.8179164584334 0 0
99.0286926922662 -1.16477477438467 -0.679181511552015 0 0
-74.7170300799027 -9.31725158628637 15.9157371106925 0 0
112.593746955218 13.3252878213359 2.23573540944032 0 0
182.467093522221 -19.5523492375807 -18.1622186484814 0 0
168.751440636806 34.99419757492 -25.2478573124463 0 0
108.145453016039 -14.0881679359113 18.0191975895644 0 0
151.833318103507 7.60035596216785 -10.9980146621762 0 0
-64.2632666286695 -20.3178277823184 -4.56821745294073 0 0
-7.75220864625927 4.86992140737518 15.6554934343458 0 0
-159.23145291851 -29.1887043823548 6.04505395158241 0 0
166.806053782906 -18.9785987101193 24.9382313778292 0 0
165.576431800078 32.3701697972385 -28.3218709670666 0 0
-81.7308911710303 -24.9822735786362 -2.17106700301888 0 0
42.1177351994453 9.54016254081476 11.0007687883748 0 0
-133.187264363282 -23.9860907727725 -15.2463641157376 0 0
167.993467847712 11.3990777350031 -21.417938847434 0 0
186.533046941831 20.721570752846 10.8842796520202 0 0
129.003066457186 -18.8299026881296 8.11188793910338 0 0
128.652392260227 4.54475083793246 -3.25326921170824 0 0
183.719450762204 -30.5433369392894 -10.245873744187 0 0
142.270411648379 0.0729462032581167 -6.67718277063448 0 0
-134.959876268796 6.06897591928393 -3.95033851948591 0 0
177.265224539573 35.573239536254 -16.397242662778 0 0
-120.77342623815 1.10405943094313 -9.8292636518268 0 0
37.339807485929 -1.36277433264552 0.00521296988468643 0 0
175.069493353468 5.38220975072085 14.4530638336068 0 0
133.389574829986 9.54696755777316 -3.61724060349302 0 0
-180.786885326072 29.1995633640063 -16.1700272447503 0 0
71.9590772203686 9.57376224794994 6.24617762280656 0 0
113.048847008817 15.9845208856764 3.85943438504075 0 0
-134.49063638924 8.92307147255321 -13.9691024824569 0 0
94.2516307089396 6.14365909076515 2.36846168613529 0 0
-77.8609717930116 -2.87842143568581 13.5488221967028 0 0
-160.850453367268 36.6512871765642 -3.57741840065208 0 0
-23.7603783027156 -2.22999981809959 -0.191483523867152 0 0
-173.699466533261 -13.2067269219139 13.578768576155 0 0
74.3771744858631 5.88852695416715 22.7432638338711 0 0
191.030362028491 25.7111613901149 1.08652464480531 0 0
-99.06716092575 -12.8916687421109 11.8811923995477 0 0
-127.852316889971 -6.44162465437142 7.52120036937369 0 0
-118.227089464546 -25.0316649767063 2.52010537447949 0 0
184.357978636968 -20.3226856807581 1.76029774471712 0 0
-187.945574212875 -13.0347795894159 -2.22378275693035 0 0
-170.670364619002 17.5931547852196 -10.805134362595 0 0
88.8960796445142 7.89237213823115 3.66174159599793 0 0
-161.833525403188 -33.8818938687658 -10.9477658615296 0 0
-174.427670875397 -17.2736968423407 -25.7226971055771 0 0
-131.001670171883 -27.2717980785455 -6.51366197156565 0 0
164.526407189091 -34.278167888191 -6.2328928748135 0 0
176.271854593393 33.098032384225 -0.164831705418361 0 0
81.0989937318034 3.63357078355105 23.7526275032695 0 0
-174.013278449499 -6.61994544552539 -10.4691691273653 0 0
-156.737996726569 -31.2055945854554 -16.337971080231 0 0
161.764877315286 13.97273686089 -29.1059414922744 0 0
185.146316063078 8.92322615965688 -14.1836250050859 0 0
187.607956183118 21.1011190917398 8.5261576183445 0 0
165.958152729432 -12.9570924327238 -26.1174946139208 0 0
-182.44134151057 -26.7307567866873 -3.74187253028189 0 0
-150.165967662675 -30.0758165725485 -6.57249744270932 0 0
-167.20354714173 -1.81102102482727 -14.2559736203351 0 0
125.061175511692 2.636547851494 -2.89528126002858 0 0
153.571855196193 -19.3557710859838 20.6001226330533 0 0
149.097727328371 -24.8338217657336 4.84006267731624 0 0
143.137110983641 10.9850523395593 -7.31266442718885 0 0
154.02403605944 9.68797721554922 -13.7633050765273 0 0
-21.4892298628882 -1.4010112999868 19.9477618855216 0 0
187.839082780287 16.8569479367889 -27.6965042720643 0 0
155.557044951561 18.89236003202 -16.1899661734293 0 0
-161.316947667216 21.1156105944296 8.38169930329429 0 0
-189.599282080992 39.3447060613793 19.149242784853 0 0
-153.859947240663 -3.89485771556792 -22.1424572862768 0 0
168.73520592298 16.9039296049152 -35.4432527760552 0 0
176.50398123908 35.269156119322 -21.3751646585986 0 0
-118.551552770572 -22.0361959754309 -14.1256829305255 0 0
176.678718154997 22.4219773242489 -36.6326400164245 0 0
157.500249871222 -2.19534256881841 20.5980331684168 0 0
162.135288465058 1.46819568218587 -15.9959704220136 0 0
148.003508739276 26.023081179707 7.1101863115982 0 0
-181.32565957836 43.925269279673 -12.3019788911379 0 0
-151.587769055614 -29.385030240861 0.421103160700284 0 0
156.079356496671 15.0741093012067 -15.2547398599162 0 0
151.681836166099 -22.8239025412318 -15.076413893213 0 0
107.71627692496 7.61375316846885 21.116189398718 0 0
-160.106804395027 37.5869923549499 12.1996211714244 0 0
-103.500948136223 2.60390466088036 2.83813813785916 0 0
-87.7507616890069 -21.1896537511549 9.8892663316366 0 0
174.635893124269 28.9895368698959 7.19278378854095 0 0
-172.426710849383 -4.4595318412953 13.6624358821632 0 0
-156.28136048334 18.3626618620479 3.84574377513774 0 0
-161.891289554777 12.1998374252795 10.4798285806931 0 0
158.004667479267 -24.0608393985981 15.6727004164773 0 0
-136.545141227185 8.3210366435988 -11.9505196713536 0 0
-2.63734693003633 6.08883850815066 10.8318831306633 0 0
167.525976286755 -35.503471397684 -8.67847761423112 0 0
185.785193274923 32.4199010103688 -19.6354466844491 0 0
-127.858557250905 -27.1140975782953 -2.14253466982513 0 0
-165.088297682756 -34.7642024783764 -6.94957747632279 0 0
40.5028832305934 4.45627459883041 4.79296226159408 0 0
-172.135296368389 -17.9471522725291 -25.6297915819586 0 0
-57.3554864361888 2.65724088726947 11.2182511851096 0 0
18.0985868122731 -17.9383998887742 12.4693326322224 0 0
54.7317916239736 -9.24587141149606 2.86611362246461 0 0
22.9014767838833 -17.1881535178677 15.7237470468237 0 0
-17.3196775294271 -13.6002322918608 0.528477256896132 0 0
-115.502136248421 -21.006478236001 -14.5089648451642 0 0
-182.466652642653 10.8605298086699 12.7573243164791 0 0
174.874360775081 -14.0283294743298 -24.5438406225023 0 0
171.261397129642 31.965268301527 -35.9964809874725 0 0
151.395116427811 23.6501169771806 -12.1588820640408 0 0
186.029591455659 16.045701778698 10.5934086440844 0 0
-143.183312065801 -25.9470643883196 -15.390612792156 0 0
150.220760740579 1.1874300637447 18.6044279412177 0 0
61.0514091270616 -12.3747796084298 6.27767151111019 0 0
-54.8814298398658 -24.1909350879374 6.45434846157407 0 0
167.74349816645 -20.182922490974 22.9922316559367 0 0
90.5582033443263 -14.4382256279693 7.92370518840672 0 0
12.866592738997 6.60306416819871 9.55742585419632 0 0
-93.1645381895189 -2.54773997478777 10.8954119119325 0 0
-9.85234700690977 -19.4977504483363 14.9273492402388 0 0
158.878485952636 20.5179803351404 -22.7828169656707 0 0
125.913190669308 18.6130355702016 13.4345333531646 0 0
-73.5759397498473 -4.05730991677588 15.0071492553685 0 0
180.54200847574 -12.0907668581923 -17.8996002007159 0 0
-175.974152921272 12.8222910993797 -10.9413515693491 0 0
-192.421901822706 16.5235995992756 9.60559078349899 0 0
-67.3153601754535 3.02710081311708 8.29996223926832 0 0
-128.625132556851 7.37260869607164 -23.0366645721714 0 0
181.454062673999 24.0414740117335 -34.8806523987786 0 0
167.272723924489 39.1225367215456 -9.66451384564321 0 0
-111.699975056869 -8.23945756972218 10.2657331305179 0 0
177.532878324357 -23.4981486495199 14.5113442966484 0 0
-134.666574009073 4.05691761845665 3.48003997365405 0 0
53.7052444227194 1.71995856644143 24.122291136422 0 0
148.790618191339 -11.6061334025571 22.8647300687337 0 0
-41.7917786760268 -11.6159439001027 -6.0571055212202 0 0
163.304916306589 6.9768643507553 16.6079070253039 0 0
-61.8110647423608 -10.6158896384961 -8.69965977223012 0 0
86.5478431747177 15.4277958125523 12.7728787527099 0 0
-188.515630691023 -11.2175041828412 -14.6595422866087 0 0
183.68234056957 16.7241673393917 13.3679166065167 0 0
-174.018605023072 -31.5691127931744 -2.60872063341172 0 0
148.449186256242 8.46241808053867 17.4339610013735 0 0
0.168282554884637 -19.2017763709682 12.4025013674387 0 3
-138.849702760979 -10.7397478410063 6.87246199736281 0 0
152.067739547179 3.88076788099689 -10.5850036116102 0 0
157.429300691458 -30.2920597073357 -15.4729691407399 0 0
169.175881446881 -19.6135725672451 24.0497649774485 0 0
191.129374948413 20.8665251482757 -23.2163907001273 0 0
95.7877612482702 3.77206040300973 23.2806910130371 0 0
-40.0832996394082 -5.63668922629937 -4.41350036110343 0 0
-197.576770922626 31.2966742399566 9.84123242850942 0 0
192.284319644229 17.9065374313515 -17.5694858293841 0 0
-66.5823992542412 -5.63784207506082 -5.72460816796559 0 0
181.208937128536 -9.65117808484633 -12.4828543862539 0 0
79.4276677060669 10.5811558088511 5.9697659603417 0 0
187.343206645583 17.2877107069662 8.54930465960891 0 0
-170.389658891936 -13.4766693926012 12.2408102015693 0 0
169.778444607352 20.8298740063821 15.6346163723864 0 0
118.056237339283 15.3758598675035 16.133723178796 0 0
-102.269220389797 1.47760647384632 -1.61239483650547 0 0
98.356528094495 11.8325220210711 18.8829140449065 0 0
189.608716295494 17.7455085998184 -25.3172852041321 0 0
67.0600811801511 12.7407548442064 11.8727770410038 0 0
-36.8996666129152 -17.2695282629081 -0.491193742829632 0 0
-172.610271672466 21.2879441431911 21.4197925194087 0 0
153.074120627567 -0.117613623493838 -11.2037704890491 0 0
28.6897572161841 -16.0294392351746 9.69259013349876 0 0
192.316758596096 28.7936929546741 -20.113756124603 0 0
15.3181771042587 -18.3156372340024 13.4842245839499 0 0
20.6325646481128 -1.43566937806089 0.448531520872366 0 0
-175.291062937254 17.855255877286 19.8683213251767 0 0
124.288686434307 -16.2423191271607 0.113068561351323 0 0
-149.163315415877 -28.3299244752878 -13.922506296479 0 0
57.1174052217633 -8.09812414173727 1.8603599867634 0 0
31.8606607737725 -8.10080467805113 23.7933995865042 0 0
-120.371679742734 3.31099931203747 -0.704205107291687 0 0
-76.0519002336455 -13.7426365873216 -11.1590726202595 0 0
178.096759319384 10.7231358206193 -31.2709124741937 0 0
175.877454922568 -32.1045991827857 -11.9289533051191 0 0
165.25761336008 25.0209134226008 12.7994830260084 0 0
-151.397151828439 -22.0965147053635 6.20224959089378 0 0
-182.663566074052 -5.82881783100246 4.69964719460265 0 0
188.69666243102 25.6210387603082 -28.1275246021175 0 0
180.275660516522 9.94999397519891 -19.44842596257 0 0
-30.6858328707781 -12.3472341253982 -3.14834222114904 0 0
42.6193905246795 0.175685115512747 24.1274031993442 0 0
-193.714113902429 45.0682266726015 0.631210973509018 0 0
134.018549750344 0.343751352858528 20.9643010039445 0 0
-78.1443025463655 -24.4681150820307 6.93249017086565 0 0
90.788821980408 13.4177832490242 6.4298775518975 0 0
-123.109712853202 -5.85903968203793 8.16325041685089 0 0
183.609705178955 33.334422601544 -17.3147473022758 0 0
176.252834227618 -24.4644001259279 12.534304711467 0 0
1.43500829457646 -10.6946746532455 22.4025990791608 0 0
151.01164557933 -26.4461629047251 3.46945835721266 0 0
150.19233876836 11.8789296830355 -11.1259081608961 0 0
-136.886872462644 -15.9483846502401 6.86199014114399 0 0
191.332835375752 15.1548505901476 -16.4550011803127 0 0
156.590983247598 -0.35958432792094 -13.9313258097471 0 0
181.801936899062 24.5512505006327 9.86944485821631 0 0
-41.667043676133 -15.0238106416536 -3.67300493455782 0 0
178.772918287969 34.9743889208149 -18.1144208496462 0 0
168.220809050368 25.3901438544906 12.4077490368721 0 0
-192.960231865291 41.6488667959721 13.8952382836693 0 0
64.1484506934824 -11.3187641706591 21.6733002736985 0 0
-55.9675249529123 -19.906399338678 -2.79465461327089 0 0
-88.5568584242386 -11.8963443807419 -13.9751941269413 0 0
176.239632713145 -15.4566190154995 21.7807053266356 0 0
-181.495653466481 9.03337227722113 -4.77319024909681 0 0
58.0452596619645 -4.41291337799952 -0.596164624606175 0 0
-186.313453842997 48.4498751932273 13.0340598318647 0 0
174.76312813509 10.3354923097022 -19.0123266185992 0 0
-182.193964133866 6.74868461659411 7.56520399889169 0 0
184.052722611629 -15.9534607133839 -7.43048158150591 0 0
-124.713361262361 -14.2188281635886 -18.9268327006443 0 0
-123.771938506163 3.64381966952187 -0.624913527270578 0 0
-37.0887985130644 -15.4314191457677 -2.18371612034663 0 0
1.02526045454371 -18.9485325991635 14.8769199686617 0 0
152.15945925438 9.89199665827159 16.9567712036998 0 0
-179.81928163977 -8.60917888833042 -8.80918289905161 0 0
-161.963604344717 0.354345000159259 -15.6286037197652 0 0
181.573439316751 -6.80340078694347 6.36833259786249 0 0
11.5539669716168 2.33866872144096 20.8570868432114 0 0
-186.21348222153 -24.6333703208299 -2.00442108727177 0 0
181.579183806498 -12.8587135159232 12.8812291671266 0 0
20.3148210560067 -17.6193818210678 15.1206397559409 0 0
-168.422451262041 -23.495608211836 -22.8811139328692 0 0
189.95146790849 24.7514756570952 -26.088354220408 0 0
-122.41495244913 -27.2562786847605 -3.02208406605854 0 0
-175.780611892293 -28.875072878094 -13.9470643222728 0 0
190.226683812 32.1099692489412 -21.9075433243402 0 0
160.005600940067 25.5547769557417 -23.6443684755805 0 0
-187.795543399157 -12.8589539329238 2.13566197672609 0 0
-180.568774799693 52.0760221149825 5.46807890470045 0 0
92.0113716013799 -1.87379593146572 24.4544145090163 0 0
97.5378108836179 7.63098234552455 2.54569066842775 0 0
-83.7748968237827 -0.714405126407983 -2.07906125044084 0 0
182.987317665328 -32.2311893962121 -7.99612024972758 0 0
-171.602170971491 -9.19620207253353 -23.6810983993822 0 0
126.95773864463 -10.1245799688862 22.0401520093126 0 0
-185.196340078657 -9.98588951880935 -2.96349022973657 0 0
-87.0841090147507 -11.7716486689069 -13.1891775891375 0 0
193.345453984147 19.0917518342409 -11.0593572718782 0 0
160.780086639211 -1.96122415067939 -15.9714031336256 0 0
172.614803540672 -32.2964491043458 -3.63696243508863 0 0
36.5093992319802 -14.9060282408279 18.8273066785888 0 0
-174.398892929859 15.4648334942287 -11.3962842672849 0 0
-73.2955763150973 -8.94220033779354 -9.16601792800985 0 0
3.78441369598005 -0.946151172044959 1.06182725683873 0 0
129.336954971437 -0.787449072159718 21.9311865039007 0 0
101.810459514412 17.2611064130384 10.7473177621669 0 0
-173.425083548034 -25.3612292123779 -19.8448672856301 0 0
-190.127457294394 14.6924566629513 5.1285071006313 0 0
121.859314008735 -7.29598086973732 22.8860086626768 0 0
-160.20135725312 41.1329098620963 8.36975184413062 0 0
-117.534709797817 3.25779967489107 1.71431305045808 0 0
-127.410915962406 -9.74385830867643 -19.5553978193755 0 0
168.916167476568 33.8972206205977 2.1697423767772 0 0
152.668177028007 27.323296503994 7.52444528513879 0 0
-190.397682707587 15.0797111632958 2.50655440615564 0 0
-132.504562316343 -1.79999464996771 -25.4108339564251 0 0
122.509545399586 18.6167815905154 13.2089317420317 0 0
123.075263538688 -17.8452274276056 10.4629003176927 0 0
-43.2754201380122 -11.4948794329851 19.3552715623496 0 0
164.839145846602 -11.0090727101979 -22.0812256729924 0 0
-191.716916016196 38.5491690906065 -9.43501249114831 0 0
-33.0502019874069 -11.7307205290385 -4.02811658476088 0 0
183.493848260156 -14.7028572284081 -9.16454047154306 0 0
-166.687769081533 2.82493984294184 12.0475820718773 0 0
73.6643881943912 -14.2043087167451 17.8824261194212 0 0
-168.717330368332 -29.9391089091664 -14.6741993870778 0 0
-85.3393643290107 -23.4452154750601 7.57853192681985 0 0
151.788344034642 -22.3125145201605 14.5474544035201 0 0
160.371407271465 17.6132987262477 15.987435621769 0 0
-86.8071304522714 -13.3357985897828 13.7411771095151 0 0
-38.8724339849061 -22.3089181881939 7.48410807490357 0 0
-142.170017188926 10.5142816092536 -14.2571294627525 0 0
-187.743987426253 -12.601486443409 -3.88762156388503 0 0
-72.9621207982787 -21.2600871552757 -5.82196108456181 0 0
127.807637004576 1.32142947488655 21.5962305122923 0 0
186.67182965193 30.1415055429274 -3.68105202771318 0 0
150.18612632063 6.69450336977246 17.4068911441949 0 0
-156.484860942247 -15.3772683735646 -27.6732607740927 0 0
150.16880083413 -28.1762197979721 -0.966306126225344 0 0
155.322342925695 9.34777200467134 -14.4459800408931 0 0
172.784127126342 12.9383610278975 18.363615619146 0 0
-144.612833212761 0.622058103421334 -23.9204100476253 0 0
117.526907338996 -12.5349540306911 20.4214254535893 0 0
182.217380977523 22.9560672678872 11.2119339945007 0 0
-110.218485783449 -24.8317861772357 3.13166273661049 0 0
153.894012047242 -10.4909537844902 23.9457938512781 0 0
180.860400104377 34.4537796891921 -18.9401134283115 0 0
-108.084892341426 2.0057070152417 -1.37015421248768 0 0
136.928505529654 -3.3053678528362 21.6569358471659 0 0
-187.872293219641 14.0159327128523 8.33816591008138 0 0
117.684339898513 -8.95281642749442 22.507804982486 0 0
-188.533440332846 14.10442444679 3.21820520985524 0 0
-135.370355764365 5.87215705672399 -1.15999673961027 0 0
12.0422292511283 -10.7771357055448 22.481942653028 0 0
164.430252420965 -31.9033060671074 -17.2924049620759 0 0
102.716402104239 -10.8029727131962 0.348146256658569 0 0
153.026556945221 32.3718200957443 -4.65423076826963 0 0
-188.953382905725 15.3850399108651 1.07823655388548 0 0
-168.556118557225 49.8245078782852 7.80304555125367 0 0
-124.401262235329 -24.3235612233539 -12.4274124409919 0 0
151.099462694057 6.52372085482942 -10.4218995175081 0 0
102.92530422466 16.5784931033919 7.54102061369104 0 0
143.817594051739 26.0346252077867 -1.68296947761223 0 0
146.747758802283 -8.96689017511303 -9.31461434018622 0 0
-41.2010972343197 -14.412056167905 18.5995824931335 0 0
187.561896021804 29.3249650743758 -26.1968226280677 0 0
-62.3092993191931 -19.8286515193658 13.1946424686397 0 0
9.65306117245338 -3.36022172308477 23.3547979325848 0 0
-92.627879783144 -22.8733142848272 -8.58455261203128 0 0
186.323345640457 6.89908408357144 -4.8293179175652 0 0
-179.905911041549 42.846345454204 -13.2733394777097 0 0
182.367028793884 33.1767617964807 -25.6925925411431 0 0
184.152421636987 8.768015891472 -12.6543080841448 0 0
5.79605225674981 -0.656325377564341 1.28042189632441 0 0
-165.208206890678 42.1487730414716 -8.63632646203575 0 0
-94.1017006348634 -5.26342222178669 12.0803001996345 0 0
183.483828239979 -13.7031562113668 6.67636761396449 0 0
147.402767541666 28.400104996742 0.771074551665841 0 0
-175.600081799208 50.0073901023599 12.9934257710134 0 0
169.312153424738 -31.994269977905 -0.612060733238269 0 0
150.890014983548 -24.1603650872953 -12.9575247547844 0 0
123.182808649839 -14.7035633666985 -1.49664970253969 0 0
-43.8434562882166 -6.42491017524941 -5.57038265115447 0 0
-166.439029814379 18.1198244013455 15.0257855042279 0 0
-114.394044380423 -17.6083147577911 -17.0637932806549 0 0
-102.551244652268 2.44345470188026 4.8181994148949 0 0
-165.327699235533 22.0526499806436 -7.97900234570168 0 0
184.881542361919 5.10896953032057 -1.78574616946895 0 0
-77.2816285411191 0.715359496866068 0.712940053744456 0 0
-17.7809810562707 -20.3759627731212 13.7846439531998 0 0
-65.3638378934701 -9.30378376637829 -8.60052717190958 0 0
109.881977327059 0.894632021746889 23.3147458911089 0 0
164.397968452428 -2.82814403569691 -15.8360493907522 0 0
-185.337054551523 29.2539392391243 -14.9504930334646 0 0
161.549023034365 4.12566368036687 -16.3075800350737 0 0
-101.571518109101 -9.13094765860875 -13.3790922251806 0 0
126.754314345899 -17.6310181833943 1.61807117146905 0 0
-60.6769804752436 -21.0616493522659 12.2890316116167 0 0
163.377068341256 -10.2082349902183 -21.3481778399257 0 0
-192.555131185391 42.8270028691837 -5.55237020697634 0 0
160.966391974622 -6.96924820601871 -18.1609038574906 0 0
27.297684602597 7.22774653442697 8.80221493983168 0 0
176.871486154666 11.8914535209419 -32.9772433434878 0 0
-186.817714495049 -14.8535060215495 -18.1830238587466 0 0
-174.313407470279 51.6318909232431 1.62384625073246 0 0
-110.745057756962 -0.646595812194061 -8.2521637683293 0 0
-139.19302359962 -11.0254022063962 -23.5417008403094 0 0
67.9828980198575 -14.5545371143388 17.1129766304812 0 0
133.802467909548 12.1682527009826 -3.71831275099188 0 0
128.77827699446 -18.6277198154792 3.50550823286005 0 0
-197.833546731831 35.0172881465738 8.32402134968553 0 0
176.737462101067 -30.6278744897696 -2.45707506613754 0 0
162.712861084049 26.4130523086983 11.3295984073382 0 0
160.892423397699 11.8109877904996 -22.7862901088194 0 0
16.471956109028 -17.9276548205391 11.7093045402627 0 0
-26.175986167893 -20.9982604374893 12.5155146936173 0 0
76.5567617053702 9.24428886078162 5.4920848416632 0 0
-182.075591331026 4.24328033778769 2.98859067459552 0 0
62.5833700422531 -10.0642906438589 3.81563086519691 0 0
-70.8236527010531 -24.6274372662637 7.16468571716241 0 0
128.348851709463 -13.2927886766629 20.1242188644951 0 0
160.292875848778 12.0585678195749 -27.522212305416 0 0
-97.1877021877092 -24.393741597535 -7.7749480512973 0 0
-169.248289719558 -27.9558016000744 -17.1122959554638 0 0
-141.692501328371 -5.00310928238507 -25.3110952353844 0 0
167.06385978236 27.7730324326125 -34.7759046805663 0 0
177.208146208859 -14.7823383874621 20.5248226540038 0 0
156.934394087965 -4.64897580637531 -14.4550524730623 0 0
175.187521971849 -32.9314282344387 -23.299182933373 0 0
-90.7556224798689 -10.2127376927333 -13.3050096418489 0 0
-179.686902214325 -7.70225957770074 11.4137957432096 0 0
-178.499349264436 51.2434274417306 11.072322045763 0 0
45.7153988390451 -3.32113596648598 24.7028157581147 0 0
-180.586398588122 -12.6421170860684 11.6665870137196 0 0
-95.8756699677104 -2.88856442950032 10.5686006674147 0 0
165.246785306008 32.5388127766797 -31.7160024932699 0 0
-193.158276255564 46.1845183403849 5.17963030982882 0 0
164.276424827502 11.7838788807037 -22.636246715332 0 0
-111.58713558329 -11.5242592342842 -15.8051334291622 0 0
158.620018101921 14.5380462747695 16.4655704295897 0 0
177.505477255118 -21.4564653787746 -24.9443342134379 0 0
164.58926501667 35.7680643212035 -0.336328500874231 0 0
-184.660467123359 32.4250730708106 -15.3334826521143 0 0
159.292808155467 -23.546168559173 17.0145257628593 0 0
129.308774360068 19.5797623030995 12.4274584762474 0 0
158.621592975441 13.8645634595852 -18.7832002870115 0 0
-109.672520675997 -9.53795588946917 10.7438643446901 0 0
-18.3178466063062 -1.11236817516006 1.06275403481317 0 0
-166.367318981251 39.8868253804051 -11.0446533812986 0 0
34.9278882130485 -1.55181147112498 0.0353451564028101 0 0
-102.275252848023 -2.26053463219715 9.36997327634078 0 0
170.631278513299 8.81154396933348 17.113573323602 0 0
-177.731437996249 21.772221635207 22.3200082677551 0 0
-161.828928259706 -7.97051930795523 -24.3213435405633 0 0
-160.069418339127 36.9602298537965 -2.04048147406635 0 0
-180.922145639124 10.5132878210482 13.8749577856886 0 0
-195.97944597506 41.1174093966442 -0.334726100165366 0 0
105.760844854138 17.6051453289918 11.8972549390657 0 0
-83.9972097282861 2.53937446356471 5.13337991128393 0 0
160.495072965516 10.9509545322811 17.0377044944487 0 0
-195.261058019974 19.9334500215182 4.81584289596102 0 0
-184.20896391527 -23.6076938648367 -13.8107494684317 0 0
-71.7437647998604 -13.0928809110479 -10.7834508380637 0 0
-133.701949449658 -18.0443471633481 -21.3254320415902 0 0
178.416089819139 -8.75162281491236 -16.9428694526717 0 0
-129.835827078995 4.31047653254331 0.424497272924141 0 0
-183.31328431523 49.3844107923224 13.278008718457 0 0
86.9171627087503 -14.6986289191637 9.47338912637534 0 0
-40.047089024022 -21.4296827617737 3.47760420780655 0 0
60.9317851675773 9.62367191941049 19.4646392119818 0 0
4.841092094614 -15.170006639523 19.9201471022901 0 0
-178.056451415943 -14.0432447157573 12.3847656710162 0 0
148.501348229675 -26.887348254189 -0.17484085416259 0 0
168.239265794119 7.92500128725074 -16.5271595966294 0 0
-50.1330656879483 -0.00633768517101544 1.61973926159212 0 0
2.90210916146348 -9.92714269687587 0.171429945988073 0 0
-132.740455037679 -19.5262387526762 -20.6405368830045 0 0
106.915462178551 0.140119225760453 23.6262367462964 0 0
-5.61601837823207 -1.01095203563965 1.05878293745951 0 0
-55.0385747765494 2.81394030974601 11.2984678458757 0 0
152.804655702005 22.4636043760988 11.5713504216072 0 0
-161.15055490385 -1.64628005590257 -17.0646258017494 0 0
166.453640470944 -11.4821127933379 -25.3547562703981 0 0
-65.3783320638324 -2.20931574643786 14.9558922706719 0 0
-34.5811909672618 -20.059595859285 14.7336842761946 0 0
-172.79432098576 49.4761809691873 -5.53400759063287 0 0
144.259999059448 0.276944157833263 19.6387600732829 0 0
165.262055534449 -18.7701582030837 -27.8871168155206 0 0
190.841391275043 29.1886977269964 -2.77763799335485 0 0
-121.598938563675 3.45889467451118 1.74994473404729 0 0
-119.505605156567 -10.2758193276574 -16.9234136290414 0 0
-63.8266995238545 -8.61553450843385 -8.2431423675118 0 0
83.1199852426056 8.39323835234714 21.3214168509195 0 0
161.944225992459 8.49687800361767 16.7811293956077 0 0
-95.0052882227809 -26.2611075907584 -2.9641046390737 0 0
-183.716366129785 46.8255228006288 -9.19323829103597 0 0
65.1705096543505 10.5913179510115 18.8183880262507 0 0
165.08230081874 5.08147223173937 17.0808789999071 0 0
104.065466673372 -11.6476815048599 20.9232635721787 0 0
163.233712076733 -18.890691073804 -27.5699895833237 0 0
-196.427323815132 37.5530780556556 11.2212599779738 0 0
133.471202990955 22.1709645948566 8.51201614473532 0 0
86.0294534324352 -8.60163482590798 1.25629284362581 0 0
-172.725930831846 -15.0927676313243 11.4417487035091 0 0
-184.965965767081 -10.0451170164998 -23.7982703027133 0 0
151.882490522455 -20.6433962755875 -16.040564959816 0 0
175.318334380349 -7.04701793588272 -12.7666422744671 0 0
-193.466346399679 32.2815039893071 17.1917700882481 0 0
-160.518867623089 -0.0681340901406376 11.5424178035525 0 0
-95.3055633867138 -18.0470999129286 10.8908583434289 0 0
-185.085126309533 18.1372095487659 18.492930953192 0 0
166.579133577331 22.4667586385797 -35.1699949614136 0 0
120.894296252383 9.82954496097349 19.4063841838087 0 0
-70.6502584938432 -16.738553127222 -8.35972802189933 0 0
-33.6735279653965 -7.52937355059928 -5.13219194124554 0 0
177.575511365766 37.0219030313753 -10.7940315473736 0 0
-52.6383732404285 -23.9183222015188 5.64179292213963 0 0
-192.355644374628 40.953013550203 15.3401926888986 0 0
-182.60867096628 46.8363636660762 17.3345838776406 0 0
69.735292594133 -13.2651071683472 7.4917193367474 0 0
-185.535082225537 -9.70685867906817 -0.505125319445731 0 0
-106.140339990472 -0.778989153676832 -6.82103069994724 0 0
147.207888676237 -16.5535374550038 -12.1822446985578 0 0
-53.2220003733179 1.68501821041569 3.65677630421906 0 0
-106.850891404071 -26.7206752966143 -1.91779858450459 0 0
-89.9142510307808 -20.3832895542026 10.2115362310755 0 0
66.0762428472278 -5.36650505945968 -0.184592077945882 0 0
135.322380378671 10.776669275294 -4.18529555303229 0 0
178.562148860305 -11.8882243835145 17.5960937115487 0 0
-186.40793782243 50.501572140026 6.93486686955282 0 0
-72.6908191813768 -10.9716107679047 -10.1424477174729 0 0
180.521999905544 -11.1533576161931 14.0865639370122 0 0
185.525026237481 19.1399519065237 -31.3880815968086 0 0
120.543154297639 -13.7047479494981 19.2686660330505 0 0
163.600010452473 38.7231653374041 -11.6244386687199 0 0
147.707855618565 16.8076104331532 14.6195452126924 0 0
192.990852748025 25.0181688438722 -17.414592377433 0 0
-2.03655198853283 -19.3741294861736 12.900528264332 0 0
-152.24139395904 0.543733839864069 9.30304419590691 0 0
-176.929502825898 -12.9963931927693 -25.676120058909 0 0
93.8761232919576 9.02179759132996 20.8207310414042 0 0
-149.658280993382 -29.5777058352501 -9.13508130762052 0 0
-164.702430027815 -0.83658603687485 -14.9166950783572 0 0
-155.114107316192 -31.7454100946874 -6.79045922175035 0 0
-184.4751809579 -21.5957988817125 -16.2933685957643 0 0
-184.114147210588 11.4357854365085 0.1948468634288 0 0
144.141510064689 -20.9208842482137 10.3866945021854 0 0
33.1494912850382 -3.89805345862937 -1.5729522211406 0 0
6.16424391566412 6.38198710614512 15.3720688263541 0 0
-37.1278863431274 -5.94943398865035 -4.46025658268105 0 0
-76.5979041254086 2.66412471349586 4.91975119376678 0 0
34.8406042744353 5.69451988673435 20.6873792272481 0 0
-185.786727528761 20.1145972127565 19.4855628351635 0 0
-151.417291944833 5.57944831274985 -16.4700618026804 0 0
21.2402981721769 -14.2030482250959 6.002669678954 0 0
111.394125196694 -10.775364072891 21.7126594680977 0 0
175.165614148192 1.20822556967448 -8.62583358282794 0 0
114.645500681242 9.57396933696612 19.8363399375808 0 0
169.551182868462 -13.0211437159723 24.7460826770528 0 0
-136.474770817899 -16.5560626848499 -22.3079896488898 0 0
-177.692319496286 -29.2232218668137 -10.7537895276799 0 0
83.875972026633 -9.99560906241446 22.375295405485 0 0
-191.058546527045 48.1318415376572 5.58482758612388 0 0
-182.988395429466 23.1555838878039 -14.3488270815052 0 0
0.662148545706713 1.14742767077011 20.5413318132426 0 0
116.367972118564 12.1484811208482 0.930883143838815 0 0
-31.1765027532624 -9.41514401757 -5.04802114046069 0 0
20.6041794533366 2.99397679979128 4.22021880887293 0 0
131.130943771058 -6.31230714000972 22.6377838622865 0 0
-98.1255958670948 -18.8519816013181 10.0999261824119 0 0
-144.459555924593 -27.0765413623566 -13.2689121516878 0 0
1.92287546840981 4.60976342766597 17.5552396701703 0 0
56.531594264945 -0.0515168167305225 24.5737727553717 0 0
135.428552934429 -15.4522165451377 18.3325752879984 0 0
121.911309514282 6.90045007230767 20.624689067758 0 0
-174.018308966623 -10.4109591900582 14.9115663913201 0 0
156.71074120582 12.7397371020785 -15.2409899518256 0 0
164.900954886654 21.7544525853254 -33.9981487679109 0 0
162.153107766428 29.6179544535606 -28.3466170549491 0 0
-140.325038693796 -3.69475514799555 -25.5905234303183 0 0
157.38824194581 -1.54094364702511 -14.6136411325152 0 0
-184.046012426766 39.9991572413126 21.7347346443554 0 0
176.08955001162 13.0651424703973 17.4252353552157 0 0
-17.3989425005309 5.31229887397855 12.9855591616038 0 0
-132.606857607655 5.12132014891534 -6.33744790184834 0 0
132.709169418802 -16.7799603616358 16.0221812888899 0 0
16.3239404733243 -7.30989469762372 -2.25500100100733 0 0
-154.266487800248 -29.816841913437 3.79152177350416 0 0
139.81007368193 -10.9195373566349 -7.24727012571585 0 0
164.474522469747 -33.834007945589 -13.0145983428943 0 0
-127.553606133324 3.35391200828179 -10.3391657837316 0 0
-64.4863141091746 -0.54391062952872 13.9477605161032 0 0
-178.86639580785 -28.2407170819351 -9.96650168311158 0 0
-159.697213406757 10.0259331046313 -11.8779461088645 0 0
-147.282274354743 11.0702034541948 1.40998725469605 0 0
-115.901830432343 -5.39830013220467 9.11304069167777 0 0
175.003915077237 37.0486588249549 -13.9603974360419 0 0
182.256091006096 -7.40784112448863 0.605143457599177 0 0
158.921256124926 12.3415201685456 -21.8161655249301 0 0
52.2452967072603 -7.58306531839088 1.12008522113846 0 0
191.534052873103 29.4752840784459 -7.7155607514807 0 0
-155.946456072515 -32.9765866977038 -12.632420809463 0 0
157.128483074596 -24.916909160255 -24.2804145525714 0 0
182.982213283407 -27.6251077881641 -15.813763330295 0 0
-10.6818687345212 -0.936192611822452 20.7036008556698 0 0
152.621783912072 9.99972416673048 -11.7300905942026 0 0
-161.719248250205 19.4887745227121 -7.74087905628541 0 0
160.753520729582 18.9134962172226 -29.0454667738073 0 0
192.934522118414 26.8246349707556 -4.20293969522485 0 0
142.744629127318 -20.2708644957167 -6.61683406301913 0 0
