"x" "y" "z" "f" "a"
-76.478712779561 -20.4802420695713 1.56395535388321 0 0
-211.507406721703 4.97054543455101 -0.86626470407339 0 0
-215.208055873171 -12.1478429623367 0.0544112944219524 0 0
-152.496681631615 -12.8155118406204 10.613838874726 0 0
189.671626250718 -40.6842917180627 -17.752916360223 0 0
-193.511788433046 34.5075341868303 -2.84004287244504 0 0
-192.955758856111 -7.34337208127926 -18.0386788668791 0 0
-141.13841630122 -24.965770679088 -4.3099830601434 0 0
54.3324338141256 -14.680144982925 9.69773489413671 0 0
-19.3784099653063 2.95775850712692 -3.11395695295972 0 0
64.025192947146 8.53166982614332 23.671191525919 0 0
-54.1028405970522 10.0713430651571 11.1631621868928 0 0
90.4710056894862 8.88346998535946 -4.86555635405254 0 0
21.1694415038447 11.0153268301481 18.6505879566669 0 0
190.678397311643 39.9669956811869 -29.7884991665692 0 0
-200.549628459692 -10.6833391195128 -19.4558417558777 0 0
-139.603632949929 -21.372449676254 -11.9309293592742 0 0
215.242950319898 2.24203145932885 -9.82824508146689 0 0
-165.162540586878 1.1787774528133 12.6909778450836 0 0
198.024926402693 -2.42665571407961 -9.09902341116129 0 0
-27.5250815247743 10.7743683618762 5.66245260703836 0 0
-209.000430538919 50.3748805435546 -4.62047208016555 0 0
-216.156915068645 -27.4602420435731 -18.1471009844997 0 0
208.988302651255 -43.3205797833379 -14.139879654956 0 0
212.35344158981 -23.4562088228045 -21.8477893657439 0 0
183.768826655069 34.2355131436843 4.38399777420621 0 0
-189.987581128425 -36.9621006778385 0.920538678410472 0 0
-217.425422759726 -26.0459803300971 -1.86698729763964 0 0
183.2820452436 -41.1732050408963 -11.0334360041059 0 0
-190.347210109905 -11.2322348630162 -31.164910992825 0 0
-161.186187508198 17.914387732407 -9.77084059193189 0 0
147.48597726911 4.16552155481168 24.2817808253424 0 0
-139.138857414141 -19.1182887844266 -15.6600140269021 0 0
-169.242673823615 11.7282677276578 -12.0579837089436 0 0
200.767095134154 -39.7684137505314 -11.1701212465341 0 0
-209.068978738002 -11.9994694147846 11.036397992566 0 0
-238.150734242409 31.2919276226265 2.41654281353433 0 0
153.458817013003 22.1920463603273 10.5044284484292 0 0
214.832876539325 32.4115743084552 -40.0634697790279 0 0
-229.310513982315 9.09957551753086 0.699872138471513 0 0
199.204396607293 -9.77383238150612 -17.6525114355868 0 0
185.088980056826 14.5167394344724 -35.7640187567861 0 0
201.194262426637 -7.44497477167076 -9.2542647520977 0 0
225.480105725474 31.2919988424816 -23.7041668697719 0 0
-137.105185360925 -14.0365654646226 -16.3981988065786 0 0
-215.199363769445 12.8095024016415 -10.3184429820324 0 0
-187.703884949461 -2.59098428034877 19.602769896217 0 0
-94.4631546332375 -19.8315841182207 11.3534739198266 0 0
-173.752741812354 -18.5104450618738 9.19145875821551 0 0
-219.846248434979 8.97184744060405 0.320302073195655 0 0
205.379954993617 4.91662919030093 18.7247582892695 0 0
148.086838048115 17.6218555057051 -9.56939470970387 0 0
-161.380669228778 -20.074577653995 -19.5474371757709 0 0
208.740457697161 -23.7747385781408 26.426376192651 0 0
75.1136208187492 -10.9578561310073 -0.845264994992168 0 0
179.831124326728 -19.0256479433986 36.2857140506729 0 0
-166.118361112963 11.639974914279 -18.6133183880114 0 0
139.051289753262 -5.35835888399206 25.982943337946 0 0
113.383447205585 7.39371288618455 24.5452226681164 0 0
212.75045227709 1.00513085596323 -5.19097855641043 0 0
-211.934626735947 47.1598613994464 -2.28077636595558 0 0
149.225402493649 -20.1599801515542 3.49037518305822 0 0
-97.0233766502082 -2.11383316873032 17.5293583326437 0 0
-198.704874088993 -34.7476401496167 -18.0305714078118 0 0
90.3373448462469 -12.3964179412975 19.1481312726653 0 0
-127.871107176269 -19.7037588996207 8.97856728423837 0 0
201.257740765753 -43.8729025260979 -23.648022468918 0 0
201.086986002807 6.26364551432233 -29.6991743275539 0 0
172.727477317523 -27.9844356323562 6.04586297575192 0 0
205.03323422513 -30.701718192276 15.7690317242535 0 0
-212.10870227099 -28.9797424465517 -2.69493314627898 0 0
95.5727585642817 -12.8945582991 18.5672979226471 0 0
204.679600586365 38.2055037018535 -24.9647268875247 0 0
-229.440098817247 36.2435873486745 -12.5573752175968 0 0
-30.1760091794168 -4.13448473979142 -5.63633473760468 0 0
96.5986771818525 15.9454214860731 15.380559094971 0 0
-12.2753069552977 0.821634272516093 -5.29239688811316 0 0
148.070123348529 -19.4264395638488 6.3511937318028 0 0
53.3981543523842 -12.9564008239068 3.83478349815502 0 0
-185.196730450109 -4.16727366310665 19.5791957126259 0 0
-209.069190502505 -4.33156871218676 0.842712022457153 0 0
-38.8479548491039 -1.08484231091446 23.2245848393999 0 0
196.090286949186 -41.7279818826818 -9.25803527402447 0 0
-134.912578672895 -17.1665038868804 -16.3332061363782 0 0
-75.283503672797 -16.5173770028761 16.7053523676278 0 0
-19.7031231474885 -13.8930864718596 3.2855110849477 0 0
-225.788889659154 47.9140967024345 11.81995360838 0 0
171.268867541365 5.13153452059276 23.3116661819261 0 0
-46.9787220058089 4.85984949073862 -1.06766670715847 0 0
186.648249924626 6.31273787186697 26.1337714629729 0 0
-205.099867416737 -34.9697655349079 -13.3421550988178 0 0
-94.1633323747522 2.54211459383404 -4.8949162213201 0 0
-74.5388749069506 -1.37254777821212 20.2568615241451 0 0
201.496150045799 -34.069482270452 10.2518486588684 0 0
184.561356212866 25.0386129778283 -35.1454129883242 0 0
-43.2190955950554 3.10057057424948 -3.37837326465646 0 0
-205.16535120604 -36.0605587948134 -2.87886629200085 0 0
-218.39675373897 6.16197984136461 7.3630214166007 0 0
172.247947733141 0.255957541936977 26.4050545602364 0 0
174.194474073472 -12.2739454912199 30.7815881776827 0 0
203.807039882127 5.04812510617765 -36.0969510358368 0 0
-33.8956219113155 -0.192878620058729 -5.15674528670611 0 0
-56.383835229392 6.65711972527835 0.992849908217974 0 0
-19.4557337391112 12.0096218696704 7.60837388036643 0 0
158.393573578211 -13.6898961904725 -10.4235384020154 0 0
-229.114944239549 47.4384401569071 5.11699857732373 0 0
210.407560479282 -6.02079874295499 -2.14781483222588 0 0
-188.943655574483 -39.3728452083897 -1.85463004074858 0 0
-218.476857265503 29.3849065269113 28.4595370726855 0 0
50.5929571974748 2.60440299305624 -5.59197787194707 0 0
160.692599973449 17.0530577795674 17.9955216462046 0 0
134.058169980067 1.41710443334684 25.7531247319314 0 0
13.4288058652355 -7.57203230957523 24.097683699526 0 0
-181.036473842999 -3.2487435872687 -24.829217176282 0 0
-162.927328019098 11.6712202949566 -2.31586480632436 0 0
23.8815916376474 -8.07076013007811 -0.594722581941424 0 0
44.241356375984 11.748908428907 19.1314190605228 0 0
-207.707241975383 13.6028465804135 24.1162547420233 0 0
188.284972949844 38.5706234695836 -2.16148460551668 0 0
141.112130036684 0.639480041582988 -10.0005485851094 0 0
-151.991477453493 11.8962044098805 -18.3720261270124 0 0
9.43446861373539 -15.9464200934629 15.2732877882835 0 0
170.564295531762 25.7618741420452 9.56647832000205 0 0
-119.53313022479 -1.71995090626247 14.5229503796381 0 0
-192.338227897209 -34.4039313754344 2.94447898101496 0 0
-210.843838937151 48.0650740068574 -0.94612965117156 0 0
-176.487218868108 -10.4828051900181 13.2475784543788 0 0
212.81598585848 -43.2974811328602 -6.57562807243702 0 0
165.873523788526 -18.6463510203655 -12.1437864427764 0 0
202.996436427734 -38.4525255721051 -7.43807959992149 0 0
-140.201796843114 7.5843274868355 -0.101888505707135 0 0
208.366158864182 -31.1228185943584 11.7448757456826 0 0
211.635421732646 -11.4027042996821 -11.5127640193975 0 0
-117.950762203679 2.03778074340798 -7.54482699276397 0 0
-158.754110838443 9.92255308805549 2.38958653541929 0 0
183.128345964264 12.4883122317229 -32.7329983531792 0 0
-207.117390567538 -9.35628166417193 -6.44879670244655 0 0
169.500065521492 -21.7548666355872 18.8714509930439 0 0
178.015232971341 -5.66331856676691 -15.990480459032 0 0
-217.278998029959 46.3603524704975 7.30359614597613 0 0
-185.662253997502 -3.30232434388101 -21.4188356112043 0 0
165.289031120529 1.74411906572802 -12.5612821602158 0 0
-194.970262224205 -7.94614730628297 -26.8359016162967 0 0
-180.545537318042 -34.6802110398199 -18.2074545035981 0 0
173.275734520628 -39.1980248306232 -11.341461088526 0 0
-222.797473486249 28.6901460482606 27.2821030779693 0 0
172.800130228041 30.4368418357021 -18.6023434274054 0 0
-23.0724128941132 -17.6239902938202 9.60551687972207 0 0
-93.5099846409254 -19.9455402482887 -4.29988166652118 0 0
-202.469913376868 19.2565571736386 25.1086797460488 0 0
-186.088818530457 -7.90252737622556 -29.9139116218527 0 0
215.613371980494 29.4383945070296 -39.0271214112441 0 0
-51.9276737444172 -17.0009556095516 17.1847730497454 0 0
216.315787875247 -20.8790883172044 -1.63723926753355 0 0
221.053818696711 7.80512914370019 -13.5097706807201 0 0
215.371137316748 33.7700443575427 -31.7210593663819 0 0
74.984167942532 -8.43810981136274 23.5270961197689 0 0
-234.502058288428 41.9208110208916 3.88324855029886 0 0
194.489305287649 -39.9941156664764 4.03612288594298 0 0
-221.900813497584 -21.7164894009996 -10.1009989177627 0 0
174.568310840605 31.4556831094413 1.12698832713582 0 0
65.3376075793121 -14.719632806905 9.93510912812829 0 0
-155.727924387614 -3.97763093060016 -19.5159785519749 0 0
214.724132086984 33.5900650513353 -34.5824755537312 0 0
212.116491387808 21.2828283482464 -41.0309999299394 0 0
92.6515194867588 16.7535574461636 10.2466374478522 0 0
162.623662435592 24.743017896973 7.58798681373116 0 0
8.10576347205257 3.31968265441167 -3.85296195708816 0 0
171.632415311526 -34.2190132767354 -9.73345604375079 0 0
216.255577551446 3.39237064610955 -23.2457816656943 0 0
189.916456134309 35.4474916481727 -32.0351713967245 0 0
10.9565651702818 -8.07005055868363 -0.847083493342023 0 0
-31.7973056869766 6.86400550205996 19.291335782736 0 0
-94.2736657730963 -12.71641364081 17.4735310903678 0 0
171.325724233633 -6.19828227598023 -13.6873668508952 0 0
-24.9894110243945 10.6563355155065 5.01966966514633 0 0
-156.258978487832 -23.2309190883473 4.98870558923078 0 0
-212.93587513376 6.80520740920943 -1.19571652485691 0 0
-18.3869117877076 -6.86769966591931 -5.0120314009588 0 0
215.903087125773 33.5979645390531 -7.06380529282924 0 0
172.070628825214 12.0130262863965 -20.5985039527281 0 0
-140.878519606386 -20.5045560132018 -14.5873305325406 0 0
130.708134374193 -9.18687970118926 -8.37751648916349 0 0
172.961187993574 -12.8337563785324 30.1751209728969 0 0
186.664925158027 8.90221860268613 -25.3153591869964 0 0
-215.326115413131 -28.0530248391889 -19.6371974163597 0 0
170.29938903092 -21.0286844887251 21.2161402154911 0 0
-180.384961244952 -7.64385567319659 15.6956671104942 0 0
218.285985600723 13.4373611776665 -33.2509759664185 0 0
98.9070759639839 -12.4761613786964 19.3287354682762 0 0
-122.141781247324 -7.24769502848604 15.1799815606324 0 0
176.932362692559 -10.0719694527175 -15.1988590427004 0 0
-197.541300491232 -8.9730051985996 -26.8067216724052 0 0
-55.9261672727016 4.46014352736697 18.9893904401719 0 0
179.561671329589 24.5557423315419 16.9830648385468 0 0
-172.466223739057 10.3783430062405 -11.733796913784 0 0
-218.219603050106 -23.6728734873643 0.435942794157621 0 0
179.106334991782 -40.2990232990172 -11.4763920094346 0 0
-143.324395284495 -17.2975534271882 -17.9985624449586 0 0
215.157858202121 1.37383153313511 -21.8112542347126 0 0
-198.105338454259 38.7876925658201 20.4706444208356 0 0
98.5569573005627 8.23032929519701 24.5101058890907 0 0
211.78905108071 -16.2225355039879 -19.3601410213735 0 0
-205.909378647682 -36.0108615634769 -6.11421423405872 0 0
60.00149372894 14.9332062454077 10.9659902439821 0 0
112.733004182689 -10.7610900501875 -5.84130136105817 0 0
138.387373832849 -0.483999367458247 -9.77141006739878 0 0
102.611227279999 17.3729801711756 7.2968303889802 0 0
212.220149903187 33.4464227477605 -36.3498678034859 0 0
178.982657961431 6.73597623147354 23.9063473799437 0 0
26.1612166609345 4.21248212166601 -6.08967658007758 0 0
-222.431015324804 49.6749298796064 -3.53491584562819 0 0
-24.4212792590931 5.55782257142731 20.9458983210773 0 0
-143.736281502481 -9.74614785375932 -16.5897378953213 0 0
205.745890745973 6.6369857331236 -37.3921891469615 0 0
-237.479998977357 33.1261220207503 -0.108869339569296 0 0
-211.683831149803 33.861288788931 -19.1858843292313 0 0
-212.72500586613 -19.281022531512 -30.7831548064111 0 0
-210.015114847445 -28.0273784408921 -21.1582982695094 0 0
-155.470527413699 19.6160596382867 -11.662377277605 0 0
-199.333434234805 -8.24376921030909 21.1909557000459 0 0
-210.524248003087 -27.2807542115975 3.84138367895112 0 0
-192.742342447108 -39.6156566872166 -9.16732009261974 0 0
-190.390141652335 -18.9362975481095 -30.3610064380421 0 0
62.9226634646381 6.77266142652775 24.6536454153491 0 0
-211.486512782056 -10.4734890864445 0.718446723561135 0 0
90.2751444233412 -14.1936057346001 15.3660818800848 0 0
-206.349226076553 -13.1593190331017 15.9493013481337 0 0
-22.9877457231986 -10.7860148710479 23.0602832240898 0 0
22.3056168361781 8.98084386900365 20.9161440902332 0 0
-154.992537878228 10.7857386274462 -20.1269970370945 0 0
-208.043874577182 -11.0066505533494 -11.9851817066594 0 0
-199.695537283164 38.2414427238724 21.484469586791 0 0
-108.151897368305 -16.8532394783742 -12.0128456042394 0 0
183.88608799077 -44.7720462110735 -9.26667634309664 0 0
-192.909388756623 -18.323370281819 13.3801502874355 0 0
-6.36107025691608 2.26388667941322 -3.71694751067209 0 0
193.673815348678 -43.9736376581544 -2.51879492773709 0 0
-51.0716058697691 9.88279235769981 12.472173933284 0 0
60.8938892309012 -0.901516409323321 26.281686243113 0 0
180.136271713122 39.1458663742535 -21.435724806656 0 0
209.789375537132 30.3705047659734 -42.998375158768 0 0
154.212221236973 0.11157262036061 25.2812101863071 0 0
173.078422319976 13.1981201596823 21.1083001854387 0 0
202.239182847158 37.9847037837315 -2.474725781124 0 0
85.23262569648 -12.3595318023499 19.2021260422804 0 0
180.59463303718 16.147315034953 -23.7689581258714 0 0
-233.787646774395 14.8577373132017 9.78121591940704 0 0
78.4211236748095 12.6466675307132 20.1139273682872 0 0
-222.799350917047 45.549123352782 0.700645065689127 0 0
22.7404202235942 -15.0699275553604 9.07108500850172 0 0
-212.866873500481 46.4977304859119 -3.35973895619157 0 0
-79.4835993921258 -16.3349933000233 16.5306898771915 0 0
-230.242513404125 46.0698895031218 -2.15463327171594 0 0
210.119049787553 -30.6008059022319 10.6869556128014 0 0
120.377556921053 -12.9329398883793 19.9054648689516 0 0
-193.362905567358 31.019866280944 5.81028044235578 0 0
-197.127328439491 -33.5461238536046 -18.1574912656389 0 0
-208.260936835499 52.4698560793486 5.99509613992089 0 0
188.900563720337 -36.4399191729227 8.4737310569448 0 0
-187.29169478977 -4.21817298930312 -20.3674350454619 0 0
192.406210763547 8.40474024818691 -30.5719032219506 0 0
-61.6726560278267 9.53184469085847 11.019625311527 0 0
-212.584732289474 -16.2812147901397 -28.3202706656766 0 0
-157.924946758755 -22.2824932658909 -16.8924152820878 0 0
-96.0067877055186 1.80371341169483 15.5664996402115 0 0
72.4842893628289 -8.78856053387041 -2.71843048686379 0 0
-77.9315636028956 -12.1908455804957 -11.3922295390877 0 0
-222.584583222914 24.1270891421376 26.9466002007379 0 0
202.713009654468 -4.99752211896247 -3.29966414960013 0 0
93.7546731033213 -8.85434422479136 -4.67170380840263 0 0
223.957951572667 16.7499814026699 -23.0635999102954 0 0
-211.50585814417 -20.7088240308525 -29.8937218844576 0 0
76.3934617626823 -4.29517119963976 -6.22146428547633 0 0
202.854914242949 -38.6164599435876 0.0986913979689087 0 0
-181.928239045226 -37.4950242747755 -13.6701702624589 0 0
224.08705106492 23.0915989637849 -2.15217205836015 0 0
-128.762835902816 -9.76942227849858 -13.5888075026463 0 0
-205.147239040249 -3.2194185789563 -4.57059382028275 0 0
104.38809533182 -15.6710273652801 8.08432298233283 0 0
217.922108573219 33.6176134187021 -10.8487185611181 0 0
-210.958016155991 -0.350223597010343 9.42797767966816 0 0
180.953518935672 -26.8352912537262 20.8995273725962 0 0
213.186543645535 -14.8857395429795 -15.2580685395713 0 0
185.905971482034 -46.014241135424 -2.80999082761551 0 0
138.844847871765 -7.74173823477868 25.2793091857364 0 0
-42.5126320493005 -10.5591817047234 -2.73181690800902 0 0
-84.2816968384551 -4.82888171729806 -9.09638515184884 0 0
175.484686323584 9.43445873884646 -20.8039815374937 0 0
141.754301303079 -15.8146006300341 16.8724013537175 0 0
199.319120150125 -38.9107532257223 4.13609443661036 0 0
201.866973177232 -12.5261777504169 -22.1787288772189 0 0
-199.135189043241 7.4354955768546 16.1327688340963 0 0
3.66902182889375 -8.99043476687298 -0.137992105660105 0 0
-164.414828290174 14.1490819209545 -7.089200553414 0 0
196.547484443018 -5.89221167610681 -13.6597021756719 0 0
-219.04947657457 9.93798490936269 -4.61455415483885 0 0
-102.284509797359 6.51927960371721 10.4660000323859 0 0
-226.413136900004 15.1054225170272 -12.0021280539803 0 0
208.349969421184 34.5391586640287 -32.9781575648431 0 0
-235.518479634715 40.0127328331495 4.90454683916778 0 0
220.212885931015 32.5346350268118 -34.4458214721575 0 0
176.63789702441 23.0068658567864 17.2421496011491 0 0
168.415522445491 28.9173524421661 -12.2759253173736 0 0
160.730659726158 26.4126630450943 -5.2643557553711 0 0
82.6201974507547 12.8873194083027 19.9806258212778 0 0
202.232522601516 40.9187471095284 -9.80108785927305 0 0
-213.55830538221 6.54471391508844 14.3147909208872 0 0
-207.461110102569 -17.8502412227251 15.6182748997507 0 0
-99.350002875153 -18.255790339178 -7.28134243602794 0 0
102.737053438407 -6.12155438208652 25.2721809922749 0 0
-87.5733552389618 -11.8733498906026 -12.1957934793355 0 0
73.2349815154319 2.72715434252943 -5.77863265945208 0 0
-161.951680240985 -23.4650152000976 -17.0373535256537 0 0
178.408074527727 -11.8004441918507 -16.5046715948719 0 0
134.417427539701 19.8165635229415 11.5758882499329 0 0
-198.583909604122 45.9347182485167 -2.26272424438107 0 0
17.4674969609567 -15.0886682864754 8.55149539844296 0 0
80.5337488562901 15.4047790578126 13.8265161021312 0 0
85.3439598934945 -6.39106865175388 25.0414744211294 0 0
139.145567917026 16.0183467814429 18.1989800864266 0 0
213.649084582185 -41.6370809508339 -2.40378487783577 0 0
97.7019606639814 -13.7428629957009 0.82835073698241 0 0
195.629292058268 -43.8321354407415 -3.26943742546924 0 0
75.8659448017604 -13.557610822084 16.5284160987262 0 0
89.983380109832 -6.48867672826309 25.0276906089885 0 0
-141.016437384679 -25.2584341853225 -1.40010686234782 0 0
25.80192740879 -14.7985751349058 8.56862232282489 0 0
192.551497932834 15.9585530501017 25.0352618717513 0 0
225.378387118941 27.54125481098 -7.38829983853923 0 0
-210.160259328219 49.1803875273021 -8.68353230365888 0 0
-167.944465627807 -19.5379845078786 -22.0273559549902 0 0
-147.064091988511 -25.1251500124586 -5.86380234358032 0 0
168.369331932676 -16.2189745168198 26.2287851486227 0 0
205.78332448386 -18.8608157825943 30.0356058497113 0 0
207.729726077301 14.2076125359867 19.996152152198 0 0
-167.665972340973 -29.9323117989375 -2.17208173794526 0 0
158.501590276911 25.5095364236143 -4.95551484446243 0 0
157.379603896753 25.2635884836227 1.66746515087217 0 0
-81.7376894188488 -0.669081722057832 -8.69710538639491 0 0
-117.811181174696 -15.8705493901237 -13.5809550359163 0 0
188.559377553006 3.903135723424 -21.3790011364825 0 0
-199.728126914244 39.4038952010107 -12.1667463596395 0 0
-188.857182003721 -29.103967964118 8.78514673837896 0 0
118.658891071652 -16.3320369078436 4.34237970859175 0 0
-194.269651471594 25.3447536496049 -4.25666587575624 0 0
183.040291087791 -22.8437085422069 37.261698924259 0 0
-167.539090945455 -22.2297926130993 6.99851404801314 0 0
-63.8793595444586 -6.04921063142674 -8.46186029693253 0 0
201.143799054917 43.0890123003883 -13.3994298972613 0 0
-177.095641178758 -32.4790837886092 2.98467027622786 0 0
136.241350187538 7.48776912981699 -9.68997832206799 0 0
33.0548673364387 13.0736600807152 16.2003998252147 0 0
96.3170071785526 1.85490260018123 26.5295685797997 0 0
-63.3879406962829 -6.96686635140762 22.1067787547149 0 0
-147.773139478933 13.2137375489083 -1.2064466954604 0 0
203.271310515785 6.23718277792488 -22.4657939754787 0 0
-100.703752414443 -14.6957414019293 -11.468527542354 0 0
-168.718963669532 -9.76240905539324 11.2506422741695 0 0
200.053947475076 33.7161124115088 6.29546209057533 0 0
-196.410007675443 -27.0065368481556 9.9967480052249 0 0
-141.350583817393 2.98378941948766 -14.2172236186429 0 0
-181.56832109056 -32.9125551961899 -20.5889854527714 0 0
-67.2666747904172 -19.3991088462141 13.1911976032617 0 0
160.938497244413 25.2724982617444 5.61335680805275 0 0
-64.3462260033737 9.69153221788085 5.98186099944222 0 0
210.271988387589 -6.75014688991155 13.1612436957669 0 0
206.615207558518 37.7666605838798 -6.99884156887599 0 0
191.804829631547 39.1638288219501 -1.83943845838393 0 0
-220.653984892601 49.494139439412 10.1072766136856 0 0
-90.7277081458493 2.12521113113201 -5.3524119481974 0 0
203.582007613929 2.68148912953265 20.448788695661 0 0
-214.505104619712 44.5197883591977 0.356584252512074 0 0
200.770113301164 40.7870569949965 -8.41803135144113 0 0
144.277379047738 -19.3509584496585 -2.17841420419958 0 0
-163.581005382302 -24.778230598984 -16.403716170954 0 0
171.849042457976 -13.9676418835231 29.5166453232737 0 0
215.959022448592 -27.5971980976842 -15.5959035693584 0 0
-216.253361380646 46.0757000270229 4.33953362003588 0 0
98.7568329299872 -12.3528185536826 -1.51379727953552 0 0
-87.7667100716926 -20.4774591338987 10.8506291539228 0 0
-186.826490559472 -42.1192524063559 -2.23818316585538 0 0
-207.000737029014 -29.6681285231667 -24.5639075464767 0 0
-137.6340360949 -10.9346875043306 -15.4713591701368 0 0
-225.054062749257 49.2426588671108 0.694409561604331 0 0
-178.02808890232 -22.3143740202227 -25.1654256182317 0 0
-31.6995344255769 -11.1970477801146 -0.492335111068265 0 0
-173.830023993052 0.70090285757711 -22.0961691798829 0 0
-164.266837723149 11.4314133527785 11.5223869733156 0 0
-229.80698350076 43.2280747934885 -7.69919147528428 0 0
-215.347059159516 6.50891192765926 1.82016645635835 0 0
213.319328903288 34.3830300170523 -30.8584125086245 0 0
-146.471762650541 -13.5372766561501 -17.3748971361393 0 0
203.436787433724 -41.707969572042 -25.5737295139507 0 0
-91.1872760373711 -17.1005627149496 -6.97041177159589 0 0
139.876620662517 -9.88652928914687 24.2212931052989 0 0
-180.302397704965 -22.8182202737501 -25.8153791785434 0 0
148.073316068174 -7.04066829912532 25.8786807353014 0 0
-167.054307075513 9.18050063833639 13.1281607928982 0 0
-93.1226563856434 -21.4727563047234 9.07397541024576 0 0
120.331284650254 -14.3728527806627 17.3284779281264 0 0
-169.750947199155 6.13581418092596 12.8551653945149 0 0
-222.709650918978 -19.8533483399383 -11.9520969806265 0 0
192.235335366878 34.2440045639315 -35.9225231136269 0 0
14.2175180343917 -12.0396350566921 3.35907706744768 0 0
156.7458794686 19.2302674719543 -12.6487303425815 0 0
-217.235590942098 46.5302419965822 -4.18326482768347 0 0
20.7515766866492 4.10903330782972 24.106179046891 0 0
-191.462027280285 -5.82838173740182 -19.4736268846669 0 0
-23.0089137607535 10.4025680023554 15.8248259768677 0 0
-211.936985647343 -29.7440711732116 -9.20081274508519 0 0
-5.76991507578312 10.5476396245983 3.69830729654579 0 0
-218.023919491352 -13.4502400511294 -25.3202083813672 0 0
80.4406816881917 -14.127850672605 4.56632591481944 0 0
180.090064544844 -27.6658500860496 18.2451498890551 0 0
208.251208253003 5.27678428726185 -19.7049378322129 0 0
177.547168075145 35.1573897308939 -24.0828461449402 0 0
66.2432169607131 14.9035475128842 12.8550881918888 0 0
-48.4664961363875 -16.4403725568076 2.3940580147838 0 0
176.540279181347 -30.5243704274656 6.25472450168241 0 0
190.538004963441 31.2101941834215 -38.6130022062153 0 0
225.661220514243 28.2511924709487 -22.1606077269849 0 0
-186.158606790254 -29.4820435174572 8.18448141203402 0 0
167.616839766446 -12.9558144378599 28.0827614446593 0 0
-101.454478702085 5.84777562658581 -1.62589981538496 0 0
-185.805665329078 -0.213134695907486 14.9557894850066 0 0
-83.6632835398987 1.47127905085759 -7.20426085234206 0 0
185.83395428397 41.0583266713908 -9.83686615209358 0 0
188.023588606857 7.44572185755384 -24.865555944347 0 0
-195.677262864857 -25.2339146339475 11.1283299575786 0 0
-197.041148423382 -18.7067442354119 15.1849306620492 0 0
206.823432886415 37.238704841099 -24.0236083891236 0 0
-210.734479495804 0.618808680935038 4.72530036551794 0 0
224.523002941748 15.3345866452567 -19.1747248381716 0 0
136.873895558059 -8.99569802815266 -8.76177181027197 0 0
198.227309730244 41.1070173508298 -7.50641031517197 0 0
-42.8133596266904 -9.13177293083421 -5.13261026516585 0 0
-188.241646881498 2.0183240075605 -13.4337412652715 0 0
223.576537632524 24.1230340728573 -28.2003691118017 0 0
-199.027207008235 -6.2893266131839 18.9913640102774 0 0
188.14318234367 36.1317848595469 2.31763752289001 0 0
-217.608372463206 -23.4931817109855 -17.2162431372673 0 0
-21.1092898002423 11.5408971239287 6.35773555170107 0 0
128.198866144167 -10.9290859727188 22.7617272912074 0 0
74.2289636973557 -14.00883685247 4.73839218275434 0 0
203.888328901708 33.9465484644135 1.60582415174059 0 0
-166.479004834946 -29.8869807210001 -6.65378919440465 0 0
218.755315050883 34.1837774531639 -26.3265326205426 0 0
19.1517617228614 12.2116990841052 4.46989590574149 0 0
-167.960390545032 4.90036805503828 -22.0820862531143 0 0
206.069986684478 -34.9404384469931 5.63576154415929 0 0
-209.728610578909 -32.3992012945774 -5.27191124716933 0 0
-126.201629962363 3.78010717127649 -7.82528119759555 0 0
207.137680191561 -21.5888264566787 28.7439280251973 0 0
-84.9582502780298 -2.13961944380619 -9.1634873700165 0 0
198.865115052977 41.1432443007664 -20.3784300474815 0 0
-98.1306638589183 0.225751387121172 -7.53353227267845 0 0
-179.565042996026 4.92729979075897 -13.4376811268629 0 0
126.061528291016 6.73527976177879 -9.03790487632769 0 0
127.319449793926 -8.71970255237388 -8.1530848572479 0 0
-194.282390350921 19.5221784707542 -9.19646217852357 0 0
136.581759680492 -11.8626631143309 -8.27942917555502 0 0
-209.363491017703 10.1578345355993 -8.41197005368133 0 0
53.1839742286471 10.5239462694967 -0.027514693490873 0 0
-91.9086980938912 4.76707118330136 -2.28762194456349 0 0
-83.3316606225011 -22.1495804596565 2.52229770624449 0 0
201.542385529405 -11.9243886589412 -19.4023312475516 0 0
-104.040767551351 2.88217306012553 -6.03582414979953 0 0
-211.672855555213 48.5396611641077 17.4492778358327 0 0
215.555196231407 29.6045673281467 8.84476015692445 0 0
199.554112687957 -12.1639687100197 -20.0540320594992 0 0
197.499508685683 -24.4125233076069 34.1878261620465 0 0
176.565802391695 34.7426632567237 -6.91540882600639 0 0
224.960040246599 31.9300198781453 -4.87337774852864 0 0
186.485467314817 14.707980523005 22.8565578789791 0 0
-203.351909114864 23.7928067371587 26.5324932853291 0 0
41.1679808357111 -2.50297897827621 25.7048929266883 0 0
137.740168581204 -6.036086451162 -9.13124484955249 0 0
198.678254035302 -15.5149109881759 -26.3684962623829 0 0
-151.497304902668 17.8098446654865 -6.89824562583473 0 0
-191.133409670133 7.64994719995992 -11.204499502031 0 0
217.981127885026 3.22095202442633 -7.58251284655238 0 0
48.0752274102907 -13.7539655097249 16.803403402707 0 0
-22.4492958279777 -7.04946090246717 24.3065125681022 0 0
-114.273987175228 -15.1802867531605 -14.0639192798854 0 0
213.519471742411 -41.3513912200625 -8.68689242789263 0 0
-77.6535969931503 -1.04947081526828 19.8172617973746 0 0
-222.413577910662 -16.2989568733887 -15.9813403402159 0 0
68.1429054515783 -7.18676154860742 24.2351566938903 0 0
-17.9452697086428 -7.0985755890117 24.3154816166366 0 0
-5.17801641622281 11.9819274361688 14.5499369939876 0 0
201.841453523248 8.51340352398975 21.1450394414025 0 0
206.168406938633 1.41854598636101 17.8480423710142 0 0
-203.366551758137 -18.862724095059 18.1491698030258 0 0
215.635905467917 5.87076800339962 2.68435344986938 0 0
190.092984435685 25.8006672917503 -40.7215829449793 0 0
146.81344632388 -16.6550575110033 15.91041564117 0 0
-153.282943993683 19.5135712842526 -7.00525484954809 0 0
-205.734130190682 -21.9095352466707 7.38924614731914 0 0
211.582660834136 33.0858947019955 1.36400145525475 0 0
-130.693794523899 -19.4619663507548 9.05277615741598 0 0
-16.7579680509809 -14.7654190936883 4.77052272872004 0 0
41.62112971342 1.25243630895238 -5.32741981541188 0 0
31.5036793367713 -9.38515265266767 22.9544149443751 0 0
79.6590605269319 11.2364189227903 -2.15667747708681 0 0
178.68916871872 11.7281323099738 21.9092609517299 0 0
-132.339023781058 -11.6300255547918 13.0742938910533 0 0
168.778078604445 -28.3954957628937 1.12908829798533 0 0
-174.83285700658 -4.11901357958946 13.5524959549122 0 0
200.014441582339 38.6662767948057 -29.9181595456035 0 0
-195.155230517841 -0.2878114731904 -11.4379825395175 0 0
189.449899967436 -38.9531407325223 -22.1199528029967 0 0
-205.632169715499 -5.17274858281302 13.2573390853664 0 0
101.02433692115 -15.4884185649028 9.91554640699324 0 0
46.8387737308393 13.720750470593 5.36173722406783 0 0
-122.079103743106 -2.75088929601512 -12.0551005691854 0 0
-234.892490081014 29.3649301949639 -7.91938410515551 0 0
21.9166253980352 -3.04714689987311 25.2312731651369 0 0
216.323005607625 27.5044044029293 9.96484098581374 0 0
189.530508515359 -28.3339863536934 -30.3271448384723 0 0
130.488790468608 -6.84557731007115 -8.46547258270115 0 0
-6.58979095297304 12.7702508501754 11.8196537591841 0 0
211.488052500385 31.4759276508275 6.71833095175425 0 0
81.9308609053635 -1.7596239274928 26.5535085198302 0 0
194.743454095349 38.1251235898653 -33.8414888039366 0 0
172.400201175096 -8.0227794743025 -14.1403783359584 0 0
197.100287868666 -10.602674428821 32.813438413899 0 0
-137.140961434199 -12.0476250732043 12.4461212881644 0 0
-207.958568431233 4.55122293642674 -5.12114571403981 0 0
-175.41167866909 -34.3762564044986 -9.45964604954296 0 0
-220.483877831546 -20.7211373646913 -2.20820085651476 0 0
191.972746832393 -6.9907179641572 -17.4225941246007 0 0
181.870107237525 -33.1596888268008 -24.6015889574827 0 0
142.235899577864 -10.8636064137626 23.7657554576423 0 0
171.977146140914 15.1163127116967 -20.8978411216281 0 0
-191.330418093716 25.9952565185145 8.16534305854612 0 0
159.202818177729 -11.0541247354569 25.9455453012796 0 0
-157.708155801205 9.91761840161589 -21.0495012144224 0 0
179.432559390787 -20.3965665610875 31.9791797433918 0 0
177.662821084109 6.94060725934591 -21.0571691842556 0 0
219.726796902028 3.98588451426659 -12.512598302022 0 0
-109.891460226091 6.76791765363573 -0.837434489160146 0 0
-204.314160951124 31.792288150876 27.1069393443806 0 0
185.195779886261 -38.7485992626188 -24.3476093500273 0 0
23.1746790284952 -9.60169109916052 22.8345831741515 0 0
200.524357247059 16.2686569577721 -42.9705953198983 0 0
153.208468746898 -7.03672986990382 26.1198147066653 0 0
131.570900730237 17.7089152269864 15.8244546020994 0 0
-216.679765800691 11.2050517741297 22.2464907941687 0 0
117.462275774909 17.9827065577845 2.52302805379672 0 0
83.0284333557893 16.2653014873448 8.25846539728381 0 0
174.86296193624 27.0763387861191 10.3466536548493 0 0
-214.176004110125 5.46518169757334 3.17013489964465 0 0
148.960920952612 19.705842376738 -8.3771043567735 0 0
163.678934095413 15.3612803675332 -17.362306018351 0 0
-235.352292620205 35.2893104891508 14.2911801994153 0 0
211.661747576195 -31.6212363474989 7.3257643357243 0 0
-196.670039455101 -31.9111000649254 4.95194024579338 0 0
201.79698448324 39.382821463889 -24.0403489882379 0 0
213.416517057682 -20.0185952304035 17.7266653595392 0 0
-157.617873849326 -15.022679536745 -20.4713802945857 0 0
175.042215687641 22.3614384209146 -21.9951259448123 0 0
-175.33424702128 -1.15710591320099 -23.1251148052015 0 0
-209.006990681077 -6.42509466871594 9.12841274469393 0 0
-217.901822022002 -10.0930684928231 -27.1119797188769 0 0
-159.539591136599 21.0016655453179 -11.1134545939654 0 0
-15.3540853470249 5.91501274301543 -0.370711617798983 0 0
-198.062382272692 -7.13136849959689 -24.3692369075105 0 0
198.135612606496 -10.437528591071 -18.4017790647028 0 0
-221.843519444364 13.2858638499618 22.1600640239549 0 0
-111.163589322628 -13.5867330183636 -14.5960948420561 0 0
-171.738769640711 13.839285501706 -8.49829276931741 0 0
183.257200796261 -39.032360503752 1.73782903234004 0 0
-108.57730445658 -2.35394917203213 -8.96280279732799 0 0
-171.719248656235 -9.09225936915734 12.0258609593567 0 0
-64.1998562489632 -20.0838077820881 11.4371428105443 0 0
-169.028687624983 7.87598684308692 -15.933568640663 0 0
-204.892031385408 43.3080231368787 21.7353370664815 0 0
-125.09311998985 -19.1231393818695 -12.5933113540265 0 0
-207.350368711729 -33.7257399988796 0.250771690283578 0 0
-70.547947248504 -8.91663795264571 -10.2150846641943 0 0
-199.496504806911 -3.29936048849463 -8.54581131844992 0 0
173.997802000055 8.72776867404122 -20.445682782578 0 0
104.141110268929 -0.0257691486763042 -7.92188489748224 0 0
-137.610603420742 -20.7174737983522 -12.8369413746086 0 0
43.5810635754095 -9.29200609450115 0.14873731520164 0 0
50.3788938160609 12.1604433444587 2.27065461880413 0 0
-188.724409258909 -16.9174960019448 -31.0909184081785 0 0
194.361063367465 -43.2716102455754 1.04995655972405 0 0
-186.705258663061 -37.3469625082416 -12.6147665348824 0 0
29.8468161592696 10.3983521823093 1.58988877986356 0 0
190.340210521482 9.65985890079206 -29.5738113920706 0 0
209.229713140931 -24.5423183267383 -25.9722961246318 0 0
-204.961200189369 -22.5138567278044 8.42507890642487 0 0
-208.416428433171 -14.5937949758342 15.1602607448349 0 0
-66.3259269831175 -17.4446100128434 -0.59790320375005 0 0
-19.9119497227135 7.13547403309226 20.0811257800246 0 0
166.379242541456 25.0506555834197 -17.0645069647053 0 0
-220.250470981233 -9.41948780451062 -14.9882078657978 0 0
-179.139119588389 9.7399930176129 -11.1591677200259 0 0
155.652529292182 -20.2542032210654 9.73032567275899 0 0
-10.3594184945326 -17.2855486140828 12.5024017784984 0 0
178.608339190191 29.4351681336029 8.97590187091678 0 0
204.509614739387 9.73229779026168 -40.4337369663103 0 0
-236.057345577192 25.7229414848636 14.469259716034 0 0
221.497310608613 24.2034585348152 2.40431542991312 0 0
123.276979602643 10.9182153452603 22.5141282056681 0 0
-194.774205970238 6.49288421194835 -11.0007595673053 0 0
-221.131677825149 -16.0176659066923 -0.306812489264854 0 0
200.01814745248 39.4873667036799 -26.5783642547224 0 0
171.899584046885 -23.3731239762775 18.0275386434496 0 0
-206.415795996167 14.4005640132429 -13.2010595226216 0 0
-86.8270365951373 7.86143432834778 2.29364825076578 0 0
-237.601113357416 29.699063350666 -1.21048016014937 0 0
-214.527801138413 -27.1196648637154 -7.20686107214641 0 0
-79.1425942445955 -6.79320185679937 -9.18110364526585 0 0
-153.082836419591 9.84431398090589 -19.3441687748806 0 0
-18.9273262180554 -12.0711162892363 22.2864085970927 0 0
-131.086896732858 -17.0866889219751 10.7092574908292 0 0
-198.595277084822 -5.21436259260633 -8.9406357369766 0 0
201.818223225648 39.3895624520056 -5.72861791700942 0 0
-231.776238386909 20.8497541088345 -10.3137385659982 0 0
-96.3797053131775 6.11721587968835 11.8516662130007 0 0
-181.426591877126 -42.5096466070037 -3.82700424823915 0 0
-190.239364998726 -6.25372331562567 -27.6467637231238 0 0
-212.050581482839 -29.7456570944662 -12.8762210270593 0 0
187.653884726524 -43.9599616692492 -10.5800803229475 0 0
-153.218676009348 -13.2589772858816 -19.0456935532546 0 0
164.449358714012 -1.36416965830198 -12.3793456784545 0 0
-57.9007482058754 -7.83643566723402 -8.91656472515453 0 0
-73.1578560125897 2.51423249311857 -3.7906996489903 0 0
-35.1216025188754 5.00690839605788 20.4843835168928 0 0
193.381370856408 23.3249891740316 22.2931449871598 0 0
186.768099875601 15.5883061967068 -35.6920529276743 0 0
71.3398727412945 10.4851171926344 -1.93668580782285 0 0
225.161847656581 30.5321617018526 -7.51095971838768 0 0
-220.636937884025 -12.5772516942508 -12.8530140628368 0 0
-209.41869724532 -29.7244458762374 2.37455225079174 0 0
-75.2392984604928 -5.59166349359881 -8.73088357266099 0 0
207.778114825263 -8.25628800659503 21.230415512727 0 0
-196.265446050053 -7.62585020653253 -11.0725314726724 0 0
215.439153514573 -25.885015550466 5.79929429160459 0 0
70.2452132758252 -2.0253654384807 -6.29011005927718 0 0
199.542531142333 36.0410682159 -43.6113371260483 0 0
-67.5771491690936 -9.16418383879107 21.5552961911808 0 0
184.945359930321 1.79875855689298 -20.6221854597676 0 0
90.8439429895285 10.3534853349283 23.0928470064037 0 0
-30.1172281106152 -10.4342662278941 22.9844820057646 0 0
-19.6544397604592 -9.97393440626148 -0.729203485154758 0 0
-174.273514898449 -33.3053060621467 -9.83575893922775 0 0
49.3776779261559 10.2625946523973 21.451787492733 0 0
-80.456419425233 -1.56787839738374 -8.89279243284469 0 0
-208.596844177524 -19.8523002491414 11.5771957703587 0 0
-175.711541262542 -35.3674890353227 -1.46577282273341 0 0
-211.354271457071 46.8217514924468 6.00015880900728 0 0
-80.0402174097402 2.15107399731532 -4.7444864419999 0 0
218.324928577762 33.3523759585995 -20.7998548782049 0 0
-57.6637943909394 9.75823880912459 5.91019096003414 0 0
-181.787427456647 -17.0359921502227 11.5762244303451 0 0
225.741888055964 32.271445586688 -9.92989427091267 0 0
213.847180931505 -23.3654905773101 10.8726057029914 0 0
139.537235382157 20.3856064407424 11.6015418464835 0 0
181.799054965416 -22.6783245544742 31.7351552069334 0 0
-192.582193974594 -23.9933634749479 10.1791210493432 0 0
176.649854474913 13.1443335687651 -20.5315489797274 0 0
-205.455790912945 33.1321916656893 27.279343442046 0 0
-112.247841486349 -4.31131684192406 16.2641463171912 0 0
180.160398303654 18.5387959738415 -23.9397327045922 0 0
73.2914673034126 1.30458213637146 26.4422523708555 0 0
49.7058633484585 1.94266401288988 25.759473031095 0 0
36.3775827664014 4.32354701341351 24.5432850725284 0 0
64.1208612693075 -13.4899038737851 16.6776658782441 0 0
-210.310208991195 49.5418150810918 0.683444088023239 0 0
125.795305578559 -14.611695348592 17.5372232870274 0 0
149.509057805934 8.48950143361987 -11.2060802892821 0 0
-135.136010717006 -18.3242033305891 -14.9414545387402 0 0
-205.671563375491 34.9096802183127 -17.6445819188527 0 0
-221.535248632985 34.8583505346266 -17.4475122271833 0 0
119.4314108196 -15.6523497142152 13.6179506250639 0 0
-215.746478956003 34.1143353241016 -18.9927197870261 0 0
220.098361219174 6.85802165536079 -10.9130965107629 0 0
16.1645224359216 12.4617427801136 15.8135456300961 0 0
-207.343161830576 -11.6378119631515 12.5507626331795 0 0
-122.437595052045 -22.1865716767502 6.59498157242364 0 0
98.7825701585236 -1.72397379409448 26.479740448586 0 0
215.622812930866 3.22560602686371 -15.945959898301 0 0
-215.682405730246 -13.1225216674175 5.34885663275882 0 0
195.510802170273 39.7400548024355 -3.97268372605015 0 0
-181.724680843176 19.0301839617422 4.6836367460318 0 0
-213.432163086455 44.6078485151603 1.43450356948637 0 0
222.394517836508 9.75693729453514 -15.1727802060659 0 0
-163.317342065084 15.6118976912403 -9.06480847327637 0 0
-196.118066264734 -8.78571427517806 -13.3288024202266 0 0
-162.917502747861 -25.6488324132411 -14.0150002911328 0 0
196.256350140327 40.3831860890291 -5.5879652653132 0 0
-191.479237987997 -35.3697700337913 -14.4522607593964 0 0
49.5713577233076 13.475224103869 15.8001150293125 0 0
42.6723637776577 14.1212970055826 13.5777057347204 0 0
-193.510285996102 33.7282231292786 10.377464398072 0 0
129.080475372233 7.9569199147648 -9.04621035934194 0 0
-235.709975462357 21.2525423656378 13.0343502403378 0 0
194.855783642703 9.12253099811359 -38.7086382715018 0 0
-133.156541930554 -20.3905817990148 7.93517361129912 0 0
225.359494887701 32.7560068432685 -7.45300401996688 0 0
-217.139567020637 10.8969512291418 -8.85710551874817 0 0
-89.5837345374638 -0.270067220978335 -8.38801947331016 0 0
-204.153918411979 -36.901607270306 -7.20162582713282 0 0
205.96817344988 -7.24439322128031 22.9771963151081 0 0
-53.2350225922259 -15.83815716176 0.65409295260242 0 0
-190.790165117829 -1.83907489307195 19.8320241802614 0 0
206.903658433092 37.9275890010506 -21.1455871612973 0 0
193.657252689411 37.8134943717203 1.19321043556589 0 0
75.1946410577713 15.3160401913054 5.76170392686955 0 0
152.559910209749 2.20813609519898 24.8593266216762 0 0
-204.104547557367 -25.7156441694975 7.42936009812129 0 0
-212.186573608339 -11.3758165513811 -11.6829388076345 0 0
-153.52315279959 -16.7233115921099 9.37045154416406 0 0
-157.823325536187 12.6337870875145 -5.08897735124672 0 0
-219.581335631273 45.1243060423929 -1.28739643858217 0 0
197.357552801314 35.2781548677274 4.79966508873151 0 0
-168.369801542421 -6.42189786290521 -23.7073181208354 0 0
214.624565839305 26.6678088420224 -39.7972506141132 0 0
-196.038778643442 30.7579798589816 17.3648430907393 0 0
-108.378254733206 -22.4651898869156 7.0476471316554 0 0
82.647865166507 2.21204597176559 26.5199887512078 0 0
-217.220437068081 -25.1783760634123 -0.41852394390752 0 0
-209.546616227109 -11.0868164394208 -10.7102261645209 0 0
220.605982951961 31.7374010546546 -32.8524335436232 0 0
195.421094980518 -16.1289053766179 -28.5995660728034 0 0
43.2145660510049 5.81068793464464 24.2947285024386 0 0
-205.639860010502 23.44461724802 27.1929888114445 0 0
-84.9613222897522 1.24139295540466 -6.67546076695186 0 0
222.295770683783 20.3806702635675 1.41276740479251 0 0
-235.859209342205 17.7435488140763 1.81532633699523 0 0
183.871831277808 13.0582084889972 -26.275220519843 0 0
-101.74370526596 7.92410213635841 5.88646094717817 0 0
168.230771073855 -16.9795421825078 -12.8861490141595 0 0
-101.499895771218 -5.52083389122886 -9.78276386898458 0 0
85.5447394404866 8.55717127111828 -4.5968198941141 0 0
-229.419321217086 45.9550152010622 -3.37588607318533 0 0
-50.1217851406634 -9.07103507338575 22.7572389238021 0 0
206.671063262064 -10.0936180014598 24.55350442085 0 0
179.355525643594 -35.0239517572959 -15.1595513948683 0 0
-215.081047968954 5.23685305604481 5.31174232982103 0 0
212.877923530623 -14.3868892033065 14.29066226835 0 0
203.730108965871 39.3787766165733 -6.97651841965406 0 0
189.424769051905 7.1467909856596 -36.7103529287746 0 0
36.1940409355149 -14.995734199121 13.1697508202112 0 0
202.187467672612 30.0324218086658 -44.2722450114416 0 0
-107.801017518163 3.20684766446846 13.3548213542294 0 0
-3.95682696554975 3.56208725594202 -2.48555209023811 0 0
205.405826549413 -44.4487631057751 -20.9850818704829 0 0
165.416849441156 28.5044107290646 -1.94851005211604 0 0
-220.840606223541 46.7131118909724 2.96991163902598 0 0
66.1413296420695 -13.5874999086596 4.19676061525084 0 0
-88.5292124431646 -7.16612772133388 -9.94175336742952 0 0
178.028384278963 36.2098447612305 -20.1928573370507 0 0
-219.897211763507 6.54608164842873 15.2833737183393 0 0
-48.629326098372 4.02828472254123 -1.87994548485561 0 0
-154.090453478488 16.6923913999069 -17.3902617939421 0 0
109.142826778745 -9.60358834095064 -6.19726223849484 0 0
-78.443174423479 1.77492727877648 -5.17336876954423 0 0
216.753131397779 -34.0738783750546 -3.00125997658278 0 0
184.6256662549 -11.7283977965233 -20.842030036773 0 0
223.774667316114 34.4766357130611 -8.021377725477 0 0
-157.449369007578 9.36558187647656 8.20317336173319 0 0
-49.4382696039639 -5.52811762310096 23.1395524658527 0 0
209.521309667189 14.235506200824 17.5831808285006 0 0
-64.5244778961313 9.80008480914556 8.71474291117737 0 0
-213.217294418043 45.4900828892052 5.22750633145922 0 0
170.723950781266 -33.0305943952214 -4.01420318241866 0 0
-162.585558069781 4.98858201252778 11.9866363207158 0 0
157.507601968799 24.8304639128825 -6.26125413328628 0 0
-184.492622176891 -36.4580865238109 -16.2223094035831 0 0
-199.039489128158 47.6728435449003 8.18488856549415 0 0
-125.139530528421 -15.4642033064105 12.2479411842244 0 0
-209.280457091605 40.3688894756926 25.4120619602894 0 0
212.476127765351 -8.60388877590113 -2.30967881701929 0 0
-178.021997636166 -37.2390480967443 -11.2465469497185 0 0
13.1910658890386 -3.3042928546347 -5.57091300912774 0 0
-228.454658583656 19.5309340647317 22.0489225863469 0 0
134.045106902493 13.8040068567514 20.1922026258323 0 0
-79.4474301045665 6.66692565898504 13.0722087727284 0 0
-204.28802707792 16.7588904207726 -14.0926318916376 0 0
-174.333225193718 -30.7744436894456 2.58129367170709 0 0
22.1924332215492 6.36350324375419 -1.36766354172091 0 0
-179.308222604296 -7.50230019696222 -28.0332331821937 0 0
-171.227291815607 9.70034499094613 14.0876710174515 0 0
-209.061872542862 0.954915889596359 13.331382252038 0 0
126.627399721999 -6.66374476679963 25.2785064526467 0 0
189.95489227723 36.5791019871087 1.88984419488162 0 0
-105.740531235289 5.07763376143735 12.081452207479 0 0
-8.95524157350555 -7.61916773061564 24.2396677536326 0 0
-195.467212037519 -37.3670122967032 -11.7411924342253 0 0
161.365854446272 -24.397075730788 -6.94505543379183 0 0
65.940318469145 -2.75478176206398 26.1376834194875 0 0
189.520289819857 43.1715185457367 -21.2677909253935 0 0
169.508793547797 10.7052239868001 -19.4895280523215 0 0
184.323611805035 -6.22916253968148 -20.5930046081695 0 0
165.939502286824 -17.0279562320319 23.8773706715973 0 0
-231.049572153208 11.1571641176353 9.35580159016514 0 0
-112.666019666325 7.64366647103743 4.5494347585921 0 0
60.0548211756443 -8.73878318462584 23.0573407387701 0 0
-192.354052154662 8.70225433542462 13.4055022721708 0 0
158.806689582905 -6.61950479332813 26.7050846075999 0 0
118.711506330757 -10.8045272787865 22.419262954192 0 0
-226.927667538485 6.76476241751006 4.49015118758927 0 0
-127.635763037262 -7.40031841857698 14.3696801087872 0 0
-20.4747251778681 -4.6376250109889 24.5656125382296 0 0
81.8571052855365 -6.53939600316713 -5.63287457124148 0 0
-17.8541495425344 9.63942827559653 17.6024299387337 0 0
-77.1563609993919 5.82983261398481 14.5180079515777 0 0
-188.903378656595 -8.50403547765827 22.8193742626232 0 0
216.826601275027 -29.6700792261277 1.71387386785098 0 0
-147.808528030715 -25.5936121821749 -2.93820283290728 0 0
162.713372463862 21.6722640662276 13.1486161648608 0 0
203.463609456883 -10.2925620749165 -9.27166749769343 0 0
208.710042882232 -10.8429436611634 -8.38829494703918 0 0
224.17177083905 27.3309610536404 -27.2116591822185 0 0
214.741369174069 -29.1611647102068 -18.9854112102278 0 0
-59.2702312142271 -11.1159574393339 -7.86712707664561 0 0
-238.223813952325 27.2651282412355 7.63213508128385 0 0
151.672029677174 4.32073105796986 24.0240200559633 0 0
206.044396451062 23.4121182431354 24.4722893242951 0 0
-154.460244701946 -7.09019819257132 11.1904630181265 0 0
98.7426945678812 16.3765401771894 3.20992368039655 0 0
180.96466209355 30.2389826987091 9.6008736217427 0 0
-138.093176423256 0.487865070215727 -13.8989197497543 0 0
-220.913550227285 13.0274467930072 -13.4476433616846 0 0
216.326025792491 -30.4536522369105 -12.7673770635522 0 0
167.157174991358 -20.4368649486745 -12.79123168955 0 0
-109.844830117242 -18.666138955738 -9.37490855010427 0 0
-181.184142270249 -8.50991493432058 16.1955646458825 0 0
184.830476500553 21.4622296732811 -37.0265466153429 0 0
-206.640567625167 -29.0572299415925 -21.3955115410085 0 0
-82.0949978506624 2.18958662253262 -4.58719966873062 0 0
82.2323314818407 6.86173968269347 25.080165489666 0 0
