"x" "y" "z" "f" "a"
-53.6344178755796 1.91741380444734 4.91256216658839 0 0
-112.958678237602 13.5717801212002 -11.3941820062497 0 0
-67.0440807800801 5.35972796932382 -17.5022691182341 0 0
186.639642932688 -9.94406448555703 -23.5156164175881 0 0
-225.452702694057 4.17595375597944 3.90098985561339 0 0
-180.846496421376 12.708360190584 24.0552766067817 0 0
14.0386117598729 1.42136490921497 1.04364341816021 0 0
-225.453187676777 -45.0482946741838 -4.89282142031804 0 0
151.177849380819 -17.5334941111849 -12.9991525596753 0 0
202.909839563893 36.0823579402797 21.3059866105478 0 0
176.573718056641 -14.9725712937233 -16.5836442541195 0 0
-195.562993952537 -14.4635162775922 -4.2238127399928 0 0
-9.41222774966269 -0.361290604060009 -20.4252512832392 0 0
-33.9087617524847 0.835043940593803 -19.2959515197941 0 0
214.83747031478 -30.0763127511071 22.0889241000904 0 0
-147.124747483524 13.1292313339826 19.4757661366826 0 0
-219.066969937122 11.9465255000875 11.069020440541 0 0
-219.459996369215 -13.5087954416502 -22.0387835957175 0 0
222.041954802101 -22.8365791697842 3.20562076725289 0 0
-247.529720670621 -28.0519286305947 3.6178368670453 0 0
-218.110663337155 -32.6676291026195 -21.9319299211733 0 0
176.197585783196 27.3526269964571 -8.84982180878893 0 0
148.812921174699 -18.2213781986122 2.60323338361777 0 0
103.631893557132 3.43986293474512 -20.4706942008466 0 0
-248.635219399414 -30.2416632607675 -10.1944412516761 0 0
194.380353999736 -1.47392055648991 14.4742236111339 0 0
208.037217092491 -7.47220791836243 20.3655929628488 0 0
184.204783391217 -6.5823101848295 15.3431562507922 0 0
-84.5675846527588 13.4602096461912 9.4904939361444 0 0
-208.039093120656 34.6955964677848 9.65384377225778 0 0
-206.219569272067 15.3945369496812 27.6306254119472 0 0
-222.986063173734 -12.5194363786548 11.9246011858592 0 0
-197.096423260622 -15.7992610583257 3.99603617200347 0 0
140.560759772573 -5.04815669649067 -19.165993062181 0 0
-201.552387152889 3.94477263773008 -13.08604761901 0 0
36.2601862170536 3.62762017316419 -0.077907672967628 0 0
186.751804173663 -4.40927857842898 17.3018236691655 0 0
204.183122564315 -22.5835694338827 -16.0295287970784 0 0
-197.678715771323 -7.92515262770419 -10.7798424985449 0 0
-230.934390567837 14.7239508996752 -7.4418002056711 0 0
195.162380756853 -19.3831418644759 -21.6428845065637 0 0
138.796402341382 1.25836023328023 3.90078075001184 0 0
199.909090613454 -13.5978266516762 36.9939525552477 0 0
-118.23842285734 -3.93786800673457 -7.84006104655758 0 0
67.6489221019341 3.82681909767968 -20.5924214356028 0 0
-130.685142004817 20.9043283957951 -1.67265936080364 0 0
2.89670055969799 13.800216712968 -15.7343028654404 0 0
179.590782071617 12.4392911059389 -28.2322686063114 0 0
-213.680351266652 -36.0420116512981 -0.452390658090341 0 0
187.330396411842 -34.419492646338 5.82511199681558 0 0
74.3649268390138 0.505777465508281 0.615556432874748 0 0
-178.669360177462 -7.55678782583346 -6.807156804124 0 0
-133.196210548249 -2.76706322004687 5.2667100221823 0 0
193.26847813742 33.0316266107121 -10.0316080157627 0 0
216.016011324038 -29.6410287269392 20.7307537810964 0 0
-214.714316160605 -27.4726848833053 -18.7287209178206 0 0
122.067970170713 -6.45427276842291 1.89165153827798 0 0
-242.867377240833 -20.9584618822442 -20.9741344060135 0 0
211.96241104486 -24.5727245268723 -11.0941030723186 0 0
51.8412309648863 11.9485726090166 -16.672229797428 0 0
219.7978841856 -14.0897868412156 3.25801937295143 0 0
161.952660086946 19.8539488953559 4.47671652700902 0 0
-247.391554615608 -17.4579014561529 -13.7037072168445 0 0
-236.598961597951 21.6236546009117 8.82871837342635 0 0
216.272155026917 -7.90513728930181 23.2804544770013 0 0
-158.025148759763 0.825042185699638 -8.24000414574861 0 0
-142.327748958363 -0.306618103848442 12.0851442792374 0 0
-176.830045634864 -10.7546373586534 10.9243852040192 0 0
170.649468261603 -13.6799871334275 10.74196928847 0 0
2.71056607740274 -8.6007240505433 -9.95973761928769 0 0
192.826963504374 -7.47994631535636 29.8887947449947 0 0
154.390809832365 17.4310039831793 -14.5224116354411 0 0
175.320222798251 -5.11805725754918 -18.4638744106933 0 0
189.513917579871 12.2772782936188 -28.238965238752 0 0
213.889051136609 -19.1341936752322 -12.8389021670945 0 0
193.019055049377 -28.2311030083423 32.8920191366154 0 0
-226.57711529024 30.4932993753305 -4.80785179394121 0 0
-231.187653033927 -43.0183645179645 -6.10242317089051 0 0
-192.730564555584 -14.2742726491786 7.08502302965194 0 0
209.970622368574 -26.8162075244911 37.8550550232297 0 0
185.316183939559 21.4439943363002 -25.1029742410282 0 0
175.057069535955 14.9265025531727 -25.7163616639441 0 0
-189.238959496902 1.31110213932088 -11.5941248460053 0 0
171.231784196194 18.4085105476474 9.09772975685452 0 0
187.101084640082 -35.7154733058727 20.9110317710804 0 0
-238.061388650013 -8.78059591760243 7.37419702463298 0 0
-224.17878880122 -9.25326079197334 -22.0493021022867 0 0
202.257223865126 34.6632614666138 -5.17014378361025 0 0
207.66109357927 2.50193222965022 10.851591701301 0 0
-230.789455422715 29.9128839259091 0.681407124717467 0 0
90.3154148665593 6.43684203947625 1.31414297388251 0 0
210.62713386258 -5.60729878191168 23.6385860245557 0 0
211.729347918106 -20.1803144422009 -13.6479771262031 0 0
200.724906735095 30.3869315006611 23.9906922305237 0 0
-214.731618151196 14.2369520583284 27.63998685743 0 0
97.4259350100034 -14.586278096128 -5.92800947532601 0 0
214.27275935522 -17.0316001016522 -12.0978494303599 0 0
175.44491912458 28.5940757638669 8.87299942907438 0 0
-142.941811360145 19.8846339372197 -4.89456653419623 0 0
174.791866981194 -30.554163613213 8.52008428183982 0 0
-91.5863610019387 9.73532603059151 10.9127582234835 0 0
-136.126694325219 -4.91310677391591 0.475284654697926 0 0
158.427633216644 14.4590759326686 -19.6101066896022 0 0
-173.010173086201 -8.11682383792923 2.17903458072855 0 0
-84.4389108848182 17.5239446802677 5.53704227763821 0 0
89.2369429861061 8.88819769694204 0.146931118011484 0 0
191.299550416411 -20.9517123146013 -16.8596942261336 0 0
-211.249837854204 2.37245938924261 10.5777639753952 0 0
219.503384649455 -30.1235521147443 5.18000372040394 0 0
-217.557516263446 1.73172539965735 9.82884484942874 0 0
60.4762253309008 12.4515620417339 -15.8934260617536 0 0
206.501022427687 -7.27883221225183 23.4359146633861 0 0
201.440828714814 -30.624357148405 29.5758479600567 0 0
-235.901808006135 8.0329777044873 16.1905577933177 0 0
-163.208592722547 -3.38445218950908 -7.34315760761366 0 0
186.740488270004 -31.1464040246338 -3.45616346372342 0 0
202.269468857948 -8.64474790810305 19.394133084823 0 0
126.633872153599 2.53805917741986 3.14162887540739 0 0
-128.133919032009 18.260874064309 14.0924077974983 0 0
164.019746185975 20.5928776778728 5.31280421728774 0 0
-191.083004955301 6.28975755621779 25.5444601511024 0 0
-84.0479167795771 7.81102867081937 9.0033860532624 0 0
187.581760930814 -8.72390859986374 26.3366893371695 0 0
-213.300022148616 33.2281714281164 11.8156300895853 0 0
59.5194360218784 -5.89465141808987 -20.038514920378 0 0
195.158564256396 -18.1709276388993 -22.4304828175974 0 0
-242.296713949737 -12.6137656673522 -17.8260281641358 0 0
-15.4812677082307 4.30948171987899 -20.5443445774829 0 0
52.2515436318436 -9.16825000574452 -18.4138917460162 0 0
-228.817200918914 -43.6848267295975 4.21402697806708 0 0
-203.332267606019 -8.50409679543542 11.1070667375104 0 0
-210.590931089914 24.9465111506419 22.9936576076317 0 0
-194.958579751388 28.5359081228349 -2.90028147530087 0 0
185.487090052734 -16.0703367384718 29.1621091684373 0 0
-167.346341969543 10.991292078128 23.0151837407279 0 0
-78.2157340498338 13.0606785009082 8.57597075270769 0 0
52.9209684700006 7.60844616022898 -19.5810789734167 0 0
199.945882944408 -10.0755870962334 34.9547686295103 0 0
-183.468519987816 23.5945087616212 17.4619200511798 0 0
-223.718544939944 5.63923390798894 -14.5126158388217 0 0
149.443198526709 18.0735803610571 -11.7557006620025 0 0
-245.642679393592 -11.2167701591844 -9.32432260375721 0 0
171.252705660771 -4.97952370214809 -17.6119100975294 0 0
182.460493551575 17.2740275007453 21.0467656136325 0 0
-99.3572488745989 18.0580829228832 8.48364069175402 0 0
183.97670200475 -31.0590650046965 24.917714501469 0 0
-54.7507673422067 -1.4404224976585 2.03599846459605 0 0
-212.748212474027 -32.3533819594391 -2.6226793091355 0 0
212.126981612937 20.9270027397719 -15.6039676679112 0 0
132.510295574439 10.4784540322371 2.72429400318005 0 0
-182.226030551817 -18.5161981002149 16.2720114185221 0 0
-244.434174147881 -18.8081927431492 8.4404147543094 0 0
186.529253580444 -23.6562086205747 -14.1796535159829 0 0
-75.117117072235 -1.23222460638563 2.7611570984483 0 0
202.726304990244 -7.32832753823384 27.5712185569355 0 0
204.427062638664 32.6863324890587 -8.78597570805615 0 0
175.361796500066 29.4029449364788 6.89998890825112 0 0
-219.020034690233 6.54748626780867 9.3221562817574 0 0
-10.6149559758242 13.0831683453301 -2.30325489561705 0 0
-55.3569993865757 0.645122958493843 4.09238565353346 0 0
-232.421648445159 -43.6386046955299 -1.26689587158607 0 0
213.002186791362 31.7448750314574 11.6117008452427 0 0
-214.152395513332 -26.7308558160826 6.64092558339565 0 0
172.651637928397 -21.4369575129824 12.5072445302289 0 0
-105.036739644353 19.6222881531195 4.98623051891523 0 0
2.84304163884886 -2.25212121306474 1.6107956375688 0 0
43.1481119995019 -5.18087665529449 -20.2857547420111 0 0
-36.0901221174347 13.5124186859334 0.110987094892888 0 0
-215.710666242061 3.32403808521955 -15.8941592119812 0 0
179.948136111831 -32.7768042670508 8.20810213444202 0 0
-162.87657684204 18.6529160920109 -5.85827914360523 0 0
-18.0134845130818 16.3361853930321 -6.95292982214812 0 0
-202.001268362565 12.0588868962015 -12.1075496168941 0 0
112.203066408429 -14.561586604091 -14.6471859117451 0 0
-217.582043137014 7.30599768875996 16.8190669023145 0 0
-199.985711060448 30.5314918361993 12.7908606661082 0 0
-175.752486017781 -8.81383172330334 3.25389232519195 0 0
168.124953641449 -14.611318182071 10.0815952005503 0 0
223.714244365511 -26.1559893682785 9.84233784889199 0 0
-205.87507183329 35.0363381122899 -0.912337284826491 0 0
-206.486911458286 2.49182007835743 21.5401847408186 0 0
-200.593890985329 -15.6549227743185 6.067407423175 0 0
206.537697475396 3.84017067688057 -17.6617156190724 0 0
-82.8038821482933 9.67862681568581 -15.8587419767081 0 0
185.136599967554 -21.0443756992009 -15.698517059081 0 0
-57.6244756649374 -1.07141477925347 2.50478088072099 0 0
-173.560521201813 -9.47749977959113 13.5771557428822 0 0
-179.886265527401 14.9267134752142 23.7610162152727 0 0
-6.70849900708314 4.29879167783944 -20.7337111616069 0 0
-119.445086638014 3.54635876458618 -11.2651889615658 0 0
207.551207356173 35.6032720348284 -1.58119181289658 0 0
-247.047495255572 -34.3481026527366 -2.51620348397724 0 0
-106.76282535997 19.5609358319451 -5.91363234020078 0 0
-98.1852477021419 18.5970693679588 -8.29487154488725 0 0
28.8809890729482 -3.61630398499649 -20.6530229547755 0 0
186.698604283869 -2.8135703430469 16.5098041212771 0 0
-243.265603069731 -27.8592717671061 -20.3634689768266 0 0
-110.480094565913 15.2443461283006 12.8963576572606 0 0
-221.331752894744 -42.0566545858835 -14.0609832072541 0 0
-25.2935965547488 -7.09695336438256 -8.95245915250482 0 0
-149.270030324374 -5.00110853890925 4.38360129932677 0 0
-15.9342026244614 10.2168722774391 -18.7292829621269 0 0
-212.170802878739 -34.2075994286179 -3.04943749738248 0 0
206.36015896772 -8.78575299073404 33.5943106934656 0 0
214.512816476877 12.6827862513434 4.28345882168661 0 0
217.942218710924 -30.1816144049803 13.5144453291492 0 0
85.3065201159636 -12.6040982470752 -16.3047526895691 0 0
47.6161637747221 -11.50657533847 -9.29185849256076 0 0
152.520814860093 18.9291069967292 -10.7343285886185 0 0
-185.231300165671 23.4273028031807 -4.16050826397458 0 0
-129.597448005599 -3.14152203878357 -7.75929447618817 0 0
-209.810276726978 37.0996195626785 4.47450766929353 0 0
-149.383999450436 11.8090961474397 19.5622531975468 0 0
-76.1190741097234 -5.47578583598138 -3.84917786357408 0 0
-114.127371855518 17.6900417975674 -8.63546574532353 0 0
198.107288346696 -24.6031810856174 38.6237617677397 0 0
-180.601394706328 -4.91682622805982 -9.78489895924335 0 0
76.1839027273198 -3.25116041003145 -20.3644759546393 0 0
208.280460011578 -19.9015334394582 -16.1163140355634 0 0
-129.164453359765 -2.5923431224404 4.75790211283025 0 0
-214.167563767321 -21.1734543949353 8.15083274467069 0 0
143.491276587485 18.2939666342176 -2.73589296232692 0 0
-102.792237524136 8.32380936591133 11.7234970637258 0 0
162.979571263391 22.6623870051552 0.92405241631607 0 0
187.001739376088 20.0458300823223 -26.4160376131602 0 0
-237.557805281585 14.3023679495138 12.4557926107407 0 0
198.607188878091 -8.67969681158847 27.3011621635215 0 0
-235.42608439247 -41.4951615497368 -14.0516587982322 0 0
126.788998730451 12.6546474419405 1.75912988636746 0 0
-214.612648632803 -31.5841835797747 5.16734519342476 0 0
143.498796988688 -21.0565477779932 -5.32463499888563 0 0
177.450986219676 -31.0890143931717 3.33702028434545 0 0
12.6155596608222 2.38952802892865 -21.1101844746725 0 0
0.301327139783101 -5.08862498563493 -18.5043905328108 0 0
183.772803699851 31.1207711470819 -8.46045110013565 0 0
5.81204191635814 4.50980284441572 -20.8235870818116 0 0
195.083615519031 -28.0030441660498 -9.4801559755216 0 0
133.06094232802 8.81361982495796 -19.6849204977455 0 0
217.369037017432 -6.90970480579735 9.52565368459911 0 0
181.487791206037 27.8694263511955 19.6397647271657 0 0
-142.793064510738 6.89731615250623 17.1045493247408 0 0
-193.792060283654 3.89769532450453 -12.2561475885442 0 0
-168.263315691636 0.123804196458547 22.7685106099207 0 0
156.70529472593 12.1323014576313 -20.7505590483369 0 0
205.616968465374 14.3145106230937 -23.5685327334076 0 0
-218.611477180939 12.1876635612916 13.4007803110933 0 0
77.9667545518287 -0.300249363865134 0.484848730000376 0 0
-17.6609640035299 -7.29744474253438 -11.2492230411184 0 0
-99.6566909140448 -2.84298923677796 1.60222695314001 0 0
99.0109629625322 4.49825586119869 -20.359620178434 0 0
196.512362311725 -34.634702726056 27.1813437059599 0 0
-2.09761433366433 -4.2564483203012 -18.9886590293493 0 0
-178.586852278967 -15.9047886538761 24.6814048087903 0 0
-0.356880717264449 -2.70096700946018 1.20827106080096 0 0
186.286461483723 35.0450463352427 15.0598743849446 0 0
-219.741920108992 -20.6139287572187 -24.6093192486525 0 0
-13.2143266954426 -4.65524467445624 -0.873400982652803 0 0
151.190301521945 -5.10859619138411 4.69926553582406 0 0
-227.391688567857 0.229499136476952 -2.55897035850246 0 0
-126.783558591262 18.9546879134436 -6.54406776301923 0 0
219.96473426697 -11.0473409537884 8.41753277622323 0 0
-239.188221669714 -4.83215724189787 -9.17241566974227 0 0
171.390161169174 26.6534745101296 3.928404362389 0 0
-67.971757065537 3.80195890533419 -17.0647114255115 0 0
173.517806368693 19.9034350920094 -21.4461031513844 0 0
196.492668079122 -21.7223350454104 -18.1557236021938 0 0
-115.452331823844 5.50297368326977 -12.1494295731945 0 0
-142.253440279441 -1.93720369200793 9.7848312950976 0 0
-197.348663760012 30.0325202367665 -3.75942799095362 0 0
-229.996204475956 -32.1881886075261 14.3723064069599 0 0
216.180371205808 -30.3311082531727 8.01957101897014 0 0
184.947770911484 -13.7643063687044 -22.6239109384284 0 0
214.846594938896 29.8311433725749 -2.99129899389297 0 0
-71.4325067565694 3.92613999051621 6.95209726381528 0 0
-234.016843747952 -34.0644972954392 -23.7869395215444 0 0
166.82659909987 23.4846457649863 3.97634308621605 0 0
-170.754626754361 15.7946647883121 23.5009922368617 0 0
210.250233589764 36.149734371785 13.7440417027559 0 0
204.98258880802 -33.2063858556957 7.7154967142188 0 0
-202.017481775211 2.25440256266207 -12.6435415925006 0 0
161.87931663943 -23.8789390253681 4.20724743079912 0 0
-233.434726106086 10.6025613595456 10.1723250182169 0 0
-229.77519878665 0.719385437492967 -9.97579191426811 0 0
105.301171067586 -9.18885736545165 -0.664885030370611 0 0
-146.244022958577 21.9887298989605 1.64190193046132 0 0
174.932247281627 27.9007071293577 -4.33590286337833 0 0
-57.1821805044643 14.015622873244 -15.3943752571415 0 0
203.490350172091 36.9904304434922 3.78919124047059 0 0
197.411407160603 -7.98125188954827 -21.8205885037355 0 0
-143.800129636519 -2.90920390951011 8.29860771941906 0 0
109.003177759616 -5.94388755261366 -19.2867528296496 0 0
212.62648614845 18.3313284592589 -15.3218377959929 0 0
16.5484663361407 14.4108683918241 -13.9224804630786 0 0
-198.004935923563 -6.35967826369204 14.766503117993 0 0
181.120860965621 -16.5662660121249 -16.6766502696261 0 0
168.243233455797 -27.0532170825046 5.81150401414007 0 0
19.2067424955884 15.1328157849845 -9.49322807710998 0 0
81.6271334315757 -13.3387746604525 -7.05814904436924 0 0
-185.77099926288 12.4448135208798 24.6633705451377 0 0
208.874278571166 -32.334928231677 8.67073129216429 0 0
206.472313146575 -29.2774546101751 -6.61040970480231 0 0
-159.352597674244 6.90451612515128 -8.18111530114293 0 0
-214.227646803612 -29.3138669486523 4.81905475978442 0 0
180.780254581517 -8.00250457335793 -22.6083968118276 0 0
58.8363869636331 7.48056480967771 -0.778426493625128 0 0
-222.172772583915 -43.54504410197 -11.1702595774222 0 0
183.585864733876 8.87627924144952 14.1189941597911 0 0
-225.038460597178 5.79369608155933 3.74940796734138 0 0
181.365106149824 20.9719458288828 19.1439010299553 0 0
215.895586659555 -20.3202027038248 -10.9550545403154 0 0
-170.931254097459 -9.34661511156129 16.9941752560074 0 0
-185.454521603054 0.901801189746052 25.0106065631901 0 0
198.194214935984 -8.10915120127528 18.0569803924489 0 0
202.674306491647 37.1928005618012 -0.873602500823556 0 0
-127.311762670041 10.2962276729848 15.5573935685003 0 0
-188.13920054881 0.16132841104714 24.9900638795574 0 0
179.437068278803 -19.5053005114535 17.5260839966163 0 0
-194.277486946072 23.6910457785023 21.0866958916871 0 0
-207.634795151221 -2.49985501679571 -13.4685236807731 0 0
-202.794003787896 -18.747329631307 -0.0682078745998286 0 0
-212.880380872911 34.4512337679904 9.99282447426463 0 0
116.227637930074 14.6593916948416 -13.1446307486605 0 0
-203.251421523012 34.3118253938091 3.81200277182753 0 0
-244.587706921714 -9.36112820657251 -5.36173503463105 0 0
145.981889477078 1.56100868887258 4.49703084887144 0 0
172.352705861988 -24.1737079714078 -10.0626192400962 0 0
143.891591545291 -10.610601494918 -17.1773198291678 0 0
86.5835310513497 -3.75022721646466 0.139634591311972 0 0
-216.882977052883 -16.5351164201617 -21.3059161287897 0 0
-231.528273708065 15.2067051433093 5.41123788526555 0 0
-208.895014150858 -16.8312211249044 -14.3733612903024 0 0
32.8175395629839 14.3927655873035 -7.4842307539136 0 0
155.917012346428 5.31615968633923 5.63481216989202 0 0
-235.834131201611 23.7753988321725 9.28836947859471 0 0
189.681164488902 -10.2415179925175 23.1392280237908 0 0
215.70159431881 -9.05321304086931 25.7046944766209 0 0
118.340061179243 1.3671212845956 -20.5242302960394 0 0
90.2745918178004 -14.3160302605806 -6.96272020695245 0 0
15.1243042306288 -2.39730326883692 -20.8167927842196 0 0
-181.927122024292 -9.71571994256959 -1.12040787167474 0 0
-204.112730454464 8.62283859116602 -13.8110425166572 0 0
-229.084640933762 15.0794849430096 23.5357854619463 0 0
-180.93601154653 -15.2219193610203 26.1559092111085 0 0
210.517605293137 -3.97435773689389 -9.25081020967954 0 0
201.203110053605 28.1910385354041 24.2077007684019 0 0
155.699133214656 18.8474257312735 -12.4426743387783 0 0
202.226790749641 -6.41666473136542 -19.2324392682188 0 0
-85.5451496007973 7.11083906159788 8.92355989125537 0 0
-164.147071591294 5.51948237277564 -8.12745879359354 0 0
-26.4439815378643 -6.32421578315074 -5.04897510401616 0 0
131.875888986934 2.73512641368639 3.45817889135542 0 0
-94.2811506959746 7.67107765317623 10.2729787275414 0 0
214.972568234946 15.5448236378246 0.470477898421594 0 0
190.530200199378 -35.9331361692914 10.7798730058307 0 0
-167.866232890316 8.22448429293555 22.6462484864486 0 0
-78.9346873225051 -5.45318593183994 -3.79055428703186 0 0
58.6274258187169 8.38735539061318 -19.141044873852 0 0
156.144647119835 -4.63100048314414 -18.3322853673329 0 0
131.542834616931 16.987767486776 -7.83865281401111 0 0
-221.259259370644 28.9308266297233 -8.0775689978834 0 0
98.7803680636634 0.499142891616832 -20.6342297430064 0 0
191.092213135428 -29.4868173638233 -7.16565051958899 0 0
213.150807418307 -30.5193095324993 8.71092206266184 0 0
-50.5750868092415 2.74953230012978 -18.4440455294704 0 0
-192.689049680531 18.853117793765 24.6462311974358 0 0
177.832020031374 -30.3982165102829 1.04207330702986 0 0
186.635020270113 7.83834250214797 -28.4066681564908 0 0
-168.735129694415 7.64345631099713 -7.47500060960479 0 0
174.581486189733 -5.23673821784276 9.61165430841645 0 0
184.847597141299 -11.1226616909431 17.3614874064509 0 0
-213.581815999096 -26.8258456323985 4.34811744772012 0 0
-245.183373751784 -35.4028956391583 2.14503868126829 0 0
212.000730004622 4.85573489271645 -7.3286840347335 0 0
2.97286456740342 9.30034667599548 -19.2256302439447 0 0
136.850305862413 -16.4688529449667 0.157227367523127 0 0
193.539854199908 5.87928719272046 14.4287222930503 0 0
131.908848426895 3.13211718418718 -20.545605433723 0 0
-57.6250732714318 -6.4231073923427 -6.7588429605519 0 0
211.47212260064 2.1287197563969 -0.081103425917458 0 0
-82.1889275906333 19.2037651569897 -1.25256199393712 0 0
150.454389875248 1.25802858331542 4.93953835553139 0 0
212.335688829944 15.6305035961514 -15.5580737266371 0 0
-140.301633502719 21.1186237695603 -2.238318996425 0 0
187.851023700821 29.2052959534712 -16.402433603977 0 0
-232.401484397275 19.4847952587201 -2.09146686075753 0 0
-241.711810754806 -39.8162207328237 1.60377944860877 0 0
182.75797737353 12.3825824097026 -29.2466756245694 0 0
-14.3535669952376 -7.31662850692239 -12.0349829324848 0 0
127.675437646159 6.65070530550859 3.03807387884087 0 0
192.48286607 9.64191857247215 -28.2791511221203 0 0
-168.678224140657 22.650033959002 -1.89269056511483 0 0
-246.647753306191 -34.6074363997068 -9.58611648325305 0 0
-151.473384111993 5.18226491733568 18.3976469623386 0 0
0.514440467409288 -8.34309443386771 -8.32419148222608 0 0
111.931976174487 -17.2567611394966 -7.89166145535358 0 0
148.99048695285 -15.6549562624881 -14.4449628587471 0 0
183.43757260403 31.9221433931533 -6.54218111836482 0 0
-220.619654912378 34.8103412636616 2.17844368649501 0 0
187.881017912975 25.886105428769 25.169888989579 0 0
-183.829090313438 21.2555689810885 -5.62534358294291 0 0
-195.998189079053 30.4700376736102 -0.531839017484135 0 0
75.5491301045055 13.3109138314142 -4.86079986989131 0 0
197.606110210739 -35.2786821716284 23.3042732651462 0 0
171.459082724984 16.8204334382124 -22.8028270728142 0 0
107.983810987553 -16.6188507663837 -7.04795634651083 0 0
211.924181690433 6.28924248809425 -9.53369082257701 0 0
207.797899257386 -32.8719510640677 9.49310374547523 0 0
174.890059970567 -29.2808749101324 11.0420650616356 0 0
-224.666390009756 11.3321118790611 8.43365545245537 0 0
-228.035301727753 -29.2872281675303 15.4018439094959 0 0
-153.393891087258 17.1100791230959 20.0393053411456 0 0
-198.279873117746 -15.0852548235587 6.44842470355692 0 0
-188.974123733556 -12.8272106445635 19.1096941432887 0 0
214.395576869689 28.7218262341006 -8.22363630546983 0 0
-191.253530673865 28.0028684195524 10.6284231784367 0 0
174.392605288897 -0.625213201427047 -22.5400115603925 0 0
216.073090007297 -26.6835690304834 33.6400620193183 0 0
199.791259463724 -11.5037252923897 -21.459538065732 0 0
216.092156831587 -26.5845379149499 -6.57946783416087 0 0
-240.07315841938 -24.7284039414585 -23.3902078905597 0 0
110.175115775688 10.0952106144133 -18.2978685264872 0 0
183.312018073022 27.1598811096053 -18.5979356349878 0 0
167.389447036372 21.8321988759812 -13.5286414977493 0 0
-219.311651688199 36.067759752438 0.967404570214812 0 0
-151.445189076261 -0.973427438143113 14.7190178346489 0 0
-79.6776177276342 15.1651674588118 7.62927780809554 0 0
-204.31252672652 29.9246011233549 17.3125563358288 0 0
-198.647408333682 23.9653250320135 22.4205385908388 0 0
-49.1526721775657 13.9739465936201 1.66130374196469 0 0
-172.704077145168 22.4767712281396 16.595917651835 0 0
-205.35257081229 28.0519368820016 -8.16379802053581 0 0
-225.98805463199 -38.5763073686604 -20.6319599224425 0 0
-168.779395731796 10.4997226652606 -6.87951484322692 0 0
-173.092694646544 24.6652501759681 9.83176746084119 0 0
-194.931788450244 -3.99709313732281 22.356625431039 0 0
128.20472082295 15.4451141903477 -0.991009728581062 0 0
160.832233045961 11.60807483933 -21.7192062979731 0 0
170.438431481762 12.2380379414704 -24.1301888896059 0 0
184.944672548057 -13.0545543616966 20.1254587459482 0 0
-203.772758154148 -17.6512610141435 4.26048347800165 0 0
-239.788428037735 -9.19497723466942 6.28984003377161 0 0
184.611855556222 35.2793789766361 10.7111470200414 0 0
-198.230062491945 9.21477851440263 27.112027278791 0 0
-154.470740542671 -2.47627713553508 -7.31922508792628 0 0
-231.464914673235 18.2286764083485 -10.8532663721241 0 0
151.740116393377 -7.48371989718788 4.89203130550669 0 0
136.685806937485 -16.079264951475 -13.5543919834555 0 0
-212.058055831417 -37.3232332850594 -5.86758737753116 0 0
70.0109720355588 -10.0809057487302 -18.0885800170771 0 0
-223.49091237927 2.67046793300971 7.16593531850916 0 0
-158.086809939754 8.69145380486797 -7.97438899622732 0 0
-207.59277406364 2.38230573979608 16.0159397286022 0 0
135.144114262163 -0.859917613075907 3.56426090066625 0 0
198.603822790115 5.45717621343149 -25.1835544372019 0 0
39.3619332958547 -8.6053278384211 -4.85911914058325 0 0
-169.444694739005 18.2549256286165 22.6881117683798 0 0
171.816922178973 6.95878453045616 8.51693082694334 0 0
158.278023152757 17.5382405930051 4.63002312363804 0 0
209.679831323232 38.3189332974395 4.89818024731086 0 0
-238.210101381177 -5.71104864437266 2.04896562971476 0 0
-223.190078959623 12.4921204950557 -15.7565745713881 0 0
125.098849898147 16.1291534915199 -4.86269015980374 0 0
-154.737840418082 -6.18331129236959 -0.42462251516055 0 0
-172.642731687363 24.1431902695523 12.0998300290536 0 0
165.372931781129 7.77932917805229 7.05737750500453 0 0
189.670685737 -9.75513090552294 29.6076032258712 0 0
-216.090340447297 -21.4429168917611 -22.2913171176869 0 0
-153.901661467919 -6.04379482108211 -2.50973954730606 0 0
-232.855284769668 -43.9784253159395 1.30474207860624 0 0
172.502008216242 -5.1859051431555 9.37948617624848 0 0
96.5795203894344 10.3430322800009 -17.7958824842404 0 0
207.550892334602 -10.4154281966435 34.1815387060289 0 0
214.216062922882 -12.4356316686803 -5.66628250334224 0 0
-221.920167882769 22.3989233986212 -12.989572458707 0 0
-129.380686210013 1.25486493564989 -9.70156379656346 0 0
187.020456994675 18.8692309421696 23.9696221144516 0 0
191.536389231822 39.6483251841149 3.38845477237278 0 0
191.386920043476 -36.2591685024746 22.3984121048811 0 0
57.1674492357198 -3.12223567268371 -0.0677253514232124 0 0
-239.633832774749 -15.6040417766385 -21.9431255178537 0 0
196.650929140564 31.0357196946313 -13.7502851631587 0 0
-187.486929308607 -2.37278633701687 -10.7682023989137 0 0
175.320070956077 -1.95504693719062 -22.767381752528 0 0
-230.903601073485 7.25094558893561 19.0784510639193 0 0
-234.067206018487 28.0172224924945 7.51096313591804 0 0
-207.445873195221 8.37340367118684 27.3673886337372 0 0
-212.717820963891 27.3597706244694 20.034313858388 0 0
-170.103560261339 3.97458036865167 22.9969271210873 0 0
-184.621212100796 10.1825608890435 24.7419283063422 0 0
-159.150618524005 23.0575791209157 2.67861225160509 0 0
213.460242457736 19.4235660481713 -12.4612493290159 0 0
189.602252800296 27.8088456502526 -19.0981783593538 0 0
187.866574127038 -18.2435797701434 32.1293283000504 0 0
-205.363885341216 7.39148294602056 26.9214875245052 0 0
198.371881298068 -1.93056588184434 -21.4815797809354 0 0
-222.643699188341 -23.1683202088427 15.5092977229501 0 0
203.793796747748 5.76784162215786 -21.7034348813568 0 0
-200.4727182948 -8.13853541791094 12.1952505780398 0 0
-186.550415730103 18.4455112331899 -6.94857234510634 0 0
204.033695997947 -29.5674708568157 32.2980393243384 0 0
166.840940345167 -22.3649179198061 -10.4284339094106 0 0
-10.3782474471007 -7.50937039961284 -6.9721923893322 0 0
-238.006781563901 -7.34584122059946 5.40185114603177 0 0
-205.602595956679 32.3286785776001 13.4374539347699 0 0
-146.756946914322 -5.27865777101906 -4.02881781762415 0 0
183.196338390124 -5.16524480804722 14.8242451697419 0 0
-162.51510868701 -4.94731529770109 12.5530185764204 0 0
207.136729394447 17.8116032660606 -22.9609263340433 0 0
209.699577648598 25.2438144393018 -15.4113495680173 0 0
-231.827856782532 16.6385260487787 -8.65607533230301 0 0
215.440203213449 21.4002681269321 -1.40258396844705 0 0
-138.135515215359 20.6572519084055 11.6066973546097 0 0
-112.917126892106 18.5310722652123 10.8584004366336 0 0
129.684764120845 10.5677253330068 -18.7841023278913 0 0
-90.2218058943605 19.6191746650094 -1.03089202200355 0 0
-129.633237597298 2.2258063181423 12.0339855610478 0 0
214.69635172437 -30.4165298476087 4.0497819140236 0 0
85.2331956702733 14.2195342742333 -6.11553219042853 0 0
-127.309290377875 5.91170396596949 13.7176442134879 0 0
-192.012783451986 14.8306072680961 -8.46617389882017 0 0
173.407849795439 -21.385883327269 -13.9586966787917 0 0
-209.975573041866 31.377243323535 14.4763627704387 0 0
195.331616833206 -3.4930790458884 15.2342626927277 0 0
2.50414439962749 11.6660947141753 -17.8424885902294 0 0
134.890970715969 -5.87339230403045 2.9908301211306 0 0
-141.083609153233 21.7363570960306 5.44683385770537 0 0
193.432078760691 -27.9779716475167 -9.56784613163478 0 0
-228.477149012475 10.926663752367 11.8223168440484 0 0
-229.658795060893 27.4370384578553 -5.40373294330687 0 0
191.467544350907 -15.437534188507 34.6585734776757 0 0
182.284347442257 -4.54046751485872 13.8029551001849 0 0
196.119038211823 -35.7987658039217 21.2529322361879 0 0
-178.753236590643 -17.2887887942567 21.2535353916821 0 0
126.686826419171 9.82630582594177 2.49107408659478 0 0
219.614094415586 -29.7726475359118 3.01102293144586 0 0
220.829084859902 -20.0671717355133 23.7188222920888 0 0
-138.399478691465 7.17353272513809 -9.94173883945894 0 0
-219.840921339985 -43.3666664084129 -4.02291637821686 0 0
186.815014062025 2.5619669379175 15.1807815759269 0 0
-189.688252003578 8.80534352404771 25.5042512219173 0 0
-87.6435437433588 -5.42372442583829 -8.91219810465283 0 0
202.312826227491 26.9368539390826 23.7782792285886 0 0
171.194880141502 -11.9185552971091 10.189127075708 0 0
-153.177993208823 7.43653283639039 19.4261765384836 0 0
-186.568523152499 -2.736438014187 25.1711771758531 0 0
213.552993741591 8.98403179613882 -0.264920816404882 0 0
-131.262281934096 5.62165734132329 -10.4677202092912 0 0
183.42888950882 -22.0371774114908 -15.1223597023683 0 0
220.120864663628 -9.27729708987542 9.47312595738501 0 0
194.32809202719 -7.33994204760784 28.9764471173608 0 0
-189.204869524306 -14.1531872417487 11.4783334679915 0 0
12.4496895980551 15.4272579308256 -10.5157539841535 0 0
-140.748789742761 18.5713280707361 -6.24967578229184 0 0
63.6233546732832 12.8993833728631 -15.2330264990942 0 0
169.415760944063 -22.0870918882581 -12.0295259716007 0 0
191.502213875347 2.58140730564435 -27.0306186144795 0 0
-241.237554690534 -40.1757100121629 -8.75077016356684 0 0
185.015149825892 -13.381661089959 23.5499315223336 0 0
204.119488760549 -6.27191477468001 -17.7506105832423 0 0
-227.963657459166 -19.8816721100661 -26.5605906738787 0 0
-177.525133564903 -13.9448216829432 25.7949925925377 0 0
120.565114296774 3.32353567910424 -20.4966525897479 0 0
215.400012924238 -30.4726410187829 9.28772162376255 0 0
-194.525425702501 29.4099495993296 9.22727266168365 0 0
-228.973684898875 -0.543453627602333 -0.313323573559251 0 0
181.837841006538 36.8322060517556 5.42417009547978 0 0
-168.23915372811 23.1162992361926 13.4840448937548 0 0
-243.450340087374 -22.7894208787514 -20.558191147911 0 0
-217.204835250434 3.93690761753342 -16.1082851508745 0 0
187.385032996378 -11.092983409494 28.7921837828407 0 0
-93.6099097788078 1.97845525686304 7.14127564668257 0 0
129.526481341139 -17.6484014896214 -2.66530990022237 0 0
207.80615016022 -5.61142338542176 26.0586081986155 0 0
207.222208073087 -5.14341431785321 29.1980326761264 0 0
159.761437287331 -13.0336314424598 -16.4915985017629 0 0
-63.8836777831407 13.5660623709518 -15.4859042937978 0 0
209.545246110372 -30.0051944802329 30.5337785307332 0 0
-149.94491492038 -4.34968374260386 6.38890933566433 0 0
205.862082403582 -5.58829894536825 27.8984023693244 0 0
156.542589675212 -1.68182734276115 -18.9395933718104 0 0
193.838850640829 -33.7417400409255 28.7527980579109 0 0
-148.457198042398 17.2822562290196 18.5982571595114 0 0
-142.671299589275 20.3741906219449 13.468582154888 0 0
24.2533657023284 0.241674536792719 1.19632594561008 0 0
205.919760801183 7.20451509395507 -20.9296766477412 0 0
56.3037496573617 5.12000900255264 -20.4294180252944 0 0
-222.527700976815 31.7504158662206 -4.84412625417903 0 0
128.533634860782 -4.06588023688703 2.74812069632533 0 0
-173.840700466858 -8.73871868361144 7.66349476513221 0 0
212.334354905391 11.8134061618062 11.3450372483213 0 0
-191.991483484817 22.726538776549 21.1056453502696 0 0
124.023786900204 10.0487366291863 2.24272316535208 0 0
-215.938384007668 -16.075996401804 10.0272238764613 0 0
-57.1716694603808 15.9769587680811 0.788440502971511 0 0
-7.86165575817277 1.53155369405724 1.924212509055 0 0
182.891511206652 -17.3721822591556 21.4185983190762 0 0
212.678560918977 -7.02632749732868 14.874396286019 0 0
37.3514677291533 -9.58180445746751 -6.46812200944924 0 0
223.943598394718 -27.7804302096035 14.3224531945151 0 0
184.943399237042 -34.2070732292043 7.0007291875262 0 0
-191.266237671876 -7.55144375002802 22.9847999373343 0 0
112.698254813559 -2.44529414178464 1.9012327248482 0 0
51.5473464870545 13.8847511941099 -6.39682200099861 0 0
203.954302345027 28.2890461637492 22.7813741807141 0 0
-146.083198124618 5.7858680736147 -9.23548643030161 0 0
85.1586624522942 11.7432133177067 -2.22786416553551 0 0
168.213327508337 -13.2457405646141 -16.2872194184271 0 0
-241.161544238927 -34.3330286896443 -19.1437143142119 0 0
196.023656998148 35.5418100671666 -5.4430817229215 0 0
-85.2610157143317 19.472447836938 -4.77827031993923 0 0
71.6543565300081 8.08689881745368 -19.2950635380959 0 0
-233.855133702527 6.4552625598169 16.6698096445219 0 0
208.12764488377 23.4082871283235 -18.4454611235354 0 0
-9.30005818271869 -5.35101630846451 -1.65465118091256 0 0
140.224430863046 -2.04440609756347 -19.8994724260278 0 0
192.461150286452 -8.61015375508532 -23.0239192021065 0 0
51.5844455835833 -3.60227240376244 -20.6284613079793 0 0
-190.456899147991 -11.3706113610396 -5.55208972068532 0 0
203.48506565789 34.0964026976293 8.1969916828716 0 0
180.100744060326 15.9865801239358 14.3740092806964 0 0
29.9606628542692 11.0797278361833 -2.91613483184396 0 0
202.636554565342 0.250312922804218 -19.6361841537732 0 0
33.6626605952696 0.569698390157977 -21.2157985694002 0 0
-220.942956880559 -10.0236869027778 10.7135476944499 0 0
195.526510387945 38.6724162680727 0.956233762475062 0 0
211.864663776539 -6.76430407540204 13.3250046826674 0 0
-199.122549641103 -3.430581070891 17.8497459005742 0 0
164.966758260714 16.6384358069057 7.15567879944099 0 0
-218.758117365579 -27.8686250378167 13.6881158064427 0 0
-226.640904871037 23.4657403515791 -12.6068524533828 0 0
200.662123906022 21.7671243519931 -23.0764057470698 0 0
189.405348753658 29.8387608225955 25.008935697748 0 0
-219.89980868381 -2.97211703243837 9.60186331552673 0 0
131.703334189809 -13.0806462506833 0.871121464663192 0 0
-236.965856271168 -41.4219431035247 5.05306130284599 0 0
213.556430408612 -3.5384061165633 -0.0524184025268933 0 0
-148.984088301428 2.12375474904072 -8.60083529495956 0 0
-224.932986616193 -30.0593767130712 14.978966701529 0 0
-227.202735394413 10.6534746776596 13.6845066937522 0 0
93.7921013207432 -11.6045168525057 -3.22383761705251 0 0
-18.0778509278471 -6.81704890938471 -5.73174851596121 0 0
209.650672627388 -4.66719733990986 11.0534425685717 0 0
184.973495527158 -29.9095469536441 -5.33632120366084 0 0
187.906135734504 -24.4649007984577 -13.6003127568663 0 0
-96.4215395535969 19.501228225309 2.22506111034572 0 0
-228.652514856933 10.4166302561055 -3.70580077737949 0 0
-175.559788300469 -15.7759325224774 19.4419850348653 0 0
199.899219255572 -6.47733185734326 15.1981786553691 0 0
-26.6829274112371 -5.47501969328107 -14.4225232358469 0 0
97.1277409562847 10.1793362763635 -0.00989728946108913 0 0
-179.883946075719 2.7620242359558 -8.78237696550833 0 0
-209.496002698264 -21.5452061352015 2.5307816349269 0 0
191.446481161462 -28.1320717406876 -9.417330646371 0 0
-3.32108768672096 12.0241281448424 -17.626515842681 0 0
190.725840425253 16.0228480070459 23.0705142695196 0 0
-166.512868584356 23.9685771524844 5.82071023115384 0 0
105.26429715194 -16.6543126600067 -10.185363432287 0 0
210.198764540213 -7.85963293531959 -11.3624651471567 0 0
-246.527894002712 -27.6879828003033 5.67879773869869 0 0
177.907905380178 -19.6993304781211 -15.7617622885002 0 0
43.7266148038944 -11.270593365365 -9.29755963340796 0 0
-118.008111323099 18.4650679777374 11.9049320113679 0 0
-196.640853834562 6.01444929184663 -12.1181148372451 0 0
188.58357993826 -11.0755157459982 -23.4208840015241 0 0
-156.373127108265 -5.31701875002422 5.83780953661214 0 0
-84.1126704453735 -2.40044784377872 -12.3100505027521 0 0
188.408283445413 -9.00474872071208 -23.3963762625648 0 0
123.112625175521 2.70177767483611 2.94176373734288 0 0
-226.435800639045 -31.1513224255087 14.7544783251386 0 0
163.862946842929 -17.8308918110422 -14.8170438976035 0 0
50.5201272780634 -1.85162254607287 -20.9020911182647 0 0
-37.1709557616472 -6.41493123449903 -6.15752720744859 0 0
179.861063082036 16.1228335848723 -27.6499032061593 0 0
209.486388845857 -33.8433034856185 15.691615493473 0 0
-117.284733664486 -0.19726256671613 -10.1916816890207 0 0
-213.693680566733 37.062043686386 2.17785272214304 0 0
140.027556918444 -8.41853998748384 3.07619082947058 0 0
215.209421277318 24.0817742098671 -5.23221179661041 0 0
-166.084041354237 21.3468233709998 17.0580784916761 0 0
-133.72390299126 5.42071854594279 -10.2016496441583 0 0
-217.476769752265 -5.50322245378833 10.0839634173184 0 0
-200.110612285934 30.9254558984468 10.7615472179414 0 0
-171.699629654934 19.7170196329858 -5.48632755823961 0 0
194.155442463182 30.072234951785 -15.8387300939673 0 0
-244.967664661534 -32.2473807384315 5.61463590453014 0 0
196.084307667738 33.558630340571 -8.62608888284504 0 0
-122.007033505424 9.12738350277262 14.363089076336 0 0
-249.490372839432 -19.8772196943611 -9.08181644517293 0 0
183.249366702567 -23.98137392571 -13.6058383752804 0 0
6.6777353359524 13.4922074231522 -15.9154751236794 0 0
187.805316650029 -5.19520627019064 17.6594434727141 0 0
214.050364807604 8.78455045392305 3.24534035719168 0 0
174.769732006984 -13.6650584791111 12.2213428175989 0 0
-138.872093556206 9.4620036950998 -9.74533224880663 0 0
-226.910842974551 0.430496428159163 -3.25870843329284 0 0
1.31511009767637 0.680669199293829 -20.9658677231359 0 0
-218.398665645923 -35.6067692467945 9.93570796401929 0 0
-204.380659233244 1.49001959667483 21.23289280326 0 0
-155.872605250369 18.2068488838869 19.6955323489848 0 0
213.198380408624 10.2121874624828 8.80294786390534 0 0
116.722573735839 -16.1667888296976 -12.8745109734771 0 0
-212.741052791956 -1.10017815792998 10.0126645148742 0 0
-140.9128946257 -4.65396860203551 2.28501887156549 0 0
143.521571264426 -15.3995873388346 -14.3507245736294 0 0
197.369969628428 15.1082462613706 -27.4393315311205 0 0
-79.2159497140549 -1.08677786276001 3.07663354602653 0 0
169.268276471095 14.2714938178775 8.47181626378662 0 0
-158.916831496636 21.0925465685193 15.6938969659268 0 0
-105.248503284076 1.86790127177305 7.84917377933839 0 0
181.362171869838 -10.2415137896256 -21.0750127079493 0 0
-210.595448890793 36.583634040929 0.768352474859726 0 0
220.724481843057 -14.3634618508074 6.16517665413882 0 0
114.356576843956 -17.1043086527096 -10.7983195666567 0 0
-207.905889054157 33.7721720235392 -2.41780448129927 0 0
-204.263043361517 28.5183125546304 19.106840873212 0 0
183.758966488894 -14.8390101005084 -21.2795860051814 0 0
12.528076481192 14.7885772806587 -7.23248041745816 0 0
106.358130360522 -13.6203018989149 -15.5029413388062 0 0
130.874885631987 -8.37346397736888 2.21172712315886 0 0
147.563441054455 2.91409497098313 -20.285498974808 0 0
-60.8750380253426 -0.890788021710912 -15.1787041970835 0 0
211.117056582569 23.1726128935787 -17.0386698886163 0 0
-163.558099094745 -4.02514348352146 19.4515559492471 0 0
-145.54201822991 15.4857938597442 -7.67954704318503 0 0
-216.884532181789 36.618686107923 1.76380257869314 0 0
-219.431625794924 11.1380659499907 24.8557875728203 0 0
202.913028426488 -16.0819936227309 -20.887801985151 0 0
-181.83674843452 -17.3836503500983 22.838244819183 0 0
47.2835600035625 9.15972951764807 -18.8244217907265 0 0
-190.918767253151 -12.2211024841475 14.2482339163559 0 0
-208.647865337806 17.0730644643353 27.5315111301336 0 0
-211.128019292636 15.0032689545215 -15.7693958068024 0 0
169.85510809373 25.6051063338445 4.15721188513444 0 0
-245.590442343391 -29.2151225612287 -16.932438931366 0 0
-156.181856910823 22.8491594975692 4.11453721095382 0 0
-88.0433401079926 7.37692686851817 9.23754235496537 0 0
-8.14767425468361 -7.02414880343882 -4.85857377799509 0 0
-64.4156748559775 9.63892452501471 6.58027729324626 0 0
-184.56174153065 26.6078459329927 10.5219954153647 0 0
-88.0538716081698 0.817636628473976 5.68749098466586 0 0
-145.024849091857 3.71203919174514 16.3404159889478 0 0
-198.65370651922 31.9835672657932 2.56781942866002 0 0
-193.172308069354 0.141136942401146 24.1524589778112 0 0
69.5647300188928 10.5871361918587 -17.6611427473683 0 0
-122.105053925382 0.352615930380957 -10.0033924241447 0 0
-187.392411892262 -10.6718801845133 24.9543413125487 0 0
-221.117600886963 12.3317946858562 24.7690359365845 0 0
-34.8652650947332 -6.81206676246976 -8.59664918411315 0 0
172.801579039039 27.0734059243831 -3.01622774105531 0 0
-175.743367191149 -9.0334398993774 4.94367739716745 0 0
141.625153102802 -14.2387060834841 -15.0777955401221 0 0
200.951068068045 -28.5686098946117 39.1890880125265 0 0
222.497539883753 -29.2016661518027 15.2762764636312 0 0
210.988201473434 12.4340976455874 14.4306188198118 0 0
-164.041894553078 -2.01103831960372 20.9851113422676 0 0
136.083349204181 -3.21341987249039 3.42046351182697 0 0
62.8075829932847 -12.4821479672116 -15.208877099598 0 0
201.538711335936 -31.5047683746227 28.7042832231221 0 0
-204.111993584292 -5.19329199500692 12.7896726148997 0 0
191.869630635199 -12.9467494234558 33.9563168138247 0 0
-202.42590811003 0.672017353797011 -12.2920256779279 0 0
-92.3416032346639 10.0275312129288 -14.9098816416949 0 0
-235.815233382454 -8.89200170603645 -19.6951097213243 0 0
-234.291173832519 -43.0082416833697 -0.720840654960353 0 0
-214.842860799394 -11.3174713895779 -19.7027907197018 0 0
-37.7463913074237 6.89359179250287 3.44993737239394 0 0
41.3288449331103 1.37636434380776 0.548362251202236 0 0
-226.526148454667 -44.8689168077326 -9.84321962130603 0 0
152.143362006873 -18.6856449184892 -11.7402841766557 0 0
185.923586575955 -3.61322044567368 -24.695426355776 0 0
-211.937831932894 8.62485889480209 26.6883638700068 0 0
-199.953009178113 12.002928826963 -11.223579628365 0 0
-196.031266681474 -4.53534896442314 20.8474287964287 0 0
158.497562223038 19.8359504934292 -11.6105202298775 0 0
222.188849187893 -29.6535227454755 11.5379946728788 0 0
-174.27917822093 -7.30521512228048 -6.15679645667395 0 0
183.419176623822 34.9025863454307 -1.16602535628478 0 0
-245.568480990612 -31.0129292982866 -16.1409318955848 0 0
192.107140818403 -4.82396482160789 -23.4060365196685 0 0
172.026175117957 -29.3946518572723 5.61797096305542 0 0
-186.563999978022 -15.8345415756886 18.618595700343 0 0
-232.055034719071 -2.94487156948913 -4.44150597219603 0 0
150.095781072753 -22.1954083246199 -4.73698391855769 0 0
-226.039388449727 9.47656957631679 3.60424118748826 0 0
-102.366001090528 9.81130461169438 12.5400054257142 0 0
46.1585594826652 0.834467984152347 -21.0754984018842 0 0
-22.7233669538491 11.4929221128465 -17.8991620643893 0 0
-6.53262136034203 -3.8308573312428 -18.9243828199418 0 0
-46.9190338059903 -2.94223541931459 0.253348027473354 0 0
-219.512102642436 -37.2308566249769 9.37942620428578 0 0
-90.4148896231798 19.6913863706735 -4.04769233499981 0 0
-58.7861125444986 2.62308223783569 -17.5498811294659 0 0
151.589018746205 -14.0091842388365 4.31298877236579 0 0
-90.9238646762915 0.535044196225552 5.50917253640494 0 0
-144.815569192416 -4.31678386025416 -5.92303074579904 0 0
18.9798264911869 0.196180311575563 1.45099108168716 0 0
185.663043180085 -35.3579714105464 8.96284431713987 0 0
-203.419726850489 31.8277906171497 13.7284626875513 0 0
-102.893810853717 -2.9961267748691 1.50338603861955 0 0
197.612408962331 -22.4406253687857 -16.9171490746869 0 0
-234.003890132772 -3.71773273401374 -5.17573907212241 0 0
-228.744457307794 0.338869847102199 -5.20111839749491 0 0
203.802349265364 35.768170792933 -1.91916738514559 0 0
197.576473099547 27.5196501840556 25.3520307713396 0 0
-236.477390240531 14.7596661492349 14.9853703829286 0 0
-238.362741647597 -38.7435792736111 -16.9778889740773 0 0
22.5310797407785 12.983321127629 -4.54739919034741 0 0
192.285638986743 28.2983781451525 25.5711042423249 0 0
199.401115244227 -34.7740602611034 22.7240293205921 0 0
-226.85235815895 7.04687420696135 19.4562995807258 0 0
-190.261911711287 -2.77162909169315 24.2969331521186 0 0
213.604537251327 -6.60542738961535 9.48150609405444 0 0
-204.71654045992 15.9572153483009 -11.710239522451 0 0
-220.026282667434 -40.67604646102 -15.3630019043609 0 0
6.27362301210806 14.1575246239809 -5.42768620625782 0 0
216.721190012873 -6.2692236722522 14.7688842706522 0 0
162.755040332165 3.00689099640325 -21.1172908631498 0 0
194.906861213443 -12.5227035428044 35.1910578176337 0 0
206.15455549137 -11.5715589930655 -17.656358751513 0 0
-210.488820426077 7.0641432334975 25.8568642559601 0 0
139.289054212548 11.7602825731489 -18.7055041157896 0 0
185.000981357902 35.9816686746983 9.05517000446494 0 0
46.3293923790785 -6.68098690118964 -19.7316133792703 0 0
-166.613317072067 16.4360121223922 -6.74974922647908 0 0
185.417238649309 33.8165907194195 -4.65936038379634 0 0
189.593761205753 -21.0654996862383 -16.0776415559763 0 0
-21.1488282114883 -2.76449251079551 1.02837062715975 0 0
-185.262280423439 -5.39633073430404 -9.25168194530285 0 0
216.562896107748 -17.295185799497 -7.17090309801116 0 0
-110.759781589934 -4.66341394240662 -7.6300746661599 0 0
92.4147022029524 -10.138333220532 -2.32173198805427 0 0
207.143191413897 -9.4415005514316 -16.3312076801821 0 0
-30.9772152338008 -4.32274593791517 -1.18162964975778 0 0
194.584740170782 -8.89615016242927 31.6818409403834 0 0
-136.337534439518 9.40376006018942 16.507323823207 0 0
92.2547266443012 5.34089356610699 1.67493408821683 0 0
162.725559097312 -11.9675934968809 -16.8920192833075 0 0
