"x" "y" "z" "f" "a"
176.935760829766 23.7921338221399 -20.4984714016813 0 0
-3.02309819358246 4.58079109757622 2.51396600433559 0 0
178.610055987317 -32.457513049929 -2.47438167812284 0 0
164.432074115149 -24.3197878604758 -6.03438173208947 0 0
119.149961350781 4.07770742636833 -5.06483531277439 0 0
162.892724416929 -5.10862109477074 20.3596086556378 0 0
-214.874401268539 -24.93331099728 3.44024265913108 0 0
195.76753897007 -18.6291394961897 -32.7698341703069 0 0
141.060389068718 -15.5856212965102 -7.38287246204037 0 0
201.213465217112 34.5179055145527 7.33491842955173 0 0
-120.061903269201 5.27723723104258 8.89263338291352 0 0
-99.8998713731321 -18.7132333860479 -5.48060035648467 0 0
124.588675121355 -5.33187400027557 -8.38078134094142 0 0
-99.3832722161049 -10.4599932753018 18.6779149473533 0 0
200.274545436849 17.3217931127189 19.6318943937368 0 0
204.139375667948 10.6494017468449 13.2402414135886 0 0
-236.863712391096 22.8186827564295 0.152870609582758 0 0
-114.613003639158 6.69282348086471 0.0687331607732969 0 0
-9.58241287948144 0.349795828173219 24.4800668110437 0 0
-159.487388817572 24.0855817824546 -15.1045218773439 0 0
-200.591904030473 4.27629830587543 11.8675755306221 0 0
203.898436319024 8.78458632292311 10.8294789752712 0 0
-129.811366872358 -12.1995432765088 -13.1497470214769 0 0
164.301935443012 -4.16278991114036 19.8859509936556 0 0
-209.255003911792 -13.8079598672551 -8.75555085712456 0 0
185.807304029744 -30.6105274859382 12.4929686251515 0 0
35.2825897148373 5.16061378798035 4.04387813329539 0 0
197.117952107749 -34.3921741733648 -26.6800995369287 0 0
-202.644577467815 44.5143942290507 15.2809315369736 0 0
192.835122530003 -12.2028676034524 -29.7376254829929 0 0
-171.935764250655 -4.23323950606343 -22.1466719557745 0 0
-164.577076533225 -22.4729335947949 4.03380162167693 0 0
185.06702511252 -34.0251955172608 -22.957186302184 0 0
-199.850482244961 -34.8233670829774 3.2594956484512 0 0
-157.37388433939 -25.5909229409088 -1.0095701789136 0 0
180.267246488045 40.7367141168409 -17.6294369570157 0 0
195.348418311404 44.2948050473874 -18.5940023235405 0 0
-204.413526078538 0.789117179741614 10.9284594503478 0 0
163.746389347083 15.3692986055529 19.5255637151289 0 0
195.884182078063 -16.6221185821215 -31.5560804074918 0 0
30.5112529770949 -19.1258405967565 10.9845476697504 0 0
139.844081716219 -8.75653809423843 23.863573555484 0 0
-223.889953997655 20.6775583214303 -16.6991190645654 0 0
-15.303097196512 1.72592529674395 -0.672329939466668 0 0
202.192141013908 -19.2274465942075 6.55259904525731 0 0
-199.201276043449 34.8372356601269 -8.18925972894341 0 0
-224.64534529385 12.5205897791732 -2.69180643391388 0 0
178.053750303744 -3.64676653149898 -20.5717008111774 0 0
-192.916373653589 -30.5116051389638 -21.7556641357581 0 0
201.9493579374 33.4483398791575 -25.5995328438839 0 0
-158.533190779624 -12.0800277476383 -19.298977703762 0 0
-111.914182868345 -16.5736414886773 -7.59109263199704 0 0
198.740170847244 -4.53643917052816 -17.8092938105188 0 0
-107.479876985567 -12.0364203496256 -7.21366854691601 0 0
111.859052154253 -14.5654999428999 21.1869371657034 0 0
183.59500511395 35.8767321834471 8.95066105467671 0 0
166.289471614911 29.4224125503234 2.54781293333274 0 0
137.893553849033 -6.31264750850692 23.9815021225534 0 0
-173.549133609427 10.5127112994447 6.72803750035208 0 0
-205.847568724206 51.0798887217685 9.94253689223953 0 0
63.3469792236627 5.22541962582365 3.31385249560519 0 0
207.320760513286 31.6004534744502 9.72681125409638 0 0
37.7503440292448 1.26212491299838 24.690277686278 0 0
-231.504695503347 14.3457397253827 2.59554657909111 0 0
-137.592936007951 -17.8811424664186 7.85433501288113 0 0
-172.677339288022 -12.7462919368559 -22.525902196907 0 0
178.626300468317 35.6680541018444 -19.2092318262413 0 0
-231.021039421712 16.0593233886463 -7.82027523337868 0 0
-177.007152334978 13.6881851973499 4.35966225098418 0 0
-211.199053766684 -31.7887543537231 -1.7876689771747 0 0
192.496934495675 19.0786174592191 20.703572953794 0 0
182.721486654545 42.5772045812466 -2.74793441018371 0 0
-201.363381742116 25.105628237352 -10.828073269028 0 0
173.290802692646 -23.5558447280691 -32.3029610765856 0 0
141.494435526866 15.3188614451935 16.9399051749146 0 0
-17.9261042342613 -20.2098104583309 15.9630990807213 0 0
-233.676428801253 41.5929990645326 10.5945575319008 0 0
74.7808306178142 4.12947377895129 23.8490347843384 0 0
204.038872000907 6.55922594009626 0.144868729090765 0 0
96.7504708065035 11.7365449027203 14.8129299598434 0 0
196.514581528336 46.2385937465847 -23.2356206656146 0 0
-1.75825212859368 6.18780420438053 6.04888877092926 0 0
48.0492420291109 -11.7534666627457 22.7657425510057 0 0
-60.7499347598555 0.0740460293104972 -2.9985415878735 0 0
-225.651214553331 18.4314459465288 -13.1860884273375 0 0
-54.0416772167615 -21.1731571406129 6.32148758230111 0 0
-227.49517491749 17.9001552409067 -12.3445583379276 0 0
-228.345083226074 21.6987115040393 -15.8320676260395 0 0
49.2696094753367 5.78478007946865 5.02899049284883 0 0
-107.736184613834 -6.0160241992611 18.2506161292411 0 0
-203.423817120185 4.83528016192147 -13.2093272921815 0 0
155.230068270348 -22.2485099679237 5.814095592959 0 0
-98.5341594933966 -6.61072478068823 19.500807047074 0 0
-56.7405336572056 -16.3743143725737 1.06302891159698 0 0
-230.750834209194 13.4019021794572 -1.43204125151081 0 0
97.4019653001926 4.04580494253763 -2.3235299119363 0 0
58.4040280584195 -4.37689930195226 25.0446599785886 0 0
-124.219730579485 -15.4141926306104 11.5788632587834 0 0
7.48116039313792 -2.08294686955009 24.8493319766015 0 0
-201.751725084231 -32.5463254919641 5.84545642738686 0 0
189.537544361406 -33.0118645814754 -34.3775885481987 0 0
-177.177476158354 -33.8369103916724 1.03389556392695 0 0
-203.089229785387 41.5159152921341 -16.1814188467405 0 0
190.84168845555 10.7848422363851 -13.3375576359314 0 0
48.5871264258844 -13.687945627119 1.95523929041453 0 0
-123.091546451385 -7.23508705910529 -14.4211929678147 0 0
-149.050758681394 16.2023647790064 -8.51733797911026 0 0
195.746297379086 16.7829115430654 21.5262965862152 0 0
-20.0096332893741 -15.327903347955 3.40252274585535 0 0
202.433071027783 -21.5042834740593 -26.3860201349112 0 0
184.23008948104 4.02358862507383 -16.8654830364501 0 0
-204.027736717571 -36.7862120393418 -9.30585327043206 0 0
-168.742730470927 -0.897606124075397 8.25895234591639 0 0
143.85767886381 18.8013811386539 8.70583233535041 0 0
-92.5682257498047 -7.97645175777844 -8.73141285205123 0 0
-21.1325168720589 7.39318167966126 10.3140485081306 0 0
-30.5123989831552 6.46299472899157 17.2246807350015 0 0
188.539094966955 26.6357884642217 16.0771780847364 0 0
173.106806179302 -18.5319426395134 -34.2296115770279 0 0
186.113656995332 -14.9325414592486 -35.9168275849048 0 0
22.000060939428 -16.1243502665536 5.06219801620444 0 0
177.214855946903 41.0482040002616 -8.5812086419961 0 0
-139.360455866339 -23.9023897086966 -5.53880573679987 0 0
190.376828687156 42.6614802624155 -0.255726701348891 0 0
210.221488126723 21.0701071853814 11.3360929534038 0 0
-14.3944680129355 7.53840060226772 11.3188556820649 0 0
-213.920178047591 0.000449477562046468 0.577455683507302 0 0
-211.544324051535 55.8040120266798 2.90755047105252 0 0
130.057565113129 5.97153781809323 22.4881079979425 0 0
149.705258167633 17.6088363048434 -3.90128812307761 0 0
125.503321881625 -3.78737186391932 24.3246584387403 0 0
139.205001828472 7.52715681553277 21.587824955203 0 0
85.5290191556652 -9.02514965989756 -4.8469246212239 0 0
171.57816819786 26.5617924550102 12.5827070829692 0 0
14.8797384402673 1.20034904316098 -2.68598911628943 0 0
150.341804136777 -18.0699071947264 -7.04179072165223 0 0
172.30663203591 -4.08765843993129 -17.4633117745714 0 0
191.909109928064 -4.88164726203443 14.9913843770839 0 0
129.13613185038 8.03884394689988 -3.05219431064903 0 0
190.255417744416 -10.4572538371357 16.8397521453459 0 0
182.870599339135 -33.4635014943428 -5.35538361988778 0 0
-231.452331854922 47.8347876982208 6.71734426268072 0 0
-145.651563962848 -23.4025790005648 -7.97319449420139 0 0
188.253607894072 34.0386144448104 11.0712464411645 0 0
-85.7331158492434 -15.717470508536 17.3294706629849 0 0
-183.264216321216 19.5020941404147 2.32504758966247 0 0
-54.5848328747804 6.99090916690162 7.72352756581833 0 0
-75.0798391721163 3.48252947499518 16.736696463208 0 0
96.2765937945573 -8.14425252774626 23.9328422068076 0 0
-124.101657528373 5.43848453770395 -5.71885083980077 0 0
170.67046633167 -1.72784405051833 -18.2114283527214 0 0
178.060002608982 33.6953475875063 -19.5627303261167 0 0
193.7629522123 32.8883458435406 11.1840196744151 0 0
200.985967750809 -29.3712872494432 -30.7188617710786 0 0
48.5580255728369 -8.99895099637027 -1.97701645073479 0 0
-224.428757680059 31.6484035541263 21.3870268838265 0 0
-95.547621650887 -21.1651622287278 10.4222080821588 0 0
-0.877992261741737 -16.0664386597496 20.7745194194093 0 0
-12.844737643993 2.47247193064477 -0.0320400061376662 0 0
-217.966529321073 -17.5043752713784 -4.07009665895835 0 0
108.327629281803 9.01266450066808 4.64845119408064 0 0
-160.046918783785 -4.81241713317106 -20.0627881324557 0 0
203.125878978897 -32.3854394829456 -11.8497018329714 0 0
-102.320937456317 -0.430732715264776 -6.88405653912209 0 0
-224.338427734932 12.4685501630251 -3.9527149730595 0 0
-159.241527105662 -1.28490034356167 8.39534795368558 0 0
-128.831589120999 -4.96445959466393 -13.2962360132175 0 0
59.202720586013 -4.78693488101688 -5.55789719363807 0 0
115.065666639493 12.7619178053028 9.72487349379614 0 0
-164.043295550327 12.8155970802953 -0.452923820244082 0 0
46.9385282971456 7.781933405074 20.6283771096191 0 0
-67.1357507417168 -3.5152057187902 22.306570636995 0 0
207.869503851928 33.7701689026635 7.85552002413002 0 0
171.387476343476 22.8526387158947 -13.1131900777041 0 0
-188.434548994628 1.2977354494524 9.68197090511388 0 0
-38.1876325353298 -3.61524949720966 -4.6602271979908 0 0
-201.984517703917 -28.222984656504 12.3117762913853 0 0
-143.044637507113 8.65643776048384 2.58275109173432 0 0
174.253188065792 -25.1768336826159 -31.0740734840035 0 0
-218.269410663731 14.4524932631201 -13.0307476114242 0 0
-94.7702067018345 -0.541748127534135 18.3608860933825 0 0
201.492461747317 11.6847753987699 18.1975705301261 0 0
-190.414065498174 -36.6068194571909 0.740821313742687 0 0
153.380564131929 -19.1257927200141 18.683108633523 0 0
191.616508364467 5.81800504127255 19.8702056441016 0 0
116.526591037025 12.9255375068831 17.1098968083392 0 0
180.978937057078 -30.3127670123028 11.5322209027965 0 0
-169.265237705457 2.47359278329235 7.76715307698492 0 0
170.854155724768 -28.9639563407478 -18.5245533816356 0 0
-215.030093024103 -21.3630152750058 7.84852613147971 0 0
212.571788250991 36.9431210847908 -0.36280603759394 0 0
194.096780234869 10.6054171954994 -11.3566343808461 0 0
-159.511779678632 9.64013100819042 5.48127019973311 0 0
201.38835178401 22.2866492509051 17.5684005666225 0 0
167.949320766198 -6.25231044656495 20.563076842896 0 0
143.401486521491 -16.2235251719793 -7.05190097022903 0 0
-191.76099030141 -12.6666849610226 9.94376533396577 0 0
-175.928852903783 16.7530950998227 0.344694482691055 0 0
-16.7798515517316 -5.22385479695961 24.5932825059014 0 0
129.050409675176 1.26399047926625 23.6339592780194 0 0
82.8141340207544 7.4215895002792 6.08943391342689 0 0
-68.0643355065383 -5.08957019531016 -6.63117369891086 0 0
-47.0797789922898 -5.64292382690059 -5.47337354616533 0 0
-181.833425201854 -27.3895278232262 -21.8537296357066 0 0
-36.9114875370598 3.85592690515672 1.64448589672093 0 0
-113.014885818587 -4.51939274479083 17.2127975016082 0 0
-89.9480211729561 -22.9064198619245 7.93736968263277 0 0
-157.196081470367 -21.6170473140041 -14.1170125063642 0 0
200.259684056588 -33.7673735108906 -17.5165030836812 0 0
-202.727343513658 -36.7795640842057 -12.0527049339797 0 0
117.381876424432 2.04284416707644 -6.0554736970229 0 0
-208.419133822521 -22.3537206360068 -24.2301105593649 0 0
159.497534339572 13.8179874704868 19.472003507757 0 0
181.837086054402 20.8220162283397 -24.771442780057 0 0
-34.3841104481765 -12.8369270049769 0.670416730649884 0 0
-70.6649376628443 -16.4645379672715 18.2714923037672 0 0
198.774731003952 11.458550472699 20.8918505112063 0 0
-169.502387658278 8.57281595187539 -20.6586932160171 0 0
-100.13519589 -22.4201557440532 -2.16077413531519 0 0
-197.646966449192 -38.8763082155201 -1.70298454473957 0 0
100.995602999423 -3.59811951183428 -6.65420343481651 0 0
200.523252965114 42.1058590423756 -26.1311735919545 0 0
-88.1780670690869 -23.2649511848406 3.25414343570581 0 0
147.343118578317 6.09932755136967 21.6850868879114 0 0
183.024871469892 12.7945670670846 -16.8612754504961 0 0
-153.816307210551 17.2128330481986 -6.71369538391537 0 0
-214.24978000224 10.6783492004388 -10.8403195913952 0 0
175.46817810432 3.12426932883413 20.5550250984568 0 0
-143.353194814197 0.546091773629912 10.3592343792611 0 0
202.666861545199 45.7009075990196 -20.4896677805488 0 0
31.4972625352403 -19.3898368120312 14.2932256831855 0 0
-163.818695486928 20.2735092720289 -11.9512255799801 0 0
-7.54238192996641 6.79719448635996 7.59923090435962 0 0
131.262099166141 -12.3197290474124 22.9246515070216 0 0
161.074732039105 6.4654364510389 -9.60109244087758 0 0
109.102302003684 4.35755142252397 23.5177329690351 0 0
25.0236970026775 -18.6701422804777 9.04526530429336 0 0
-72.8146788307865 -22.932965556958 6.91596080293266 0 0
96.2106615428699 -1.50926999784858 24.471262214733 0 0
142.014465235179 -20.3049789007889 3.57998726663622 0 0
-23.883605896247 7.50514954541565 11.837045079883 0 0
-217.549787748397 -24.5132266886122 -13.8399504284578 0 0
172.808998016061 30.9844668309174 8.60205256865536 0 0
133.483547366223 2.89372643556777 -6.77081695705159 0 0
14.2928056000998 6.96611860302002 20.214345529727 0 0
121.537385880791 3.4156571004778 -5.66571952717362 0 0
-180.55600139017 12.7476392525323 5.93614860333596 0 0
-17.3528763837223 0.126225003211846 -1.96820235037876 0 0
68.87299172633 -2.35455957650761 -5.24972635322942 0 0
187.881515336429 21.0274345575903 -27.874345865908 0 0
191.204484245818 45.8151426115994 -27.431825650439 0 0
-207.51395445802 14.5087019840468 15.8958070683192 0 0
19.8152281961683 -1.29546993705777 -4.68820953756916 0 0
-170.388216770777 7.76903938619933 7.64010194759802 0 0
-99.4673987581733 -3.71217398343663 -8.32110132131121 0 0
-142.020872551373 4.79396624473145 7.48961491135161 0 0
-207.602409171615 -9.1178558838653 -6.50810828764199 0 0
-6.17406731446534 -1.38130148366386 24.7553623269681 0 0
-215.039263869591 -12.1728555181207 -1.82164663577253 0 0
11.2068339746392 -6.14994317936453 -2.54162738855771 0 0
161.157792014965 -23.8669420118199 2.36024519502416 0 0
161.122514439251 3.59101514046749 -9.74008784976649 0 0
-211.528875931731 -4.38918150239383 4.98066689152448 0 0
197.693711447166 9.2335355593372 -8.88062239390879 0 0
186.523725739687 13.7187265032429 -16.0414697937986 0 0
-181.028202749546 -29.8013168357729 6.03460339105009 0 0
-153.695550695695 -15.6181736415003 -17.0361924682476 0 0
-31.8426096576313 2.18578588593723 -0.0542942440299595 0 0
36.7485666358217 0.726938672575729 -2.95221704710647 0 0
-208.975859526505 50.3714294241851 13.1921414387808 0 0
167.251977959802 -4.73633845561185 20.117772644975 0 0
-49.3929682845817 -0.0726454432228575 -2.93003306652879 0 0
156.213073710109 18.8631685107859 -6.51787464145634 0 0
-199.830637962865 36.3781493690484 -9.01977018900913 0 0
-217.227338240495 -16.5292477248908 -13.4710403690933 0 0
-28.6712706150974 -6.37029442547227 24.2475437607958 0 0
-202.230713457319 49.8838747846232 -6.39726081020405 0 0
57.0762050249784 -4.44715458191105 -5.52034411377385 0 0
-69.4139663527171 2.58606143999343 -0.939062582391583 0 0
-104.239822326719 5.69796216248342 -0.103163117023854 0 0
139.359324773711 -17.2116006844994 19.2848137885056 0 0
179.626078139474 -5.65655704814207 -27.811930272045 0 0
182.523761861081 -10.8956520044755 20.5857359760264 0 0
159.827159522964 17.8264972769674 16.5440250921634 0 0
178.719039088398 36.6998107601416 -20.4125780313883 0 0
-226.98016416198 12.1827715474838 -4.14763639614498 0 0
154.243475224628 18.3108070807704 -6.07803336316435 0 0
151.904952443879 7.4518149504211 21.2049499920891 0 0
209.680406877776 31.1859438413528 -12.0115682551113 0 0
-174.911362325475 -32.1195604123843 -10.5703598228927 0 0
-168.408681000075 15.7638573114112 -13.2047665645601 0 0
-218.358023882061 41.4863584816809 -19.7186403563786 0 0
-149.582574923191 12.8462713613035 -20.5985770936916 0 0
160.129768459312 -8.42156557015304 21.6781701536208 0 0
175.390653519288 -22.3168451721499 24.6754100867789 0 0
-146.139585899048 -0.113815878152889 -16.7848148136774 0 0
-196.17619852367 33.6347468857719 4.555908566776 0 0
-202.921940802004 1.36284698692941 -13.6492209584955 0 0
-166.558331217927 14.5869359290146 -20.1283381275391 0 0
72.3536923411077 6.55586968566765 5.40695008758118 0 0
-97.2109072501538 -23.6368435467916 5.13167576667496 0 0
-196.888087077964 7.71544582616304 11.4339218031439 0 0
-129.521429654183 -13.7120185878351 -11.715973542038 0 0
-204.878387275022 -31.7523146744534 -20.7901404454527 0 0
204.302655536179 -23.2354798574181 0.908471181987233 0 0
78.9607775316306 -14.9656694769278 1.3988960506929 0 0
-131.701848217606 7.55152743411991 -4.99808033034415 0 0
-159.595874308282 22.8720206751447 -9.91119582642909 0 0
177.742898710972 -11.6877821412135 -32.990854493137 0 0
172.5414423948 -31.2183145054915 -14.6485816706846 0 0
151.239811590118 10.599772747924 -7.24204899086819 0 0
-190.917799885302 -31.9909458541752 -19.161352283499 0 0
180.511033722443 -25.0391040144239 -38.1233232522076 0 0
75.8361330357192 9.423992759154 11.597463377006 0 0
165.935320757045 -10.0987579282175 22.0977490808433 0 0
-183.733712674887 -35.3201353110071 3.22637045921007 0 0
187.73915312926 2.7258081389926 19.1230294271925 0 0
-175.535669586707 4.40656460570188 7.953588717892 0 0
-112.911408125219 -9.0625586973324 -11.8863979321622 0 0
-202.579014309185 -17.1213627854865 11.9165048139006 0 0
66.7760817155034 9.68148783914286 14.3418189113484 0 0
73.9801332787184 -4.49357535629631 -5.91523312486051 0 0
-234.826780191088 21.5250544767595 -7.45984598326348 0 0
-201.708802977653 30.5932250569128 17.136226567405 0 0
-162.144017600826 2.32349049261463 8.25855679150338 0 0
-166.642184015173 5.87533564271279 8.11607861327825 0 0
172.993030526044 24.0820132852816 -14.6823025911737 0 0
83.6635657145524 -15.8592108734733 19.2498157098726 0 0
-35.8151190709634 -10.8522619466343 23.0042102041233 0 0
-128.057376802189 7.046936792725 -4.597639104764 0 0
-198.51253763568 33.6482351795834 9.99984490355402 0 0
16.4317313364895 -9.41029574731127 23.8347694269031 0 0
193.115637947721 25.8221742244327 16.3558888209163 0 0
-214.523351939231 15.8264483718806 17.8523422122045 0 0
187.179676772838 43.2204961575833 -8.78496902493732 0 0
-234.839506528275 21.6779138674743 8.19724834825945 0 0
4.52276992073606 2.88420280420114 23.9116045076803 0 0
109.065425479268 -17.9990673599065 2.65593267590127 0 0
194.127100149117 -11.1758788776592 -27.9427048230402 0 0
-151.182757866994 -5.98167838214824 -17.7300032036204 0 0
206.60071298489 13.366541031125 -1.29800683061289 0 0
10.5820265834297 7.69654694811056 11.2582221699616 0 0
184.600397838536 24.9564938500003 16.5689954332746 0 0
177.23751418559 21.0125154410519 -18.682236500196 0 0
-152.572224469524 3.19797077408918 8.23985506663492 0 0
186.997741753523 -19.70161335644 -37.9806020981608 0 0
-237.736633273897 26.1333276378621 1.33999056646883 0 0
83.8457933743783 2.08236181273141 24.2296135647009 0 0
-2.09272920695513 -16.8741498198756 5.69840435637882 0 0
-15.0930276351892 -1.51968152381231 -3.57174502463627 0 0
41.4758981425358 -8.08101236731444 24.2559580195409 0 0
205.364191550966 -32.6396762135214 -16.0203897917403 0 0
135.763091857961 -5.66920280288535 24.0111665108934 0 0
170.249960980741 35.108660835962 -4.02190264311095 0 0
-170.095900622002 17.4711738546124 -5.78570643496206 0 0
-202.85560072541 -1.21637109267186 -13.9552684306269 0 0
-95.8298138789424 -18.0796136389561 13.5356128971258 0 0
176.377926378775 -29.9474080946127 9.64040086786145 0 0
-1.48403185252129 -8.67119472564002 24.0897689391229 0 0
197.075959199266 -9.07190918294337 11.5467877278394 0 0
84.7639804104673 -18.8295074053395 13.758351290284 0 0
-206.81147597912 30.9292233742272 21.4957451271634 0 0
-211.341978048912 -12.6321779121877 6.58528768357708 0 0
-34.2115410404617 -9.42286674208051 -1.61111440155231 0 0
9.15395566698816 -4.16577599161773 -3.66817653879075 0 0
-125.244726446364 -24.1773429128103 -0.179952021141696 0 0
75.6633298711238 -3.30871341704856 -5.71688368631646 0 0
-220.540669492628 52.3228487428625 10.8820784482703 0 0
-224.577006872949 21.3885145619806 -17.8752540327334 0 0
-5.62857214274054 -5.24528381276361 24.6815967792224 0 0
74.3889779315957 -6.44228345825489 -5.66168245856523 0 0
166.356863220035 -10.5701329177196 -18.6053131643254 0 0
211.071536318963 29.6496494805772 9.86890491144792 0 0
-188.56670611118 24.6135409853228 -4.61348044375828 0 0
0.994914879792017 0.982570783319364 -3.19595527415043 0 0
-37.5878283577957 5.49113660297076 3.99981181249534 0 0
-170.838805791922 -6.23063624839275 -22.2025352969018 0 0
208.231007099965 19.498283044779 16.8263643794362 0 0
-40.742414962598 7.14664302653708 8.72623130372261 0 0
106.994099686769 6.2155944632746 22.9900187347566 0 0
6.60511018897745 -16.121573849651 4.94687694002953 0 0
-200.759577267951 -12.9273618784231 12.052971083077 0 0
-195.551309493087 43.7752753151838 -2.42395548822486 0 0
-40.437432447962 -15.3774390049111 20.8360528469072 0 0
202.557645738499 7.24884685947777 11.4966318071136 0 0
-196.617231847059 4.08693885530223 11.1855211630375 0 0
176.620687785039 30.1650850770484 -17.6307145636654 0 0
158.60123934328 -20.5032404566601 18.3746894331025 0 0
-94.305835484973 -22.3462883682608 8.63671713027647 0 0
-191.730057339146 1.36737946105518 -15.2492913510184 0 0
176.774865366118 41.1243029574642 -6.19260486702681 0 0
-189.630001889323 -38.8125403122077 -10.4651368745157 0 0
180.273070755793 -31.3667734034403 4.3852438822 0 0
-199.858054801306 -16.9772719935891 -26.7705444762552 0 0
201.133881147179 1.79529509202982 8.60739665369563 0 0
174.726841814735 -27.2316689022945 19.1916376727814 0 0
188.25095726095 -9.13137016893718 17.7899918754507 0 0
-130.004733127034 -8.64861959893015 14.1447432961603 0 0
208.249593355018 32.5623578976518 -16.0574253351684 0 0
169.131800887589 30.9488142159728 -6.99123228811415 0 0
210.049551980954 19.2804764123681 8.96353120166432 0 0
60.6222742886242 5.87587568787086 4.72267396253229 0 0
-62.577434349562 5.34048929551381 3.1427684138458 0 0
178.25916220111 -17.1707160530288 22.9009944060475 0 0
180.90699373271 32.5303931382189 -26.3089057555916 0 0
-161.579438714356 14.3652266242678 -21.9219592144517 0 0
192.80411477297 15.0676748680097 -14.3549909966152 0 0
-196.223376095127 41.3538315670441 -5.77866090865509 0 0
125.686876776713 -19.6118770437264 3.87581130690731 0 0
-119.164833575572 -22.1425927950431 5.65232685570321 0 0
-154.31052162029 9.95837693575598 0.891538070227595 0 0
201.989001063555 -0.0196067244971274 -7.2865053978203 0 0
-115.145956222328 6.4818767625048 6.13317720882368 0 0
197.662504605089 -29.5325924677804 -34.3873798907553 0 0
-228.822257663749 49.9297163585849 -5.67266823888061 0 0
-179.87195083185 -34.5438404204956 4.64503467104491 0 0
184.917408105724 -16.1911052383289 -36.7463091269571 0 0
-148.073080812247 -9.95789142953185 -17.0639669040601 0 0
-80.1533977439462 -16.8526940439637 16.995358740201 0 0
184.957368762197 -22.436612394047 21.9805760312873 0 0
211.742623882059 27.5469323015382 8.43179657660106 0 0
122.358899123096 -20.0866401372582 10.1986963237701 0 0
145.641136364691 3.96064820820649 -7.54237318601877 0 0
173.457155244075 11.6549176140557 -13.8062366661678 0 0
-196.164803041707 -36.7177059317479 0.741577883248621 0 0
-202.445188849629 -9.56618023689004 -16.7707748023992 0 0
157.600780515683 17.0219723235938 -8.27925990129262 0 0
-112.802432014773 6.47780068836339 6.28791578887486 0 0
195.883370908474 -31.2120239910296 2.16844589899093 0 0
-76.5293560687199 -0.782846008028127 -5.01573567032523 0 0
87.4964032707875 -19.1677663569868 9.66390705495016 0 0
-40.9286917701753 -4.61019276820705 24.018811208161 0 0
-187.478364682742 -32.6997989784353 4.97886101025162 0 0
200.653140215349 -10.0308470865335 6.44300224723207 0 0
209.382887626888 17.0354465745601 5.16700594747897 0 0
62.6923777547154 -0.678699288526865 24.9787013190924 0 0
145.375437618702 -8.79223270788313 -11.4343202603418 0 0
207.325330256119 35.4756373909338 -18.8253251839688 0 0
201.420455470879 -2.61714308782545 -10.8923150152027 0 0
205.159409946121 -27.8468149309365 -2.35080640634537 0 0
120.625545101582 -4.90524053910731 24.4541781726302 0 0
74.834506947389 5.10248251056684 2.50692984781723 0 0
179.375756864649 6.53752459131777 21.6526097387222 0 0
21.9162298010882 -2.11057209253712 -5.05128879151318 0 0
-207.447959788788 54.2264115425835 2.01901536601004 0 0
-52.1595305731476 -16.7739010837245 1.98467144638912 0 0
-121.546849759127 -13.6590784569686 13.25765614517 0 0
70.2547780765237 -10.5223200033518 -2.25323435202586 0 0
73.8266608920069 -17.9662101958432 16.6564069453933 0 0
-146.76176526273 12.7785282456654 -7.24083504143324 0 0
35.894839456426 -1.28978347556371 -4.63536263986118 0 0
192.946192477882 -21.61162792548 -36.2340312251181 0 0
-16.441895020767 -12.7308984888084 1.37154816613922 0 0
139.235714963738 -0.861731079789108 -8.39249186645984 0 0
174.778827399984 -23.3631059535794 -35.2994551981145 0 0
89.8848058541069 -16.5061156302221 18.2725365506571 0 0
178.18456879096 34.4004110779792 -23.6724548933633 0 0
-55.1501697120847 -18.1854711286783 2.76320836487704 0 0
198.295847235351 20.8014241363145 -25.1214830405541 0 0
78.7245272432265 -0.980592851123356 24.665603126995 0 0
-1.43942920848342 -5.57263781533109 24.6527427032939 0 0
-147.821566638642 15.8908043047258 -12.9723181522994 0 0
123.304931008155 12.4993291828107 18.632827608291 0 0
-161.60975897214 22.3874380264459 -17.6274032604814 0 0
154.28774146561 11.5578085567653 19.8664014887855 0 0
207.380089246271 40.9568007444265 -18.6091798242869 0 0
-129.688892288716 2.85373918795045 11.0527916569716 0 0
183.991782147453 8.74185867020223 23.3482280660606 0 0
-146.148751644647 -23.4374541467996 1.67088127265286 0 0
103.047447191845 3.69355160145394 -3.58650644844057 0 0
-214.009578546848 1.69421453743238 3.85990125469163 0 0
-81.1039124434788 -1.95489040639877 -6.16662499874226 0 0
-144.817754684709 11.2568833413551 -7.61388321685627 0 0
14.0517423014707 -9.93256101083913 -0.010899284611984 0 0
-211.489040567252 1.75974523273847 9.2806946756512 0 0
52.673975379013 -1.37939161150364 -4.71352452873545 0 0
-192.137460482972 -2.55074083582275 10.5524847100544 0 0
76.5880838622676 5.6227730743419 3.31442330251612 0 0
-6.10639732012112 -12.799145592113 1.552140802064 0 0
147.539195575085 -12.2933848354757 23.0718068386925 0 0
177.464794192751 36.6403085222573 5.95104568524163 0 0
-166.163490892451 -2.48022916802277 -21.1848547815582 0 0
-68.2592920847026 6.41600480508994 11.8602160735938 0 0
-102.921259629765 6.32772076448918 2.41212899628205 0 0
-195.714659681976 28.3572181685362 6.4930126490915 0 0
85.3015821594416 -4.83936294533641 -6.14242672168287 0 0
-135.862420027092 -20.8175273189951 5.20443306945799 0 0
-117.478155828068 2.98276247345613 12.49837673765 0 0
-193.285401855353 24.9318825938002 -7.49867681531944 0 0
200.476142022573 -12.0882785671797 7.30793528962927 0 0
182.973134052458 39.0953053092746 5.67565259884852 0 0
-194.981919327043 25.4154959811557 7.24737678205607 0 0
189.487587039759 4.11864460944158 19.4706302397244 0 0
202.999024219104 3.25337791264104 5.52447912042359 0 0
201.363730829031 15.2887605796661 -11.58600252864 0 0
132.897500880059 9.72836280716297 -2.23700941348437 0 0
76.0892951052517 3.59493807188919 -0.626938832472049 0 0
141.916767070559 17.5017430059698 4.80069770632951 0 0
-189.44474658512 8.73663400028176 9.07861025702186 0 0
-156.315985132443 -11.950040430231 9.25633996149642 0 0
198.244766866468 1.25497873710276 12.1665553033164 0 0
53.9116815598847 -14.3903431735553 2.47009733657817 0 0
208.497188447704 20.7275094497001 -6.72760889245495 0 0
-73.5448853794041 5.79499417464669 3.69066662863114 0 0
108.045742728074 0.579507434651292 24.2884171602653 0 0
-142.608280532159 -19.1935086920019 -11.8473171580806 0 0
-182.379985706272 13.1574403143925 -12.1415829330742 0 0
94.8848147829171 -3.6336011237398 -6.34144550962243 0 0
-235.209877948612 19.9274865689268 -3.62935183267527 0 0
157.905026444623 -0.492978415302779 21.3480451855894 0 0
15.7647030728766 -4.28745590905011 -3.86798351529404 0 0
176.038289213414 37.9308741716709 -11.6514655297707 0 0
189.488582936865 42.7071588329087 -7.16671994356393 0 0
182.592500944102 -32.4575161606445 -0.179772809124119 0 0
120.47005103684 -10.2998939836096 23.646218568546 0 0
50.5918679813243 -5.368270135 -5.33544771862515 0 0
-152.590073700415 -9.09398045083183 10.0656445412596 0 0
195.455191891897 -32.466713943182 -20.1872576089143 0 0
205.653371141835 27.2416576912209 -20.001442721546 0 0
105.364932242939 4.73244897574509 23.4876457943484 0 0
136.220675102086 -12.0133442275169 23.0480327928119 0 0
165.512789710519 -21.6607433505934 -16.5424581311193 0 0
143.776523452949 -11.1466155186721 -11.0397405114158 0 0
29.4590278644827 0.900913907481411 -2.98921956584467 0 0
-124.19625354653 -23.5112813262387 2.58882151036428 0 0
-176.788930387916 -2.82249872283995 -21.5564603508712 0 0
-162.960991913996 -15.8945640183277 -19.6247494074888 0 0
-213.569036851686 -18.5965811695784 6.3120042873074 0 0
145.929969185021 -17.3198692605794 -6.07768752054502 0 0
194.805430323434 7.79356726851984 -9.33229107505031 0 0
198.478389579593 -27.260585416336 -33.5777874638453 0 0
-193.342591749643 14.62296560573 -11.1307384287588 0 0
-180.956644326722 -21.7625947866189 -24.4222217004233 0 0
17.0783915809305 -18.2674321320585 17.9195512264256 0 0
-194.103658064114 -36.9845052384042 -0.0305841631660346 0 0
201.517863403155 -32.913169507279 -28.5303873271871 0 0
170.517919000502 24.9071658892924 -11.7903594077857 0 0
176.406936061207 32.8954172151108 -22.6130728814792 0 0
-112.373539374774 6.78013102657644 1.35840465819623 0 0
182.12099736001 -1.18626983119201 -20.1483347391264 0 0
-186.125915259287 -40.4392837557919 -7.22556210126495 0 0
82.8059711226432 -12.0486925663167 -1.98479947896423 0 0
-37.4486123687149 6.71584341160141 15.5481618412759 0 0
211.54067052931 26.1603054971108 1.25987110265835 0 0
-0.0207025758739957 -1.06019972330243 -3.59413754640016 0 0
-162.621121819412 -21.1993017350275 4.8084282829952 0 0
-64.6996330630878 -13.5532452687747 20.6800796402296 0 0
141.558210715511 -19.3772632901031 15.9546510632327 0 0
-166.610129257886 -17.4839516566474 7.12040530341484 0 0
157.016436078435 -4.41320343199869 -11.5816327639611 0 0
-129.706667270725 -7.02171052314795 -14.1723350046202 0 0
177.229155830629 8.47337155029791 -16.2679871314101 0 0
175.626991029203 -31.6752689691487 -1.70060215904452 0 0
-214.361383921304 -29.7133634520173 -4.33616865177282 0 0
-51.7101505696866 -14.3149499436358 0.166269105563226 0 0
-27.6923553119535 7.05340589149456 15.6123991030151 0 0
-213.545199427908 -29.8287491932488 4.27864316455138 0 0
168.125415638597 -27.1574850933087 -6.2147721266754 0 0
-75.4438910918212 5.64296798893423 13.2053884943635 0 0
-135.890717051218 -9.60467150452246 -14.933629709634 0 0
134.478535894895 -5.13586974227422 -9.27249476339992 0 0
15.0865766004044 -2.3226409738891 -4.51085391413606 0 0
120.436805084854 -1.97776501577136 -7.49384845854529 0 0
180.581480942282 -16.6170849420387 22.2417992971662 0 0
-32.307994077282 -10.4045566819005 -0.816434220395909 0 0
193.155029317652 -32.0877425845876 -20.7592522059155 0 0
85.8056780484775 3.82353902242323 23.8445979955303 0 0
76.5915901439785 -18.3364495209539 15.7824926541874 0 0
196.493234605309 -27.52956355415 -35.3427151196847 0 0
-193.07251484917 -33.160486117871 -18.0677564798132 0 0
-218.184049235851 51.7325498054053 1.56162734053007 0 0
165.582333386061 11.2330312001597 -10.8292972316214 0 0
-196.689546490612 15.9106829096718 12.3855494247769 0 0
165.296906721205 -4.41928102362049 -13.9479839087266 0 0
134.746608320155 -8.50696613584157 -9.36150992833684 0 0
14.815456613725 -4.09348288465914 24.8646540898395 0 0
174.91692154944 -24.3852264740444 -33.3231435337401 0 0
59.987352493051 -13.3151037357735 1.15097026860219 0 0
195.539323605905 -7.15169455952128 -24.1004992576667 0 0
-129.010852266302 -15.5637450588208 10.8472859435272 0 0
70.0495725536171 -6.4105066170688 24.5937787075165 0 0
-191.475558007473 -35.4440201312119 1.64533860830519 0 0
169.031816308508 -14.7782064665045 -29.8871845205267 0 0
190.773688387889 -15.6111497206711 17.6199400453787 0 0
92.1012009527242 4.1403334453502 23.7647161337296 0 0
-151.438440322379 -14.8227911936673 -17.0073554651993 0 0
-93.7933168722025 0.793147451140024 -5.09456053375323 0 0
-141.599753924508 -20.8693114358207 -10.1255578601484 0 0
139.646550012619 -4.2195755396562 -9.48696887702896 0 0
96.6559360608792 1.34389448637164 24.2330177752856 0 0
-12.9054139671718 0.742092403524019 -2.01772740253344 0 0
171.092408265472 33.5102666126495 2.00682887322009 0 0
-204.662251600409 -12.3817646769634 -8.31013716990391 0 0
-45.9861700506926 -20.2999548814335 6.30096145488092 0 0
196.872151566786 -28.3312385133677 13.3287966249812 0 0
173.737736545658 21.5651354307616 -14.9579742866103 0 0
173.906421900231 26.2221351228107 13.7723244656229 0 0
-235.603003104 24.4636518788286 8.96891057863376 0 0
133.170894574209 -12.1732513895536 22.9257445749322 0 0
-10.1893582785726 4.47404942983664 22.3782853542162 0 0
176.732771364582 -31.0715055709479 3.00022294446224 0 0
143.652648586971 -9.34329954221883 23.6801832190105 0 0
46.5890315317858 -16.522225593767 5.23279056227284 0 0
-182.293282451712 -19.8372852920399 6.33227538574093 0 0
207.365797598164 29.1332903960816 -17.112740066173 0 0
-87.4727711406973 -11.5863518913396 -6.80437855528711 0 0
187.580252882304 -30.6283173456503 -30.5105226482566 0 0
118.280472166635 -16.5637895923696 -1.21413367089085 0 0
185.223104099769 43.5587267634165 -19.3916789439767 0 0
-86.459800922669 4.80631116372044 0.664137474479093 0 0
26.3474679299076 -15.082508997499 3.93844609741895 0 0
-200.154194254456 -39.4721081289862 -2.40353302754072 0 0
-46.6219006944191 2.88084152787251 0.369782027339159 0 0
-210.75903441881 -14.0110430676008 -24.1705772034804 0 0
-137.984783530503 -11.5552071968644 11.9576227130486 0 0
-170.419548529867 16.1771109973847 -11.1073666301089 0 0
202.725537886356 -33.6417797676166 -15.6729308073876 0 0
203.364722695919 3.02056533907548 0.933757373298015 0 0
-177.429398274414 -8.56812686017358 -23.8016918301212 0 0
-163.023969301763 -27.2530857656853 -6.97498247868359 0 0
204.884092466565 28.9213653244329 -21.8418744180161 0 0
200.306587743053 -2.99204940480067 7.34821264242407 0 0
-190.79598451572 4.45699301361518 -14.4722104438532 0 0
4.42528791116466 -19.480926325311 10.6065245190404 0 0
32.3496667093158 -0.892078285413756 24.9021450290428 0 0
-12.6890229389734 -20.5150121312087 12.9471903072649 0 0
-196.497903788231 -18.2455044340748 9.12689870382361 0 0
191.476637368378 -28.2818471561384 17.941571941178 0 0
181.546950438834 5.16137282426021 -17.0451302392784 0 0
203.131955155841 -8.2294449483828 -2.74732062515062 0 0
-158.016687769082 21.7605782395755 -6.86670155725777 0 0
176.147515616451 31.2739756764992 -22.3318371973208 0 0
-224.683389382589 16.2549490210019 -11.8260815447472 0 0
17.539367242006 -3.02746153474434 -4.59683923307372 0 0
179.756836236572 -12.9616261158432 21.6014908245864 0 0
-112.717722549735 -6.80217479768742 -11.2765330531156 0 0
195.33592758929 -31.4709961476069 5.33746185355244 0 0
-84.2735853683982 6.64601603051983 7.44965312789093 0 0
-218.852227863125 -26.3094589236432 -5.91300678899321 0 0
-212.485913345865 3.22713579228532 -6.41425186967442 0 0
-85.653634022244 6.31136610628904 10.0742504387635 0 0
-207.480981900147 -34.3546989126466 -11.1359565964729 0 0
192.132459253643 -12.5425233038382 -30.8797519560936 0 0
187.133106995835 6.14547396736528 22.3187301123374 0 0
-205.086987089523 35.2791174574405 -19.1076646938061 0 0
200.106356587521 11.6568464083582 19.5415936520842 0 0
-213.679574170101 51.3548872523682 -11.8517355963338 0 0
93.9823800398594 -16.6478649741905 2.13665670091907 0 0
80.8395260919893 -6.94383639777721 -5.97926171634982 0 0
-68.547138690837 -22.633026460739 6.81122130800957 0 0
183.686694998439 -30.0018207224845 16.3902189839992 0 0
-157.775703128738 9.53222182291902 -21.9390075923537 0 0
144.027118357707 -17.6960861129523 19.0013488296195 0 0
178.734897893928 2.65338720426806 -17.6091027416242 0 0
170.481341727401 27.6867300803366 -10.6269478390804 0 0
86.485192392002 9.76359227917267 10.1732485427832 0 0
-214.574255624449 -13.7327650481517 -18.9382395301075 0 0
-114.796913690495 3.04854359616204 12.9289010254112 0 0
181.311909194783 -29.3782140810876 17.5447615992635 0 0
159.442156732592 -11.0116598622829 22.1960787807111 0 0
158.116151439914 -8.44439660630811 -13.6338367949388 0 0
202.403785021314 -28.3764955592715 -28.5705069455111 0 0
-159.413073729997 21.9829950450206 -7.68445345561869 0 0
-183.976516645594 -39.5541493196371 -1.2004706935512 0 0
-202.373683723414 -26.3598551026846 13.8611093306429 0 0
157.561796910901 8.86845435535085 20.8732955750676 0 0
-227.254075256797 44.6756581722694 15.782941408128 0 0
194.417034841422 -17.2828556668451 -33.1001514838156 0 0
54.7525841721303 6.35074683558792 6.05849477179454 0 0
-234.790129360554 25.3452662752658 -10.5901426760199 0 0
-188.248809695464 22.1086894867724 -7.2647205831423 0 0
165.185411780924 -0.485215463165774 -13.1496030572968 0 0
-152.972602807788 18.8917323608718 -7.76872352927358 0 0
148.02639479946 -20.7006719906121 12.4228794184134 0 0
-114.218752385371 0.851794654178283 15.0830190785618 0 0
197.394884579885 43.9527358506879 -6.57830394210169 0 0
-164.461394367044 -26.1758203689055 -11.0049697144915 0 0
-206.988410373229 28.3198465137576 21.4865965652285 0 0
-6.85190983958323 -19.324397992915 17.3701828234756 0 0
-173.414552015801 -5.71290511547155 8.42568128792236 0 0
-97.9067332732858 4.81295854580694 12.3544066154202 0 0
171.918730012188 -5.16215555479436 20.046732421666 0 0
196.644290109482 41.2461334861224 -28.141416906299 0 0
15.5394156385676 -11.7802048528364 1.33078346797079 0 0
-193.447154823744 -19.5105955630221 7.70264179207998 0 0
-179.337253684145 -0.371730535879642 -20.1722770899229 0 0
-76.7009483914313 -12.4166819431177 20.2678596943278 0 0
-72.8752699874034 -8.99377740000357 -5.71348792758483 0 0
210.334886497502 20.7668262332702 3.09485120521227 0 0
-99.3733525177826 -15.773894568959 15.3110368562415 0 0
38.0206156969678 -18.0270695396793 17.4383264904888 0 0
-212.733915311154 -13.9764492660651 -6.5480080569927 0 0
199.858795250753 -34.4667140336563 -19.6117014554647 0 0
-171.769649001762 -9.69142683556817 -22.4893184349314 0 0
167.270716226459 -14.4425381054315 23.1238031532144 0 0
174.838534384397 12.1507668989939 -14.4561585905885 0 0
190.968205972146 -31.3849189605006 7.12206264847169 0 0
117.848067721658 -18.8919066169813 14.9833292265901 0 0
-197.294454587234 21.8951639665409 12.5748197831457 0 0
-159.216253734677 17.5005480323028 -22.7111905436581 0 0
-22.740794760155 -13.4873612953397 22.4273546035166 0 0
151.069918238095 -19.0804775541226 17.8774325275581 0 0
123.294672446858 14.6463502170423 12.9239520970218 0 0
163.791730466713 -16.9843101899082 22.8826466091908 0 0
-106.454599449063 -19.9176262560079 -5.92038326884215 0 0
-7.06068543252162 -15.1271362368559 21.5469511939283 0 0
-186.351539514029 -16.5963547721362 7.80556975055414 0 0
-94.5576403914299 1.94228254217938 16.4415296823753 0 0
21.4696812694391 -3.4644830289821 24.9252354766491 0 0
-12.1759610895975 -4.41162803677668 24.691384935047 0 0
164.256630300035 14.1364113107973 -10.8503614013787 0 0
-238.058034020034 30.3503655928778 3.11002848282419 0 0
173.066945294918 39.0324972005924 -6.49422575923303 0 0
122.756193421502 9.42002834431613 0.410261661963481 0 0
-148.774135159539 -11.5947574656338 -17.4021248902975 0 0
-173.265986827401 -31.6897121889968 -8.99088333876611 0 0
194.813592260075 -34.0717403655557 -27.9335779781918 0 0
-105.313751326277 -8.46056655265494 -11.1681217347115 0 0
30.5412196087187 5.61525183383169 5.04607178109667 0 0
85.5782252123312 -1.61418530335623 24.5495396257695 0 0
201.472009794829 28.5161980545828 13.6752128433028 0 0
-232.199773889767 35.2674907320798 -14.9422529177304 0 0
192.477024230083 -2.47188221331909 14.5206098120707 0 0
164.199212972687 9.16416826037997 -10.8065834778898 0 0
93.0001205964939 -16.4367058042277 18.416838638238 0 0
-193.710413952271 -16.7613805866229 9.14439663140434 0 0
166.580413843592 0.529715805741633 -12.6277616577005 0 0
4.52411128266461 -17.1663997080936 6.22215196782973 0 0
-200.515476782062 -24.716389544344 -26.9325213767716 0 0
-54.9709206394166 -3.90938384107693 23.2488548977616 0 0
-214.387865604599 1.46825226802415 -0.989680357297939 0 0
-200.189837518469 48.7621800359926 -5.02542606009548 0 0
-204.766121555557 -35.9066655873197 -11.3633386819977 0 0
-203.980913126089 -13.2570498307632 -10.6553280939175 0 0
-184.490800957837 -1.07624683455106 -18.2488516743182 0 0
75.5920853535742 -15.2358770240794 20.0061367304605 0 0
100.136584037888 5.12239168075591 -1.02020768833469 0 0
-136.786549766555 1.68490237814875 10.9576677219488 0 0
-188.525810589457 -22.6410781108079 -25.9650552809393 0 0
202.33169252836 40.8089636132161 -3.01683170814914 0 0
-174.748475701255 8.86246683559441 -16.3815756416944 0 0
204.761405800521 -23.1625899860258 -1.83561091962536 0 0
-125.572502142026 -4.82616508668604 15.2463572159884 0 0
191.386195495779 -33.4258255407849 -30.8560882917404 0 0
204.955651621988 43.6366596883034 -9.46289271975223 0 0
-185.364674203413 12.2392297465055 7.41582787919991 0 0
211.815131442183 26.8826997478267 3.6343808719248 0 0
-172.73718757845 14.1875469471007 2.122086251805 0 0
204.37039103671 25.1520383674154 -21.4072345086502 0 0
132.363528218336 15.3168651696108 7.36552936722351 0 0
195.277228965542 41.5896918122552 0.32939885936188 0 0
148.950082839754 -19.5202758806182 -1.9098199755933 0 0
-199.967753279106 -37.7426840038971 -12.5710545541226 0 0
190.532423229042 -32.1349935978567 -36.4388757128161 0 0
-218.841173897977 27.1741649537734 -21.8067019204337 0 0
199.079899125582 16.0422058481982 -17.1471882867684 0 0
172.042327004118 36.1306213873287 -9.11526880444591 0 0
204.288211254219 20.5239214812413 -17.2242111972017 0 0
205.909399069752 10.7353633711722 7.66210170658337 0 0
194.466245901036 23.4183116140733 17.8581881714824 0 0
25.3576791432529 0.773088270791382 24.7472247195691 0 0
185.576274583064 -33.415472712511 -6.26718116936887 0 0
189.796631575532 31.9913147567719 -30.4961039242495 0 0
-5.78069704265585 7.73947357980762 12.5234114474982 0 0
-187.657624807086 -5.07432859079666 -19.9075035808006 0 0
-168.114890406418 13.9766949727152 -18.5229942232579 0 0
-190.386724196898 18.0662851439749 6.97109899753413 0 0
191.065519781398 38.3366012794179 -29.4256715596371 0 0
31.548929875624 1.52488823805233 -2.29070861033048 0 0
62.7308706914886 -8.73425339211171 -3.10284267264607 0 0
-169.662856984042 11.1579572164718 -19.3926795401372 0 0
191.126183333632 -20.0187952962907 18.488332137211 0 0
182.096110192171 -32.8700940124273 -2.49953541591346 0 0
171.283913279387 18.4405956548976 -12.91827822344 0 0
-163.22252081381 21.086969164422 -17.9308775759143 0 0
164.30363981918 17.3540823596931 18.1665378542131 0 0
160.112906225242 -14.9427367852207 -17.2673774729591 0 0
80.1257377597783 1.37874931725474 24.3905915844055 0 0
80.4873252764962 -16.1551911121554 2.8096911029699 0 0
148.165617770578 12.4804074055556 19.2662583349103 0 0
-155.941384074842 -5.94538822916562 9.3453887990823 0 0
-215.320921914435 -14.6188922027617 -16.942760384668 0 0
-217.192174782491 50.1952053660167 -1.90722504146185 0 0
-131.334970789521 -17.9070794498701 8.47798134906003 0 0
-207.002732080997 -31.4577433792669 -19.7624270433786 0 0
184.180546002884 -5.68530549802865 -28.6219126171577 0 0
-195.806289547143 38.2721422265539 5.37838327495211 0 0
100.923757255866 -10.1575201365509 23.3959251834934 0 0
-228.527371031611 26.0222086449207 -17.5390115418958 0 0
-153.970149177988 -3.25109886682955 9.49904207320189 0 0
1.79238601968356 -8.82453690759407 24.055891644141 0 0
-177.127613288689 6.21638391288203 -17.0884065031935 0 0
162.170297458104 -11.4630941938696 -18.1394191724798 0 0
-229.904876990641 17.8520341314232 -11.259806244752 0 0
-196.423562342071 -23.5875776842578 8.00657986717687 0 0
-103.846526168416 -3.08943869207105 -8.54038972317012 0 0
-65.1879011641107 -20.5165343929663 14.4149825281266 0 0
188.09024485942 -14.8402255330087 18.9185009331728 0 0
-191.666351266424 25.0971510116514 4.15705070465696 0 0
-103.182680907914 -4.34716392438158 18.7391609264872 0 0
-7.13147382759765 -10.0102471032664 -0.446526241071142 0 0
-228.143176928594 18.446504139829 -13.8970695952316 0 0
189.358205215298 18.3105865577383 -26.4716633509177 0 0
-59.3875856123021 -16.7940488458728 0.924442184501949 0 0
175.279916667047 -22.2367816826544 -36.3728967982922 0 0
-7.77958805835111 -16.5313521698878 5.09408206319531 0 0
200.989780536818 14.9281440074097 21.6231793202247 0 0
193.35467215303 -31.5408934707415 1.72648684857123 0 0
172.167488582303 -22.8932020344845 -30.8039458290328 0 0
187.688990248523 19.0826431569849 -26.7508910665132 0 0
34.3798626213247 -19.3199455633057 13.6001020251178 0 0
-96.3253660032989 1.07255441821518 -5.16619498614895 0 0
-128.781739679009 -12.5373341915004 12.8342078843589 0 0
130.648024067737 -1.90223182338784 -8.20973346311798 0 0
178.280138073038 -26.0208274491898 -32.9008604665049 0 0
-32.0162213137303 -0.702061955249367 -3.19179950150134 0 0
202.23274881528 42.9531418841599 -24.2504106164459 0 0
-172.465998602782 7.8794465135803 -19.1674893626702 0 0
170.675285060471 31.0365784619311 -8.49586814037781 0 0
-49.8965237984061 -10.3520665303108 22.7046924717188 0 0
190.143264178081 45.4570952425036 -21.897834719702 0 0
-221.240447916308 41.9833445494496 -18.8538751288011 0 0
-216.567149512126 44.4229282714597 -18.3440784231048 0 0
-215.376616711394 -29.9047915741491 -5.6219559781496 0 0
176.235075765597 -30.1841967935952 7.40008458296938 0 0
-98.1726983793095 -17.911629451541 13.3240267617403 0 0
174.933157062248 -12.5024572642354 22.7441755338873 0 0
-208.688656784435 -33.3992634594538 -3.20808831652939 0 0
-193.299710363027 23.4620407482431 6.52683602600246 0 0
-146.085069026716 -11.0406254492875 10.7493891182585 0 0
122.70574240012 7.6117989649458 -2.08943098443557 0 0
188.831953560346 43.156100862444 -10.0422078173216 0 0
-109.73456469906 -15.7578300994879 -7.27228222234197 0 0
65.6727252300454 -14.6836183804571 20.7122474595636 0 0
190.146232543421 -31.9599673950799 0.998351381444197 0 0
-124.961743252489 -7.24312199071192 -14.9844004317129 0 0
-19.2468638307649 5.55173514400447 4.25690360227165 0 0
