"x" "y" "z" "f" "a"
-187.855104559194 -24.7673056062701 -13.1854280536178 0 0
194.163644062693 22.3684227720529 -26.7040344701509 0 0
199.255539477772 -12.8395727446605 33.5711999589991 0 0
170.192237239303 -8.30741808329562 -18.9209238497141 0 0
19.443564013866 -3.9723025747242 -25.1198634961246 0 0
8.61182846146607 15.8164432014571 -10.5475841626944 0 0
-195.502094636484 34.4385536429927 6.64856164200509 0 0
157.111644126187 8.21730170654723 -22.7512995422208 0 0
-121.051439711313 -9.6526268222823 -7.44684913291791 0 0
78.9628499433371 2.52392982317401 -24.6240499870116 0 0
207.108023726647 0.745517359872714 -13.3058924771718 0 0
183.94901738319 14.7671124283945 -28.8179402293093 0 0
-187.307586103709 -43.4027576782692 14.0900448352891 0 0
175.570675277608 -10.5971946723294 -18.5867958230517 0 0
170.572935879211 -28.9621103526199 13.3580189116128 0 0
190.153537405137 -43.2243654542468 23.2908739631416 0 0
151.305757977529 7.29417070512962 10.7002848748808 0 0
-24.7632095614269 -2.43060891774483 4.30406801066816 0 0
174.935297294701 16.5861495935683 -23.4345587526721 0 0
-179.788507634727 34.2423325977569 -3.40885525902375 0 0
181.315109124114 -39.1881852278594 13.2913596090328 0 0
-207.542943638767 29.1759369896086 10.6952540011435 0 0
-114.300436125284 16.9564229736094 10.6121895498467 0 0
-225.79685870544 -26.2726969258509 -5.49472679756055 0 0
-67.5898833232808 -8.36898230978662 -1.84638631600769 0 0
217.086377343155 26.8362417613363 16.75852779114 0 0
-216.013703985168 -51.7307404433762 6.93654028376999 0 0
224.998116669474 -23.0693088541451 21.2736499129444 0 0
152.514015391415 -22.3619938871065 6.9318795446464 0 0
-45.3417206031395 3.88125814719694 -26.4661892418527 0 0
109.331907213035 9.21169972887914 6.65857870575819 0 0
202.414650232254 -28.7756633888322 -10.3809518630273 0 0
-196.353830745235 24.2581207402702 -6.61175261609625 0 0
-203.240313033532 -19.4997842623071 -18.2708486267857 0 0
191.461839391079 31.2671262018284 -8.75037399834447 0 0
-123.870569501385 23.3038054977387 -7.30699044731754 0 0
-108.821705579329 -0.453676069479921 -16.6902221405524 0 0
-172.93168803759 3.49357122140835 20.9243706910958 0 0
17.9618832783794 -5.28143016494074 0.776977246243126 0 0
-40.7652471058094 18.6414989145244 -17.9946667107239 0 0
7.09472194278099 16.7676260923977 -12.8786601259364 0 0
-73.7130745229003 5.7189124547478 4.7983298694128 0 0
-167.114253584217 35.1006046935899 7.04414333244892 0 0
201.450991928908 -10.0116028281741 17.5488654676596 0 0
-210.236929231899 -14.357126641828 16.6771793305051 0 0
182.656482747515 18.5955214423139 31.4639360904198 0 0
-84.3995094983461 4.97436011406198 5.40381706286771 0 0
138.529405385234 -1.21904810418576 -22.3211997268207 0 0
-37.9627145961755 8.87642399567737 0.00191377517315913 0 0
204.313482903755 33.7253202196402 -0.94970281764857 0 0
-142.606924782946 7.45352893738068 -12.1779814718074 0 0
197.860274142018 -43.9781807222536 10.968139665025 0 0
-12.1060111132267 -2.22628568687642 -26.4231947963565 0 0
-67.9267197710621 -9.94891326014352 -4.45466992512537 0 0
-215.386120700155 -21.9069882517031 -16.2886748976618 0 0
27.2991648956422 15.1244938778827 -19.7076799343252 0 0
202.224337885196 -32.0379121917151 41.1208564357413 0 0
-205.582939071942 11.0127651663148 15.5596543278113 0 0
104.581037081423 10.5056716370876 4.31818602458914 0 0
-68.6852987690101 -3.20666580852369 2.47521701452713 0 0
223.456355204817 -22.2862716005483 0.503499885079373 0 0
-61.4756657755942 -10.4429853187049 -13.4271107025614 0 0
203.828142675799 -17.0371466303208 38.7089395162045 0 0
181.12344921808 5.19260498863796 17.9395356344795 0 0
-164.181710942138 -13.8390789506635 19.3533841470794 0 0
-211.009909279881 -55.6586635956871 3.70877665127784 0 0
178.432294003001 35.3651298599463 18.123995111702 0 0
-133.894976815244 12.8312842654024 13.0008134423125 0 0
-87.257477377382 -8.64751889483419 -2.23283920890909 0 0
-214.175650594746 -49.2810435039742 14.1732481432012 0 0
213.025623410889 9.86473702393672 18.1872289717032 0 0
-187.605828092992 30.3262684735007 20.6572582840649 0 0
148.254998345876 8.42277840617191 -22.4329240122712 0 0
-156.163157785749 5.62489741285254 -9.92671689544935 0 0
207.58646513308 -21.7718802277917 -19.2355454051945 0 0
200.453679431889 -34.0185835310997 -5.66562520386423 0 0
-23.6371908523918 2.47450733851616 3.89782643257112 0 0
178.449409886817 19.990746054448 21.2374136887623 0 0
78.3867475450578 12.7764051528281 -19.4751358845126 0 0
56.4568833328051 4.54152731794942 4.77412518025079 0 0
177.63208250652 -34.3083693413893 13.4658246104645 0 0
-227.621477047331 -33.4756317192148 0.384082381063374 0 0
-201.156899956501 27.6389040738837 25.5039670589616 0 0
-190.77903495376 -47.2223926206219 14.6539543766165 0 0
220.232657325567 -13.5523337764836 21.9564120154547 0 0
162.649729880798 22.9785576662349 1.4275428391436 0 0
60.2288851929473 6.36017601121964 -24.5863828414929 0 0
-149.600212619956 27.0439452942291 0.46823853074383 0 0
165.640147496048 15.9128489647327 14.2803162308215 0 0
202.185834105623 -44.1578969626803 10.6716241627413 0 0
-193.001733140712 33.3226255556294 2.20360371968434 0 0
-102.307020673219 12.0917907987789 -18.7988802824721 0 0
-200.279147913559 8.824613788376 3.97455507091291 0 0
188.630250469804 -2.53712555350758 -21.469279599947 0 0
-111.818526079965 -3.9761095393517 6.13933799752018 0 0
87.3770859449119 9.75966035270593 2.39708512417126 0 0
183.918096440803 28.8751971308361 30.0964934485564 0 0
-154.375312273079 25.094286307016 9.61624828157129 0 0
-83.3946181211093 13.8844787694364 6.98402793527138 0 0
-2.56303790817967 -11.2786267226513 -6.19834089620953 0 0
197.2026194726 41.4133587789795 9.05318960971988 0 0
-83.9804351037302 -1.44092180935055 3.82233094150413 0 0
-181.233918774716 32.7465729566211 17.5880775271284 0 0
69.3162863211553 -14.4039527733583 -6.17395251374721 0 0
-190.728537666558 36.6676176828712 9.83096022860813 0 0
-208.189916107291 14.6141432538948 -2.19161005381093 0 0
130.184800526333 8.37011362032893 8.80099287173279 0 0
-208.661150946996 18.8023446006435 -3.18489421641507 0 0
122.863730289442 -15.3236818075322 -15.0542748018255 0 0
-119.920767004975 -7.97489368894217 -9.84277878132152 0 0
-194.506608869359 -38.248783065474 -18.9851494709669 0 0
144.024203602422 -20.9759097535766 -2.73826516238082 0 0
-184.152020031962 -29.9548342031157 7.58007716087226 0 0
194.431473042058 -42.6392843258312 6.4130700834789 0 0
-192.54659473855 -48.5596616345907 14.5175391593641 0 0
5.48212893441094 -5.40397955447909 -24.9563572585301 0 0
183.075988386994 -10.4685093774379 18.0788131058456 0 0
166.286242934765 7.05770836394843 12.8063662286047 0 0
193.898923523041 19.6261127686517 -28.8464671594784 0 0
211.046468134401 23.2338613471571 -15.96116860944 0 0
209.037890106907 6.95042509331581 25.0791044687511 0 0
-194.55172999842 8.9971982471777 -15.0644565802626 0 0
141.245435139209 -15.6108134585342 7.74974062598588 0 0
28.315624488622 7.48546961458338 -0.290445166841225 0 0
-79.6619437111269 3.40119329913638 -23.2461717040914 0 0
-187.944369842422 8.16116800283984 -19.7518640893789 0 0
-188.042389138339 -29.4003411109817 -15.1343488238014 0 0
-190.03518704323 -3.79938300586023 -11.4704787702425 0 0
73.3691170561984 3.80250089276457 5.87965632168102 0 0
170.912416858657 25.5121783803923 -1.50271951994191 0 0
186.438873332879 4.33076893643265 22.3804922910582 0 0
171.881181011486 -10.7172331814385 14.9788994146159 0 0
-214.397758612701 -40.4393493936212 -17.4095181694059 0 0
187.987718638228 7.64729845750671 -25.0699322152115 0 0
-14.24474839143 10.3394541441572 -2.97307609996432 0 0
-217.03840594593 -14.2848535839518 -7.82950368796894 0 0
-135.71719184649 15.2654346684527 -12.2426680789911 0 0
81.5941085071509 15.0966830263771 -9.28503584346908 0 0
-167.111038509189 32.7742942157529 9.60204748274904 0 0
161.295526633508 23.2090776785414 10.4914984979792 0 0
-5.0732648886896 17.3853630814027 -17.3697076071036 0 0
-114.723810274158 18.2129003326273 8.91022486273478 0 0
-129.279394101279 19.0198288851002 10.6043754459986 0 0
-119.823515331552 24.4165324364217 -4.62666685869684 0 0
-206.986794201835 26.3213542388989 12.6652493116258 0 0
-165.721290887616 -4.88677537165989 -11.0119606972666 0 0
217.284764050323 -34.0942456277434 4.28033261061571 0 0
-143.867094162906 -11.6721743025224 10.9923603941272 0 0
84.0701680146883 1.39978514923357 6.2193077294597 0 0
-161.08711397593 20.928856355292 17.9775569694674 0 0
86.265071541395 12.5536647448078 -19.0225352141187 0 0
203.471167772755 18.5052581540587 -24.4675877921871 0 0
130.72039720211 -15.6457258887475 -14.8932733544423 0 0
55.291935540126 -11.7682056060765 -3.2648520093127 0 0
181.078791234731 -10.0827317682754 17.3976579743839 0 0
-6.900486991956 -5.76559840183352 0.340844885045225 0 0
206.710238527135 37.4285879779937 11.4322962295978 0 0
4.73697453612233 17.2700523800726 -14.7345421083804 0 0
116.253497171392 -15.6852056667688 -0.0343420581264427 0 0
182.758818854422 27.9307330079076 -12.0080760015815 0 0
-166.739212374183 -3.56933357301783 -12.1421384084728 0 0
178.890296078244 -24.7137974231677 19.9288494140099 0 0
180.124697783222 32.2840230222272 3.27651681351537 0 0
-160.630763804128 29.7035659549384 4.59767049831737 0 0
190.83090611764 25.8592107996098 -19.1924706587799 0 0
202.362148449825 -18.2876176624348 -22.9418064348809 0 0
-207.193512654005 24.6777213989024 16.3121529336363 0 0
-103.946012160302 16.026917532876 -16.5116038746757 0 0
-142.684776375362 -0.663945663138041 16.4670271579242 0 0
157.654065814325 -6.97252213719307 -19.7498566785592 0 0
60.4898087086943 12.2682547799487 -3.67007435659477 0 0
-202.384234044508 12.4901795708163 -7.54868027242999 0 0
-198.997645104126 -19.3458538599867 21.6475370303947 0 0
-123.787628397878 -7.9809009328524 -9.96028869755279 0 0
180.181491775828 2.32013028756139 -21.534015271046 0 0
154.48392962281 3.8144506634922 -22.5255681063009 0 0
-74.3659877560208 -0.102062134856487 -23.0898617470562 0 0
123.158571638983 16.6987354221429 -3.87057449183034 0 0
42.559763975445 7.28557918978189 -25.1824429146678 0 0
-202.131651464447 32.8541340972174 19.9729965023869 0 0
157.164439144758 -8.8680516343222 -19.1366906358362 0 0
63.7007425971886 14.60336441181 -17.0504064567487 0 0
-79.5968652276979 1.2477816283055 5.90574260141335 0 0
-187.50635059785 36.2101160959964 2.64941731025023 0 0
-199.134019279145 27.6055277658674 -4.73920773763767 0 0
-186.777118550823 37.8920086088156 5.80345522505979 0 0
-138.294985114545 -6.39127850825574 -10.5864250468612 0 0
-195.532730102252 -16.6203632098185 19.2615212470279 0 0
-212.506134163692 -10.9154115999753 6.91428018429657 0 0
168.719949643847 10.7404735786656 -23.4768011185283 0 0
20.9085712777903 1.18829649166626 4.18514889816097 0 0
173.31288846369 21.3173067441738 -16.4411069632928 0 0
150.854833837696 -5.73832774260965 9.13421974548861 0 0
157.102894816178 12.3410751341686 -21.1933838767797 0 0
143.43183862996 19.0619560452674 0.457893924533349 0 0
179.696029916523 -8.17004671700661 14.8990210556376 0 0
-194.241835273577 2.65895785932911 12.0461236487587 0 0
-115.092972307174 12.7961630143724 -16.4660645870635 0 0
-191.589648549041 35.6288591707867 12.9252045139803 0 0
-188.859587570955 27.4211228192877 23.4466048718601 0 0
-185.15616264713 -39.0359667930394 -10.5250932044996 0 0
195.72572851642 -45.0707228959184 12.0528265841841 0 0
-196.373048968876 -12.8568193775238 -14.1870479620321 0 0
-170.327462859736 20.4053627776947 -9.46683702097702 0 0
-113.451894353277 16.2299667002574 10.0119058710729 0 0
111.406817201117 -0.857295218749341 -23.3073543263403 0 0
204.454099339928 -13.4308130203692 23.6891977179331 0 0
186.587394881629 37.1307868901436 5.42381238540558 0 0
-195.083167737695 -18.6217201572708 -15.5647312108091 0 0
-179.514942301845 -0.936172366785665 -10.8706350972453 0 0
136.193967735307 -11.7616830371584 -17.3801310686895 0 0
-158.042228730559 -10.3994237235011 -9.70523320994147 0 0
-198.800944229797 -53.0024684753092 -5.90013308075895 0 0
-170.870090076187 28.3741587543481 19.755650975159 0 0
85.2602347761988 -0.45836451184863 -24.2490360966473 0 0
-156.621189303732 -8.38611409111229 -10.8927283701331 0 0
-145.404998716326 -13.7473086678433 15.1977778066464 0 0
-162.14130599904 -15.4590253300171 -1.81527843727071 0 0
-188.982351228449 37.1252698718363 5.60822042071077 0 0
62.9257919766205 -8.67963432919682 0.0664325779058358 0 0
119.489820503927 10.467190368631 7.96079620330274 0 0
-201.94559924698 -49.6714636277088 -13.0982199926288 0 0
-162.4516056612 14.7825137362148 21.7975671836166 0 0
-208.699686411005 24.8409487561999 11.98810767099 0 0
214.489909678113 13.0614296870169 15.3297443188058 0 0
202.765745214577 26.0706661403247 35.4218422604091 0 0
209.684707168507 38.7495427710675 19.7027910244067 0 0
-204.35003669691 27.1679157654557 24.695638249354 0 0
190.712622563012 16.8777549804708 -29.0641788441157 0 0
-166.772407444752 -8.26898987308834 -10.0802168660696 0 0
203.081523073428 -3.81509936443882 11.8073852295976 0 0
-210.811192388366 -13.5174641903311 -13.05848563482 0 0
-196.274523678284 -4.75812830792205 -12.1527176505601 0 0
167.724945555286 24.3497177935512 14.2451785750516 0 0
89.3288989546448 -6.14694724859952 3.7026729051473 0 0
-174.857247775629 -15.0066306733401 13.010801193183 0 0
-159.613557928733 0.0350707008005063 23.7662136861525 0 0
62.624127303392 -14.4796819887124 -14.2942480737871 0 0
74.7494371785722 12.4597711798648 -19.9180058428433 0 0
-214.92350533535 -54.9408141218434 4.5399952721955 0 0
-147.928734674561 26.3982114038033 -1.32802362280042 0 0
200.12310794326 -15.0469519686462 27.2035771187059 0 0
-95.3203243536141 18.4844924125443 2.39157993786398 0 0
214.328866710164 30.0448264695904 -2.26977917168201 0 0
94.3025358412619 1.08448419768991 -24.1119835012784 0 0
211.607333973522 36.2847038455405 7.88070831961313 0 0
-124.909943117902 10.1540412615635 -15.3352144908616 0 0
171.355710504626 25.0794207042948 -4.04811712269392 0 0
-154.974399437269 14.1138111558916 18.1770085299178 0 0
-187.095986417581 15.335875792278 27.1932095719726 0 0
-166.229987446919 27.4846817505935 -10.0203006389928 0 0
-63.8555742911251 17.6675360586933 -19.2115038077734 0 0
168.849457455254 23.4682175546085 -6.98031982086993 0 0
178.54743936103 38.7384764860326 12.1278762201481 0 0
203.202461070086 -43.084998571848 9.03122304613485 0 0
-15.382795988443 13.6963883555507 -6.51112296567995 0 0
-204.327240759235 -3.64886176469189 3.05769907064512 0 0
-123.969474038698 2.89403310901103 -15.1695160448316 0 0
-52.9778510883595 9.34651128335498 1.80042625971106 0 0
-195.935151494007 1.88366217016799 -11.2550731630284 0 0
217.078980813666 -23.0418422496421 -11.0866542016856 0 0
50.265107503289 -9.07873906271489 -0.943140178610258 0 0
209.278940259758 35.5194945210744 29.6910685835114 0 0
-212.98611187707 -10.2885687122687 4.44716787855323 0 0
-26.025409748352 8.12510007091652 -0.109144829464867 0 0
208.991789037962 -9.22743557477292 16.9208505912212 0 0
-77.6710052925116 6.1551968830956 5.03661348842814 0 0
-152.67808970893 -12.7711779234806 6.46787581563785 0 0
-109.900827095278 24.3095238236078 -4.26299818600206 0 0
142.325920919673 17.7169620304025 -9.51926717404742 0 0
-202.788092950508 -29.0898296716245 -21.6686271374412 0 0
139.035528992044 -11.7864061885303 -17.4498344996822 0 0
151.74351935345 -17.9846392068253 -13.2203570595363 0 0
-78.6871782739922 0.216256716461608 5.96561683109748 0 0
-197.917570839915 -26.0197883410473 -20.085286491732 0 0
21.1702115696568 4.015390817777 4.07510063363975 0 0
-131.429530881191 -10.2340840348519 -6.81418037100626 0 0
109.785277543682 7.21733268957962 -22.574838807104 0 0
-198.678299697001 4.76803679115067 6.82761645174256 0 0
151.515858710706 22.5175323252911 6.58223533926126 0 0
171.460867884721 26.3436198739488 15.6053651477362 0 0
219.472293952627 -36.8782626839111 19.5521462163847 0 0
-40.9317944463072 19.526020377296 -15.1434450806598 0 0
196.978294778105 -21.1381641780001 39.1137340027647 0 0
126.698081108359 -18.6991210114913 -3.06964976615961 0 0
177.050017466325 -22.5040716712447 19.2918938575685 0 0
210.492305790186 35.5848616674405 5.61605236151153 0 0
181.018173408963 -4.90907770360067 15.8987446756787 0 0
-180.456230014968 31.1636089793786 18.4866768781002 0 0
142.825147027013 7.14127796482547 9.64738304457446 0 0
170.203057094589 -13.2962347002997 14.7151713496354 0 0
198.889769932801 18.4121445150713 35.5544509589345 0 0
-175.772877479958 16.5282317315498 27.8283008908796 0 0
106.542029438055 -16.9838315461423 -9.61483799436719 0 0
118.384496022174 7.45074411108588 -22.3200059535917 0 0
71.7614434583799 -11.3577465181324 -19.8657995761162 0 0
-166.473128737863 -0.559102416078837 23.131666226989 0 0
-87.9235782887502 1.16151902120972 -21.4661216517143 0 0
-82.1991296239331 6.53846149746441 -23.0755111994499 0 0
154.949540115064 21.2121429002301 10.0027951842611 0 0
-196.300302480353 13.640075422632 19.2683044418145 0 0
146.143850893765 9.86222203131295 9.96843338618488 0 0
159.067168318876 10.825178884474 11.9606788450748 0 0
-202.940853373263 30.8047211670203 20.9757503345857 0 0
-52.8224575786763 -5.4699987160803 -22.0545898234603 0 0
73.5993204790544 -11.2623486073371 -1.3292836829831 0 0
117.228314643577 9.97248428040779 7.89135663981612 0 0
-205.064611412951 23.3520836923339 25.3537951662464 0 0
-14.2548894538879 2.60342779965447 3.71749469971051 0 0
-216.841564627963 -21.9644724146239 -15.2838353686022 0 0
169.844979388819 -4.24640863804949 -19.5304037700457 0 0
-180.738899238522 -4.16408592972828 -9.66622617347836 0 0
127.109742446627 16.3606343020707 -9.77006939591855 0 0
201.934026528815 -32.5434798247271 -5.68581289367828 0 0
93.2438275166132 -10.3687536922164 -19.9025505917694 0 0
76.3769016747227 3.88601274013559 -24.5696583277833 0 0
101.842422751542 -4.06165439301201 -22.6996289492508 0 0
223.23588245293 -19.0943873387451 24.9287490680461 0 0
-137.461391864875 -10.1235335469181 -1.6564661502521 0 0
196.959070721174 29.7725568964567 35.0992684602409 0 0
146.939954492903 -6.91946692031867 8.68225439788302 0 0
90.9916755788814 -3.28260475724424 5.11266891838295 0 0
158.997923165151 15.5760541656318 -18.6664483118666 0 0
-131.710692833863 4.18109023695408 12.4211808262535 0 0
-72.5543054749377 9.91251563205756 5.30927656353757 0 0
-30.9305736031464 -9.17043807014838 -3.78895406317237 0 0
192.726181771572 18.4586636747704 -29.053785879004 0 0
73.0162215925614 15.0707538716333 -13.9069414288619 0 0
-206.247237485001 27.0532251915505 7.88244759175598 0 0
139.498873812104 13.03231676127 8.91647970486632 0 0
-27.9766103610034 -12.6909661918919 -10.1455452081643 0 0
-105.439140568906 -5.90600476130217 -13.0521765502518 0 0
-168.729618930976 29.6282033739147 -8.41889515399837 0 0
-203.60451160236 -48.6248826074482 -14.465411119352 0 0
-81.7574829136096 12.1966576586302 7.49792252583834 0 0
188.444587043449 -0.510243431307888 -22.1075361880416 0 0
-211.054497998211 -12.1186076509487 -11.213909906074 0 0
-67.4281055192038 -6.35604031221931 -18.1023312114398 0 0
-173.816102394925 31.9792281852236 -6.26631399605672 0 0
-158.04596507521 -12.4134325810134 23.9459427711408 0 0
-168.112250232417 18.9521058685825 -9.20336424790134 0 0
208.991545824773 -28.6835272343197 -9.07580222184438 0 0
181.105670300003 -7.84692904564454 -18.1699988407132 0 0
-19.2924676029212 -2.95414691115734 3.10240467516318 0 0
-97.6733221053405 16.3615109036034 6.31153177330808 0 0
-22.7329302299781 -2.76679436280273 4.01966325872713 0 0
-141.41686198809 15.7755757696605 14.8561986983734 0 0
175.429312372645 4.89729279162653 15.1976048125927 0 0
-106.07186560292 24.1402921477937 -4.02626898303234 0 0
205.76015998021 -30.6220816776214 41.4555019830282 0 0
215.189518359525 -32.1192623206012 -1.15562438459258 0 0
-208.179967779774 16.5116859779595 -1.00474964645227 0 0
-198.620362434194 2.05331098182143 7.11586192917194 0 0
-216.828809173394 -24.8643217006392 20.7503036557734 0 0
173.988783011707 12.846754814171 -24.7962227998935 0 0
3.2654997090362 0.817259648102169 4.57338324305449 0 0
-219.116330384873 -49.6661556625597 -3.40426931633635 0 0
-121.526639267843 -8.67158141801445 1.02069735789066 0 0
210.35744377699 -18.7961341954177 38.8839165770243 0 0
-111.196465889894 -9.13765751207699 -7.40229830384884 0 0
84.0704172319381 11.7648091012106 -0.345085573949488 0 0
213.755483124435 7.67598302671848 7.64429793883266 0 0
99.4668969400841 -6.10386537341282 4.41076400313369 0 0
121.40713467173 -17.6294638885019 -10.5610229481934 0 0
-190.126730923759 26.3808010455329 24.3854919517959 0 0
123.383529849978 15.6866597098679 -12.1713120382553 0 0
211.005369572687 20.4685099873576 28.8029306757144 0 0
179.861042111694 38.6498457339668 16.4865452685927 0 0
-205.177248359515 23.5275207331085 27.1933557251482 0 0
209.188808366133 24.5307309348646 -16.821802410286 0 0
160.91055236981 19.711106842483 -12.1188524572108 0 0
-199.244755372906 15.0599911003813 -11.8226705018661 0 0
-86.9838148996463 3.11842100078496 5.27716745015938 0 0
-10.8690377242574 -10.1761862012586 -5.02461505650545 0 0
197.785836059066 -36.8331155120653 -2.75830074885816 0 0
-207.726665272432 15.6774925832877 8.57998551554013 0 0
169.217549723677 -12.2790600529261 13.0454017676903 0 0
139.737469124287 18.3568818836752 -4.11701220327607 0 0
198.942613374817 -3.15327118697919 -18.0277087415602 0 0
180.533857120206 17.2059335268203 -26.6426247438636 0 0
202.171740869642 -8.52697273014814 16.361580879898 0 0
180.633706792593 25.9903492133279 -13.9941165840839 0 0
-179.161694242102 6.81262593450646 22.0760619089538 0 0
81.5136712466789 -15.709502368429 -9.62848552762195 0 0
-191.241242184172 35.0756477112583 14.7492029353008 0 0
194.582903937517 37.0857894678413 21.7620216305126 0 0
-129.140288620574 -8.90494857880413 -4.18279945222104 0 0
195.980560955699 39.9329351693161 14.7087819839843 0 0
25.5951622269878 -3.73171028279155 3.42473828241437 0 0
196.050188274087 8.15963083498412 -23.2464740499148 0 0
-159.398592326465 19.3345250095761 17.9703398282212 0 0
176.048129499096 29.9389206986247 4.30607737472541 0 0
-171.56119691762 8.14999816249643 26.2333476278065 0 0
123.283957840979 15.4865583532168 1.60899380382863 0 0
-149.19254854068 -13.1891374415343 8.67831003942317 0 0
132.49567121697 -16.9973372904224 3.05467492414664 0 0
-40.2108890544937 -12.0921478868651 -9.11179157008546 0 0
-187.120119545166 -21.1581360933653 13.2405351769237 0 0
186.136675962249 -34.9719445244088 -2.71623746522661 0 0
165.548552400143 17.2865806789459 -18.5452742119356 0 0
-175.243051694418 -13.8505981690788 -9.15585850828349 0 0
99.4964207400152 -12.0101101151062 -18.3889029212838 0 0
-202.043630572071 -3.17316913533928 5.1825417609075 0 0
206.492834590385 -26.7423125053938 -12.6401789296663 0 0
211.940965061184 6.9481309959156 20.4049288214859 0 0
-183.67665773749 -39.2701732645174 4.48835789444116 0 0
216.04162805588 27.4623291362576 -0.5919337035837 0 0
140.915508493247 17.2822768534799 7.44872428661434 0 0
95.6324669191373 -13.2148234330764 -17.3349453516816 0 0
161.666508519892 20.7937777345181 -9.69653858293248 0 0
-54.4078627413043 0.529922816679999 4.12744631500438 0 0
-96.3612698831021 -9.3469464784219 -8.15586266105307 0 0
88.8544767520021 -15.8491985037384 -8.61111913665088 0 0
-202.657780121206 28.9748930460773 22.3190992211276 0 0
98.7170390473338 -12.4930284096358 0.583194456608878 0 0
-127.164305801371 17.8697935861462 8.8078726485916 0 0
-88.8663635651138 1.94337248846888 5.44302971422591 0 0
-194.62440695908 34.71796861567 8.31371835698103 0 0
171.144437613283 -3.48023914086393 12.3060987061099 0 0
-45.5338223680157 -11.6415349552887 -8.46935291302972 0 0
-6.70019540115519 16.4817272420799 -20.8626495720159 0 0
-115.755902600273 18.7372923043248 7.6180087462053 0 0
-89.262110543018 -1.49225223798498 4.56402770867364 0 0
222.246306211471 -31.4581090361271 29.0118044444621 0 0
-182.591596770572 5.4266612401175 -18.7860719269701 0 0
-43.5801320911353 19.8717870863155 -14.2366644056032 0 0
190.683295692547 38.9282490201038 4.92554062348306 0 0
186.580441413876 14.4162265586816 -28.8558853627028 0 0
163.989440945222 14.2870020945513 13.6561376899691 0 0
-181.623951122479 -1.07463585417159 15.6021743052891 0 0
-199.739681508743 33.9798399682917 12.4740547557035 0 0
24.2044743146535 15.9304114307084 -17.9330627792632 0 0
203.949692194426 38.6236534469419 10.2465584347115 0 0
26.4032100270381 15.2944236052132 -10.9740218611885 0 0
189.007587255351 20.2389885234605 -26.3763842136946 0 0
187.888889336787 41.4237392975727 10.6541632268625 0 0
-148.407237261578 -14.620891371616 16.0108639376772 0 0
-196.299174560779 -50.1324126242132 -10.9124616338253 0 0
164.144504874999 -22.9581456461483 -8.09105663097174 0 0
-189.318287061258 -48.2060876458281 -7.13220970232566 0 0
-103.017656632484 -1.04744365026966 -17.4032805772809 0 0
-143.411667436849 -12.8570328508971 13.1985194265022 0 0
202.984988896082 13.5650722567735 -22.3014561822595 0 0
215.302559614441 14.8042614481036 10.8855835039338 0 0
-92.8905026532915 -6.90256966676277 -13.2515122513865 0 0
134.145902420057 7.19265685962559 -22.4520004417051 0 0
-42.2686040745066 -3.01026164103635 -25.0907055731361 0 0
-211.11991682544 -10.2134165133525 3.45643334038413 0 0
-186.002384799807 -37.927786046838 10.3010822572718 0 0
-177.473975203077 -24.2430709224714 -0.168488448547883 0 0
15.8275542813017 -8.2484866883724 -1.6800396407944 0 0
187.53116149427 4.97757947614775 25.9623909119384 0 0
141.786088528649 18.0546442188231 5.29973194522064 0 0
-169.265165293968 40.2787199570375 4.54871544474926 0 0
211.698729864417 -35.4733734741924 2.70306543480147 0 0
181.38020269788 0.651249606617459 16.5406682916554 0 0
-125.28607414926 -9.78251448937291 -1.64300240768946 0 0
-197.235813338761 -47.6477875221922 -14.3307832061352 0 0
121.41355218435 -17.7871065336438 -2.32687105245415 0 0
127.93964190004 -10.7098056235654 5.94036910264632 0 0
-212.318099442487 -26.7879314570825 -19.5471731945978 0 0
92.0647584969837 14.2697458853884 -3.44022677633051 0 0
-28.3447490045818 7.14164448289046 1.44420770359512 0 0
143.834055549734 10.8977963140504 -20.9687690904047 0 0
-119.007730341376 -9.02845162111382 0.0377640915730949 0 0
-202.69130849852 10.4170125067922 22.1855180172042 0 0
97.4973168692869 1.9910503753023 -24.0097496698324 0 0
-154.747435077455 27.5158991169523 3.94911834112108 0 0
222.508305224005 -22.7385658458518 28.6608929932254 0 0
-206.468060450565 19.4474632412711 26.1676575211113 0 0
-34.1246430654035 -10.3229862611885 -18.2781951210928 0 0
207.32118039018 -41.8227103383626 18.2558407996595 0 0
-148.430005576748 -11.0580117614204 4.86773998599576 0 0
-14.4549522129923 -4.09391559958681 1.63301772350325 0 0
-194.666536378789 34.8195439959012 10.6191643319292 0 0
-197.87923081653 -3.29396570691384 -11.4098416576514 0 0
-191.241994353626 32.6184927144191 -0.541470788528163 0 0
-146.168341488079 -13.7488842498443 17.3236988151339 0 0
-177.670255224197 0.212579309868478 -13.5525781551921 0 0
119.179681381677 -8.18415810711285 -19.8138609093843 0 0
-104.136873820368 10.8413780256554 10.5003379595887 0 0
25.5015645590219 3.37532359310916 -26.4590985118861 0 0
-76.5657217104726 -10.0935842884812 -10.4152232825606 0 0
-198.702059304067 17.7016393731319 -11.0559211370468 0 0
201.288970860673 37.4022489166419 15.7552242370599 0 0
-210.806048199082 14.6158908395656 13.4637007344366 0 0
213.400452945437 8.44302788418013 15.1920772015709 0 0
29.5746363131358 6.62015976192594 -25.9191403574485 0 0
197.431993707329 -35.4331777659104 38.986329878653 0 0
-105.826410330838 22.6598329930404 -0.296461226444601 0 0
198.556506110107 -14.5538839685087 -22.0660647637813 0 0
41.8658792784039 15.4423441377418 -17.1651646167326 0 0
-67.1784537270269 15.2021025494736 -0.359576994651849 0 0
-208.472318791671 21.0519928915214 20.2971007147705 0 0
186.664011623244 16.4504416988072 -29.3656845996253 0 0
194.446813548112 -37.7382266377636 34.401048315349 0 0
172.119311671128 28.4674490540691 6.68501565612586 0 0
-17.3483095355983 17.4287709085254 -11.8816088974366 0 0
-189.897553813585 2.97791592002023 -15.3769313489859 0 0
147.104726191763 -19.8776622363603 -9.46344486734089 0 0
-33.2026787652736 14.405512575978 -23.3197459004153 0 0
-87.442415909798 15.5253229804514 5.4024822033073 0 0
-114.978527554648 6.52632653807115 -17.4001883415507 0 0
174.157325969098 -6.80849228572916 -18.8778918450095 0 0
-204.380362154808 21.7297689538032 28.5343797226387 0 0
69.9006198519142 -13.0634306380974 -3.92089475188253 0 0
192.159263752666 -12.4719484112525 -22.5823408403524 0 0
-184.925625138879 34.2285786414623 14.9568864746871 0 0
190.658698877263 6.01966200907053 -23.5628393874297 0 0
182.596458312957 -8.1642317629945 16.9707874008105 0 0
12.3485292802585 -10.359156091971 -21.3343277495027 0 0
-173.126587776447 25.4374086771144 -10.238937799712 0 0
200.131463361169 32.3396305027532 -5.32883957773339 0 0
-144.75628900654 3.26623926193932 -11.5422992024216 0 0
146.713835868705 -2.4180059343178 9.06486909644276 0 0
183.465712457416 -1.21964681585005 -19.7952829505302 0 0
-160.665494492679 -17.9087394931768 15.55247340951 0 0
-41.0390606487412 6.50097509719944 -26.3919444330831 0 0
-151.987859871989 -2.21956404838431 -10.6677781939126 0 0
216.518812274702 22.1264004599044 1.39583773567917 0 0
85.42355443494 -9.91316073372617 1.22506430959464 0 0
-105.815352011925 -7.42225733274471 -11.0764697924697 0 0
-211.615655884153 17.6987441686632 12.3641112140223 0 0
-106.542714942333 20.5454813165585 2.09349478426255 0 0
173.199879517686 -11.1148842123943 -18.425562658436 0 0
203.737514650827 -3.86999965144232 -17.2528499608214 0 0
-197.760727848192 20.9773715709417 -8.72065382237828 0 0
-144.133204666875 -9.9864935127582 4.61632825777839 0 0
36.2183491360843 -13.6642169277081 -8.54032452862578 0 0
174.363239343199 31.443488829451 10.1085279179425 0 0
-186.942931709027 -33.8223734066678 -13.7629802273505 0 0
216.380465222923 25.0803506856175 -2.31639410354953 0 0
-221.975950859221 -24.2729135115923 15.4660993495042 0 0
-152.50870227582 -16.0993708379272 12.6333388516781 0 0
-120.687213065844 -2.35505252510239 -13.5903957773918 0 0
-215.903237240356 -14.4836491265972 -9.76977512710857 0 0
125.601406690779 14.1236841873277 -15.9641415827729 0 0
-121.526077739779 5.63590030112867 10.2143909337777 0 0
77.9417851214248 -1.02812174020105 5.52258308169505 0 0
-191.342106063483 24.7475308514909 25.6842063413873 0 0
144.946157339686 17.9116077243994 -10.1152207581633 0 0
198.94337011071 28.9406450135237 -12.4680178113703 0 0
-167.97781021441 -1.26783582159796 -13.1186830433573 0 0
-140.527286905874 11.2403638651692 13.935349877665 0 0
175.929966050183 -6.41227256168158 -18.8656313051178 0 0
186.184569533887 31.9933262286534 27.1045639733763 0 0
91.4047995384573 -5.18796339422662 -22.5743793838629 0 0
-193.467636236914 12.983527317555 22.9805967293588 0 0
186.445717713805 18.470429275558 -26.9977929773726 0 0
85.2278151273209 4.44661498748757 6.44899946519308 0 0
213.140517023455 37.8101024041536 14.3741591997786 0 0
-205.330739943119 27.1832963910154 -1.67409141855395 0 0
-186.368084064558 -30.4853713613435 10.3655179410422 0 0
-208.662517092105 22.8966521788898 -0.128897890865909 0 0
70.2340393662558 5.59712986315635 -24.3491881117667 0 0
-20.7986662466113 -4.17860965127881 1.57724138382678 0 0
187.21055274721 -41.6082992352043 19.6450635807364 0 0
-194.865117268079 27.2673867654704 24.3170760265435 0 0
-203.585136391935 17.710225512498 -9.29066058737875 0 0
217.273646818783 28.1594759990198 8.96891089078633 0 0
-209.438375159078 -50.4585510184102 14.4752719154737 0 0
198.722022843914 -7.5002438181234 -19.1162767617739 0 0
-207.668440930189 18.409647164142 24.4870348088674 0 0
-179.765933117015 17.8838846633604 28.1547460502061 0 0
202.43076503306 35.8372904973679 25.8860891493925 0 0
-214.785887839174 -10.1487746815124 2.91956699593174 0 0
-148.082559664921 -14.1973968850372 18.9429849914703 0 0
200.737599268679 -18.9564750464133 -23.6879409580784 0 0
-227.587192222518 -29.3987243407519 2.29964267823754 0 0
103.759966992 14.7523573945269 -2.1280601448166 0 0
12.4451079219933 16.1846329160574 -11.8146589485338 0 0
166.592482457857 23.5333016996545 -3.52811392736775 0 0
179.556617066013 -11.9809662466756 -18.5342270761572 0 0
-27.3873899942224 15.8349744237553 -22.0282314106335 0 0
196.638069852733 -9.98563716680961 -20.4133344567034 0 0
-36.3216006257329 -3.06467741853944 -25.4332701219467 0 0
-6.94773657644944 -13.2257320535316 -12.6581990443266 0 0
125.940219180391 15.6445848889739 2.12831530095612 0 0
-96.8590879008253 -8.50004133384613 -10.1800617643748 0 0
-154.818362305785 27.8226546106204 0.789982371727075 0 0
-109.910259220559 18.6346551194906 5.33495419882739 0 0
208.632126406455 4.51673846840523 10.2086741017855 0 0
139.935821569901 -17.4777626386353 -13.0646637639542 0 0
-68.7019445675037 4.99935202537011 -24.727084501038 0 0
167.355321519789 -14.6775313892707 -16.8662505007114 0 0
-143.716763420401 -7.68625189730066 18.0431500534773 0 0
-207.233434131861 -14.3989299555319 17.7987740204549 0 0
114.118041627573 -16.9834120132203 -11.223537396946 0 0
-48.1909025347955 13.0821754795036 -2.15700058041384 0 0
215.709415067075 -12.0842393384879 27.2067811431975 0 0
-174.027711248011 -10.6590659961328 14.4737328861305 0 0
98.8275895378373 -9.85529680044645 2.4462413515662 0 0
-168.183139805809 37.7446959230539 11.1689339732871 0 0
-167.368312171815 -6.06684260859532 19.3586143053738 0 0
42.9824301873682 -7.31870496296764 -0.00034048481805781 0 0
-205.698949010514 28.2181581137741 15.2667677638268 0 0
-186.496146841207 32.7120361982837 16.3279534239384 0 0
-197.5488630709 3.51266858670829 8.60914301646614 0 0
33.795616188099 -13.8370577320565 -15.5417570430526 0 0
-224.809375795793 -28.7881440084551 13.1288198268236 0 0
221.699633765276 -17.1868081564374 26.3366216892107 0 0
194.174099016455 -44.801297050639 9.60157479228132 0 0
-80.5188408078072 -5.97263963252827 -16.6009171322731 0 0
9.81294933670401 -11.9211470251627 -6.84178090451997 0 0
131.633763695703 8.8949717228187 -21.5678012487 0 0
-110.339253706566 8.94227232990273 10.1658790714994 0 0
191.958023976503 -20.1781097358172 35.5943242579058 0 0
36.8322832447265 -9.39241728116752 -1.99239839850098 0 0
-93.5344084911601 21.9786860529574 -12.6939259272227 0 0
-193.125088716182 -34.7841517002176 -18.5246529077705 0 0
-53.2954962440715 3.96307876490148 -25.9384759039304 0 0
-201.939788234974 -4.30806468959441 5.73829720303584 0 0
-75.9779831165773 6.9184975812994 5.10774505771156 0 0
61.7929945284153 5.82659142928728 3.49461247067068 0 0
-82.8065969684263 20.2411041764242 -2.29804139128407 0 0
166.590602949085 26.0459959833546 8.30636624724539 0 0
207.289108480444 -7.47948196704514 -15.8122329983506 0 0
-170.420300981886 40.6403295032079 2.78582330380791 0 0
44.9536387806773 -8.95506827523418 -1.17409326443282 0 0
-168.253607256557 0.215103620600836 21.7872515582155 0 0
-30.1826831880709 10.1788282804986 -1.98577414996039 0 0
-130.699060174657 -6.45928042300462 7.73096356837055 0 0
102.576352445439 1.91542140718798 -23.8196311269456 0 0
4.24636105359429 7.91967367524104 -0.90909765307327 0 0
-169.254659032082 35.1038211108961 15.5716751551568 0 0
-213.508927555127 -24.2967942515701 -18.3746370042409 0 0
96.9732784454996 15.5432562203815 -10.9892755695789 0 0
180.281047511547 -1.78036651114071 -19.3740113706615 0 0
45.8870101269089 12.8177640532785 -5.40857160221273 0 0
81.4012668038174 -0.565128489651541 5.71639845642626 0 0
204.137223064857 -26.3895814102525 -13.9354020383103 0 0
108.207881286168 13.1852187374536 1.85768100285325 0 0
185.131172748737 -35.8558567048686 -1.09661358918276 0 0
-167.447318898945 -6.74841589536697 -10.2805513757501 0 0
-47.1936439189588 0.162698844708618 3.89688473356119 0 0
213.138088104458 -26.3265721981304 39.2511683211256 0 0
-97.5140549475166 1.81584858127544 -19.906266106567 0 0
-41.2551757885126 1.92934015651727 -26.5138952656755 0 0
103.766591419863 -8.08009366513578 -20.7179411426352 0 0
-46.9473603143447 6.09271850159921 -26.165954751651 0 0
214.934345864041 30.3260346889834 23.1056258909672 0 0
-201.62290136852 -49.0113806545364 17.8477991661603 0 0
201.718871284911 6.93175128268785 20.4985329776365 0 0
142.8868493348 -19.2708667309367 -9.83223910275386 0 0
182.677670832225 11.7328612557905 -27.4200833707481 0 0
-195.262896439371 13.4303114400045 15.826934309769 0 0
184.581202636615 -35.3092332805992 23.2313784684792 0 0
-185.937387299412 -24.5133731072223 -11.7022791536902 0 0
209.462313295066 9.59200328082335 25.7719998188046 0 0
-86.3349771311209 1.17008909896971 5.54664346692308 0 0
203.57610835732 -25.1925151023907 -15.8311443553424 0 0
198.935082264848 -23.8473866062048 -16.5549470957337 0 0
-207.052212278149 23.2715637901847 20.4083544768301 0 0
13.5093912345743 14.6557138469767 -8.94220482396947 0 0
-167.005878842559 -15.0089690805222 -6.02840947214042 0 0
-131.889929281022 15.1445802599056 13.8288522894059 0 0
83.2406091144544 -10.957598347271 -0.124091119014642 0 0
-159.549444981836 -15.4089536202741 4.41369195028595 0 0
-201.149473831954 -52.6044361288017 -8.17074584305798 0 0
-47.3576563104404 -7.4214245424524 -20.4190062543033 0 0
-182.076726067806 36.8337419240586 -2.41396237797781 0 0
-37.0339021919051 -3.62365423196452 1.82399727687687 0 0
213.309092984839 9.61147671914899 -4.4654715030643 0 0
-162.853481769266 27.3772491935645 12.8795282934998 0 0
-126.935443847013 24.4499281566533 -4.66238489316489 0 0
213.471344690783 21.680585077556 -11.5739934396551 0 0
-87.6794133715688 16.5401190516502 3.55262953614979 0 0
138.274603079816 17.1577663098696 5.46839776745008 0 0
181.637759075927 34.0906940621388 4.34537795235183 0 0
-97.1266168353293 17.5566749572953 5.22134539355795 0 0
120.076042943259 -10.6025324400781 -18.3999964005629 0 0
100.555635756499 -1.26144794228531 6.26742683658133 0 0
203.028094259624 -38.2428807889009 2.53455020873958 0 0
-150.56116837221 20.9944045231271 13.7716371668135 0 0
-71.6333429595497 7.06431045395193 4.75569656477664 0 0
-201.976223695982 28.6017838641119 24.1189543278592 0 0
-213.055949321225 -49.3593034361844 -10.746341666692 0 0
189.279485402635 9.84991422496402 -25.6980278385803 0 0
43.4750566773825 10.8965155763868 -2.89077943839393 0 0
-215.355106203069 -11.4409221251764 8.12000332423211 0 0
-172.204077349707 32.4459169993868 19.8086372759457 0 0
-145.785172533599 -11.3358410507048 9.89937275155395 0 0
-81.2641415917561 22.5964039662503 -8.73162211077832 0 0
-109.888133208337 20.7755082105909 2.40994522989818 0 0
-186.70430670747 -46.181990493845 9.48545513618242 0 0
141.376505444576 -20.5117234228994 -4.27007807776273 0 0
170.525276949465 28.2816778466546 8.25389689973646 0 0
83.06043733608 -15.1713720440851 -13.9229928837686 0 0
-148.196098455585 11.7731047006943 16.3543844811757 0 0
-152.005723000758 12.1195173958997 -10.4968043010754 0 0
-184.186238181784 -33.8967924343018 -3.53776643419665 0 0
-81.0659486531464 14.1139504718817 -20.5845315332109 0 0
180.680049286544 -35.915897046977 7.99030803360778 0 0
-113.975654999054 -6.86780203680533 2.97349187406761 0 0
98.7786719185971 15.1721970303707 -5.1037934006085 0 0
-150.604207551648 -15.8948039872682 12.9772755303088 0 0
-121.091934349744 12.9593115288332 12.712989853659 0 0
214.365287075719 16.8659351398052 20.432685465715 0 0
-125.11910770982 5.77496691819069 10.6184026768838 0 0
139.142222445058 16.5141132169372 7.90195300879314 0 0
-199.442604043907 31.4443666301989 0.819465831299789 0 0
192.571654335328 11.45684277455 32.7701394413142 0 0
52.7273634801836 -8.06785345278974 -0.000693363448908558 0 0
190.886424698209 19.1627797661276 -27.3497667108926 0 0
213.009696709564 -23.8614884357251 -13.8600201896622 0 0
216.032117939465 19.7230273364239 17.7200660865773 0 0
165.792876214846 9.59825530990777 13.3770468339782 0 0
59.4676233078679 -15.0315473376764 -9.92060270948986 0 0
31.2728098741 4.34887911561622 -26.2331703420894 0 0
51.1370300958782 14.7751561248757 -9.92359030617006 0 0
150.777419255637 17.305477444489 -13.5424067986713 0 0
140.858450005341 18.331543676668 2.82457691924887 0 0
-110.655551303583 -6.98658303232521 2.52457880002725 0 0
112.789704734401 16.0123822410742 -9.02279782505277 0 0
-106.097460210012 17.6553642987454 -15.1211118165978 0 0
-162.430616750749 26.1917850367019 13.3777082873166 0 0
-93.0346855166054 4.12568241938597 -21.276660190379 0 0
-134.465559270503 20.3415416264495 8.65388655324373 0 0
183.34382170733 32.5914388638294 -0.922728240469469 0 0
-117.787367328301 13.1559441177692 -15.8866607194729 0 0
63.5911443128462 -14.9583607566223 -8.77544134219728 0 0
73.1261984115087 4.57143259717224 -24.5456489612695 0 0
154.480940215201 1.15148125852701 -22.0448105372772 0 0
101.162265378031 11.7965880644947 -19.2519144128198 0 0
-169.002886426338 -9.41676590215072 -9.7187351922346 0 0
-111.444664282736 2.22189910147006 8.69709803175736 0 0
173.012228343653 22.4228986743402 -14.6176947012833 0 0
208.644597820851 36.8882223974784 11.9034293192892 0 0
-30.2242813311057 7.57830689513055 0.819854440119345 0 0
199.404629040602 29.592738674196 -10.6484274630637 0 0
163.200668626807 10.8418517653483 12.9424686743009 0 0
103.07538725346 -2.65022018971094 5.99040634428742 0 0
156.820547587361 22.5428762482174 6.31105389040238 0 0
-112.34221590667 3.4761733844093 9.89101644864631 0 0
194.790134582031 11.1914222756621 32.8321960506485 0 0
-133.219766547999 1.55078515855708 12.8392928083286 0 0
-194.899322339356 -47.8598466013419 16.9019391898367 0 0
205.313222467014 3.70783332352227 -15.1185400794885 0 0
-28.5569546678411 -4.09040725130882 1.81212066382872 0 0
-202.012799244743 -7.30786645309811 10.5034009169231 0 0
184.510808429032 -13.2308693421677 -19.4331619100387 0 0
-147.03790543697 -11.0103019327484 -7.46305331387119 0 0
182.23213742641 -16.829091966734 -18.2427196407142 0 0
-199.885919684017 -50.2333482538175 16.5212577228666 0 0
-62.6738410080662 -9.26941181759289 -3.2393095349142 0 0
175.548838594935 -11.9507157335434 16.1525740022059 0 0
19.8844829685793 14.8878100959581 -21.3290234371949 0 0
213.773229406978 24.8135522079039 25.6227020776966 0 0
128.292985214753 12.7374378403852 -17.9646349481446 0 0
-206.184298036071 -52.9417457177397 9.43434975403159 0 0
-174.535729738499 -17.2061004008192 11.7313759822039 0 0
-147.169765294771 1.94521594709906 -11.0497583186786 0 0
-181.603234127018 3.59169601983016 15.472313035378 0 0
-131.331143686667 6.21378326672142 12.0380153799446 0 0
-3.25977991493335 2.03526161359466 -27.0110929065273 0 0
198.714861447074 26.5706433314043 -17.1245078703882 0 0
-96.0183689581356 19.6167759241402 -15.2176665853543 0 0
191.928362248486 21.483831851066 -27.0045427235008 0 0
-176.814372056539 33.8808228421222 18.0268787856712 0 0
-204.237062219192 -9.73476696270967 -11.7307052434087 0 0
-50.4763705510596 5.92738198962074 -25.9793397132301 0 0
-125.155387504727 17.4988273293795 9.50178201477668 0 0
-203.746520691635 14.056393602387 9.29050888206797 0 0
-189.018839279183 -20.7391518999882 -14.4745215768332 0 0
-171.108877585524 24.1171879214743 -11.0331014756714 0 0
-162.136437208168 -7.01011831857496 -10.6406219216711 0 0
-1.49913418827065 -5.17615233298296 3.05091321589378 0 0
138.192461745548 17.7727266979014 2.76833810658317 0 0
-163.932891762539 -12.4054316139684 20.9503329618618 0 0
-208.669862766346 11.8872042624574 22.0754685874229 0 0
216.911930801962 23.4888273380107 16.1016354432448 0 0
177.057928111885 -5.42841753164095 14.4702722470457 0 0
60.490437428344 14.8501467865022 -16.6376854683621 0 0
-197.735922984025 34.964698621853 15.0139969943639 0 0
172.371126442905 -14.0662494664607 -17.6222763692833 0 0
50.1509556023794 14.4371602056411 -18.8566137373257 0 0
-149.152295675466 -10.5215941378972 -9.24780116844743 0 0
-119.090837800738 17.042904640332 11.3493988607035 0 0
-193.780266404828 8.45590247160775 -17.3000474921597 0 0
187.520206272826 7.32488597761466 28.7354223440379 0 0
186.032548869402 41.3126376784254 14.8903756338095 0 0
-218.544705247628 -14.5911658940838 -5.97793822977462 0 0
203.495916129384 -5.63106916667145 -18.1090898963144 0 0
89.2213993951505 -7.16449760988865 -21.7869132551706 0 0
215.602304552137 32.4709248327179 4.4652299524634 0 0
-172.577186060524 10.8089108551328 26.8799354362566 0 0
-172.590294508933 -4.31108295705223 -10.9256575568852 0 0
169.1715771676 -28.4360348445994 9.36041611739784 0 0
-98.5346448563026 0.445868128746352 6.03504969944733 0 0
158.190184230162 -2.93704819668681 -20.6511877388277 0 0
74.3970206106864 -7.54433343275247 -21.8971176009157 0 0
-169.345353965683 -14.7607653721107 -7.29971328710852 0 0
-131.159523870963 -6.29524153955312 -10.9225905832573 0 0
-101.924395640549 14.9748972891636 -17.4137188138772 0 0
172.978454443272 3.36793929642721 -21.6872096345234 0 0
172.184985350291 29.5710206390688 8.98117724101283 0 0
-126.090703038188 -9.98654715378395 -6.21277545107069 0 0
11.666560332388 -3.78546162642446 4.35718077341175 0 0
-198.922974865483 -54.2594970488684 9.63979346089043 0 0
202.947972350937 -42.8805040085745 17.6831038692861 0 0
-8.05059879652278 -13.0145117324616 -10.2389436787382 0 0
48.2825237841593 5.54862765961941 -25.3920426899275 0 0
-192.406477941497 -31.6316866478095 -18.5693796555813 0 0
210.444584685699 -14.0254554781495 34.3513355292816 0 0
-128.023740877466 -9.93974759857019 -2.22700516404127 0 0
180.510924510018 27.5928152437444 -10.5343538023095 0 0
58.0212214949647 15.3044513570818 -12.8203267248755 0 0
12.8857081893913 -8.19095954004326 -23.3416578447363 0 0
-175.255665715611 -8.38159568265301 15.0637034683938 0 0
-171.047650558333 37.5783231525196 -3.68449144512997 0 0
151.772925763164 22.0785560526016 4.91201612115063 0 0
214.081166417011 -34.8394333036579 3.35330472005052 0 0
55.2045010093528 -4.29078220915624 -23.7519536061567 0 0
-44.8136968031812 13.0974129310677 -23.7341474409101 0 0
45.5899173476329 6.71049779765528 -25.2267963093723 0 0
62.8382289528305 13.9249366014043 -6.58039516503178 0 0
-124.159802240782 -6.22283522794224 -11.0557031332857 0 0
-43.7466542079671 12.0943345306505 -2.08153466423789 0 0
27.3443387188496 -12.4539132487453 -6.59496568950307 0 0
141.224647439642 14.7030177247917 8.74074651460202 0 0
209.793337737019 34.3908478395095 2.78256294676589 0 0
-192.773961415722 35.0900353543355 14.9136560054939 0 0
210.94105852819 17.519551127876 -15.261272556127 0 0
178.448950782851 -27.0178889028168 -8.86497001270326 0 0
184.522023373281 -36.7895834156668 0.803174314531656 0 0
-129.046737800178 17.3734133054799 12.6391275186942 0 0
162.810728701418 -15.9628827759949 13.5518074362543 0 0
-41.0025992307844 9.66850670819632 -0.3917582441718 0 0
205.035272681451 -33.8923584206905 40.8131235217364 0 0
35.7293461717906 -4.17609311155378 2.88720597338755 0 0
-165.425563488872 30.2548807455531 16.7855535217394 0 0
179.401128433255 30.003687627817 -1.20462998358072 0 0
178.255152437831 -35.9108125793398 15.926910001596 0 0
196.025082040403 -10.7057536544837 21.4305674210827 0 0
-194.094161288397 -48.8220482027264 -11.3515624740332 0 0
216.193083186976 17.97273937948 4.87582195152345 0 0
-39.5445571716173 4.08039515827759 -26.7217581211374 0 0
-201.80960982274 -8.3198346778783 -12.0781110670019 0 0
