"x" "y" "z" "f" "a"
192.999872629667 13.7321789941747 -24.2528521692438 0 0
133.738659446602 -16.021640263527 25.311437805074 0 0
-125.986183027495 1.78511922958164 6.90088373220448 0 0
89.2713397116412 -17.528575699122 19.3548699071282 0 0
-232.06257662184 33.2062650631199 28.3536543590785 0 0
98.8480076360719 -7.33547144796228 -2.76665958348483 0 0
15.5292549994837 -5.30347889052249 -4.35651817041443 0 0
-214.786738448013 49.8729418774151 -13.3739286423465 0 0
135.49307118622 -3.38446338549126 29.4263642171238 0 0
-225.911974290132 55.3866021319539 -8.76885289791107 0 0
-222.141512162416 -12.8051432739435 -25.3766102551593 0 0
-128.39230974318 -9.47924427213329 -13.0050402430404 0 0
-152.045502451224 2.81096547740518 -6.08947729532338 0 0
-138.249926275234 -20.4940058373678 -16.4686658814503 0 0
-194.636577240362 14.8411120200331 7.39308320997809 0 0
189.757863261079 36.555526646315 5.90432122929968 0 0
-50.3592070477086 4.73900072359821 15.827108290585 0 0
-181.638539150851 14.8054819533944 -11.4357527477542 0 0
183.195480232093 17.739764960912 -17.6123667809003 0 0
-198.045224202611 -1.67167216096777 14.0341024039285 0 0
139.946759220949 15.7509466776003 23.291065383993 0 0
18.8302024610704 2.2036853074384 -0.132866995824159 0 0
74.5842535315811 -15.8647467627813 22.3071469563294 0 0
228.886399823875 -33.5224980217122 -13.8880833018912 0 0
149.865099324004 7.31627684647336 27.0854593694645 0 0
-201.895526509565 42.39611613738 5.62568608939859 0 0
-223.841187728293 -12.9804615799618 16.6320713660726 0 0
77.2330666151699 12.1772508575518 24.6993429852212 0 0
-195.959889033996 16.756222064133 6.9030836573621 0 0
-37.5743723028551 6.80407369404112 10.8075830562077 0 0
-57.1556404670942 5.34585168797487 8.26589198581156 0 0
28.8414564667902 10.5666270363337 13.1367884124411 0 0
68.1667459768358 -10.6077108971673 1.61665346088685 0 0
-225.4291719415 31.3737126185628 -21.5207903559944 0 0
-203.070764234494 36.3036292178082 3.38499438841225 0 0
-230.046656612349 -32.6537599271174 1.95611432319733 0 0
-215.411809046696 53.5270244375563 16.1193138779248 0 0
-160.939222614576 -18.940437743301 11.8999739585906 0 0
190.793189722739 -36.5256887052202 -21.5012280174409 0 0
188.6881089591 -20.2930038544913 31.5945824265238 0 0
-59.324851510492 -7.51253421560583 24.1656689343183 0 0
-190.523660195049 1.97663875110506 -22.7806770711273 0 0
195.234667740241 -24.6649291643703 -33.5610977168389 0 0
-218.039640111927 -14.6377084367958 -26.6431545278892 0 0
211.316850886782 -32.7492229325266 17.0056878067542 0 0
207.252713811203 20.2675753615604 25.0869399059548 0 0
-223.56986518039 -38.4890876432615 -4.27491789670433 0 0
-44.2381686922346 -13.8283942457326 -1.34727174950913 0 0
220.183916260667 6.37770157173247 -10.0239108055962 0 0
226.650275194111 7.82186937662072 -8.90390072938144 0 0
-229.606629470863 -13.5685567094436 -7.19524526072373 0 0
106.045839914017 8.24813617815391 0.931246743119078 0 0
181.003779328667 -26.7162646264809 16.0788465112116 0 0
203.515732356611 2.55126888895401 -14.3820387821787 0 0
93.0799293889365 -17.2706729468332 20.3258376270751 0 0
22.8961422753282 10.1808409112387 12.8181079599061 0 0
41.2249842324356 11.6239438433145 18.980489694702 0 0
13.8746549097817 -5.78102661219886 27.012356755 0 0
167.185235564287 -7.54631752514959 -9.27110041757588 0 0
-188.990865293669 -21.2139793238914 -27.580744343251 0 0
204.217752281212 -2.39272546512605 -14.185338561988 0 0
193.482253823119 -21.5856879681921 31.9563862878624 0 0
-137.464693189169 -3.52398810181359 12.1021187731701 0 0
-184.560735139113 -11.7224048033235 -26.5058499984651 0 0
200.353732184915 5.06483162402874 26.8546414507116 0 0
-235.260042004264 29.6014476449202 -17.1765170735184 0 0
-44.1283957958483 -4.92724925712001 24.7902916805181 0 0
204.976580406871 13.3378831698057 28.5911951071918 0 0
43.2735217656174 -5.69332553002297 -2.77949947003112 0 0
-179.098855632139 -32.455873344102 9.11195255361135 0 0
-233.179510183957 -22.103578355667 -20.8431165473578 0 0
206.088607307203 39.8321361487928 6.30531219027918 0 0
-152.341987251768 0.228611019347628 8.00068001670058 0 0
-219.625939339709 32.3444117008166 29.2324318531634 0 0
-55.337659386975 -0.793041296524632 21.3579849793749 0 0
-68.1311283855073 -9.27948045096785 23.5815831249459 0 0
215.672682846357 -40.6783732339979 -16.5689049131765 0 0
131.607330266818 -17.6170005765196 -0.465709291785266 0 0
113.067406928433 -12.7388073579943 -1.38343028135323 0 0
150.06494610533 5.4673504481879 -5.91300919602755 0 0
-181.442691444916 -31.0821036367936 -21.4038604587064 0 0
167.310582126695 -16.0650453805767 27.375237846207 0 0
-206.725508358298 -8.93074048127701 -22.7388907265235 0 0
-210.003292323285 -9.16705661832292 -20.4230549308563 0 0
-225.295141081338 -37.0198412666519 -0.350562532993468 0 0
-123.408922972326 1.12708499946375 8.7646513239713 0 0
224.804464785301 15.4912087200845 21.5977529113853 0 0
193.394637583269 -12.0432838340467 -27.1849100681086 0 0
69.42727769183 -13.7199117699715 4.8761533839515 0 0
176.9455940872 15.2476372440909 22.6876516670461 0 0
27.0743954233637 -19.6254924379234 15.7452482208701 0 0
87.3319570947248 15.4174147745258 21.6981562958443 0 0
77.7562590265675 -16.6744951858114 8.3997450376296 0 0
-210.817095040453 -26.7149273351576 -27.1069012733322 0 0
215.443876063274 -37.2477769797532 -34.8367461638741 0 0
217.979379822827 -16.3758983869659 23.6999156929371 0 0
185.943556248022 -2.78839437504955 25.9453242113019 0 0
186.875167123788 -26.9513936510375 20.9715783362151 0 0
-180.452807152681 -35.5653466498067 -10.8822942039123 0 0
154.495222280671 19.3029979382912 19.5505989332817 0 0
-203.371585069245 -35.5300670114675 -21.5877279617752 0 0
200.894912349132 16.4889191035669 -36.2886269399373 0 0
153.717976061686 -19.1796373094687 21.8340517810998 0 0
168.479799337626 -4.57367417113663 28.2689564202142 0 0
233.32755272948 24.5145275395902 6.55026534552018 0 0
-131.176164580233 -15.4756224205266 15.7150886511909 0 0
-225.229770857551 -10.2601281068809 -18.1952679525152 0 0
34.9403521796618 6.9208906284844 25.1303336600094 0 0
199.774387377462 31.3248287208309 -38.1731878137908 0 0
166.812497217711 4.25243072090816 -8.40581161784876 0 0
213.005437335165 -43.5075661461029 -6.81590505513541 0 0
-121.162120325079 -2.24146736649972 -7.23535327868016 0 0
188.223927364262 -32.6552087064686 -24.5999220158635 0 0
224.413282576451 11.9868610079827 -15.924300963282 0 0
-232.661868526339 34.2538167647974 -19.7895029633795 0 0
-205.322804320095 -37.9338655143539 -18.5329248284761 0 0
-181.741183703504 -14.1669626259181 10.6187951127615 0 0
191.343465728109 8.74107548057832 -20.2933885071958 0 0
-160.149564610839 2.81516261300434 -0.0670956362145809 0 0
184.395110434947 -28.8121808894042 -20.8830126044046 0 0
225.475930624144 -9.13374930867012 0.365596388703746 0 0
211.548754913847 -43.9857188389774 -9.09770084767193 0 0
-193.202050536832 -10.1297353777626 -28.5746877310324 0 0
-33.4235239742858 -4.73564247792076 -4.53413299579482 0 0
179.514771528296 -30.3197869911119 -12.0249346178565 0 0
224.310218217657 1.34224746550045 9.00757231970738 0 0
-198.557981354382 0.763826006284479 -17.5001494920371 0 0
-19.7642631354954 -22.7093265531841 9.633246452285 0 0
59.082562140126 -11.3615945312049 26.230061889078 0 0
98.1785521381633 -16.9285025815601 21.4317186656042 0 0
-206.955995238371 2.53142522617082 -13.5441887074684 0 0
-184.051613467586 -9.10197883213604 10.5052058624136 0 0
205.767206108016 7.75150423396643 -16.6988424030021 0 0
190.925753369119 44.8033810718938 -17.0096605937072 0 0
84.2991150958633 -7.15324276067383 28.5850961716167 0 0
211.146654702953 -11.7471542714777 -20.8738636744572 0 0
166.61157801026 14.6351915785978 22.5074338971043 0 0
174.628870411506 10.0738054504988 -11.0814252221473 0 0
-211.27605007828 36.721353045349 25.257518252738 0 0
-128.169915036873 -31.5704582744622 -1.65531836663943 0 0
190.87045942243 -2.86514164140177 26.2358077033808 0 0
221.897853736865 -26.602520599277 21.0062682349876 0 0
29.2382431221301 9.3217722846213 8.9427985724529 0 0
-197.744893041247 3.59818639733434 12.5280621471841 0 0
-243.960734729657 14.9017264905681 1.386826369784 0 0
-165.894961132501 11.9563962703627 -12.4519704636102 0 0
218.99422474421 40.8641962392562 -34.0150225381279 0 0
179.056023178339 -16.6766361091614 29.5945006173568 0 0
185.403456982303 40.3433052345801 -13.5753466001165 0 0
196.195141783508 -26.6983390901846 26.5476399701134 0 0
-184.92730573667 8.76259627253454 -19.9064934103037 0 0
-183.867733674011 -36.6970228552307 -10.7557606507394 0 0
-240.80619361248 15.5922655713396 -7.53469684344684 0 0
-75.7212674931073 0.760374749859364 16.4628546127186 0 0
131.205354438251 19.2335030280738 5.73562054194097 0 0
161.499647602713 20.685564335055 17.4136550184677 0 0
184.645560267605 15.2470271243696 -17.7827163553167 0 0
-49.2627721705695 0.467848213879975 -1.46755549772138 0 0
186.264395926497 -19.7148935232512 31.0251567998613 0 0
-195.954303924741 -39.7235716903923 9.23614088794632 0 0
206.783400002403 11.3425541112563 28.4972185482023 0 0
-209.461252894015 11.1249486979301 15.6179891411576 0 0
-146.855214577361 -26.2296648436523 -15.3236883069253 0 0
159.692338058632 24.9814800941811 7.05465637596335 0 0
-216.221149099758 57.1483840135952 3.3366120018123 0 0
226.046644599566 -13.6905962285155 -8.15512015121857 0 0
171.950300960497 16.8394639416858 -11.7302128392343 0 0
144.375679232899 -20.5002993097887 17.104103359313 0 0
213.691720749372 44.6701489196455 -2.3598971747958 0 0
45.0937082147292 3.27858150131006 27.280256185181 0 0
179.202706778591 -33.2583641418131 -4.54016263965411 0 0
-78.6073880457714 -26.9826403966372 1.59467451318149 0 0
-248.647561112333 22.5713424870595 1.63894397564513 0 0
-186.444692839236 -19.1429156833698 11.3884624123132 0 0
60.243480559941 -15.723976709307 7.39880441126903 0 0
-164.277242349379 3.30058626942478 2.60047042686311 0 0
-232.042445801678 -19.9196921153061 -24.4707684382243 0 0
-208.411092013 -41.6815806700863 -10.3329018611924 0 0
-212.751056305334 -37.9514161041255 -16.3150520124469 0 0
-79.3517773530038 -27.3590474778021 5.56882337399517 0 0
155.859784808478 11.9126580794907 24.9940997453292 0 0
197.856245060349 15.3940675675867 -33.8326433654454 0 0
16.9825906122139 -4.66830708202945 27.077974490955 0 0
-166.504497929742 -28.5243898419977 -20.2115805251832 0 0
182.075956738037 -23.5748202993505 23.8462499308851 0 0
-137.224475826653 -18.8885198018164 -16.9945851799568 0 0
139.003179906599 -6.45617782845276 -5.29317667205034 0 0
-216.415383670235 -14.8457551316494 -10.9296945538481 0 0
229.482093976998 -26.2735262792266 -8.3275641454363 0 0
150.086938793125 -22.7705401985047 1.89417034360021 0 0
194.26569610352 -44.2953075354188 -11.5127999745771 0 0
-45.5819539780392 5.23923765945045 15.7062890259142 0 0
-203.05006304703 28.8857847021635 6.31530554707133 0 0
-203.7335634607 -37.0425011700522 7.57650174914025 0 0
209.205202213247 14.6627466011212 29.1150586066284 0 0
189.349481983162 -17.5080033467411 -28.0834198869577 0 0
149.682749910832 11.4884970572136 -5.01106674092902 0 0
-232.12579953135 -16.3901777091256 1.65374292442834 0 0
-97.3580340636492 3.29884476800892 7.91371207866242 0 0
-84.6764610288577 -25.6018179268351 11.2700863396629 0 0
216.124564906378 -12.7271814966699 -22.442643344502 0 0
-165.366470379955 12.9328033075894 -17.1909752538987 0 0
-173.274397573269 12.651851911698 -28.7515647245139 0 0
120.253421852218 -1.09502509651803 29.4478110426098 0 0
229.626709795069 37.8356920914702 -6.65838814523628 0 0
-165.077283248934 -13.8509708811756 -21.3874427435387 0 0
185.678976326841 40.0185232924758 -17.8193774468318 0 0
228.475394606422 18.9939718097068 16.9783115822145 0 0
-118.538745190498 -2.41643040489287 -7.06553697037979 0 0
-66.0303504320019 -14.9024000440608 -6.03241755629577 0 0
-32.0777505322367 5.51698628191999 17.4122665938988 0 0
170.038638378331 14.6119115807289 -10.5958813794958 0 0
-71.9799212904507 -11.1737684312978 -8.0468686336754 0 0
-102.704826241719 -22.2057012995083 15.4496798399732 0 0
182.862455569583 36.5806004594677 -3.82153323163434 0 0
202.15480789371 33.3465861021817 -39.2859608452552 0 0
180.652245629871 -25.5130841624271 18.3475145224792 0 0
226.353259884771 34.5539529451596 2.96222240304569 0 0
210.773692372558 47.2409652812181 -9.43549538673898 0 0
-141.717686621979 -31.8825949854097 -4.58964652286104 0 0
215.419351369465 -16.6798546413302 25.9552687260957 0 0
-231.814300218264 -30.8308515527058 3.26740431538123 0 0
210.490525685209 -16.1709968182597 -29.2239608464587 0 0
155.998522144784 -22.9169975139996 10.7327507284585 0 0
-210.804526165391 -40.8461219740205 -11.1879030697668 0 0
-230.048082153647 27.8034306017454 -17.8636550132209 0 0
-56.018479462475 -2.6419979999728 -4.76785861608231 0 0
-228.733684262211 12.2649892499827 22.3808342490285 0 0
-241.936433862462 44.8230575830014 18.1370726574988 0 0
203.18112465133 -44.7036913272456 -10.7773091959475 0 0
172.034327348557 -28.7642347374945 0.684510688156281 0 0
196.422780431527 27.5630823827437 19.2160046913352 0 0
-206.687991183928 -7.21230045554397 -20.1465590646201 0 0
177.211759892705 9.59411505901113 -11.9449094440038 0 0
-237.176695598759 -24.2041706570625 2.25884594428134 0 0
164.441282578029 -6.75895331590009 -8.71669023798245 0 0
122.766555413683 -9.82017739895235 28.7254738480411 0 0
184.65006401718 12.5573110182432 -16.6047794898437 0 0
156.246351878349 -21.594826211575 15.5553575528471 0 0
202.584140414595 -7.8261860945004 -19.8234891219098 0 0
-87.8086926779229 -5.8079866700581 -7.92797580925623 0 0
193.149551788105 -9.91702628209068 29.986183068658 0 0
70.6016086538814 -6.77029065990974 28.3151204544339 0 0
-203.771215930244 33.8091717810545 -1.62348186724214 0 0
202.509100783601 17.7269146690212 -37.7951021018921 0 0
-146.647208368745 2.31061293775394 -1.14843507930959 0 0
-72.3657305248247 -8.12928820441261 -7.61848811621702 0 0
-189.660140987607 -31.1620690368534 11.9264105913828 0 0
-238.217615871183 -23.8018331010845 -5.80630533448432 0 0
-1.26820508446857 0.887499461592009 -1.28808953653312 0 0
140.591689572467 10.4535942374631 -3.29143391858216 0 0
182.473019723147 24.8879616649236 -16.7516863375422 0 0
-244.991816120315 16.1129676976503 3.64831426770865 0 0
-175.124169288987 8.5040418245813 -2.5060766489028 0 0
228.939268073498 -32.3191786228632 -4.46608711100046 0 0
-203.029254308601 31.1776648701095 0.345482259589979 0 0
143.467278066272 20.0677601716222 18.842214362007 0 0
-22.5540865971512 -22.5681521487249 8.76842448554406 0 0
-219.856592165791 17.6155641357464 -17.1608104422172 0 0
167.811503483146 -18.8686767975804 -9.95180620452076 0 0
-226.518483137139 -28.4518329286835 10.2376987443348 0 0
-144.381084678422 -21.078649722596 -18.2844831205714 0 0
159.289530183748 -13.4776828129069 27.9867702443073 0 0
-153.896055758614 3.495452880931 -7.73809012804976 0 0
0.528644843218827 -4.0232651790197 26.7196184252586 0 0
-130.735291347741 1.00544607982226 -4.50137184170593 0 0
-6.58647384203377 3.92486749057612 4.37421894168698 0 0
15.6004138078705 7.65744257718906 7.60788581227126 0 0
-246.240813740139 47.1289654853115 3.51925435080114 0 0
-177.315378777213 -10.8722099889485 10.1265290773929 0 0
-167.347594227025 13.1787639791053 -11.7824462322536 0 0
132.467620976524 2.77322256746891 -4.166009588119 0 0
-205.697382693037 42.6836359939219 18.1034661668117 0 0
-176.392714394383 -13.4300742770263 10.4134604260093 0 0
177.696917655595 31.6959090396596 -1.09788361710856 0 0
-211.010740978407 20.6216390305981 19.3508566702446 0 0
195.704738911406 42.9638134180788 2.848797199761 0 0
-221.998374250222 43.1961664519634 -19.7306782256683 0 0
171.183417536342 -28.7083386677885 -2.9576369362487 0 0
216.08245314474 -0.428957309848548 -8.33032209921822 0 0
26.2359615887973 10.3517541045655 12.6836307621146 0 0
224.339039885935 -32.9259931178011 3.33283431112614 0 0
-219.899338587155 6.66340403597052 19.5114939042976 0 0
-106.149791378923 -7.93812377656522 -9.72405365902284 0 0
-197.776056624644 16.2751593444844 8.76676010163592 0 0
-42.7434240986338 -7.0423341553101 -5.81510546669776 0 0
-233.411570681493 55.629059072824 13.5945011213416 0 0
-65.6700194761006 -7.85133467074519 23.7635497758153 0 0
-181.90167237072 15.7192018716813 -22.6972651818126 0 0
24.0912495860264 10.5001889456373 15.4726502142532 0 0
232.223690164602 36.9910148835251 -6.74089111778555 0 0
183.123651965532 -25.7223842925002 20.0984572897662 0 0
-204.13352918582 -6.19759341189047 15.7991218806891 0 0
-216.32484239103 -12.8212241538685 20.0729047871707 0 0
-199.544337010029 15.1438167087152 10.1576729347569 0 0
-187.951420431107 -40.0160330035375 -7.18854996919856 0 0
5.23584027166217 -8.81558553740987 26.4049640692149 0 0
225.558596388113 37.7287884158175 -1.96556047759345 0 0
-217.439577406034 23.8220831229435 -19.585704752225 0 0
195.547359160677 -45.6807065406782 -9.7122271053626 0 0
188.840272516514 -36.4733353104008 2.70892698745153 0 0
-225.111320556261 34.2639591784855 -21.5403068101848 0 0
-185.152718699113 -26.2279025897987 10.4485432164639 0 0
215.927753589183 18.2392195068136 28.134636678529 0 0
-150.777904474143 1.38162167131656 5.84926409999892 0 0
-229.413930748591 -1.34752285595086 5.04173922410338 0 0
-230.914080969124 28.8946880830892 -18.5596123407875 0 0
192.551592080279 6.86287062863003 25.8750336244763 0 0
-83.5874588089625 -27.1817816575983 7.73323993458248 0 0
176.364086806344 -26.2802085946456 12.7682399764569 0 0
225.852136223429 -15.3501987249027 10.7622405533588 0 0
-91.7044638228059 -9.37373410195229 -9.10611695185034 0 0
229.55534177938 38.872432602184 -10.9345401144684 0 0
-194.078493019828 -5.64940331746721 -25.4615229758857 0 0
188.546711340033 43.6294136231795 -6.20167930109327 0 0
180.414464078522 -18.0927351788775 -16.2065159470882 0 0
175.63203614812 5.48692635107743 -10.3998125412402 0 0
-168.062596762819 16.0331508198146 -23.2666597052347 0 0
119.701386822434 10.4489852273754 0.820506645154608 0 0
199.357400191458 -12.4463321537735 -27.2114423875536 0 0
137.458995711405 -0.429192058880681 29.0069087682116 0 0
-102.880405239684 -4.20668317842191 17.0865489772018 0 0
199.840371234698 13.5816952613888 -29.5244889291407 0 0
-141.658369734256 -25.9155592008693 9.87804970661474 0 0
-7.85445033644781 -20.9385645447486 8.57815769163416 0 0
193.556541289433 -24.9278841988908 28.9207401643361 0 0
217.545760776406 -26.64353781658 25.5976862972748 0 0
-107.524305637614 2.90068504033687 5.23517854263444 0 0
208.31821300695 -34.5053191249164 13.1459399129259 0 0
188.4742560772 19.4290888431486 -22.4761198486475 0 0
216.74193681494 15.8914206337348 27.3125491326865 0 0
195.376707546245 48.0351709269911 -11.0970865193958 0 0
192.854624931997 -37.9102382061863 -23.4413199194569 0 0
182.171584670611 -35.9744886830406 -5.69081610639267 0 0
224.973660590653 39.5333692106642 -6.81439742818571 0 0
-0.754537388427295 7.25131444047078 8.78083208377752 0 0
161.066018775928 22.7940443625298 -3.58660148494783 0 0
179.165422678429 -32.9081205185526 -2.28821064901129 0 0
-156.801656064304 -33.2695149033173 -3.52493904631446 0 0
13.106209091713 -18.3787838112264 8.25856952817188 0 0
121.617673816086 -12.4641576943265 27.5205135505872 0 0
-207.895951994989 -25.411170354556 14.135350419408 0 0
-193.97849615358 -42.2228245331237 -13.1062569668156 0 0
219.802308066996 35.0269856235745 -38.4994940048785 0 0
-240.176869322761 24.9312802753503 -13.1397829804333 0 0
189.987814123932 37.675684310533 -21.3281031102329 0 0
-16.2207617923545 1.81813041016977 24.0376091452196 0 0
66.1720209214034 14.5513269063047 17.5228202503321 0 0
-129.590174449519 1.95000898257123 -2.19577692043779 0 0
230.88143382006 18.2468786117599 10.5780674654926 0 0
146.268910520631 20.5612856934426 2.73437851743876 0 0
-13.2836039125041 7.94018076303469 14.8532021196679 0 0
225.357920395355 -31.0998316152981 8.13078503382961 0 0
-203.833019776163 -4.21402816460141 15.2540289449148 0 0
183.570996729343 21.1894093925046 20.0231162677125 0 0
222.036668964969 41.2189835493717 -7.85382237989371 0 0
228.779623501345 -30.7500614903577 -14.7454274266196 0 0
-187.723392975744 -39.6611333516044 6.10046694568516 0 0
-184.314211216653 5.03470274812559 -26.8374812064026 0 0
187.889640097268 -40.7214302530304 -13.2450165366392 0 0
194.056410443296 39.2978965534805 5.63245699317109 0 0
-214.939293335446 33.0090416891877 27.6067772756791 0 0
64.3586662723518 14.0802341769301 14.0493942074338 0 0
199.316123543705 10.9626080800607 -22.7914565583567 0 0
-161.648587516695 -9.97588133702704 11.3637453090378 0 0
69.9019096623579 14.9863975282481 15.2752979131359 0 0
-41.3806519958258 -8.7462390808002 -5.86778904819061 0 0
224.055309680733 -41.2306222081358 -14.5757405938725 0 0
198.3654445212 -37.829503823401 -30.870721349701 0 0
155.568698045787 -2.02164104492086 -7.13514854193825 0 0
-185.132812539915 -29.8518966216575 -23.5119799995836 0 0
192.832425157587 15.1710032147652 -28.0577101180192 0 0
210.445298332288 13.6894419511675 -26.7127300849777 0 0
204.220078178229 -14.2329809974478 30.9075187499676 0 0
224.354424019642 33.0620826796322 6.66528203209315 0 0
-135.907757582833 -21.1022591455762 -15.7479121823376 0 0
140.006932304915 13.7157367031664 -1.36553357971025 0 0
-125.880779589167 -0.0462084978687871 10.3558190784098 0 0
144.44373757738 -4.94144331933578 29.3361883800903 0 0
-186.593562228776 15.6097269243499 -5.29979079981964 0 0
190.723962502935 -0.412270451626125 25.5174149746213 0 0
208.234217172463 30.036400148573 -41.1256591531229 0 0
-197.835777364175 -46.0195033137383 1.95501609857517 0 0
191.867349236757 40.4317137607487 -21.87459823159 0 0
-139.156389097944 -27.1583254245208 8.28724015205539 0 0
202.961491931786 26.4874010978844 22.1404368583245 0 0
164.408184265633 -16.5580583845802 -8.78173908044979 0 0
-203.96893660628 -37.0059255537484 -20.0412951618229 0 0
230.161593017448 39.3364903365128 -12.8540946328034 0 0
208.134466735376 -5.14320068530631 24.9986125740397 0 0
-70.0103086809792 3.84491694242948 13.9265145151692 0 0
-47.1607199035699 -5.81868981515946 24.7825698087348 0 0
-132.423085947447 -21.5378415168666 13.8354661557723 0 0
207.008743476945 -18.3117690172236 -34.2297588151989 0 0
-51.4639305795942 -25.5777137348926 7.83754545273046 0 0
228.049055885294 30.3271820841773 7.27852346293697 0 0
-222.703173402436 52.2270654003427 -13.4156548830665 0 0
167.683292071986 18.693331978964 -10.4436771276183 0 0
-54.8751906543762 0.560424892918577 -1.95951685955658 0 0
-237.737454403323 -24.4063696189949 -9.2565473540303 0 0
229.458673519285 -29.6550231697619 -3.75905422577701 0 0
225.950049594598 1.56186410881322 1.52150461089563 0 0
-232.010397662378 -31.2217832891525 -12.9358723590881 0 0
3.36008336120575 8.58645105168615 16.9909806572464 0 0
-207.091396834995 38.0458866595016 -12.4936055272888 0 0
-6.77749140243305 -17.6748759529311 22.0433450250327 0 0
-233.600253136621 56.6102929802124 1.40592794786226 0 0
-208.201320338421 50.1705891455789 -6.76157811335532 0 0
-243.394520245972 24.3208663242175 -11.4436658976051 0 0
48.6196627211904 5.16040042178884 26.9358481225299 0 0
-199.959932812451 21.1808579217459 7.53503292464256 0 0
189.691729444563 44.5581298644307 -7.66085134305088 0 0
-184.372727891197 -38.0505694541449 3.44972321503065 0 0
225.681638587433 -33.0079743352675 -25.2980846497712 0 0
-210.53309028361 50.8521890935264 15.7298623170638 0 0
-231.288962308877 6.37121140908696 1.66441021716285 0 0
211.558793586168 8.77376910520309 26.353249599466 0 0
161.557026927587 24.4267813432475 0.365884768420782 0 0
-128.590956480907 -6.79298391607751 14.7333298720038 0 0
-232.603971895689 -18.0972016641488 8.66664456115814 0 0
225.075191987101 -17.1853379349597 -17.5674351671238 0 0
-244.224624261308 37.1415302840668 -12.6532359225814 0 0
-67.628875431203 -25.4016462669581 11.8444220964548 0 0
-97.9930387231989 -0.661857801176219 -5.22785927592599 0 0
73.4327691691506 14.5392059797855 20.7023643264477 0 0
-170.82076693208 5.58923916806788 -4.79416289771857 0 0
-247.535399776692 37.9367504022524 -7.48231958924215 0 0
214.94831070959 42.8370275295856 -1.51450700545539 0 0
71.7329619278703 14.0260171449514 11.085606700486 0 0
198.332958838292 -30.1510868467874 21.822748592254 0 0
-248.0056812537 21.6039624908448 7.68491057572189 0 0
-234.171612009269 48.9740509311832 20.5370992854962 0 0
-198.458300078114 19.4707870340672 -8.3752571079203 0 0
-223.541611340601 14.9442998211028 -14.6714956642535 0 0
-22.6394468499081 -12.3028354068048 0.440962951139639 0 0
102.468301915059 18.8930690118795 14.9755318699802 0 0
-47.9240344860562 -23.4046044130185 16.078447625836 0 0
-226.285251112404 40.7305214468349 28.2657634028973 0 0
17.9719201074075 -19.6492808914774 11.3814034241973 0 0
-8.30881255553285 0.451578011116488 -2.26428528370857 0 0
-209.074152660581 49.1279198570492 -9.49932264969189 0 0
219.625978864422 -24.6900213492883 23.9327202354593 0 0
229.211587862454 20.7092940055398 15.5197398478392 0 0
3.10026417897238 -20.224027729827 18.5734150837605 0 0
-164.943309391081 -19.8210229258244 -21.6165091276904 0 0
-55.0115861531948 -13.481779437753 23.5833139114337 0 0
-213.955026831563 20.6309231526997 23.469209607398 0 0
-237.68822758276 -25.6368929023601 0.252306786308865 0 0
181.319744280813 9.99199619683888 25.0540486191839 0 0
-247.800594594158 40.0614420814543 -5.6235748851879 0 0
123.802578570382 -6.59802774741828 -4.15484338580959 0 0
140.501520218323 16.4032409066203 0.528523231846704 0 0
-90.6081762153024 -20.1212695889955 18.18178040324 0 0
228.602436948662 34.6991975177827 2.46167440203319 0 0
-222.177334043581 55.5293476747262 -5.62252112679769 0 0
-24.8592129975581 4.37342185962338 5.8012877922374 0 0
183.733068176152 -37.0042830101991 -4.74603961017393 0 0
195.505837713808 -42.7143618846943 -4.32263026298253 0 0
-120.022920182826 -10.0421095125609 17.0886043511623 0 0
-185.183212454169 10.179799415125 -22.3352649891236 0 0
223.958994245596 -25.7277390312689 -27.3172112753727 0 0
156.693556889093 22.358700010279 15.2472586764161 0 0
170.667712051888 27.8961961290995 3.55891033139325 0 0
107.80658113373 -4.70458067420638 29.4068555395831 0 0
189.103781161247 23.472793814147 20.2926723926108 0 0
214.35893480483 38.9241506883964 4.65384594443332 0 0
-62.706684703903 -17.3124285127742 21.5235898424343 0 0
-151.401014218323 -20.5535017868875 -20.0280436715885 0 0
-179.15895761276 0.89591940537457 -27.3994249700011 0 0
189.139673449703 9.82784898327028 25.8492279178905 0 0
-235.254798103306 37.1927173081957 -19.3525308839204 0 0
227.980448979154 33.728408556149 4.05546518197964 0 0
-242.690278932231 39.2595330963158 -13.6291415746645 0 0
-66.0493094447568 -18.6908903348918 20.4400820394676 0 0
-58.2719253040361 -25.3757065166536 4.76550061375229 0 0
215.262619333447 -40.2018879062107 -3.75602528656348 0 0
177.409842146477 29.5883205204803 6.48822282504977 0 0
168.040264219262 -20.745566235363 -9.23249443536538 0 0
-188.773850738168 0.696573852047994 -24.4143022887434 0 0
186.779666393956 40.7086562718221 -3.87129106253062 0 0
75.105155957697 13.2372737421231 23.1696262935911 0 0
179.093999860681 -31.89057424067 -8.94623798184589 0 0
200.403518529943 -34.5897202480587 12.8208820047555 0 0
-169.565033697258 -3.11394248359261 -25.0452428516806 0 0
-41.575544334266 -10.321112099551 -4.09978262956558 0 0
-78.8166563981282 -6.81022467449157 22.1987513629083 0 0
-81.9578072511069 -7.35707793921862 22.0399741315618 0 0
24.2991404294639 7.45881916965887 23.6184229596642 0 0
36.9904293454787 -12.164609113488 25.6153998879443 0 0
-91.5258076526379 -24.0701790793238 13.2905231243564 0 0
-8.34816375476961 -19.943234469587 20.1514907300664 0 0
-158.301407922878 7.17776390633061 -15.6822329422332 0 0
-177.876057222658 13.6039214504617 -10.091485178372 0 0
-248.582871614868 29.2654790174304 -5.86922918996764 0 0
32.8691977191655 10.5795147432023 11.6071669727296 0 0
-197.184055664636 -24.1564600758041 -28.9811880776819 0 0
-179.159965443334 10.3458044877323 2.94006629203792 0 0
-96.9651658646843 -16.9754316638571 -10.2742516038329 0 0
-111.339320713186 -15.6909938843686 -12.3897065388292 0 0
200.17374521519 39.6984658088627 -30.4072374662353 0 0
-57.7566004828842 0.886107680878133 19.4047684803536 0 0
-120.262679519433 -21.3152044565549 -12.3054222067182 0 0
197.727032327607 37.3266582755708 -31.5713873154724 0 0
103.095684680811 8.40490611553448 27.7422226228713 0 0
168.796907714748 -24.0352612525615 -7.17993379975559 0 0
-54.3415456039622 -22.0321368720106 17.3864516462684 0 0
-92.4576016542475 0.527688803580218 -1.3942522535678 0 0
-113.52248378506 -28.1135077811106 6.41760886344642 0 0
227.623237257802 7.64429362581614 -6.41177729145715 0 0
76.3829498086917 1.01501948068949 28.632134640995 0 0
198.437791619671 -13.3869007659285 -28.9999630355409 0 0
-173.660826702287 -6.50043454370913 -25.2386325465576 0 0
228.404361189077 -37.5809798815216 -14.9607556870201 0 0
-116.261859479355 -9.6548492710724 17.6482837646835 0 0
-181.822553122271 10.7104964493965 5.38512868055406 0 0
222.819313388791 12.8885623024777 -18.3241024319079 0 0
-214.920469156573 -11.3294015826056 -11.1077102253544 0 0
-217.302700559269 56.4707380088122 3.59320451345417 0 0
-217.929564445095 53.0174444291386 17.7044828063213 0 0
-217.409693239873 55.4349061164824 -3.43573621786263 0 0
214.905370584143 37.1228259257876 -39.7711511213908 0 0
55.6294395003261 -16.0604048097794 21.9967276290792 0 0
132.744506587478 -19.7793908673072 17.9451209263738 0 0
-224.212845144476 13.1418602286765 23.3986362138056 0 0
-155.990469778508 1.74836439438165 5.13864519700239 0 0
64.7973033336504 -16.0464648895205 21.959987671157 0 0
-223.303653647503 -37.9508941011782 -0.507935566364329 0 0
-103.040688770799 -24.1651328159499 12.8676838101658 0 0
211.73985581001 -44.5732458727993 -29.0915698616319 0 0
134.463264968371 21.7558553659744 13.0728143573645 0 0
220.346759019705 28.0349056161038 15.2810716449045 0 0
190.181111240572 -7.48917078490652 28.3470934036989 0 0
-228.442956764487 21.8960827971192 -18.2012138639193 0 0
172.937356835965 28.5949230407318 -3.78909006693468 0 0
219.184216782982 21.0967303652101 -38.1088760048759 0 0
225.473702748687 38.5570941689175 -4.28578910106144 0 0
-166.102930606427 -31.1388288900875 6.03100080711565 0 0
-21.1477712120468 6.44417452310549 9.17404479533468 0 0
-222.020150799199 53.9211051308665 5.84978748024533 0 0
97.1738962042135 0.921412966702745 -2.02192590178915 0 0
-215.31577783993 18.7000399240397 23.3771306763976 0 0
64.8945762265608 11.2311608996502 24.3093205460499 0 0
-176.063713629179 -4.97119780387774 -26.2385777978454 0 0
193.153940395342 41.3487746499987 2.91976104572575 0 0
186.229625170524 19.7711705258047 22.3808628663637 0 0
235.62100697374 24.8946353452573 -7.24335958077273 0 0
-230.841595262569 -28.4484262407759 -18.8450160756988 0 0
-229.714546949745 -23.8688534832708 -24.1099725734369 0 0
-199.812978621159 2.05696536592782 13.4839201602131 0 0
-200.529183413861 -28.2838960297592 14.1486876163445 0 0
-143.877985986449 -25.9773098038053 -14.8626397907714 0 0
201.494143228489 34.0077846302752 12.8060097138189 0 0
-241.543156552857 26.9965668226091 -13.319108125616 0 0
142.815643804801 -0.684931136847205 -5.58660004083254 0 0
-214.349922039956 -42.3837496129638 -0.330945966074727 0 0
-159.838900182962 -25.8669352980579 10.2101446315546 0 0
184.995123673661 -34.6899293678931 2.1893479393934 0 0
68.7285236632741 -2.72018654991803 -2.20624726208422 0 0
-125.747497711194 -31.4880140239567 -2.1355390002079 0 0
-155.899467223221 5.21304995338596 -15.4457732273469 0 0
-146.211731357052 -19.9734514527132 -19.2080007598064 0 0
109.952762683953 -12.338162492533 27.1677516655564 0 0
203.69171939595 47.7154135533259 -16.1670273602414 0 0
-126.194525612084 -3.01237232472792 -8.62509670533191 0 0
-116.307631756961 -3.54424059911972 -7.64550274174725 0 0
152.604685564839 12.891659871623 24.7514559612943 0 0
210.288169509283 -9.25630455007648 -15.429992574234 0 0
176.91536934804 0.104212304234216 26.5392303347397 0 0
90.4610312917782 17.4714878213644 16.8978594894467 0 0
178.216131865785 -18.616660925547 -15.2647111812754 0 0
-88.6680923993251 0.417307380363827 14.7131635715505 0 0
-191.192722932632 -4.8628367811416 13.1152929406103 0 0
-111.707433173295 2.67438309975305 6.19486635288194 0 0
-49.650784932939 5.48860341017614 8.21340422606969 0 0
87.1132550569483 6.72556883339215 28.1345522010356 0 0
154.643041092944 -17.5307545599513 24.5124381911392 0 0
-170.822979537736 -30.989811800134 7.47702145872029 0 0
220.96047434569 -43.2665464831684 -27.1716649285735 0 0
230.541877046263 39.1004309342885 -15.0105587750933 0 0
-151.137419991367 3.57926861441579 -11.8389326288607 0 0
-96.1412051410563 -19.0644162108558 -9.28976510050692 0 0
-195.044007333173 1.23702509538961 12.3315166012634 0 0
-221.467719118515 26.8810012420028 -20.550254799859 0 0
-221.53062702596 -37.8887321171655 2.70183563412991 0 0
197.494312075977 -43.2160462162298 -3.66378276057305 0 0
206.007532656896 45.7282387679446 -22.7391041761371 0 0
149.548521563438 16.801420864828 22.0113287466769 0 0
-158.854671407 -22.4654581554534 11.7585795308373 0 0
223.991432040055 -24.5327773440871 18.340683299644 0 0
189.997198621128 -38.5212593161593 -0.115707900353416 0 0
209.584216681422 -17.7548005812647 -33.6757957111178 0 0
-239.406746735564 54.4233088794774 4.23570462542016 0 0
-170.36808820137 15.1658716453892 -13.1905160296135 0 0
176.728923078884 -25.5454568409947 14.8192333965929 0 0
-222.608474058427 26.6116101700504 -19.4997897505817 0 0
-22.1450673266856 -21.4098729432404 18.3589787615271 0 0
225.289696834691 10.0417407886802 17.3611898601427 0 0
-139.334807028911 1.3616066615416 6.42278776107221 0 0
217.848513564923 14.0534350123634 -32.985267680784 0 0
206.171581262264 -6.97353931560077 26.7721840370964 0 0
-219.516263002118 22.5632292911295 26.5816305416619 0 0
-47.906592941642 -25.4538704127245 9.79400057022137 0 0
-233.096511407364 -31.2996497940114 -10.4408587430272 0 0
-149.626143280798 2.48754036443854 -5.30853890146809 0 0
4.76968830271109 2.5344709531804 25.4543450556426 0 0
-175.17720958759 -9.5707585808849 10.1331366534117 0 0
187.413089408417 -21.4359861500745 -27.0026206525378 0 0
-205.329941084024 -9.99622224264691 -25.9210545420795 0 0
-182.62537360782 -36.7430851594932 4.89140699433009 0 0
-36.8032271020095 -19.3706962470493 20.6666884615492 0 0
-180.070311558312 -7.57354016657221 10.1240619090038 0 0
-230.531126999008 -30.5312889375925 -17.2776992440196 0 0
-248.945015213909 35.476885158056 11.4272926309746 0 0
-187.999011102314 2.43769243477763 -24.7323321063449 0 0
-233.031474806286 37.0314274487602 -20.3061825444809 0 0
228.18746380169 32.2692411692444 4.21212095028774 0 0
-89.8907791051031 -21.2173833204494 -7.93007498618878 0 0
188.243435973878 -23.6485051178137 -28.119383169298 0 0
219.134128405827 32.2230553090517 -39.2202899584833 0 0
104.208929804398 -8.48799430682824 -2.88399524596037 0 0
219.428597899542 -41.2583071996051 -18.151612338373 0 0
-234.875991104304 20.2675744010762 -15.8409003466426 0 0
-108.137334063112 -4.85428088721458 -8.19642457112052 0 0
179.298134112008 -32.148413329686 0.49822911257162 0 0
-243.925668210662 44.8806041761697 15.6613723332842 0 0
193.267528395692 -37.9143429238519 -24.5155475472574 0 0
217.93929973596 -0.170728321964388 -7.7751517730706 0 0
203.691090474303 23.3276475366427 24.0329785005558 0 0
201.581000560312 2.32805589344741 -16.4597077127689 0 0
234.851468642558 24.5549212347192 1.98481303706139 0 0
192.204866137639 16.171589532975 25.4253560590787 0 0
-165.31992936027 -33.189697476179 -8.83574913886169 0 0
-216.58920733628 3.06236788487266 17.2038459194605 0 0
-80.2293478639333 -9.58335649459586 -8.39501577758029 0 0
215.231064730933 -16.2192848087469 -29.7308130681858 0 0
-194.672905779745 -15.3671400938743 -29.3874963957731 0 0
-204.196837258241 -9.20257427189402 -25.1426591806827 0 0
179.834539081674 33.4464703367703 -2.82128908991913 0 0
-36.4649916995772 -12.0440168773492 -1.54346470576018 0 0
222.157116850712 -10.7043332698879 15.7339479743949 0 0
-225.749220572883 54.91573235536 -1.56759946984695 0 0
170.348691600066 -1.73430220282648 -9.24952564372735 0 0
151.583222165877 -16.6755672305832 25.4277291175849 0 0
-201.75304367921 7.09556262806568 -13.8004623970243 0 0
221.14515606704 4.25634179216766 17.6171208251519 0 0
48.9417929411095 0.872388788076507 -1.62055425127274 0 0
-184.095285796585 14.7600998650514 -7.65891137856158 0 0
-236.306287038518 -18.3355912067738 -0.405604185767465 0 0
-209.838987514722 -20.7230594854659 -29.1487466184975 0 0
50.2710814376801 11.573194921184 10.4717956628854 0 0
-218.253226634912 -39.338794624773 3.57721139955908 0 0
56.7958089017637 10.6157510324556 24.0784809507404 0 0
194.844249419072 30.3216976271085 15.0873136938562 0 0
193.503024013553 46.7976886896171 -15.4599839741233 0 0
201.20961393891 -45.4019118243737 -11.7207082987313 0 0
-223.322762768132 2.10132944555544 18.8750005203931 0 0
226.52626175801 -13.2059779994927 3.60840065516148 0 0
-72.2174505034825 1.35760906862166 0.724484304293607 0 0
-203.712710733934 42.2576885572251 15.6641975208756 0 0
-227.762456193892 27.1779226138883 28.6789766028188 0 0
-118.04640478771 -8.83050877696205 -11.1551194878037 0 0
169.495042689559 -3.40327936595439 -9.20357261242644 0 0
-27.8594411922529 2.05834517159591 1.62776518580716 0 0
-217.622924886495 54.0788166720018 -9.39651361176705 0 0
158.607986558452 21.4394379033135 16.7759489800354 0 0
-198.918484499154 -10.3102474774331 -27.0172473213354 0 0
-158.72438794321 -27.0971193550187 -18.5955929398773 0 0
-33.7585635811445 -20.2227660631129 19.8153774573951 0 0
177.779051680618 -20.5275273987374 25.3919018826273 0 0
197.706958826467 6.61027313347091 -19.7511862930363 0 0
137.93494433814 -20.4684743387644 4.83681604138605 0 0
-226.690641660573 -6.41460431136591 15.360907849798 0 0
214.893148088094 40.9787083007928 -36.3196382866565 0 0
-204.613350884611 -1.29798823030438 -15.9796430954331 0 0
-132.580463238002 -12.3408976901845 -14.4503943831829 0 0
-216.994634054421 -10.2939097298416 -8.74388325676792 0 0
-151.773431690778 0.499500275003367 -15.9347720348907 0 0
208.450715739332 -42.6877090557368 -2.92721186923694 0 0
34.4070769962707 1.31994255530853 -0.194989421886285 0 0
-218.006459522947 -40.6982972214954 -8.10976170691598 0 0
-10.3641953114018 -10.5305703928597 25.826139446131 0 0
206.077058204537 45.7961225400573 -0.807063115347726 0 0
194.250466952837 46.2893421773299 -4.08249785808517 0 0
-117.457006297952 -14.4343241787876 -13.1473345924457 0 0
189.482321436942 1.23527023945799 -17.4102052685324 0 0
230.830907460919 36.0395075150651 -2.65634090149044 0 0
-159.740414624713 -32.2412912976879 -9.42549144791708 0 0
181.828615848903 -34.065276057957 -11.4222575544957 0 0
191.905252764956 6.69429000641732 24.9414365617679 0 0
-207.744344737091 -38.5341210105196 6.50506387582516 0 0
-160.639726243447 4.28493915891911 -7.55851137323009 0 0
-224.181874142632 -14.1639842068822 -8.54891714104394 0 0
185.461995768086 21.4059248005114 20.6677784755509 0 0
-36.4770919247521 -21.0462136174011 18.9768683741281 0 0
106.309386611451 18.0660197129429 9.82043555614986 0 0
-181.42920842522 -26.4352194013798 -24.344570739477 0 0
-207.000618926303 -20.4098598541709 -29.8623504303672 0 0
182.231421195554 11.7036364101066 -13.6065003735452 0 0
-159.126165584168 7.88308534936515 -10.3283304180681 0 0
-214.946953989148 30.8589834698717 27.2983230733844 0 0
143.573847463906 22.7255944331218 11.2708562186433 0 0
-46.7278513175123 -9.24689626339312 24.9847246426513 0 0
-214.540652975303 31.4486535811612 -19.6948432791621 0 0
-213.129687637601 -11.3118858340844 -19.7990069600241 0 0
-192.547352562729 -9.82536600807449 12.6259971291707 0 0
209.017784767186 23.8686503062026 23.3500983110387 0 0
23.0814297765318 -10.6296667670825 1.91012548834698 0 0
196.690503401278 -44.6731938817216 -6.36200985305237 0 0
97.0868549870007 6.60887365457879 28.23246082523 0 0
-162.773458978437 -16.3048877554051 -20.8490244494797 0 0
61.8799936240266 10.9076107395073 7.61013984446323 0 0
-209.359379604802 51.5053648919749 12.9323758942242 0 0
-137.471638119587 0.755128254685327 8.04520808196623 0 0
57.1205725293521 -3.5610686681301 28.0576012445066 0 0
176.182230732059 30.3033985716812 -6.6075627404868 0 0
190.05273649562 23.8953338852072 -26.5195502368442 0 0
180.78673419413 -6.12832810719569 28.3899413949183 0 0
-217.158711671802 31.8701176111286 28.48639968406 0 0
174.390346283435 -21.1278222477728 22.6565581934085 0 0
196.925621293418 -18.7354021998338 33.5762910981744 0 0
76.593741989687 4.61051978532786 28.3077724327432 0 0
-202.969484418404 30.9955476046403 2.55593430797103 0 0
216.890532507519 -44.3482395591376 -29.0296976374581 0 0
220.454551214152 -41.6433678613196 -16.9569477298353 0 0
-210.262524343005 -9.62920684601372 -17.3278486291458 0 0
41.1640397135459 6.92678696772746 4.8571859866284 0 0
-71.524829213501 -24.0558525075036 -0.901844233242421 0 0
141.4161905731 -7.42961413908637 29.3711748722777 0 0
-68.4024091216115 1.25025636530359 0.233178553663259 0 0
-147.817098749018 -24.1967659858605 11.4016720796175 0 0
111.78573755057 -3.24443275434755 29.5689539744663 0 0
-168.047043335161 -30.1281217172493 7.4885628923101 0 0
73.3476267827153 15.4386109307955 17.8365254136091 0 0
197.854748600821 14.012394717629 -32.1802107073873 0 0
-105.809787872485 -21.79975618879 -9.98464160517286 0 0
19.8459577452406 -7.48326619577665 -3.15635998352727 0 0
195.628932212175 -27.0658398562932 -33.9098451338845 0 0
197.088385221038 -34.492057614976 10.5932411824909 0 0
187.916091724109 -25.3174865113321 25.1460801311325 0 0
-168.028946665843 -16.4876409280621 -22.2870178038462 0 0
205.855321442174 -34.8033462385347 12.7471446719876 0 0
182.885959462237 29.5262064848811 -14.4037532078544 0 0
-244.433021778826 42.134133812825 16.8434423411196 0 0
-226.83577781116 39.6999821815666 -20.9963450972497 0 0
214.004739909342 -41.451006229163 -4.395957887396 0 0
38.3895615800043 -18.533427093734 12.0361292553081 0 0
183.749828818183 17.1432642603595 23.1421518654371 0 0
-174.958063710875 -31.5378179158892 -17.0492575377938 0 0
218.087050249046 11.118147962532 -16.0552329975966 0 0
159.887921278746 -20.7211143866761 -5.31286696375129 0 0
-146.765442652996 -28.2798131470579 7.49681041394737 0 0
-246.503096396297 46.3790218330786 0.170391120501034 0 0
-217.041235743126 22.2323929398771 25.9751258682693 0 0
85.7726058529565 -3.73835004437746 28.9008661670243 0 0
185.499652912582 -21.3884638065016 29.0550646061533 0 0
-189.736206946119 6.510805748467 -17.4580389327532 0 0
23.0594722711655 -2.46278248626508 27.2158922090585 0 0
-72.7496904425251 -11.3501407875549 23.2665581336003 0 0
80.9888029620149 -16.3776694868497 7.69583415462231 0 0
188.825165287777 8.26563156184975 -17.8094829503682 0 0
228.250867752104 11.7589775199166 -12.5688567037514 0 0
-97.4027294634755 -19.7942018175459 18.1874672880859 0 0
-210.242619654976 -6.79799708752427 -14.2313003553155 0 0
80.6581398514755 -17.4034768562162 19.2239180106194 0 0
187.822436187486 39.8731613418397 0.0350137655741663 0 0
90.4530665520498 -13.4462472798619 25.6528251125215 0 0
-218.538456831484 -29.1564068676833 -24.6590766540886 0 0
-211.258724585748 -24.6043520517904 14.826327582739 0 0
-196.333633848582 -12.5013906111167 -28.7305350217635 0 0
212.36137651325 -10.7962045101611 -16.9200278538517 0 0
130.511950068688 -16.1518280306257 -2.78863100878938 0 0
-60.6079712609916 -0.0414224904566797 19.8413008772861 0 0
-206.384373086508 32.0304686016547 19.6111714857669 0 0
20.3941870396845 -12.854420253263 25.0945463182735 0 0
215.959389846591 -41.1267923837509 -13.9114671868962 0 0
26.7808864983842 8.29221075729286 7.38427042365805 0 0
229.783337398275 32.3297466863067 4.30958748334576 0 0
-182.765616640472 -28.808852549588 -23.6002709638843 0 0
221.913370008458 -41.2820855794494 -14.1780081894751 0 0
-244.449360242679 16.5651009285671 10.7953184910649 0 0
-29.349987392677 -20.2380156717256 4.96929670862708 0 0
191.975269510329 9.82192069593884 -21.223931804223 0 0
-185.82820405154 -38.2154098103104 5.92710705556457 0 0
1.68010543178366 0.93382234822974 25.9508785021859 0 0
201.78690870625 -9.54665126491061 -22.0386426414331 0 0
215.673178679949 28.8463277727275 17.4526155113959 0 0
-223.19678956046 23.0401360145435 -17.8750671163279 0 0
-245.554449734144 35.7099998624878 17.4266030188031 0 0
-163.628279402127 5.00004545440052 -7.72566982412571 0 0
195.012308636067 -22.2559936050033 -33.0927062368736 0 0
218.591330830758 25.0211130647706 21.2591661955296 0 0
-123.800302808657 -18.9066642360586 -14.2159646014791 0 0
177.435516674456 -13.1921571733898 -13.2906439765425 0 0
105.624898409686 19.0183268113045 12.8216563279909 0 0
172.965210016994 -22.8838350588817 -11.3201858024031 0 0
166.819813108055 -10.9073454672469 29.0129918188021 0 0
231.498084712529 14.6234650447994 -13.3889385202217 0 0
-236.464194624787 35.5103977620942 -18.6831675621391 0 0
-230.9723588403 13.2772181813233 22.1707882843348 0 0
186.810333857646 1.89557974676792 -15.611887541073 0 0
217.291401168456 -18.2485338128333 -30.6696137680932 0 0
-100.688184017785 -0.120772543961218 -3.70752400277616 0 0
-200.226864108925 -37.9719772138779 -18.4382197347046 0 0
53.6202337765407 -6.87450501804302 -2.14766131307524 0 0
227.425311481414 5.17436224208912 5.38829261935463 0 0
211.763635120402 -42.257047952501 -11.918944583227 0 0
-145.576506215234 -0.209309639297077 -13.0319133680079 0 0
227.366957202752 39.9645578158872 -14.4830750793265 0 0
145.74000883352 14.933192348657 23.6018576445016 0 0
152.524099386442 7.85533097731344 26.8479462583952 0 0
175.668510137542 -12.8041572949331 -12.6570234312848 0 0
-52.3706266444837 3.15126254303966 17.4796028789844 0 0
-201.059628875361 10.2441372520737 12.4533250722877 0 0
86.7587698086749 -15.3904501971123 5.60198161496641 0 0
-191.894266093614 -4.32714603336612 -24.3022446774884 0 0
220.509453344431 -28.2754249854325 21.8740961144032 0 0
-230.676967958765 41.1095857096257 -19.9432089074584 0 0
-118.247958185579 -19.1166817187086 16.5509695101211 0 0
214.894344131645 -8.46542319317908 22.1624976092438 0 0
207.100470801401 -40.9389471146188 1.06451770326284 0 0
221.211858364716 -6.45696974093877 -6.32869426645157 0 0
178.700939137037 8.40687849695332 -11.8916253059446 0 0
-232.995625361934 23.2128786902082 -18.408260745798 0 0
-11.1670433109381 -10.4094428196952 -0.314123085497108 0 0
52.0921315630096 -13.2447369647509 4.65371258211358 0 0
-10.1751752299714 -6.55934582876914 26.4317771563827 0 0
-38.3667166009935 -10.5793411840031 -3.27127573566251 0 0
-174.727110201881 18.4669520949556 -14.9527931103694 0 0
172.754552079034 -11.3128988635329 -11.2906826099109 0 0
224.979917841122 19.0694587189807 -32.511986111111 0 0
180.977981491867 5.25901322867967 25.8240548661116 0 0
-136.344301915217 -7.84417541647105 14.129934235216 0 0
-26.8350091738244 -18.3823546011474 21.6076825749892 0 0
-215.242009649979 -8.6637497931489 -11.3334316269194 0 0
155.304779207819 3.01979265015854 -6.8028497797556 0 0
-174.578488431049 8.89572461892924 -4.76228447049385 0 0
-59.3495270368845 -22.468771951537 0.918271492879117 0 0
-180.44583459883 -30.1994882299767 10.0910425432448 0 0
