"x" "y" "z" "f" "a"
174.776850003354 -35.1270317351819 -10.5122977712828 0 0
177.832067071993 -1.79036476665064 -10.2199736879283 0 0
119.22577983178 8.20082656663415 25.6795158957214 0 0
-210.185428924673 -29.0725633797666 -25.8101346061689 0 0
157.492352345538 22.4677062854074 4.24787763919427 0 0
198.060315329653 -44.7141146095083 -9.33598653218003 0 0
-168.296670029909 -14.583667992341 -28.1204483304005 0 0
114.487686248702 10.8682885192581 23.5152599013483 0 0
140.46583620464 -20.7573092035318 6.25577693026529 0 0
-174.928907328249 -22.6908272940334 -26.8755309907714 0 0
88.7453237274408 -10.4972048315169 -0.147769534677562 0 0
142.649656221856 1.72237163355128 -2.26284799147266 0 0
-195.477515384413 -30.7385381568176 8.39691108939131 0 0
-71.108760522505 -5.47814641444622 21.5881327477224 0 0
-125.916530184826 -22.7078356278159 -11.1363364746013 0 0
177.514353403821 -25.3345736946488 -20.4709778356032 0 0
180.521145476332 -24.550432494638 -28.2831395502002 0 0
-174.254298179988 3.13931108236193 11.3593914550184 0 0
-128.519563532452 -26.5121595634037 -3.22269831141328 0 0
166.840683224595 -9.28460150183273 -6.58194184887146 0 0
-220.819336057439 -23.6469933092585 -12.8002828024056 0 0
-233.121769382923 43.2361737190276 10.8308699205751 0 0
-236.294168407519 23.6676453289412 -13.0850103067943 0 0
-199.779506867282 -16.646935324259 18.7366800320354 0 0
-220.661309883033 2.41026126320408 18.5448809243751 0 0
-139.530336902542 6.02064087256884 2.18763151163991 0 0
-31.1779635639637 -18.3411308923171 12.5591372331004 0 0
203.952697335063 -34.928516645658 -32.7723928763523 0 0
-46.3594925997212 2.153928588307 -0.185145563828965 0 0
-209.849751307223 31.2771614548233 28.4355932759472 0 0
-109.616454792141 -5.49547766114446 -11.2609372115259 0 0
-189.264427327374 2.55825046132833 -16.4093837538644 0 0
153.028012528519 20.76324238247 11.4710549278085 0 0
-171.514812768004 -1.07405780967047 11.3210031289357 0 0
-199.929522232947 -30.4810765433781 7.80545730607605 0 0
-19.6567548478853 -15.0487757691714 19.1746389612781 0 0
-202.456940084272 -26.7681816181005 10.2898706062981 0 0
84.7147292684888 -12.167026536706 24.4362979456245 0 0
-145.561862741496 -5.61983194300745 10.0403565586729 0 0
-124.012677447727 2.62226551904055 -7.89283124156043 0 0
187.976019342879 -44.7554663228418 -4.63337974119507 0 0
120.942077776093 13.8287778046133 5.32883455678893 0 0
-151.448296371426 0.144617813622637 -24.0559920021583 0 0
213.355032841612 21.3652087926126 -39.0570747629144 0 0
102.931587001429 -11.9427103028745 -0.437246703130498 0 0
-166.103417201942 12.6431932712877 -23.723243779087 0 0
153.08157407716 6.06649713224947 26.3742541233834 0 0
216.752087031891 -17.1652495668025 -5.83904139965472 0 0
-55.7684720758679 -2.6860299694464 22.9914961909123 0 0
206.914124236116 -40.78796422513 -5.20418971931186 0 0
-230.95129691482 27.6919991014838 29.1987413629406 0 0
200.460295372009 37.0406972952991 2.22870275554327 0 0
59.4096488013473 -8.01451582302388 -0.269549280088388 0 0
-172.431419563106 4.29045142404494 -22.7586992119505 0 0
201.489233430674 27.6626473572779 13.8655815732832 0 0
191.834983663439 5.26970641251127 -16.8376562788743 0 0
166.943287221827 6.87063018143774 25.5359831124833 0 0
219.638075465229 30.4233134064251 2.26645625670756 0 0
-21.1234345491419 7.77829352946184 8.4295988647598 0 0
-163.88560276876 4.55564712386822 -26.5363526836497 0 0
-242.077657673505 16.3891800815766 -3.70033912826841 0 0
222.48816176652 13.9940962605457 -15.9616376818877 0 0
206.353513615033 -13.1026353083567 28.4601483322502 0 0
74.4898179544453 1.59223811814076 0.463270025249637 0 0
193.815546106832 10.4362097469095 -35.298954234222 0 0
206.082992789758 30.0222989221058 9.4618289030882 0 0
-103.235359493402 -15.4457709181059 -12.1596737896982 0 0
-197.674438497634 -28.7020419508479 -27.261469732881 0 0
21.1931554118246 1.82491771990823 -0.739989020384997 0 0
-220.502545779088 6.1618036467535 -6.26176679067305 0 0
-128.067861317409 -21.7925053376442 6.28724476478131 0 0
185.976396659686 -40.82469812866 -18.2801751960115 0 0
-233.239649514978 42.7737542635003 9.50369682399186 0 0
-207.208755046544 -15.2011623387979 -20.0533170327225 0 0
-167.946536835161 12.838549378561 -21.7058188415317 0 0
-136.391388691086 -12.5039003023446 -17.8238732994695 0 0
196.933845465107 -28.1941449397193 -34.2842381886456 0 0
-136.974194346881 -25.9152923080027 -8.7283985536026 0 0
174.741573967093 -25.3793829676072 18.0149260336191 0 0
-208.384440491363 -2.10110158186617 -8.87703601768581 0 0
-218.213767961595 -28.3968721956568 -20.1507917490232 0 0
-227.147164041554 15.4385223028402 28.6733431763528 0 0
-81.7220736671868 -4.96618020435958 -7.99935665720439 0 0
-195.896082219237 -9.67139157670339 -24.8509419421705 0 0
-174.393425331429 -36.6220042302657 -5.08362902131192 0 0
-242.332248065262 20.4473102531553 18.507792122988 0 0
-44.4247397092807 0.317952197185198 -1.98486986315468 0 0
-185.40663171168 -5.9659064123877 -21.7946652210188 0 0
-217.238355205842 28.6667662138988 -17.9518117749068 0 0
159.598813171314 4.54169590133059 -4.53693821267075 0 0
-203.40025522971 -37.5815823854168 -4.54513576538811 0 0
36.2388372930548 -14.1071346261216 7.68445416744312 0 0
214.533848063406 -14.4264261268591 -10.2540223188676 0 0
-214.001545935538 49.4760463591687 13.2220157529379 0 0
-222.498180031085 50.5720510523075 8.55694519558491 0 0
-189.094627017214 -3.95710799537368 12.8172568972238 0 0
-36.1259490860723 8.1160142833157 11.502611397242 0 0
135.560622205672 16.3799116698961 4.59647004395647 0 0
198.115497380185 -13.5861993724428 32.867969880134 0 0
-159.542725797446 17.003889683235 -15.6947963310469 0 0
-101.776933236227 -17.7660414322189 -10.1568056467833 0 0
203.723042347848 -14.953725601147 -25.9490913754752 0 0
-174.886822627432 -14.5122835307563 -30.2606406029348 0 0
-26.9945358989031 1.33288841422234 24.119843334374 0 0
-3.37894522405539 -7.82811610239141 -0.182016101122369 0 0
-219.254587671742 3.98555427678156 -3.66173863374083 0 0
187.989875375755 -30.6705763010196 18.3574461352929 0 0
-198.405921609844 10.6652283953214 -13.2855219891138 0 0
-98.5771169365781 -2.04847996758929 -8.29797940044606 0 0
122.860105694535 9.41653256947358 24.8555244562666 0 0
217.657555268802 15.7819007669609 16.9563905690575 0 0
-227.660367488636 19.0371349109528 -16.7278020010895 0 0
51.0293962869967 -14.2874491646742 7.30252711117299 0 0
127.56718810942 17.3588921583108 14.3155105459027 0 0
58.1754725035573 0.0885423834505039 -0.344374524681052 0 0
32.0291825505517 -4.7785931985781 27.0046836399602 0 0
-149.877844015915 -9.68365465256907 8.84861357867265 0 0
-165.178848590888 -30.1173294749392 -13.6098475278775 0 0
-123.592193014235 4.54915518620275 -3.50178798426302 0 0
-215.434005518549 -25.2296702341034 -25.8911500957227 0 0
186.428567109504 15.2825354756725 -32.8277870794829 0 0
-86.8974060477525 1.22929312385174 16.9978822232613 0 0
220.883503634281 23.1173047009073 10.0960993956373 0 0
-193.021702419983 -42.3196714195517 -5.57541167130018 0 0
155.70030394602 -20.8692841028704 17.9073721141985 0 0
156.519029811385 -5.01983924886462 -4.15166894527745 0 0
176.504894241764 26.386044937371 -16.1224378555603 0 0
184.521046557315 -22.8307643852177 29.1549259773458 0 0
-239.39943973486 35.3388096839541 19.4839748510349 0 0
213.199293186691 36.3344073389914 -31.6442126497258 0 0
-217.443858586457 32.8817521223653 30.3329684448098 0 0
-128.483943472059 -17.5742913810454 -15.1515783418027 0 0
57.6020448058699 -8.9707404849282 26.1203124518353 0 0
-233.987318305527 32.3920368854766 -13.5303189118269 0 0
-172.601113558242 -36.1719860137696 -2.69649433885961 0 0
-202.912672808116 -38.1389795521685 1.27133942699783 0 0
-214.986490341377 16.316747547469 -15.005254448266 0 0
-199.172785882639 -29.2777936763232 9.09805867393045 0 0
195.140578808392 -7.07131851168056 -15.8555754911731 0 0
11.8809366326465 -13.1586209854024 21.6419888110189 0 0
176.688691264954 -26.7252127238343 16.7588362811927 0 0
-140.830877198428 -11.1521487809971 -19.3753565429542 0 0
215.233701745376 -20.4718000318682 -15.1591110466227 0 0
156.438845749923 -24.0857384289208 1.32037254784797 0 0
-211.563584146723 38.0989586310688 -13.2407092764087 0 0
-216.481529902329 -16.8491128905299 -15.1320460153361 0 0
-207.67113457644 35.6076066408268 25.5030206713768 0 0
162.61699695799 -8.19923939428718 -5.61196250883683 0 0
-60.3374664089523 -3.39359052002295 -5.61728463878833 0 0
141.932020726932 -14.2379620243023 26.3473830229872 0 0
-192.125645169233 -8.06085209487793 -25.6219236572176 0 0
173.085588991894 -23.3629994744919 -13.1111565893372 0 0
-103.519296415384 -21.9671546987797 5.92751289434892 0 0
-219.189038021839 46.0509276540016 21.490810689788 0 0
-201.440660987435 -31.0065534501767 6.84052117088991 0 0
88.8576233586009 -16.6525297610696 14.3412582841117 0 0
203.053281924287 33.7075441320514 4.82067377322639 0 0
125.023918658751 13.7521229714097 21.1157418091788 0 0
191.14153606443 -40.5858246456882 1.87194999736041 0 0
-211.010420033312 -22.2018520595868 -30.3966956650757 0 0
85.2101378102665 -10.1945077077398 26.4080595846854 0 0
224.159617045958 22.5710509336532 -25.4071637870524 0 0
-219.415968389383 -15.3728124548032 -19.5337238154878 0 0
220.982816370139 13.6913810050954 -20.8227323970325 0 0
189.401062575623 -25.7025227367105 -32.631927197186 0 0
-223.193010257736 49.4057974030406 8.33004677334369 0 0
-19.7879330073394 -5.14934159746172 25.1974782222104 0 0
46.6057004326738 -9.44441349605286 1.0862071113679 0 0
122.690329152863 -19.1353606044835 7.41050532870462 0 0
222.08450410956 23.7989320099623 8.79060186506575 0 0
-103.287613028831 -17.4732022598734 11.7270896515352 0 0
-195.51899460651 2.36661179520506 14.153371462561 0 0
-217.939440066072 -21.8831982572035 -24.8151246544729 0 0
-0.393977228693913 5.98902025177254 22.7737620267054 0 0
215.6311306648 32.3910088890614 -36.6320892509665 0 0
-190.706493034489 -18.1148841966692 12.1160168468001 0 0
-217.4288322745 6.24159874299514 -9.57093113749358 0 0
194.106083266092 43.2333820138102 -11.3583803589639 0 0
162.751874380439 18.9617276535696 -8.94127185826613 0 0
189.241950908666 27.3384264564064 15.6418388438345 0 0
155.779811615414 20.6288243200516 13.1322015374317 0 0
211.891528114837 -43.4760270078886 -23.3091037735136 0 0
48.8987884475782 8.75702231805677 21.6950815035312 0 0
-120.958074674023 -8.59084315388275 13.3427595829405 0 0
197.192552162348 -42.3885333820596 0.0305879146135589 0 0
-59.3269213387073 -18.2712781923841 12.8794726194621 0 0
-184.526045885151 1.34853370548557 12.0390364340663 0 0
198.5789854637 -42.3526577206905 -21.4189317627222 0 0
-152.123069072625 9.44548619980494 -26.0488220265254 0 0
159.938512783243 -0.782715979080451 -4.29596700312253 0 0
-190.326497840028 18.1496991887925 8.05590807891735 0 0
205.839838787996 -45.5539747717677 -24.8331642348305 0 0
222.04456394399 30.6354764305717 -2.99853641750001 0 0
-243.401698353948 32.3387122232051 15.1999999544695 0 0
-93.1816565728652 -12.974515837366 -11.0298128607126 0 0
206.599366207863 38.9814880203992 -7.3226058880933 0 0
218.71888309385 -20.2298112562217 -2.18515583541991 0 0
23.503424919658 2.26973438261904 -0.0429724634478962 0 0
-41.5501265394681 -11.1936446774229 -1.51482366777903 0 0
215.356402579962 -18.7547707619083 -12.7170925981696 0 0
-182.331092946297 -4.50774782594072 -23.5894607066298 0 0
-159.860170754865 -4.36563263946921 9.27015839981816 0 0
-203.673363557051 42.4240307068007 13.4222052928898 0 0
-194.482146344125 -20.3141133733019 13.009875452575 0 0
174.460267416759 -28.9832502857069 8.0425185275647 0 0
225.634451150411 30.679542491934 -9.20738012975191 0 0
-188.107939754088 6.37448630637702 -14.8345341139103 0 0
-26.7593707068836 -3.0410589638399 24.938840490196 0 0
34.5656896400322 -15.9854157218557 14.4907322002959 0 0
138.639030861563 6.70129005341039 26.4959381251457 0 0
-28.2931358542336 -11.7891151339429 21.7042666271856 0 0
-161.748464397186 1.80305068828676 -26.4726656162918 0 0
165.485096366055 23.4710735005556 10.5249171851832 0 0
-179.430878089142 -30.5102390300425 -23.359711818776 0 0
-188.633246257554 -10.8628372326199 -31.9934947512302 0 0
218.315007890369 -25.5711278746952 -12.1684536661168 0 0
-235.467827048891 45.7153244069118 1.65864518550774 0 0
193.343011783949 -27.3041173064925 -33.9329964320768 0 0
-113.078058744559 0.0800392124823755 13.2626154452553 0 0
197.434077778139 9.72007590115733 -19.1774404593939 0 0
206.958150641487 34.741482840476 -36.42240452308 0 0
-135.694205521744 4.51788396643086 -5.97690060085573 0 0
115.891632509013 13.3322715152625 5.76410887610937 0 0
201.91930912408 31.4342721178277 -39.9416273263947 0 0
-163.672345733359 -32.150081415811 -2.58072756144681 0 0
33.6650723000741 7.72536956199173 5.99692976973059 0 0
209.811065045531 18.84656787076 20.5853209236226 0 0
170.399781647159 -25.8562923174747 -10.6043982047317 0 0
-215.078787444567 11.4470954528931 26.2823686843571 0 0
218.390372307521 -38.5447602128802 -13.3235823576748 0 0
-239.569883191079 11.2260376730782 15.6363458708395 0 0
-198.791642771146 30.1715935262074 5.4303232365795 0 0
-137.604518059759 -18.9729449064739 -16.1797991991743 0 0
-201.293789064025 -13.5821457747751 18.2463880834253 0 0
-62.1253994933218 -20.6526353700723 7.26689328064688 0 0
117.027431927683 -18.6243893761344 7.03762476237752 0 0
-202.188170654417 -13.2817701966511 -24.4684566831436 0 0
-210.494448131402 -4.7498511320185 -5.82492851664241 0 0
200.579086687735 -14.1727352419124 32.3781794527363 0 0
166.005997764618 0.0128307529047881 27.3407066576746 0 0
-171.313157579784 12.7089918297211 -9.54940048700854 0 0
-188.948333164857 -2.56160198411084 11.7729295727898 0 0
219.308495660315 -31.1758090755508 -2.96954800092383 0 0
188.832028561649 13.8406598253787 25.0996497075471 0 0
171.375480060813 9.53580100530975 24.4843097113077 0 0
-114.191033857929 -17.1757754270138 -12.9570773648575 0 0
187.33212687859 -5.4722575286952 -15.9135310741854 0 0
176.249773791751 -22.2729070836066 -16.4320142715036 0 0
59.7461604110137 4.79888565624359 25.9061010295415 0 0
205.244480784662 -13.7748261086343 -23.2130431374219 0 0
88.7534029195585 -1.51143765779561 29.0961552299584 0 0
18.353553131268 4.05570555956513 24.8076989374755 0 0
126.924073003603 17.1821050804323 9.9553972148187 0 0
50.8290434495902 -7.79558590955418 26.5659183136982 0 0
-145.841355902276 5.98224825174844 -4.88555436332608 0 0
169.687373072688 10.3820190000979 -10.6741172193329 0 0
85.5110010694336 -2.35186409564074 29.0619867732363 0 0
204.764254880901 -44.3781875831822 -27.8558539826858 0 0
-215.895040422321 -3.5319562623183 2.92370367718365 0 0
-24.0196886998147 1.22080154483025 24.3263902690718 0 0
-174.713535291757 -28.2727206189245 6.47738112876958 0 0
-207.869177157266 41.3546708203042 -8.1523773718732 0 0
-245.703779944561 29.1552160945499 3.25437058679834 0 0
-82.0522128316976 -22.4238122500413 1.73835254282605 0 0
191.284100663209 -29.6210348962883 22.2854962199287 0 0
144.586902056867 18.4602439546505 3.80156284602798 0 0
189.909529439855 31.9505944898122 -36.3372161739112 0 0
82.6893280668861 -11.3714341809098 0.853400661583713 0 0
-228.487252138923 10.8895150132318 -11.5502923466871 0 0
210.360019442741 35.2573925653818 -1.32065459983306 0 0
178.778690880301 -30.9791547734938 -24.7722033852336 0 0
213.852221353789 -19.6289101282115 -17.5493580197685 0 0
-200.320069934298 19.9058817590489 -8.80119919706551 0 0
-198.111901206347 30.6216409656093 9.44102229520558 0 0
197.562373924964 -36.4097043983714 9.70580026224094 0 0
-197.508278139787 -15.4981943948712 -30.5305749167337 0 0
223.54491605461 29.6211592736298 -2.6345563838713 0 0
-85.5365948675078 -7.29739632018614 19.2636590667538 0 0
7.46066741424015 -6.92445128736217 25.7699682856474 0 0
142.816393151051 -21.0631513725922 4.69360991157111 0 0
-145.434342826852 -15.0669254055757 -19.6605625883406 0 0
52.6693228201388 8.50440437459364 22.2253428362303 0 0
159.662350199649 -23.3798459725672 11.7949045520879 0 0
-225.51624215179 44.0035555976775 7.85288629748873 0 0
211.607412574071 37.7601062848932 -8.68504793668955 0 0
210.29210687543 -13.6896927437094 25.1344637233684 0 0
-236.612041066346 35.3431952899885 22.7748271523158 0 0
-190.524498683265 -39.8371624896593 -12.4132239085193 0 0
-191.271944982976 2.98893768788523 -15.9372431138574 0 0
20.6115431811406 -3.39202076662789 26.8484697741174 0 0
-131.289055105862 4.72668177488214 -5.5521522947209 0 0
212.529404205644 32.7847298580802 -38.3335000739898 0 0
-232.8515074075 40.4941565325018 -9.4467244690878 0 0
-144.989763138544 -21.8139113823227 6.69660620983612 0 0
-217.761283492237 -0.0856340151668391 14.3355301567757 0 0
-212.185531391394 48.8682131283904 0.790158378984176 0 0
198.003317177194 38.4886431822689 -28.9509813440471 0 0
-176.739434655218 -3.82714793120068 -25.1188484098399 0 0
130.790728298528 17.4459078241861 15.0503055988666 0 0
-150.879390934658 -28.1669334894597 0.328210228017001 0 0
-215.193396959075 -5.79101392874212 6.97185760234802 0 0
221.577014229313 13.8385518092037 7.48118599957237 0 0
220.158875635035 11.1788779771969 -16.4756860978077 0 0
-162.598665617715 12.7888494882012 -11.8229497357805 0 0
-124.77627107338 -7.28727793616285 -14.532968623056 0 0
-187.89799525026 2.03517373268261 -17.3313009067782 0 0
-138.234115818585 -25.149146129836 3.35113837723338 0 0
-168.231159395061 5.73225837817177 -25.2685107732356 0 0
-190.791264374108 12.7364509022008 -11.3994346113785 0 0
-186.363164424086 -8.01947972919507 -30.8036665010921 0 0
-76.3120679183956 -19.2889755736846 10.3563839713792 0 0
-220.301601435178 -25.4538006116463 -6.0500048539809 0 0
211.245928260474 22.0140105705681 18.0303436555646 0 0
-181.349681070205 3.12217630070905 -19.0011751949049 0 0
202.912325504408 9.45302278579165 -18.8849913406977 0 0
-204.601084975374 -3.75163931909278 16.9217976744226 0 0
212.574436813772 21.3447123867947 17.4132778633285 0 0
215.105078345262 -37.9882855026517 -22.4488413814735 0 0
217.035484530039 -15.0938712959752 13.545474226083 0 0
215.768577170281 1.48641859133972 1.97221289812248 0 0
31.9169240507774 10.0108628104332 17.8708786122138 0 0
165.725051148736 -25.0690899686158 10.2370318050386 0 0
-96.1148157757721 -0.855807782272466 16.491267972684 0 0
3.82641110251136 5.40196619355943 3.74229630098516 0 0
-79.612226223632 6.1478025394424 7.95434066427989 0 0
202.570999160932 -45.2772473095654 -25.4422799726325 0 0
-157.600287856558 17.5236403150091 -17.7614053931362 0 0
185.731647616382 -18.0797888910976 32.9109874577348 0 0
176.86802601067 3.26493028013141 -8.8931367896263 0 0
-84.2448882691978 1.37445104633785 17.4921081667502 0 0
-205.190554591878 -29.175147315434 -26.8397295684412 0 0
-229.484278615818 2.38458451231498 11.9889847001848 0 0
-214.5909630787 -16.1829480690658 -15.2105619139309 0 0
74.5801813469906 5.61657007135454 25.9715648200792 0 0
188.798084168455 43.1007450640773 -13.6462946614361 0 0
-144.325901101296 -27.7196637719535 -1.60680092496689 0 0
-141.518816695742 -27.4472499548737 -4.67049805037691 0 0
112.415351153259 -15.3653096234428 1.09467747117982 0 0
217.310738261866 26.4226053396553 -36.6432348775332 0 0
111.79729361051 -1.85381113695458 29.7645735358363 0 0
-184.063909855842 14.156805837277 -9.85138851818141 0 0
-175.820203014601 -34.0927660925205 -17.0198245162629 0 0
214.614683826409 -30.3838596553691 -22.8978247043128 0 0
-204.595377850047 -16.7732819446221 17.1636664627792 0 0
204.749148262229 -10.5594000104972 28.2375214440745 0 0
95.4997554963644 -4.04403636914676 -1.87990825614169 0 0
-199.002321197838 13.9767243513926 17.3290179987007 0 0
216.704072919095 -22.9971174327423 -14.1245912019662 0 0
-225.066448238807 43.7006240740684 11.1711870604017 0 0
29.5471425841991 9.89639119336833 18.0038345082086 0 0
223.059558982638 33.9636275817983 -21.0865754647655 0 0
54.7577149766246 11.3800025684823 17.2385063966273 0 0
182.298325092447 -9.81150297651902 30.9708939798137 0 0
-70.1894191706361 0.97805739011997 -2.79966600837555 0 0
-179.635143356637 13.4167628008323 2.67686140338404 0 0
-241.380246784869 26.8863200043613 -7.76844559523913 0 0
210.333855179014 37.1115646734673 -27.2964817317534 0 0
-9.00508360429371 -1.13820592512639 25.7005325691498 0 0
-220.692849484144 27.0918935203327 31.5833462360703 0 0
75.0834045964596 -7.5433313964273 27.5590232418495 0 0
-160.57521388373 -24.2242811506842 -19.5984540415896 0 0
212.679882198783 -36.3258086415343 -26.198796415641 0 0
225.736891098656 22.4705295524757 -4.81883390148045 0 0
-231.78744651529 6.83977749154736 19.8357872972785 0 0
203.03893216512 23.7221144866214 19.2296800269466 0 0
-139.014148758992 -21.5148741589194 -14.7605352299468 0 0
-75.8119781567017 1.98293683562826 -2.03697998951874 0 0
-225.944388900333 44.2493897842131 21.8251716764766 0 0
222.47455110966 33.8559426120673 -11.4284394733634 0 0
-66.4081768418828 -12.8183437416466 18.478325051513 0 0
-230.98888350035 42.3744220910791 -8.85150348597927 0 0
-208.944451696148 -12.2272580908428 -25.181105996867 0 0
-235.233488710807 5.15718204689592 4.94420087411145 0 0
-160.335133122602 7.43925160054024 6.2951540112007 0 0
-205.679203168183 11.4248994711713 -13.6838868784162 0 0
-208.565818932692 -15.8362439423191 12.8020305142174 0 0
-207.74300407538 -36.0633958040733 -10.2517404148867 0 0
151.148085550843 16.8113419565496 18.6854897500491 0 0
93.934428093866 -17.0946572787386 8.88589903124462 0 0
183.082524056284 -33.6362086789859 8.45315012612596 0 0
-86.7471569958719 5.86590166333762 7.06739030061548 0 0
82.3516796223844 9.68429640555795 6.03443465000092 0 0
21.2850364881263 -7.57394020170507 -0.28228083867095 0 0
-234.498706400954 19.0445414381668 26.4881446767214 0 0
-114.841885526466 -19.9684278628681 -11.3329527686483 0 0
36.2088594072767 10.5170587033125 16.9852397384812 0 0
213.213357883345 -14.8271189415715 -14.5223364985616 0 0
-220.188795408706 43.3703974378053 -11.0043035821465 0 0
-28.6175374915848 -4.60418052392373 -4.44885910461776 0 0
-70.5315127335436 -9.90022293475679 -7.97550069070917 0 0
-168.137933577367 2.37775879675699 11.0592966826513 0 0
178.093599845727 1.87958814518749 -8.64628414687708 0 0
-231.073702768688 46.9363281571376 -2.68030027184791 0 0
86.6414987317036 13.9821789600663 12.9910534725909 0 0
-213.566714857594 22.9240924461924 -16.6679099241881 0 0
-188.071719822055 -5.56558777767281 -21.7690841995347 0 0
170.843840992218 -6.41119668689934 29.5333879638736 0 0
-200.625694277015 40.0738817280095 5.77064116271424 0 0
-151.038032081237 11.2976858722061 -15.3132333965864 0 0
-220.876657226153 -23.3959963233255 -10.0840872613926 0 0
-204.546751953823 43.7365757851354 -0.85152204398545 0 0
132.392760463725 10.5046495270429 0.49825608755582 0 0
193.907482625158 35.4449577604521 -33.3887764082755 0 0
205.272934384417 -24.1980485691946 -31.4791904066294 0 0
204.598743931052 -11.7364359479281 -17.0199232634479 0 0
191.515137889343 34.1536715266169 -32.6024401075535 0 0
-185.542781849342 -39.0794086913463 -13.3063235748206 0 0
-169.726722460104 -32.5999679759643 -12.3073587339706 0 0
-204.46609759844 6.2132089196586 -13.7737976220319 0 0
203.487128918086 -33.7233605184103 13.3211667938105 0 0
-79.1689913797266 -12.6932714334189 -9.05403363277671 0 0
-218.371830348671 -30.7586659080658 -5.59640391587829 0 0
66.8746070642668 -12.7298126569594 22.8528007785772 0 0
-218.710337102672 23.1863192375626 -18.0295591548546 0 0
-213.335416908088 38.0733157570231 -13.9664206866633 0 0
79.6732365250016 -9.91957977675154 26.3309267198505 0 0
-229.050490708437 46.8747174680981 -1.90069741356912 0 0
-124.73720364466 -11.3260184039906 12.3887933495047 0 0
189.534450128993 22.1507502917113 22.596030875489 0 0
165.780405336245 -3.11164196041881 -5.78099061711147 0 0
-176.458511479924 -38.0577261590628 -3.91462501159657 0 0
-226.169021590152 47.5631590007598 17.9249910020804 0 0
-173.369338988443 -2.73043092711798 -24.4643188594303 0 0
-243.285742991031 17.7103958001151 -2.16219585003992 0 0
116.00564971145 15.0956672425109 8.25159535519982 0 0
-131.321434508912 1.7451627521368 -10.9433523620479 0 0
-118.820238758523 -10.0479030500152 -13.9786829569328 0 0
-232.835768073696 38.876341870319 22.7862533415649 0 0
159.434866289408 23.0293074046814 -1.44031506743561 0 0
-206.063851594125 16.0303503326785 -13.0908857154441 0 0
-177.104605860991 -3.82585344093721 -28.2367322504203 0 0
-178.309080159547 11.2885298727412 6.89459538547239 0 0
175.723525362499 17.2367497393499 -15.8611005457762 0 0
-26.4079586181441 -0.677409382970005 24.6867415278014 0 0
169.946585491971 -30.2659117781197 -8.50928888415045 0 0
188.85473053945 -40.1558081597292 2.1412456073641 0 0
-205.503296044432 -12.3140564724747 -26.6754816339829 0 0
206.081905581989 -37.8267866586181 3.70570036970698 0 0
200.024981265123 -4.94306074485128 -8.30937109207709 0 0
-187.330930917585 -26.64047124655 9.3081995185353 0 0
179.052001133606 -10.0171630645451 30.6172172130053 0 0
-224.095001219083 47.9897279954346 -5.31221480920709 0 0
-232.349703436578 3.46995953293636 4.76571832671662 0 0
-157.500372760117 8.06647232654917 -27.2357260764583 0 0
221.128652600134 25.8216264966747 8.42471816405297 0 0
200.746716250331 29.6328480307067 11.2533208371007 0 0
-163.49144223889 -4.64381147520453 -26.8570062646448 0 0
-161.275075719178 6.085278992758 8.60619066790473 0 0
213.139084935942 -39.0124657802265 -1.92737464779505 0 0
-200.20533885774 -4.25739438827946 -14.1644920499875 0 0
-199.226470917248 -18.4080208406078 -18.9959412123163 0 0
-183.072262060551 -9.45367237226243 10.9217535307287 0 0
-80.6292496979346 -21.7983731882862 -0.51744527147414 0 0
-94.3281838590049 -15.5080250774492 -10.413159425914 0 0
185.288003751305 27.5533065903407 -32.7730638771137 0 0
-67.7014027410766 -10.724887162592 -7.55931160121791 0 0
34.5566974824423 4.98346102171598 3.13815736522683 0 0
213.160791937481 18.7406214546591 18.3451255581541 0 0
-237.646428737277 12.018242582076 -6.57178491883246 0 0
-50.5124358591013 -0.595551534417027 22.9359685700244 0 0
-173.438263887387 5.10553074603558 10.8240339309699 0 0
216.099641956703 -32.4140459770478 7.96289368622227 0 0
186.861201853174 37.4289531808986 0.390282731885901 0 0
168.741334412146 26.0461648324313 4.94846134139897 0 0
208.837279953441 -12.4809774798431 -20.608792781218 0 0
202.621408776808 34.9364155341967 -37.2144857761722 0 0
15.0215555479509 -10.0556526921052 2.43214082217395 0 0
-86.0017672360342 -11.2438361827306 17.8036061585632 0 0
-38.4090978067139 1.35108218660214 -0.686955634083785 0 0
195.190400464668 -40.8720726299571 -30.2349362114658 0 0
-144.022210547004 -5.91424212467497 -20.0105963827667 0 0
166.853171239907 7.50252699956796 -7.36218140659445 0 0
-216.190255678747 -1.44406985438051 1.7258016945089 0 0
177.420524549326 23.1759984533618 15.9929407280715 0 0
201.818508136554 19.4102757573027 23.905089645199 0 0
65.4739150833998 6.16244044407837 3.76184827205928 0 0
179.843536968765 5.06230196292052 -9.18586388999372 0 0
179.360413321132 18.6842828419504 21.1117588211685 0 0
25.1522487458032 8.47962416023495 20.5182089343815 0 0
192.168739465683 35.2170099788248 5.63036550143038 0 0
-213.244373568075 -33.1898097950118 -15.4188107353791 0 0
192.034181212304 -45.4342964347331 -5.62380140388354 0 0
187.883045531969 15.4803508530548 24.7231758206434 0 0
204.214038569069 40.2979512215339 -21.8031274201816 0 0
206.518722817474 16.8325925751523 23.8845576341588 0 0
-198.939990458527 27.372444501969 2.67872702531747 0 0
-160.550353125981 9.28006416284799 -7.70096750535718 0 0
-168.367527084507 0.403145756322134 11.0012734966653 0 0
-76.6109869719662 6.18676286735933 10.491522035673 0 0
196.592118687819 13.9714915876011 25.8260572492138 0 0
209.667511822364 -40.2171135123816 -5.70671976428353 0 0
217.052200803009 -19.5182884821852 -7.12168860122443 0 0
-136.817352809395 1.56301933952356 9.83744477887105 0 0
-136.1954834332 -20.6721555464318 -14.9905359001024 0 0
-24.4389883276037 -2.20170506070268 -3.64463718419178 0 0
226.502977674085 29.7254910211258 -10.9812685858356 0 0
187.773095681453 -4.00598981573154 29.3381556870485 0 0
188.330084051924 29.9394579615226 -35.6670589881898 0 0
-209.232893959666 -14.860633513181 -18.7562283296185 0 0
188.794904849654 -11.6389118289501 32.2604464943111 0 0
205.406298747295 10.1165602165653 -19.4262070942803 0 0
-206.572802844884 -33.0933560351298 -21.1989405824421 0 0
-185.045486351585 -0.756897577146613 -19.8095991852422 0 0
-241.446154160854 17.9319439832278 -5.91103471131597 0 0
-86.7092674655039 -14.3032566496544 15.5426222224209 0 0
36.6380227315128 5.69184645276542 24.3136667345405 0 0
42.7778728730728 -15.0919602152552 10.1366409302231 0 0
205.21891625305 32.7728716192874 -38.3298126396067 0 0
166.807133477105 -27.5308976753761 0.735257342931975 0 0
-213.159112811284 -17.2974840017541 0.385342235377311 0 0
77.1331879027138 11.8103993909732 9.22986936686945 0 0
-83.483261875608 -11.9389997556101 -9.82209770619774 0 0
161.662488990855 -16.2352698594728 26.7876795530994 0 0
214.047403581407 25.6435120636637 13.2368738622117 0 0
-211.715736529096 -10.6512537178515 -1.45464938937117 0 0
-28.0163978978595 0.565063039881933 -1.19894167901608 0 0
81.9359613977067 -7.42544559596923 -1.10285756782189 0 0
-205.350170455367 -37.2304438942084 -4.05839805784181 0 0
169.246955140529 11.3654938605696 23.6880558258503 0 0
211.501300709835 35.6889612795855 -34.8511064775019 0 0
190.071660373903 -31.4361012839104 17.2511603541051 0 0
-207.501223371965 -29.8826311479364 -25.9660493417041 0 0
-13.8933272955164 -6.35222524962632 25.2065637987163 0 0
-212.483815620175 3.75629275794036 -10.5024293796423 0 0
170.214724619525 -20.1969546251431 24.3304682713233 0 0
-192.678652154286 18.6152542020669 -6.22926051398266 0 0
201.147266722782 -43.4152696696513 -6.47971903130346 0 0
-205.13690985024 -25.2987392346076 -29.6996511546475 0 0
-98.3816788410668 -19.1261762762094 10.1518350876089 0 0
-165.115174939561 15.5374149659337 -14.2263340396637 0 0
-127.497527698585 5.49506543277453 2.03391354472728 0 0
-191.679100745963 -2.94483249162156 -18.07381640413 0 0
-181.974133191771 -42.2324115935303 -4.62878406434117 0 0
7.28823113328142 -8.96281036031547 1.30349397910039 0 0
190.565801848886 -35.2984232811375 9.54759092221682 0 0
-138.595623782223 5.55939026545875 4.936841953266 0 0
-220.703051215684 14.0511314796843 -15.1680347780065 0 0
82.155898866227 -13.5727523333998 2.87128532174757 0 0
-171.238450689018 -4.36156599848063 9.61075342096044 0 0
153.74052922532 10.5527607445432 23.9855492776084 0 0
196.414768044667 -41.8527417846462 -19.5350399647921 0 0
31.2943897552341 2.74789940816047 0.796963615295084 0 0
171.732441136148 -4.68779223628514 28.6426992263613 0 0
218.940292642102 29.3131956047192 -34.9302632866791 0 0
49.7914244832122 -2.01412915000951 -1.72596394049077 0 0
-161.345909744158 -0.555124744270132 -26.2603909966716 0 0
130.131311373864 -14.1553120184325 25.3269298903302 0 0
183.981066282202 -15.0405626560212 -23.3649232108761 0 0
-25.9814079491912 7.01862229834773 19.6911654109236 0 0
-151.759154012459 6.31184476717846 3.33719396166805 0 0
-226.722870712191 14.4031380358372 -15.0964891603746 0 0
-202.518794502549 -15.5109246685673 -30.0573265372697 0 0
190.729968182211 10.6785080403476 -22.1336162030482 0 0
-177.82782095019 -11.3852646578952 -31.2302641970613 0 0
-202.963447219467 0.297407972344102 17.3849754794348 0 0
-32.8383566314692 3.6116781873192 22.4252888988416 0 0
-208.752577446114 29.3839719063319 -12.2181070042056 0 0
59.0375008506652 10.286396777039 8.14974131444841 0 0
-190.059089321749 -3.14084966750826 11.9060282784194 0 0
-117.588818860939 -21.4860622601767 -10.60929513087 0 0
-153.616423812866 -3.48114232710774 9.71052597968984 0 0
117.038786031025 5.39549132339533 27.3880870574482 0 0
-210.231749788993 39.5300580432517 -11.6018190232558 0 0
152.23102671815 -20.4400050400459 18.004233058346 0 0
-204.220332367669 -20.9632943244633 16.2618380524464 0 0
-182.698020877836 -11.8844853649772 10.3359273428977 0 0
-205.664323212996 2.05009973384931 -13.0035182516473 0 0
193.42073564327 -20.4891732095632 34.178629942972 0 0
205.075842032267 18.4175098652353 23.2032143645205 0 0
-225.762930128196 2.04543744085763 10.0483984953467 0 0
-174.053203723824 -35.4847005771877 -4.52622650058053 0 0
-224.601298506256 16.3441509470832 -16.5374594138758 0 0
-222.449805711571 24.0654651457683 -18.3900049793045 0 0
54.9658792992355 -1.01129456020463 27.9738075760494 0 0
-21.2473607267173 1.73023469019309 24.329620538164 0 0
-184.173521897143 -29.0527849482365 8.67303381406042 0 0
182.017349190402 13.1066715381992 -17.5717777493456 0 0
217.137870521368 13.7087386937206 -31.4159150535565 0 0
-184.430616845892 -5.28161529150258 -27.0065195988766 0 0
186.465165852844 -18.9383278041859 -28.8237301693927 0 0
-200.574322746797 39.1606220086069 11.9951261274948 0 0
213.41730294491 -41.1372711130278 -6.60319124547933 0 0
180.598657312711 -40.8536633261962 -4.40405931862145 0 0
-196.494914979677 20.1466258733822 -6.2376532554346 0 0
196.827785915768 39.0453237238869 -0.191751974476264 0 0
-183.36534561439 -31.1975283519175 8.60414140859566 0 0
6.35008106725741 -15.961792223698 9.3856360191343 0 0
167.688156956145 24.3133187039886 -9.57009739188084 0 0
-65.1255781870193 -2.51083327664381 -5.31409355841591 0 0
-163.912983214678 8.33037718244585 -0.770736864426981 0 0
207.341084685455 37.398920538978 -27.3968993895816 0 0
-204.472794353985 -0.324110134380356 17.9538412374849 0 0
208.04019095947 -35.0340352330448 7.75071470999133 0 0
-156.977801436229 -3.959576217092 -25.2988624879349 0 0
-197.852777183086 -0.413594766644162 -15.0911530731657 0 0
-172.820467487484 0.177283685155444 11.6522974207927 0 0
-171.665010637931 -17.3035015991705 7.8368647606452 0 0
-4.55026537533443 9.3424214179508 15.3421675671665 0 0
-212.966691877501 3.85513226930985 20.8888857689491 0 0
114.613089965345 7.61093265065259 1.87271591970185 0 0
-235.587071508285 14.166090544792 23.5501175525266 0 0
127.812821478324 5.50183114839877 27.2071376451303 0 0
149.665646795934 -10.7005140932681 28.9875796630409 0 0
-221.253447085636 50.8368169374881 6.73435874000831 0 0
-221.566129923146 16.7203424410803 29.9681116168569 0 0
-141.423943771266 -0.783490935229618 10.0718152270288 0 0
-201.021618586738 -39.426817077857 -0.821563239162322 0 0
91.0014502043263 -3.73917412718835 -1.85214405092116 0 0
-211.312299062349 16.8101971525024 -14.7533336095527 0 0
3.03272505483439 -4.09677086805942 26.288521715105 0 0
-208.6763595678 45.9866021322357 -1.82821284223964 0 0
-153.943910286964 -4.70287672238325 -24.1241674414114 0 0
-108.849799289764 -10.3702499143709 -12.9851412035524 0 0
144.865439066929 -4.77265100904658 29.6378460353422 0 0
166.925401674233 -16.5094570246647 27.5877734300426 0 0
-27.0529148221308 -13.9084900252883 19.9709975963333 0 0
163.84882470105 -0.26197661517813 -5.09663204241544 0 0
3.125629609713 9.51048292073987 15.1060654344445 0 0
183.431546047354 17.7714901345142 -29.3609400610528 0 0
-58.2389264286444 6.24102923361778 16.0504513083739 0 0
-140.485552546973 -26.2580710878184 1.79235362312394 0 0
157.45911425694 13.9678722056337 21.3983886822853 0 0
-155.243953061166 -15.2830358527862 -22.6422481995387 0 0
-139.273763790923 -23.8258726737948 4.83377673005221 0 0
-172.791428297297 6.68563143813786 -21.0240871937325 0 0
-164.652981766417 -27.2089776589764 -18.0801506501285 0 0
-107.255695213629 0.248271218546562 -7.18204143671759 0 0
-147.824862410766 -6.77883602511173 -21.3601484819416 0 0
-222.531237039352 0.980423022855416 14.5738857120133 0 0
-223.13795184242 48.6263789998541 4.75024618735837 0 0
168.338473918157 18.0212018504559 -13.5218007614337 0 0
151.012283959074 11.8717506794161 -3.4731656212437 0 0
214.225838804688 -0.676041143365364 8.27754407644288 0 0
105.834773799144 14.621256355939 9.73441997444688 0 0
-120.865860657505 -19.9428339662389 -12.3481640230609 0 0
166.420493998074 -27.8414125022533 -5.74379901721948 0 0
-174.318444811597 11.9731606807183 -15.6333920785355 0 0
201.251213397633 41.1310965032576 -21.4244289180928 0 0
-207.204390363082 3.41667909123646 -12.6949851542682 0 0
-196.533934539569 -8.21683266154871 15.2902379059249 0 0
-186.959592231646 16.8353965832301 4.40881147130737 0 0
-157.287243845632 -21.1179863353865 -20.5906466112169 0 0
99.5379702175443 -16.1317308383266 4.19962569167097 0 0
-118.06390789557 3.9957271568983 -3.11554376901922 0 0
186.313684352471 -43.3239167957986 -7.74528986482264 0 0
-245.658595663539 23.9852435752339 11.117525358579 0 0
225.962843417829 24.2075616453202 -18.944126154543 0 0
-94.3285607936405 -21.8442257532468 -6.30486700762887 0 0
198.676788794971 28.6684000469546 -41.6688219628697 0 0
-39.2098475869057 3.9803874121814 2.14330573119611 0 0
191.700445938004 -12.7011477156758 32.7260578986651 0 0
209.911099118152 -30.8174137725605 15.7795392171809 0 0
10.4033362033426 -7.52369624462456 25.607175258172 0 0
214.62045424005 -10.6071674988831 -4.34585972158489 0 0
-206.511783572486 -36.5834606590742 -12.4088078917754 0 0
-171.342115667064 -21.4040847450119 -26.0825283625482 0 0
225.23164773072 31.921771813117 -18.0156898818176 0 0
213.183413627928 16.7405257884167 20.1110785099449 0 0
-204.043295224239 -37.6062444871675 -1.59257694258898 0 0
-190.136379579657 4.1328117538001 12.9154440997987 0 0
-229.6533962175 45.1611625432857 15.8048521348435 0 0
-236.249676773081 8.80997270081685 -4.1733741551573 0 0
-73.2820117513113 4.53407292979505 1.99111296002305 0 0
-200.38080479163 -13.7126002296375 -11.4584971130582 0 0
-164.091886517507 3.92807997383542 10.2558363216307 0 0
147.985615321708 -21.9850523547674 4.92378636457739 0 0
64.7953329861355 -14.5092325811547 19.6175407166766 0 0
-208.503396906826 37.6809482232667 -11.1673737392564 0 0
154.169414257553 -23.5133524496862 1.44308673433124 0 0
-126.572613044036 -11.848563581321 -15.7002668018475 0 0
93.3798473020266 -6.44320836567971 -2.14987209377641 0 0
197.5997287282 -30.7375192402473 -34.399169265113 0 0
92.7546076225138 5.7004396780633 2.05742722711228 0 0
-201.176415656205 0.973032385389073 -14.2651489140334 0 0
213.94630095655 0.849898884960742 10.5506226538014 0 0
-192.676236180808 -29.7025542984141 -26.1281742505448 0 0
215.131462904046 -8.23204858779607 6.63352913573833 0 0
-214.718600275032 -1.46300404343412 -2.16211616625278 0 0
0.247674734684021 -17.0026337188345 11.2743370057305 0 0
59.276227365111 12.088276864028 14.9744614878357 0 0
-110.617797109974 -16.2036208657723 -12.6112178008069 0 0
-222.681681537921 50.7553118155062 11.6571678868835 0 0
-113.390245670109 3.91824200535325 10.2249179692725 0 0
-23.3512230940409 -6.01751134899428 24.8388001315921 0 0
175.079949215219 27.8431202313522 7.95704255678071 0 0
-244.815984753396 17.7270188027486 4.59777006499399 0 0
-200.602120781549 -24.6142158768294 12.7142926038299 0 0
-32.5176689247469 -16.8459775797808 16.6158721601051 0 0
138.530359153398 -8.36178986945779 29.229581519303 0 0
-52.391932843204 1.11921710041283 22.1605227606855 0 0
156.251328189066 -23.4556540960812 -3.66621827214081 0 0
-161.520736591978 -17.0409463961286 7.62246512357633 0 0
43.0052218287486 -2.56874175278652 -2.14996249935923 0 0
208.95588299562 -14.954825222685 27.2837603559544 0 0
-84.798588777204 -3.41627222901436 19.3623413509208 0 0
187.700480956682 9.2566526493693 24.6953865090229 0 0
-233.945549123984 14.1562508056772 -11.6258143046558 0 0
-176.973289386544 -0.198734697653973 -22.0502748725902 0 0
-164.266139512349 14.0690157809882 -23.9951590324673 0 0
-227.248444742211 32.9075688874687 -16.4116886274844 0 0
-179.405292258583 -32.5661887486476 7.91661997041954 0 0
-171.030205382633 -35.0112891344415 -7.56890538996601 0 0
-209.794120437391 3.1690250251451 -11.5548386422211 0 0
182.400634702105 -42.218962935631 -3.91205268002484 0 0
167.978694642761 -17.5788942080733 -9.30073377682861 0 0
-235.892941749862 5.44347540008689 8.44722196458165 0 0
165.4080405541 -10.2367676276947 -6.58291281647661 0 0
-148.512866536201 5.83024717919088 5.00513285299998 0 0
-195.611920427524 -32.2061574760451 -23.6825449571675 0 0
-56.4671002845621 7.01501490382846 14.4694723915169 0 0
-111.410702320058 -2.99754872945345 14.8016014937656 0 0
197.665393287299 9.92179866770178 -36.1609505456592 0 0
-173.989124821482 -1.17254199248894 11.4915390217124 0 0
-215.791191760657 -4.20668868325764 7.41561798204207 0 0
-87.3060184038404 0.876558096152247 -3.96464148359367 0 0
198.88890408795 -31.3824506912071 19.5464881734783 0 0
-210.703126090514 -17.4680783363142 10.235604030498 0 0
-227.05764587888 45.1893769124234 2.2147122326984 0 0
219.279717539775 22.3164414939714 12.0203977459937 0 0
-70.1570153853524 3.01363364101982 -0.329473165548391 0 0
-74.5894141482963 -4.60055697096516 -7.25245587735781 0 0
-11.4931164826613 -17.7806695000506 13.0909418036272 0 3
-81.1072715927322 4.36572141729237 14.9174951586708 0 0
-201.786917351452 18.8987199823816 -10.0999803102853 0 0
-237.721476826643 6.76751944553795 7.50896534440562 0 0
183.885655588718 -40.3564610278269 -0.545763945416429 0 0
-198.49971977873 -13.9850544586902 -15.4913714426819 0 0
-212.213381602536 49.417501629613 3.53445452367971 0 0
-21.5112174479521 -3.18992724661563 25.2190177026565 0 0
-180.324785865373 -34.9744578016006 7.61098042519649 0 0
188.573663993745 38.070091498096 -27.0626677457705 0 0
204.373564020332 3.56344843245514 -8.93263433844604 0 0
210.993178692166 36.5813582443293 -31.2366086154389 0 0
-181.838261250466 -14.1857912515766 -32.0667726917839 0 0
-138.921254978601 -26.8378400477465 -6.7194505442416 0 0
150.508686896708 1.95499756709271 28.1002567898798 0 0
191.687764929933 19.5986772723702 -38.3027075599989 0 0
182.752867411819 14.644336123652 -19.8599901511185 0 0
30.0000449000107 -16.0265825750827 13.3108512892766 0 0
15.8225172379799 -12.5696215049318 22.2367324616797 0 0
-165.760851634072 -20.019571418266 -24.8158919921316 0 0
-242.633862840708 35.1643125403006 -1.5467770405207 0 0
-13.4188576294679 -11.6584629458192 22.4304228460511 0 0
-212.005320179754 -28.9625450793578 -24.9641754657625 0 0
-223.853567333424 7.76114948445377 -5.81549447959543 0 0
6.49857283409227 -13.7672605130742 5.91611861891724 0 0
174.438350554929 -24.9625258951659 -14.057446996546 0 0
-192.500149081653 19.2878431016378 -4.22301242327464 0 0
-233.834251571607 17.557756826719 -13.4589606385115 0 0
198.538919689249 19.3538654449048 23.6777499160915 0 0
-212.625747598011 -17.1428583972125 6.44735325875383 0 0
206.807849054648 -31.0707556092502 17.4815979642464 0 0
72.4861004909184 -15.4758781697661 7.79073291024236 0 0
-19.8683485224368 -11.852129341424 2.25000206252326 0 0
-152.669371823561 16.2390090601461 -19.9655600552789 0 0
-220.226142551315 -28.2900649220378 -5.35300601221604 0 0
-159.706890267689 -20.7044898491791 7.20376071112136 0 0
-197.858571647443 -37.3605556774981 2.09902399721635 0 0
201.479630690367 -34.4988799293431 12.1169083563476 0 0
206.003670778343 5.54354033220215 22.0452379927763 0 0
120.711906410258 -2.63723947295376 29.7747263867949 0 0
16.526578781027 -15.7410210130118 9.81671539060837 0 0
-61.4423205548439 6.94084168699465 11.5661458540867 0 0
158.985142226905 -3.58839068078592 29.2301432696634 0 0
98.8944836972337 4.12758536435951 27.7678915518281 0 0
-53.7442865117398 2.7780558439505 21.0584796349362 0 0
44.6586940003819 -14.3614054688842 7.99573145709347 0 0
195.187779667711 27.5003139407285 15.7744885697959 0 0
-207.597108326667 6.62820823183207 -13.2245981809119 0 0
115.651324211012 1.82067192377507 29.0096427407952 0 0
130.453895438272 -19.8833513121936 10.5552905664144 0 0
66.1028203069532 -8.36330604626414 26.7743973840471 0 0
166.823337075294 1.83592762630474 -5.68687740376517 0 0
-132.702008649005 -8.81593520259031 11.449865059194 0 0
-237.068919262234 11.9634914986356 20.3319509279947 0 0
-179.684414486905 -40.7262270496665 -4.47139985737797 0 0
185.366757718135 -34.1815627951721 9.44061695489509 0 0
100.487826297541 -1.94309442507622 -1.30522681246556 0 0
221.692263861181 21.7810769363794 -30.5013121250563 0 0
214.553522180762 17.7677730538942 17.892460979056 0 0
165.434517629449 -26.6594599054286 2.4431789002637 0 0
170.10377495368 7.34046507914541 25.1442170789805 0 0
97.6344939084745 14.2426167594003 10.9897974179326 0 0
-183.349667500699 -28.3571913687669 -26.5715075993971 0 0
-196.425216171122 25.9531507873122 6.10446645107615 0 0
-177.477420929447 -36.8031166193043 -13.4660500892151 0 0
-219.929546555323 -14.7992403748677 -25.4169439141722 0 0
188.636291180121 -35.484968987313 8.86256174563456 0 0
211.160831039545 -2.60449755777255 15.4313955515072 0 0
222.770892610987 34.7259284625995 -16.5593932242919 0 0
-106.051753757919 3.71614703852643 -1.42406009611876 0 0
145.860814519083 -20.7833971982003 14.6681678294903 0 0
-228.564950410079 21.8745277762887 29.9760900340009 0 0
-179.05872156376 2.73755930309137 -20.2549569452178 0 0
-169.840027758647 -2.53804480142349 9.95401026231878 0 0
-166.249702835485 8.40990590245037 6.36928907361731 0 0
189.976652496298 37.108415836053 -28.9037562980528 0 0
-201.990737759032 3.02137027805319 18.4569176916652 0 0
-102.002069767369 3.93537760623213 -0.577381658731722 0 0
215.831063036992 -38.8644808958155 -2.61442502080139 0 0
183.543019063589 -39.0432929951299 1.03199577320023 0 0
-191.306972348218 -31.2060432542398 -24.5848562965783 0 0
-58.0081609796069 -19.7745653687224 3.81803669836671 0 0
-206.845686304968 25.7638625041579 -10.9350928740941 0 0
211.490564544584 -10.7469680385183 21.4777854767438 0 0
8.23989721184749 -6.54539788125461 -1.47206479130903 0 0
217.695409154244 36.0621154119767 -27.1097794177204 0 0
201.571197863852 -40.8657407607708 -31.5444578512432 0 0
-150.675199003302 13.0689427532032 -16.928218442941 0 0
-139.897073641956 -23.8189011734194 -13.2441284943259 0 0
-193.724844647815 -1.23819294880813 -16.0465555587472 0 0
143.617652398362 4.9295142896921 -2.22878399570072 0 0
-154.659628996947 6.53455435172412 2.56217500231076 0 0
185.705122118614 7.71666720130136 -17.5067975465128 0 0
189.495126251356 -13.5897165120687 -22.3523749999609 0 0
-151.864073318672 -1.99296523839866 9.7964925997653 0 0
145.875699699014 17.5543278357334 1.48771704443466 0 0
121.106483674443 -19.1455310214832 10.3350844143767 0 0
142.966176886583 -21.1507294986988 6.93944887882287 0 0
-86.5805096546983 -10.8026429148814 -10.1049211346769 0 0
-178.378695721008 8.69675570405701 9.60650719262585 0 0
135.418021352794 15.4360076116067 19.5237232868432 0 0
208.144581653956 21.9448688100231 -41.2971423397083 0 0
-97.8783559543793 -24.0206426251918 -0.7340669022558 0 0
-181.859143123987 -8.75407876878723 -31.1602088116651 0 0
-122.60568766438 3.24634984335341 10.3097840681503 0 0
-38.7604973390928 -16.2501329306269 3.4179013181488 0 0
-117.681712783493 -25.5550980441448 -4.06896490569807 0 0
-190.631845657239 -42.9402900734441 -3.8430066705849 0 0
4.83365865081268 9.60916696237511 12.961028151931 0 0
101.966399773956 8.57566702444486 3.49243397211863 0 0
180.589917858589 -16.8246865959361 -22.5475008993884 0 0
203.677753117436 9.49061509930563 -26.4013520022251 0 0
-89.497321311642 -11.0377918008915 17.5221897722556 0 0
-101.001489362882 5.24977275897979 3.80365717947602 0 0
-207.401010100764 -33.1344545409518 4.14772595057409 0 0
219.456674094369 19.8038925031141 12.6443018525082 0 0
