"x" "y" "z" "f" "a"
43.818016454984 7.62591959376787 -21.5908502328918 0 0
-158.105387034335 -14.7625557971097 7.53864338462384 0 0
-154.864819749705 0.296558458616344 -10.8984787967501 0 0
123.64693840057 16.8201138081171 -4.94342810789462 0 0
182.076251832876 -36.4441615708457 14.3620473249095 0 0
-159.960723326355 25.0021002641516 -6.96315479772449 0 0
137.554929285366 -18.2056946348912 -1.8656402284569 0 0
-155.029923580947 27.1307883860127 14.7952494063905 0 0
-179.628268358517 15.813501064712 24.328073457615 0 0
-6.19569017299442 13.5344044707189 -3.39307798329559 0 0
34.6897096293014 6.12434178733441 -21.7146870551458 0 0
-139.587353772589 11.6074357607012 -7.85142988497615 0 0
-185.781154180378 -1.01545268762505 0.434252226384199 0 0
54.1593279472556 2.10309878210868 -22.3453579309063 0 0
-113.41914546489 11.0269813301732 16.2761778662624 0 0
64.0885448402956 1.34006416602781 -22.584726944421 0 0
179.709675157267 7.12203464455391 20.8203908410664 0 0
180.8675300829 33.1225187740603 7.20956977455375 0 0
-169.50503667465 -0.642478751610106 11.2929393377621 0 0
165.655258784362 -26.6533835917412 -2.23485594932629 0 0
91.7094798131186 4.90533697341451 -23.2456751026089 0 0
-101.640125647707 9.12136800429316 13.881396254816 0 0
144.900026970519 9.81541445364667 5.66103768941056 0 0
-58.8769006110676 17.6949334811781 -8.94987016295107 0 0
-171.224930301923 5.57918427629413 15.3913767089444 0 0
-173.339716006057 13.5532643780152 -14.6174054753771 0 0
-161.43409478128 -5.07409678197026 13.1708678147232 0 0
114.175162710382 -1.31530460878813 -22.7936874756554 0 0
82.3537839975298 -8.82628591218652 -3.49566853221231 0 0
164.365139578226 21.6290007809735 -10.5233582453205 0 0
-34.3843682214189 3.14197859233587 6.10905341385245 0 0
177.942744662279 -36.3682179837573 16.2853039280555 0 0
-171.673366439226 -36.3811273361024 -2.63802066637778 0 0
-175.725432890041 14.0188797436497 23.7889582193546 0 0
-122.18603928003 -7.06356981740705 -3.74308647147066 0 0
72.4940961709734 -0.525928792404698 -22.5419287225822 0 0
-155.215611925333 29.1606749852462 14.7773477216094 0 0
4.42034846204522 10.2752124620354 -1.05695130217491 0 0
202.443659892992 -30.6729795924157 27.2127967208766 0 0
159.437275989173 -3.13929489070134 -20.2418541153914 0 0
-52.7794533238387 17.9858723785165 -7.07161939412746 0 0
198.448049287972 -0.319970904194266 -6.90515372095383 0 0
143.940608752487 -15.6026367127062 3.20621799217829 0 0
44.9875552143056 -1.56442586096305 2.65757040382987 0 0
141.456488908826 -14.6616578138923 2.75931356033792 0 0
186.096465377975 8.55029462298098 20.5900786285279 0 0
-101.094747292936 5.12999720148903 -12.1029163195663 0 0
181.270782771716 24.949394731706 -11.4751913016215 0 0
100.167783933503 -11.9496224607598 -4.32727547209447 0 0
-63.6953535008332 18.4291212794567 -2.20110143353167 0 0
156.580119801861 -2.71067890571916 -20.5708479354492 0 0
167.886328726355 0.0282155348658039 9.80468283685982 0 0
-119.149958562495 16.4241198295983 -6.75490401755102 0 0
121.01422678346 -16.5482145164023 -10.5207167772969 0 0
-199.84150899754 -33.7728995972959 10.550239488296 0 0
194.57769488026 -8.56693729624613 14.5763657479145 0 0
-158.273707320753 1.84505665242996 -11.2706380658285 0 0
-59.0752532243797 14.1941570818232 5.63135112542903 0 0
-161.538464899252 27.0118572184094 17.8679788624668 0 0
134.784837022797 12.0591103936144 -20.6014063240005 0 0
187.985194871893 32.6903690138684 8.50099196749226 0 0
112.491758308227 10.5178734585753 2.38953701268324 0 0
-171.087609873838 4.81870258989321 11.6567447669921 0 0
-189.040566755909 23.8115733554064 -4.0028300880202 0 0
91.3410482533303 12.9960229325454 -18.4414336896211 0 0
135.187941805376 7.7157039856029 -22.6250021091767 0 0
-30.8605804955969 4.84085806760131 6.09847332572153 0 0
67.7496950841752 7.80894397559621 0.524842710989395 0 0
147.088572028438 19.1482745251 -6.03869438247471 0 0
-164.159383051978 27.5482563359216 17.2155592461058 0 0
48.5903836839238 -6.69110725246875 -18.7842283748906 0 0
10.6132303085153 11.5106906360942 -19.4601265573062 0 0
6.60979540696529 14.7287347175587 -16.3422568110473 0 0
108.538954790093 -0.413508882729952 2.22831613395149 0 0
193.44141424683 29.1052556815163 28.4178020480662 0 0
-199.745950418082 -12.6585321295873 5.45905305769544 0 0
-191.81953497936 -41.4187293015342 8.43196304867868 0 0
197.535027566315 -9.99984620584935 18.151491184335 0 0
-99.7250713480705 15.5672921755612 -8.49368904917893 0 0
109.915723897451 -13.6573882904991 -14.899417886048 0 0
-178.45559868273 21.8429395870076 22.0390842122864 0 0
111.634068139524 15.707593601618 -14.2565981560052 0 0
177.202551550348 6.53648989883989 -22.1696779605029 0 0
187.927512224764 6.34229574638529 16.3577192958091 0 0
-187.061873199097 6.56335793931544 19.9718483120682 0 0
-124.342998565254 10.9469425863859 -8.78913656733543 0 0
-133.55285292178 12.1872152400548 -7.79537973022321 0 0
-172.533166127668 5.41636918801226 16.9669617363398 0 0
-160.886151844784 0.209068631596028 19.3471445023654 0 0
-23.7079130818069 4.44978666308088 5.61265961685399 0 0
-25.9804851389837 4.2584547767702 5.75466999504902 0 0
-185.472574291837 16.4834740735164 -6.49607582430086 0 0
-139.566643729018 18.5344610893671 17.2483924369384 0 0
134.346370558707 -7.29624574569305 2.62304308439825 0 0
-164.726343858243 -14.2891783761742 -11.0502418766498 0 0
-55.1888243361606 -6.52942229495538 -4.74185031272646 0 0
-171.084089397266 33.0462169860259 4.04665551693703 0 0
-208.546302782238 -21.2632171005525 -8.69848580025136 0 0
160.411160457151 -18.4703963286142 -12.8529279077658 0 0
40.8565632347473 5.86584254055787 -21.9073800749087 0 0
176.209959353347 6.6519893255429 17.805157538247 0 0
-102.417118586291 14.9903737534225 -8.86378039998539 0 0
172.796670818703 23.827745315076 -11.5018508425616 0 0
76.0789011960721 12.8479375064852 -18.0763026537856 0 0
88.5596469624474 -13.3516284422128 -8.71449986750677 0 0
-141.176314218229 7.09808947456758 21.7797363361153 0 0
-96.4033390515232 19.3145161025636 -2.26472810779103 0 0
131.062825971652 1.80465661314881 3.39797649687115 0 0
-190.797495704777 -9.23126073901979 2.84781770445692 0 0
-206.600634817348 -16.024619223129 -2.74874458058793 0 0
-46.956265321637 -0.372550122545222 5.84085914828785 0 0
203.679654680726 -6.97323517379209 1.07006624853573 0 0
-177.762261074968 -20.2168063062918 9.69800186026106 0 0
202.020426951009 -31.7102945272748 15.5060222979937 0 0
139.289788020423 16.4778229337712 -15.63469614504 0 0
-127.066421383512 -6.87440915329673 -5.95683701615601 0 0
204.656478361071 -12.5487217424522 24.1066048650986 0 0
-99.0042568342432 18.6375504599461 -3.96809654165825 0 0
-171.749474273355 -33.98739549831 -11.8377364176061 0 0
160.663714331018 5.35515662705136 7.84146345168496 0 0
28.3814276479741 15.380746425169 -12.6480947751555 0 0
-184.609493431709 20.5850648435603 -9.98861407319974 0 0
-160.228594381499 11.0060305454098 -9.69035760684397 0 0
94.9048729938383 4.31967152277373 -23.3774924904839 0 0
-206.031978376723 -34.7798866489909 -12.4664364023171 0 0
199.283846196979 -7.10130255915489 -10.9586082316578 0 0
37.9165806283545 -9.141763021499 -8.31659241611932 0 0
-155.287586930918 -11.518098543341 9.87723557005451 0 0
-65.808109157973 7.17271007467708 -16.6385058179837 0 0
146.836446041768 -9.41246616750215 4.50368916189856 0 0
-154.110378401423 30.4763076775181 1.03857125858683 0 0
183.264536919963 17.3269863976135 -25.6767309131952 0 0
203.442414290495 -18.7643671372797 -7.63995316964041 0 0
56.6028848868467 12.2206911338859 -3.26923131707056 0 0
203.567307687184 -8.84289474114967 14.32159405639 0 0
-44.5842647142292 -5.40867967601519 -11.7358532684974 0 0
-186.121039840356 16.416189445837 1.31415122495157 0 0
-190.311708458841 -9.12956964083279 -16.4608037421378 0 0
-199.249467980153 -27.8115860395255 12.7144057787177 0 0
-54.790638086514 6.67009649162594 8.33547455322099 0 0
-162.327786444571 -19.8894970791417 3.43350660299311 0 0
-8.79153324092554 -7.24279727160834 -6.47327758802058 0 0
120.520198517243 -1.14922201123062 2.54440692151564 0 0
-176.406074623307 -34.0684404292263 9.0641940261903 0 0
112.176494192142 -3.94484249127833 -21.9526020364349 0 0
174.691305616891 -31.2898204193582 18.1894604518371 0 0
178.336495747595 7.72446288778673 -22.5937395868148 0 0
-10.5528957680788 -0.28723818367179 4.42254099150306 0 0
190.869045709385 -23.8488855415559 35.7581409104337 0 0
189.529076434651 -1.84056401504959 -16.3213255446729 0 0
207.488331157439 -11.9737261081207 13.0544878606542 0 0
206.707498918417 -12.0112239098184 17.604679324887 0 0
-172.566989268809 -26.4943355474833 -10.1812540086758 0 0
186.048978955604 23.7651987205595 29.525925915148 0 0
206.187245734904 -13.5456524110286 22.2297436683768 0 0
-205.831724954304 -17.4375205908947 -12.5367033019569 0 0
117.786679173966 16.5725455380132 -5.63067251054253 0 0
-109.116232441646 10.5050882765838 -10.448449765173 0 0
201.526838235357 30.9156863786522 17.5218591601131 0 0
-94.5681901285291 19.7028477216031 3.23844909256827 0 0
-191.992629469404 -15.519377789417 11.8691024453682 0 0
-187.662881507387 18.4335453843467 -0.902265105427986 0 0
158.204526621435 19.8281770764065 -11.744681241861 0 0
-194.357732068784 -24.7174361035648 -24.4356728870796 0 0
-160.795761023207 7.10121482129385 -12.2153716377783 0 0
-98.9498795148558 18.7906659100943 7.38620065809859 0 0
-72.9287463540589 17.6574543303179 -7.34193200570297 0 0
-7.4090937845233 4.21565217400153 4.44134150247668 0 0
-26.9892453861607 17.3858442621935 -9.91668040395135 0 0
-7.63432809002884 12.3207077553854 -1.80962845291266 0 0
168.642004510228 6.37206722950336 11.2582728727939 0 0
-86.6580770255101 8.02257037365105 11.7910920654903 0 0
-96.886183079358 19.7165581125038 4.05836083864221 0 0
-200.114120894978 -9.36819598690251 -8.9650573724103 0 0
-176.104196196808 31.7249389363741 3.27482965996549 0 0
73.1192031686948 13.4415975272344 -3.8105153322553 0 0
198.032147148184 -6.65800816653148 -12.7061193865989 0 0
-146.899516489473 -11.4255041292188 11.1710681181074 0 0
-72.3570147548415 -5.82057948105554 0.491321939320655 0 0
131.621189701376 -5.54146230785526 -21.056696604199 0 0
14.5857790306576 -7.26098637355287 -15.4800663802621 0 0
102.885456282508 -12.8229896997357 -4.7585839135819 0 0
172.622641327503 -5.23176766728168 12.1402852035955 0 0
28.6607953610976 6.97256105433642 0.184204373540899 0 0
196.547418010972 -32.9585395415596 24.0331695722631 0 0
-174.452242081593 -27.0259411556629 5.61941432951709 0 0
184.418785600906 14.3811685322203 28.5769820870605 0 0
-160.705647899979 30.5813207452254 -5.10874725417425 0 0
187.926858200079 4.75357181105826 -20.5508532705878 0 0
-107.663526161386 -7.40242036321783 5.29696178264576 0 0
158.188812946447 -2.13622746672256 6.44799192011915 0 0
-107.589557044783 18.1663432508501 10.0829227715445 0 0
-126.632906153056 -15.8380649577837 7.29050169106104 0 0
-98.792070387233 -3.32356316914799 8.53292272093878 0 0
-79.1799959412722 -5.10329301112912 -7.70261269095253 0 0
188.98752431301 24.1057716558382 -11.4702923445895 0 0
163.636898543601 -18.9151069649935 12.0932741880854 0 0
-173.277070800746 -15.6034486985919 -13.2103645936208 0 0
-18.2515998268867 10.5108372977588 0.693978033307917 0 0
188.825197763906 7.87168273988536 17.4592194010917 0 0
1.16592727579899 11.7584728491586 -19.2800686178697 0 0
-9.84400100616297 14.742596378749 -4.76327540515553 0 0
-170.98329445869 -33.5383450405398 -9.24322962691661 0 0
-142.750936371981 -11.3400509478205 -2.81662339756192 0 0
185.161387012227 -10.6224755133383 30.938315540363 0 0
198.609192519473 4.08959591383362 -6.59766347090172 0 0
-176.313610782543 -31.4006507786234 -19.1801502331475 0 0
110.151612303008 11.5597878559784 1.40922843442598 0 0
132.049481916482 -15.2285117390021 -0.296338089627892 0 0
60.1282201882477 8.2775002588423 -21.7818733185044 0 0
166.251949985879 17.2101307859098 -19.7350905414565 0 0
188.881027397731 17.2837188381508 29.7201931812674 0 0
-37.1491329526387 11.3739054043226 -17.7959073047007 0 0
28.3286046204108 -1.77807928215205 3.15348452520686 0 0
-189.477691013178 16.2581726619586 7.55263036040412 0 0
-170.854974655039 -19.0988416925492 -11.5811251301214 0 0
194.338345019644 -14.2625806463765 -19.8801455615164 0 0
-189.330953203701 21.8293816449108 -1.55052269316321 0 0
187.766962329116 -11.755891815137 -21.2543861405834 0 0
130.647460578625 -14.8323858968501 -0.446818121011642 0 0
-168.733829752336 -15.3852417846159 -11.7598798195367 0 0
142.899164517832 -16.8370920269427 -12.4084815376901 0 0
-138.40489097377 13.5406274900959 -7.43939809537953 0 0
-166.40150655101 25.9564116679804 19.6045652066226 0 0
-170.248728957649 -16.2068586965402 8.09058015649146 0 0
19.2148162432086 -3.77588473414166 0.239075478608539 0 0
-134.972416801144 20.2258464977751 -4.47740036118308 0 0
-62.2426348058487 7.69487689240879 -16.9209150202137 0 0
38.6897777636722 3.42403239621592 4.05187418718892 0 0
11.3247261697696 9.56754159347763 -20.4853099330114 0 0
-140.308192514827 12.8374121871566 20.1434586544072 0 0
-23.685352334044 -6.72338366727255 -12.1847232559568 0 0
187.883959329753 3.67270779147829 13.7874640620155 0 0
-179.182205591713 14.5722891766359 -13.2761481420805 0 0
9.11661941044669 3.08966772154819 4.44890444443619 0 0
-170.600691216832 31.4347145448412 -1.83878842395167 0 0
134.009172627818 -14.2399712762564 1.20269346820577 0 0
-145.743467999501 15.8339764669561 -7.09845818084158 0 0
-119.017607849445 -6.64918759142593 -4.07368414417704 0 0
-179.801863462902 -4.66194297561119 7.96417524712338 0 0
194.972715215214 -20.2013422747059 34.8886083478627 0 0
-197.831328588046 -36.9070500990479 -19.6596940809909 0 0
203.462448647256 -23.5404960087302 28.8675628682813 0 0
-175.11632704032 27.7154511293993 18.3728957913901 0 0
175.91045788791 -23.343901404245 26.8131483193749 0 0
119.368019961803 16.8605157295632 -8.56049197108567 0 0
194.06296931868 -31.9733000271197 4.20225138392434 0 0
-136.71681974917 -11.4614853338795 19.9096450402172 0 0
-199.804135210591 -39.8563805979996 6.10339777105603 0 0
-141.055757182426 -6.55627479668291 19.8622820573749 0 0
-187.923533815829 18.7603514540165 2.15696309671887 0 0
147.596948226787 2.45308813282806 5.07880199613889 0 0
-130.119136741616 -18.8566034800526 11.5782622302742 0 0
-87.3408179338493 1.02970404271726 -12.6777744464693 0 0
-84.859758603348 17.84493648987 6.76604282471353 0 0
169.498652502188 14.1474995784362 -22.7687649978426 0 0
113.821142562769 14.9508823478319 -16.291339783312 0 0
-173.198510020669 -18.2589888103132 7.9727931414484 0 0
-191.065089531747 16.1802262288412 18.5662865988537 0 0
177.449474681535 -26.657444242698 26.4665133554574 0 0
-101.781429056333 13.0207785276161 14.6963931541139 0 0
-182.734454576724 -7.66315854834566 8.04668106111918 0 0
201.05359943713 -26.1300671151055 -3.05113887654504 0 0
-159.394326924843 -0.958358334648861 18.2475973243446 0 0
182.688474757429 31.2235857022156 2.96842860479417 0 0
46.4401497306138 10.6085820597733 -2.16635758394956 0 0
180.672733936656 9.79880703425813 24.494932999331 0 0
-32.8687641687617 15.7058190158747 -3.1924767507723 0 0
-120.532570326286 -5.29177080018562 -6.14162178467886 0 0
172.86789776157 30.3110634548742 8.67315058414263 0 0
171.967467907941 14.9730093648799 22.4231734223551 0 0
-191.714253364301 16.1449778704264 10.5359238652776 0 0
202.662356332626 24.2206953019864 16.9574533044267 0 0
177.744990498092 -27.0696624305061 22.5521916414849 0 0
-133.936543474955 -3.21136739025265 -8.36988371241498 0 0
-144.294166031959 -7.21248392029412 18.63735903323 0 0
156.666996926842 4.65195493903166 6.77450831035251 0 0
100.536928143071 5.35933553687796 -23.2515903864709 0 0
-105.785356985626 -2.53091849079829 -8.2902319917126 0 0
-154.857918877718 11.3791284422084 -8.25937502086532 0 0
206.772839715278 -28.3921722771433 4.38937551875989 0 0
202.628378504266 -10.3872487406935 22.0864993902002 0 0
73.7834569193735 -2.93928729714846 -21.7842425057422 0 0
-154.699158219923 33.6018183517548 5.22628571090791 0 0
13.8762048804402 14.8809445868105 -15.4550181350775 0 0
147.193992185586 14.8259566510072 -18.8652155765025 0 0
205.268107008038 -30.8804566472927 13.7067678177017 0 0
-69.5882637106083 6.0068164792398 9.4238253608468 0 0
185.309059776507 -26.1353356371935 34.8513005141142 0 0
138.130508391178 6.23403910224756 4.56473945203299 0 0
89.6676405980592 -12.6587211638338 -14.5478400215883 0 0
-148.992230503206 2.48776661843661 -8.84969871342551 0 0
196.624142267025 -5.04911349144376 -13.056071113432 0 0
143.618660544858 11.4309181306929 -21.4336974833809 0 0
-25.0846591849166 8.41615769800538 2.91718340763499 0 0
-100.54936754647 -1.95946055034675 -9.2588337670898 0 0
-22.0829287316154 -5.50492119405002 -2.31911627983107 0 0
192.731098374443 -33.3638034898695 24.0196146134378 0 0
-46.7582914942195 15.457109469018 0.857287192139118 0 0
100.382126782385 14.3854973407308 -2.56533886097661 0 0
-195.854649617111 -8.17201481853616 -10.8281254906595 0 0
44.2056072865916 12.9069229333184 -17.6056697468396 0 0
-183.955333729142 -25.7219538274451 14.3634310907473 0 0
64.1621135239636 6.76582507864099 1.12157545637965 0 0
-9.87380365546108 -3.56192066617614 -17.7878284807392 0 0
7.71020386791251 5.84345131118498 1.4318565133863 0 0
-188.097072698685 -12.7133544525833 -20.1465017455156 0 0
176.364739293009 -33.245921947794 2.64993768736095 0 0
-120.187892989255 11.4014184937367 -9.08540097724292 0 0
44.2383053059809 9.4813386721708 -1.41349513956036 0 0
-126.106310465681 -12.9919609287018 19.4917211609705 0 0
-184.298892116316 -8.63699930325476 -15.0781171415537 0 0
-76.1104504308477 -2.89196689033071 5.88630295710892 0 0
77.6625763204606 2.05097388952405 -23.0924203786499 0 0
106.102067929217 -14.8377041705014 -6.73079093497321 0 0
-172.459601454476 -35.3461367600266 1.50168916762773 0 0
-162.664241658685 22.2870394267145 21.7131361234037 0 0
-207.924652057398 -19.3123273014981 -0.961426504736871 0 0
-131.517232984047 23.1589342176148 3.41828888157929 0 0
-157.942900020921 -16.9295864440276 5.25320271627902 0 0
98.2649260433594 16.0415834853331 -9.1029037010504 0 0
-143.925260419386 25.5885792323187 9.56425035431791 0 0
110.578997973458 -7.26491506371225 0.178274328977435 0 0
-147.592217588912 1.84170283222574 -8.89897215710466 0 0
160.46554480829 4.63011518085767 -21.5770098433251 0 0
192.730890822714 0.404147639427837 -13.8239416991638 0 0
-17.5449670810588 16.9760971166592 -10.5081925538129 0 0
-161.108867260902 25.0282381879109 -7.37511508447672 0 0
-162.871534187533 -18.4133052244517 -7.96002145661918 0 0
136.112381875981 -15.3318048595523 1.08117838790115 0 0
8.85984859148168 -6.77364329352449 -4.721105797884 0 0
144.065391211015 -1.55510723699845 4.30301754896299 0 0
171.9813480942 12.0747757083087 -23.0781845014964 0 0
205.833861517268 -27.1085697085706 24.5838155714334 0 0
-59.2163045211071 7.48178065471123 -17.2827041714037 0 0
-190.005778124953 -44.2771730151657 -15.1541403246578 0 0
202.536140309428 -14.3058170635315 -7.41301837095675 0 0
138.580269029043 -17.4014658649512 -0.0207025961034354 0 0
-191.594870847686 12.9246822821575 13.3435283286181 0 0
204.967312774939 -22.4793980667203 27.1130185686644 0 0
-26.4769400000767 -0.824229308233465 4.17118828384772 0 0
-94.0534277208373 3.17033322440072 11.209821572873 0 0
-159.913329025947 8.93521059591869 -10.6636874212835 0 0
37.0164112186661 15.2441177558919 -11.6652739526353 0 0
-130.895162892603 21.521216223807 -2.09595266866567 0 0
187.667361305614 32.466099637314 6.52654175914141 0 0
80.2194046778111 15.3951463254199 -8.61858611404457 0 0
-198.185160482698 -8.54889360884324 -9.26915701173327 0 0
141.450008488068 -17.511770981569 -11.2529261579461 0 0
102.923937977205 -1.42432814574752 1.97722918710351 0 0
184.771628150249 0.25125805834112 -19.3094491403406 0 0
162.681899260698 9.48503366416 10.130488209752 0 0
-163.958741976266 11.5338345897775 24.8025737592874 0 0
-169.934066804795 4.3056377377003 13.861778225229 0 0
-109.104512144514 -7.960625075432 -0.447640843221403 0 0
-33.4571608909499 14.4510146839658 -1.05958022808662 0 0
-175.468099295747 0.197387067929041 8.93495646185232 0 0
-110.895008203429 -0.678554511585626 13.4257283373376 0 0
-107.151112770986 14.0806488512707 -9.08678310112807 0 0
66.0604377597677 -7.72303630466697 -18.7879436677154 0 0
43.9688384854324 -7.40309147361558 -4.2840898789234 0 0
193.507906821119 1.14847553916988 7.11045480930389 0 0
-48.8841087577665 14.4529314335038 2.82257219758249 0 0
-200.482122948544 -9.18075571614616 -6.69159752767079 0 0
-179.122431192186 -43.9816473350445 -4.21242181826246 0 0
180.415519319425 -15.5701461357547 31.4982636391255 0 0
-49.6596703785247 -3.88031284726618 2.21002386541076 0 0
-174.914813882071 -31.5111860414711 8.70637007953632 0 0
-172.021057813428 -24.9786975466331 -9.27857690435922 0 0
179.819995441407 -13.3003726324616 29.8393472674791 0 0
-188.535725411199 -4.34352446947389 -5.71170388445486 0 0
118.89342819303 -13.3068963812475 -15.7556767343209 0 0
-146.899936165197 -1.49588027771401 21.1882985656617 0 0
-193.739979646736 -45.0074362210037 -12.3154299805977 0 0
-90.5869744574748 -5.60097779174745 4.6452512917829 0 0
-134.637456870553 -19.4659826930798 11.3408056372659 0 0
9.97329308063177 7.11093141098854 0.427802486633166 0 0
-153.635848311466 30.8887765372597 4.60123085412733 0 0
35.8518663225934 -5.34978920583438 -19.2135971462823 0 0
-13.3840882486641 14.6787786171673 -4.16824946648824 0 0
-184.420992484547 -45.607028701557 -10.9603201440453 0 0
-192.261436391054 24.833686226866 4.95136844199026 0 0
-196.056533981731 -35.0738349131675 -21.6763988040779 0 0
182.494586800206 5.83408614129414 -22.5580275518251 0 0
-182.300839544391 14.5973438022215 -9.56176396888263 0 0
89.4811924764125 -3.14364555536277 1.10698474301785 0 0
-169.498177957819 -26.7329491325959 -3.67222258550735 0 0
202.638325828567 -10.8996792231575 24.1557953564389 0 0
172.247569435256 -12.090952110319 12.6698650990034 0 0
-187.927215732245 17.1071108148568 4.34956158352671 0 0
-166.495939678292 4.0849778830464 23.4725724771917 0 0
197.104139200187 -32.3854310617061 8.48340815860049 0 0
82.1794076911574 3.31984726338575 3.16524928548953 0 0
180.833580896084 -11.1116502055135 22.704255763565 0 0
175.994724969107 -13.3389879126083 25.5957581946126 0 0
108.521249434258 -15.3044429652423 -6.79218109577841 0 0
-37.2785724992074 2.20010916403881 6.10117128442399 0 0
-71.5515229236428 -3.53202245493221 4.52405787412343 0 0
-117.146978232069 -6.25880728030041 -4.3660875420299 0 0
185.04153281258 32.6280977016701 8.18060893752426 0 0
176.358685315998 0.347224425476654 15.0690067441998 0 0
-155.051802953027 -17.2714398562873 3.68061331886185 0 0
-188.382704617764 -43.0639237722337 -16.9544407296975 0 0
68.2858151704454 0.955916066555276 2.74207363053656 0 0
180.199223153714 25.1897886387057 27.4490888170748 0 0
100.037964112823 -5.93602194575558 -21.0441479010967 0 0
-193.772314594135 -40.5432040455227 8.78858528525058 0 0
-89.3894874188634 -6.73942173738166 0.303333371080807 0 0
194.741277577512 -33.4914306611184 15.9717192005536 0 0
-137.322177316486 9.48477266122799 20.3140182506218 0 0
198.151347111129 32.6092009355083 17.6483107762208 0 0
-208.162571242823 -29.7941315592612 1.89116411649357 0 0
-185.590315461548 -9.66944044418812 8.24625412183225 0 0
-174.429697585374 -24.8595755281404 -13.2961294289458 0 0
-170.351904855068 -28.7198921500028 -4.83550801523012 0 0
-81.9654754465433 -5.43063663308791 3.16257647210226 0 0
180.892080405508 -30.3409060389856 -3.36683514162981 0 0
29.7477303529468 -2.5903820982037 2.54146823028704 0 0
-140.841604747303 -13.4372519511547 13.5049946282675 0 0
-192.472631321816 18.9359884045852 5.94666170323506 0 0
-114.522137489038 -7.81102460511086 9.50125127371518 0 0
-113.249751453202 17.4951394116732 -5.91281852093981 0 0
-167.539797520005 -12.0242289034205 -13.1327194545059 0 0
-63.3759442593348 -2.77947637918526 4.56696198982466 0 0
33.4529171456498 -7.77383697608677 -5.48945170587038 0 0
-197.190271238351 -36.1619346475299 10.6653563090289 0 0
-69.0410337114021 -5.53963255476882 0.780021201103183 0 0
-186.490952510288 9.26560410599106 16.2812381637737 0 0
-172.514449260277 -27.745492952445 -9.29045521627631 0 0
72.8740524066088 4.82748220680291 2.46384287633513 0 0
-166.389943906275 -3.404155836886 11.8015368541564 0 0
-181.475978224387 14.9560879501966 -10.7615765321947 0 0
190.582725801886 -10.9112568270938 25.1150396480263 0 0
-29.979607812361 -6.42379668872234 -4.2169874704196 0 0
171.456005916771 -26.433764468145 -7.24810710396673 0 0
-170.256530648485 -14.6023210484691 -12.0565457687866 0 0
-158.093898321998 34.0848170078098 6.83072786519276 0 0
26.9241442580275 8.61083070861583 -0.847594186150058 0 0
-47.1805173604531 8.42269334402559 6.9887034976005 0 0
201.799233915436 -32.0761364375032 20.2700146199371 0 0
-188.29779359437 -46.69159782295 -9.47671755022746 0 0
149.134121201476 14.8429371129576 -19.0890941483133 0 0
201.321550336107 29.7764320105326 19.7022635297732 0 0
153.427170085403 -18.2251556814683 -11.8927862147069 0 0
-31.2765141402253 -7.0083935536909 -7.60952942139709 0 0
-154.8727954153 -1.65886497844676 18.1933510848747 0 0
124.585642596196 -14.007240679815 -15.1661863737263 0 0
-202.361441868696 -25.6274008452272 10.6225555925455 0 0
167.190435049796 24.1292362767004 11.5621697569896 0 0
75.7695521499798 0.496330970342293 -22.8878386828836 0 0
176.705956028998 -1.46504127913299 15.2282063571049 0 0
-36.5991858455524 -0.370013864805021 5.45252717887045 0 0
21.4585568206482 11.009194363153 -19.7549221182228 0 0
46.9160617243083 -7.5765077394711 -4.35730603791225 0 0
-167.759759439367 19.6192987070469 22.9582486201927 0 0
-132.557462863717 -8.03895536292704 -5.52851521268119 0 0
10.733431998842 2.2821219241703 4.71214603444781 0 0
-131.351609364431 -16.1603910523948 20.6385069553618 0 0
-192.165365521493 9.93434900561852 16.5434183918963 0 0
-152.394245809355 27.2662827074203 -3.19237374224966 0 0
-124.418746384032 20.7597622248353 9.83204602585491 0 0
164.495470096753 -14.6291014232695 12.1177979779206 0 0
98.7756602891643 -4.39318556564482 0.686786035273353 0 0
165.731379323032 7.50653665313111 10.3722968498786 0 0
200.67934689242 9.68118206304442 8.0183288673401 0 0
-185.309596733503 -18.6506587171537 -23.2089198852604 0 0
90.9732419501807 -11.3806046889953 -16.4809654267291 0 0
36.7283033907973 -2.80125933131763 2.30138532069732 0 0
96.7604258301929 8.18406745258812 2.0208459050828 0 0
75.1722133343863 15.1772210296986 -8.0486064627167 0 0
173.806555707538 -5.70806456896912 -19.1059227616455 0 0
-30.3216488664704 -2.02374718436612 2.94741855788117 0 0
94.3055950122068 13.5662633987197 -2.12399263719731 0 0
197.511353961669 -23.7707404928094 -8.82794600128257 0 0
73.8959076203624 12.3535652713412 -2.47576068945528 0 0
-161.514156461064 32.6012508157081 -3.24041345936268 0 0
-158.529758831033 -19.0417638082427 2.42305753064445 0 0
186.775795638665 -33.845202315164 23.3512116872449 0 0
-185.283587971382 25.5450510315815 15.4147180014231 0 0
201.658758905882 31.2515308791328 14.7155163779281 0 0
-177.100422024435 -23.4097951826004 -20.596957049626 0 0
43.5803208139235 14.9160129020116 -8.31977283558351 0 0
-187.363202891155 -28.8139788783548 -24.9011573719465 0 0
129.312301725337 17.2170617135833 -4.38690071596353 0 0
-145.230965371974 -9.67131313377862 14.3151710583615 0 0
-146.829735120466 8.40382207563611 -7.7350145564408 0 0
-38.0887403570477 -6.59010034765084 -9.54146217957067 0 0
-178.909938474065 26.6094101517942 19.2386423847568 0 0
-142.22547700443 2.21755171648842 -8.23070929165155 0 0
39.6103735877854 15.1678223871067 -12.0814990251069 0 0
-55.7655327194093 4.06108477903658 7.73406959264713 0 0
164.339742908041 -24.7328077887127 8.79281522408086 0 0
-190.953040223207 -7.21119163084332 -7.4646488725072 0 0
-141.638023330324 25.0915455827241 8.73929125793157 0 0
154.332542227229 -0.62455569709293 5.67727956712355 0 0
164.75488169648 -8.78855895802379 9.36397614654073 0 0
181.786611187251 -34.0917856723019 23.5809103852473 0 0
175.33611690975 -4.11783087125959 14.80648590429 0 0
87.7246318459002 14.9941159188766 -14.0270872003517 0 0
95.9941586567856 15.9073777510087 -8.03674551285451 0 0
134.102620293007 -1.3092367304952 -22.3205472311341 0 0
-35.8668775086498 6.78678674201898 5.59191157834449 0 0
-118.709178365561 15.7324622958531 14.7870988079827 0 0
-11.9161613583443 15.4702451346042 -15.4082762542213 0 0
187.557196875068 -3.390200405813 11.8482524763333 0 0
-13.4666001633998 8.29102918504771 1.4682775875068 0 0
-33.0031571998703 6.91714406079687 -19.6545594545591 0 0
50.6096723363381 -7.92266349824375 -4.71597114826573 0 0
177.171609656681 -24.3518710448467 23.7199523025901 0 0
85.3545584351206 -9.95929253210922 -4.52478902191196 0 0
-190.315754154811 -29.0700545805139 -24.9609953779934 0 0
177.519158188555 -36.3601563634462 14.4125348543396 0 0
-172.098309857843 -29.5457829009262 -0.922200471611 0 0
205.146899349986 -21.7608183653702 -3.97078866857111 0 0
126.752132497835 -17.5670852745604 -8.12182627502619 0 0
165.959140983578 -4.89993077168313 8.97369670206305 0 0
-155.675584912836 26.5412473197268 16.4240655561819 0 0
98.5650608862608 -0.968718505319479 -22.9211519428529 0 0
141.557976520462 6.80304682578642 -22.917182932024 0 0
-151.538391764249 23.146356399497 17.455356669077 0 0
66.3662484331426 13.4547217564933 -16.7805816265534 0 0
-171.80797841468 -1.23396781999966 10.4867527882394 0 0
-159.93202909974 30.8491380855738 13.6485151600699 0 0
-91.379403000557 -6.84704540868748 -2.28398294276043 0 0
-177.518293947819 31.4535879843367 9.28303532910278 0 0
146.006568445339 15.9647016536342 4.27739507969982 0 0
-69.6328984548368 3.93849713632143 8.93695944422181 0 0
192.453731516635 -34.192588374304 14.5947960328202 0 0
-9.75377753336984 14.9622425349511 -16.0467523407587 0 0
179.225882527798 -36.5339888122554 7.93215900307004 0 0
46.1547153173321 -9.90222121132951 -9.34952624814497 0 0
197.810971764127 -31.3054647120221 6.06728526832463 0 0
-173.600385900275 -37.3458319939209 -11.0322962978214 0 0
160.587218220024 -4.74865106166653 7.67139841690644 0 0
-129.623725617606 -11.3936568723916 21.4488033191565 0 0
-201.006066607835 -12.8654779334027 -14.4987521771292 0 0
-161.556258233443 29.3274388037401 15.2440881392424 0 0
-143.5385201877 21.2563082878626 15.9624003857026 0 0
204.696631789125 -29.6654006510476 7.71255853958317 0 0
124.20878290028 7.28079810773477 4.40391819391921 0 0
121.620909570825 1.6575511746814 2.98743911482903 0 0
-128.280964718848 -12.4402163664537 6.43722001978368 0 0
62.0458500342262 13.3397618314012 -4.33237056250525 0 0
-164.780252157573 2.3243691807421 -12.3539897691368 0 0
-154.938203577068 29.7369707365753 -2.38244606129322 0 0
-183.904346777039 -44.8117623782578 1.82072629394284 0 0
152.421720455795 -1.61337636078602 -21.177782968749 0 0
-179.024754936535 30.7720999615108 3.84937355730345 0 0
-164.991158636905 5.28396913716448 -13.6201487478283 0 0
187.414719447057 -19.2449871020156 35.573337970028 0 0
-95.5526960079895 8.53281311332922 13.1875173492898 0 0
-125.264770820414 9.88128034248828 17.5306576145306 0 0
137.833017734969 -15.7186798747459 1.37781596534194 0 0
73.5660977209022 -9.18446660686269 -4.84268931619101 0 0
57.6755629968335 -9.87531819889104 -15.5561457896202 0 0
-174.998503496429 -30.4496472657104 -18.2930902213258 0 0
152.698291484315 -19.963942590574 4.74907719469879 0 0
-36.4443655132304 -5.56311494186178 -12.9192045926336 0 0
-137.807583468007 9.49784682499044 -8.14827011018419 0 0
202.020808397419 21.651621670412 -0.716175007665897 0 0
18.624894766811 -2.41437090962947 2.94543498907621 0 0
-191.412073604548 16.6186073899381 9.13192309119749 0 0
64.3794728203557 15.0946602724498 -9.01703439151471 0 0
-151.661949259376 25.7860548903828 14.0255889168149 0 0
-123.197183763756 18.6157151385324 -4.93141165463273 0 0
-182.845018291454 11.4188545141712 14.2295249227765 0 0
149.919891679478 13.4836999646137 6.44072560360116 0 0
-166.264931108811 13.6388353061681 24.7497826719948 0 0
189.458437158013 8.94674878444257 -22.2049581269409 0 0
74.1235692383938 -12.1424877642155 -12.1553933184985 0 0
-188.426236742246 -45.2646111428165 0.0925157067974497 0 0
-158.798087147162 26.4479387011093 17.7143130994644 0 0
15.7840546038861 -8.54597969573857 -11.9695401440588 0 0
113.639552414653 -13.2299065246497 -3.28799346780149 0 0
-146.027522162766 10.102112133753 -7.91206031786578 0 0
5.00790945887632 -5.03834078054386 -17.6063591679101 0 0
6.67560278890245 0.33509536282976 4.29600509080948 0 0
-18.5150213948211 0.296979886960137 -20.2197117736825 0 0
168.803131486877 -28.1477988002718 -2.00624006818364 0 0
6.29334351419006 -6.19089685111931 -3.63367447957683 0 0
75.4395579152133 14.111102358258 -4.69243455669884 0 0
-175.436131913626 6.8114659911671 19.5199175336462 0 0
84.6385027335858 10.0601375659225 -21.1107476386167 0 0
-176.382476339569 2.43448855148887 -12.8922503684111 0 0
-181.001236076789 -9.77486799793624 -15.6952588921314 0 0
158.995321280295 21.6257442063257 3.08252060742686 0 0
-206.599752830244 -26.967380879969 5.83438206519974 0 0
-163.869953982818 34.6107335806643 7.86511864873345 0 0
-167.463076831586 -10.6166944245869 10.1593896437925 0 0
-129.894613777434 18.3351320827285 -5.57083888324871 0 0
-72.7486379445914 18.9442121998626 -1.33186431843349 0 0
-187.791313297849 -2.72331145164154 -3.22956576140777 0 0
101.145993062466 10.3382784346532 -21.1813990320683 0 0
-114.658827353535 6.35463347619334 -10.482276938079 0 0
116.509636385824 -3.49035255466047 2.08797854740103 0 0
-174.933509429036 -26.1184346030539 6.51284601649911 0 0
-38.8331619400133 3.01418298827916 -19.4613826784995 0 0
166.895352884677 25.3020814241657 10.3246070539888 0 0
98.431626113012 15.4228347119492 -4.89752858827615 0 0
171.763801977566 28.8251288082612 5.32899265331192 0 0
-202.310073194461 -11.3850531179421 -0.445213718392988 0 0
196.299837761672 29.8980983249012 11.4542038116407 0 0
-111.332370060959 -8.69275538692608 2.71599026124341 0 0
-158.599775800972 28.98850693208 -5.37136842483848 0 0
177.467639623471 -35.1903322991382 5.58987475581598 0 0
195.396964764994 24.5779707063456 27.7979238165039 0 0
87.5901873044426 -10.9047616810812 -5.24285510569812 0 0
156.492246970199 1.04558275608001 -21.4183385240111 0 0
-52.1644767787256 5.76200660325899 7.98151176323244 0 0
199.931838791607 12.9632212714251 19.2045246465316 0 0
-177.663279482121 -12.8755772268369 9.79148066598384 0 0
113.148373059301 0.619995953531946 2.52679165376515 0 0
181.885080657353 -30.2080131781684 31.8876322544292 0 0
-170.021374959083 33.1231973423245 5.01578709772599 0 0
-170.35836923424 32.1899093650898 12.4591891134993 0 0
-16.1372013386876 -3.74308238538083 0.170516484402302 0 0
196.929300234573 25.59584295125 -1.50096935136978 0 0
163.124249344998 0.34546275253407 7.89430547822223 0 0
-176.911080329355 30.3306132299647 12.1884989864113 0 0
161.92875398295 -9.75356691266027 -18.6971147588408 0 0
194.597824249828 -25.6503776461129 -6.61808286996255 0 0
-130.818286131749 13.2705265703746 18.3499596663121 0 0
-139.257627234475 -14.0373940674104 17.2640078541985 0 0
192.070874098272 -32.1748705346152 31.6852164696546 0 0
183.569919452589 -18.5809643456415 -16.938914266458 0 0
73.522466128616 -11.8211258499706 -9.00210943843334 0 0
143.392862007082 -3.22728704368493 4.19635987839574 0 0
-118.236165226105 14.1592693012598 16.3567653249801 0 0
-203.089068290893 -40.6836668596715 -10.6370292165753 0 0
-197.32841211409 -9.61708255444397 -5.5301469476509 0 0
3.39359805544581 -7.53747865693217 -6.92934948992093 0 0
40.4004040691598 -7.70126248629161 -17.1236768184783 0 0
111.266679196365 -0.453761901755719 2.31132663587129 0 0
-120.354754718646 14.0427315489605 17.0002392402239 0 0
200.26774766665 6.73815648418626 3.10973614201517 0 0
-95.1315522302063 -4.98192396412306 -6.53385116221898 0 0
-158.60974017978 1.53141027070353 22.9919138947169 0 0
139.793896973751 -1.74904516516356 -22.0083785251946 0 0
-29.685041751964 14.5994483064477 -15.8991102640858 0 0
-97.3590086062807 16.0962413091819 10.9125278904094 0 0
-8.85145829185058 -1.22510355477014 3.77593631069518 0 0
-208.295869658137 -31.3365401523664 -9.58997705426388 0 0
-130.856208924699 12.173053688698 -7.98673619565115 0 0
171.234902681166 -32.6564713874449 8.82604570485933 0 0
203.564127617322 23.9247597313426 12.8888174681095 0 0
-119.570772016813 15.0068863840516 -7.68794556109225 0 0
2.94916675033096 -8.06652360836778 -10.562062551118 0 0
43.2604494157215 -4.33649907586043 -0.124904364951342 0 0
-159.726384388486 21.8694738613891 21.6551448733593 0 0
-92.9461004067553 10.1596682588169 13.3942057607215 0 0
-134.837900213902 14.2857860057322 18.9200513000582 0 0
-28.3704535189244 14.2191080182327 -1.73767371258143 0 0
189.303789874077 22.9459650611313 -14.8365931472774 0 0
189.412120242963 6.94045558312115 15.6442649862002 0 0
168.051035778119 9.69326612734604 -22.1424067989328 0 0
184.75679767651 -35.0631780189402 20.5796177740368 0 0
-150.777051408612 -13.2676113767987 -4.59508068987481 0 0
153.472744428466 -14.5859293098583 8.05177961216694 0 0
177.604086854259 -2.39942582202116 -19.1145430842104 0 0
184.645388683455 -35.8194716246516 14.5703343503732 0 0
-156.476699089048 20.1684187352213 -6.8168232028481 0 0
198.562257906328 12.4815794340863 21.612871210123 0 0
200.747653903999 -6.3220280950093 11.1489277128635 0 0
132.720569495837 -1.76166382707752 3.23986059423616 0 0
-171.789876894543 8.4208551178101 13.300278324809 0 0
170.248529445766 2.84830605375282 -19.7129856202559 0 0
-104.737333921328 19.1519958272511 -3.11293915466001 0 0
171.638548121147 -30.6203524554017 15.9902839098241 0 0
168.86309612286 8.05418352804216 11.9209131467078 0 0
114.996424492875 3.4008786076336 -23.3017199653945 0 0
-138.090967056092 -1.94564510216231 -8.56708775811875 0 0
-134.432812204689 22.6401603783551 10.3638601919914 0 0
-100.325896905175 10.651226719987 15.3673738072526 0 0
-71.2347560477249 17.041843560553 -8.93733616983811 0 0
-189.051533160487 -5.25950749291279 -0.76472813155545 0 0
-168.737916535626 5.2890031152731 -13.9419782040244 0 0
-115.101665650854 -6.75477267028888 11.4849043739332 0 0
127.38268300804 13.2306032774796 -19.0961729674448 0 0
-143.76146033505 18.5868951797554 18.5446026836166 0 0
-9.19044751588386 -6.17528094743524 -3.72378607669909 0 0
103.695147230946 16.2240243006152 -8.88470281731657 0 0
97.7568477549453 -9.3182053276116 -2.25100762443138 0 0
-184.167734618695 27.090821584802 10.7264531593706 0 0
-47.4078310541914 -5.00345497124863 -12.1063208782815 0 0
-175.063071661563 -25.8077157984694 -15.1945867696416 0 0
-170.926149892341 -12.7567474845065 -14.0680828751075 0 0
166.23337207834 -18.2095213857729 -14.5361826230069 0 0
137.434822705762 15.9723547339084 1.74267610737761 0 0
165.013231104959 24.5094346355452 2.97128459131517 0 0
-110.634694043535 20.7341510076642 1.87454625193678 0 0
98.9854768886911 12.0441782884276 -0.178344476622411 0 0
-179.746285161311 -13.8605476292862 10.129112252998 0 0
-152.221974653787 10.1255827181293 -7.88999694617208 0 0
-205.134632195261 -39.1232956375383 -1.48130583355168 0 0
-79.2202681663666 10.2944155860039 -14.2094626152692 0 0
188.387072285042 -34.6265851485676 5.54878522284198 0 0
-80.9827160633291 6.14421793423109 10.383570309309 0 0
144.114452702846 -15.2471632700185 -14.3222744934456 0 0
-117.470897555277 -7.74142074030916 12.5736921785146 0 0
-132.901008672448 13.5784666273797 18.6658819954977 0 0
38.6894420753408 -0.492392199583858 -21.586556981877 0 0
-186.483943181931 16.2173040594078 2.97492776084445 0 0
-195.994263314983 -43.9759608839746 -13.137909740741 0 0
-166.933070265335 17.2162535966514 23.8004779729083 0 0
-103.551029595126 11.9489252877952 15.1467465810532 0 0
-156.132036597054 4.29992887250597 24.4452987694942 0 0
167.56141261397 -11.8525154315328 10.8312348329584 0 0
165.849347995381 -7.35096045411836 -19.42243890407 0 0
144.867024538425 -18.4323899602981 1.95998024852007 0 0
-1.07701204341365 0.929962086049965 4.68392771983776 0 0
157.946362052831 -0.843623950953616 -20.7865346353845 0 0
158.187921288202 -12.0749871035864 -17.5314162067927 0 0
169.420774447687 -16.3572772999888 13.3839913118127 0 0
-189.842586124323 -5.42705741049526 -4.43999399730299 0 0
-144.529865227445 2.12879171946902 -8.57102367179099 0 0
175.522529228674 -18.4380815890918 -16.9098428097444 0 0
-162.879960275339 6.06669898673569 -13.3092621813172 0 0
193.483685594081 29.698890739478 4.91578961129911 0 0
-188.446758406668 11.1931314162689 21.8889445276588 0 0
-126.567668776245 3.89160848914969 17.9518499132754 0 0
139.094168340726 9.1946791302089 4.91261944947676 0 0
-156.622244135639 -10.3597777578684 -8.46215838075924 0 0
63.5443143881057 -2.20362244857488 1.51394291837413 0 0
-75.4890846127735 18.1888279495537 4.19755231088287 0 0
-176.93326331973 8.1568516967962 20.990921535064 0 0
184.704262554534 25.0667815098962 -10.6738838621207 0 0
207.615973590599 -21.0119475267899 1.36263963007752 0 0
-32.0497934475809 9.56834825495472 3.42145762562901 0 0
173.541891957843 5.6411307264466 -21.3587425096494 0 0
144.570378398709 -13.0886027918552 3.75299280133649 0 0
160.497359561254 18.8423049025326 9.62294872049123 0 0
81.0635367470702 10.1010074656298 -0.260210514552126 0 0
195.062784561499 29.1849848277176 5.67971910001135 0 0
188.723456335502 3.82877638169605 -19.2252887669193 0 0
-128.474903053161 22.5307930829749 1.49922402241125 0 0
-179.580221549219 -18.3706620541717 10.5591687637884 0 0
126.38136681395 11.3658035613464 -20.6287797027346 0 0
188.020570932994 -29.7929258183218 -2.98079756128036 0 0
-182.725986635131 -23.4822801402702 14.0683304063769 0 0
-166.592247201976 32.1512184178809 12.7552998949036 0 0
-158.685798013377 3.78369153572905 24.2961762775452 0 0
-77.9229042237975 15.2452682250362 8.05525974888324 0 0
6.53748288833297 0.387864661696783 -21.3566136059021 0 0
-11.5210822362227 10.9616381319983 -19.4698084297351 0 0
180.295273767304 19.3423317639089 -22.4289828390121 0 0
194.909514623564 31.687174253434 26.4128137908518 0 0
-179.3914613494 -8.53589602258632 -15.2275331200622 0 0
193.598507537222 19.6960831154786 -19.2235567605297 0 0
-169.586163823206 15.6381336146608 -11.2687185417683 0 0
178.599381788828 -16.6545378698628 30.1720014182932 0 0
-153.124953340726 -9.65693769641161 -7.81087945000334 0 0
169.51697856867 -28.7311351381023 13.0210504687635 0 0
32.8992679883602 -8.85306602561456 -8.17947473600529 0 0
104.998546085727 5.72725092182898 3.5939280610176 0 0
9.38827678198494 -2.57884761419264 2.47924419002849 0 0
196.778452351761 26.8446375128006 1.22771788110231 0 0
202.810548002739 -31.4326931804698 25.4426349238216 0 0
-205.483715179746 -38.1297747157138 -0.377771549483343 0 0
-16.7299284192921 -1.37247681542088 3.76772533405855 0 0
-132.432987629369 15.2113132989971 -7.11015619663057 0 0
-206.349694599452 -31.7073433807685 4.67732153483735 0 0
-169.581300104198 13.987463132327 24.2245217889546 0 0
87.8287349572219 15.4754357725882 -7.14595594943175 0 0
197.053994844857 2.62647638401505 -9.96994230706343 0 0
-184.939417689517 -16.5799580970073 -22.3231172008302 0 0
-18.7787459865671 11.1147776720013 -18.9735047282836 0 0
-44.890134711651 -2.34038341062204 -15.9303973656224 0 0
-183.779783892545 2.10715661894846 -8.72450628695621 0 0
190.61434885931 4.23618659877275 11.2295384961378 0 0
-155.099760326685 -14.7546515450814 7.02117774291156 0 0
-37.0641736758842 -4.14540032133886 -14.8365308168278 0 0
115.434985438713 3.9999820295381 3.53581650601339 0 0
-205.748150416421 -20.2618941310187 5.4081398131506 0 0
167.412211191149 -26.9919495565495 -3.35099696751998 0 0
188.639102304712 -15.6978321376053 35.0120663348443 0 0
-192.012463075013 -44.4091356179228 3.93790791262924 0 0
-183.028299246796 10.7985041740897 1.82514445785469 0 0
163.8841708484 -9.19452101784304 -18.9513294108932 0 0
-180.859443906344 2.6868328077915 3.36802816856899 0 0
-134.060177875381 -11.2988329584015 0.518491669514154 0 0
189.77764761726 -20.9036127524082 35.8165080179826 0 0
-10.9762688722002 -7.46608200655974 -11.6915966070178 0 0
-94.9584588130598 11.9625260329426 -11.5447241399471 0 0
-18.6625149016794 16.156132581452 -14.2158221425942 0 0
199.300113540462 4.74687952457008 3.77306624353652 0 0
158.967256877323 -22.1439382562915 8.09011888061018 0 0
173.29831704515 -34.1478750407354 7.91078464339566 0 0
204.569483957867 -16.4130545346477 -3.42389652797074 0 0
-189.215772099029 -8.02451521669478 3.84091876232002 0 0
-165.341213320105 28.62227375107 15.6723331964494 0 0
170.871672924121 9.34480658558241 -22.3069249210345 0 0
165.919586566918 3.5764415756522 -20.3414134488994 0 0
-169.351063689632 -20.7453789857191 -9.71339587651137 0 0
-207.115330674312 -22.2450995351992 4.18345936007504 0 0
-141.897607999189 21.9546407690536 14.546564504029 0 0
179.384783057264 30.4357590583308 1.66254786511574 0 0
-190.409951591156 -6.72282362594186 0.0216912408302258 0 0
-186.177795833899 26.8692105348235 -4.0785433971398 0 0
207.757832354867 -12.4076947662146 2.71226893292152 0 0
155.176288542242 12.526612029109 -21.4570606172776 0 0
137.247994408652 -4.93366847465584 3.27213692153643 0 0
-122.142777267062 -3.61492241500243 -7.36501097629031 0 0
-70.4081840721129 0.963986330941745 8.41235805107056 0 0
26.3071976142859 14.8136216408235 -14.9091379403107 0 0
-133.423310721863 3.9608865911485 -8.62482179900389 0 0
52.5251772263832 5.14024643213416 2.12030072560645 0 0
-64.4942898521655 1.06470456603617 -15.9767527342102 0 0
163.453508614318 23.5062550229872 1.30355919186096 0 0
-141.419167185605 18.1263973091551 18.1176814543604 0 0
-44.9533003069686 -0.862228664706775 -17.2968799494345 0 0
-179.705230263295 -11.7963974180794 -15.8921151750638 0 0
-161.08594058067 17.6900394285249 23.3872785069502 0 0
193.208244283769 28.0909335059136 1.23528949013275 0 0
184.6551544005 26.3450962272481 -7.07982767913379 0 0
92.6513119370707 -10.8343311293031 -4.36138113064017 0 0
175.334657155189 -35.0184104323157 17.9793064698751 0 0
-187.023616744744 -47.5545019720706 -5.70607180405712 0 0
-195.74448775907 -9.17010627507583 -4.33826565951033 0 0
-42.3470880541937 -6.41732065439877 -3.57736520308268 0 0
154.469112571897 -11.6924433561463 -17.4939783996549 0 0
-166.279317853396 -24.3590872400787 -2.8274306855212 0 0
-164.691189675858 -21.3940254743736 -6.40390118266744 0 0
92.3902173760995 11.4075238235667 -0.302110873196175 0 0
60.5373038772214 -6.38278047035687 -19.5517445397602 0 0
-167.143937203414 31.1185623779902 -3.16803828122499 0 0
164.883324360578 -11.5267992768339 9.9545358367033 0 0
185.34602338779 -15.048886989473 34.0764278473014 0 0
190.543278060285 -14.4338482583291 34.5414027892622 0 0
101.99061123045 -8.44318816826234 -19.4293860720306 0 0
-176.59042590023 2.87578495935895 7.94127678344458 0 0
40.8072565321074 -9.72323235244623 -10.391294078577 0 0
186.549282521164 -30.9401803857762 -1.24866068800107 0 0
0.678533902735602 15.4000226647757 -15.4766599486921 0 0
-129.158563172156 -16.0994933162447 7.13151827715185 0 0
32.6746501124974 12.8031181988669 -4.19231436248107 0 0
187.350126666314 8.06432143581784 18.7988997968691 0 0
-173.565766812663 -35.0904305050666 4.67239836576511 0 0
130.735786231552 -7.18701012569032 2.23276252369269 0 0
