"x" "y" "z" "f" "a"
176.65944985003 -14.4763334356517 19.4570618505213 0 0
-169.387430543287 5.92848455702738 5.06040352525208 0 0
-31.6120700967324 0.273971707489744 -0.512890435814247 0 0
201.844479438895 -18.2434624987454 -37.7312680347567 0 0
226.581123286041 -10.2540850938842 13.1395515207986 0 0
194.940314230499 -27.6038859650147 -2.46250770673346 0 0
-213.284354986105 -34.4769012948391 -19.2956143474526 0 0
229.715173467981 -3.34441859846079 4.34493723041995 0 0
187.769170299075 -6.78376563107758 -18.8742617354033 0 0
201.563228353684 0.219916919388649 -29.9084212798515 0 0
-65.9416370432845 -25.5050342698632 13.6682503924191 0 0
221.88626697621 22.6485059413946 -21.1784209374713 0 0
-64.4044046686781 5.97201630505266 9.23152701013741 0 0
221.241454723172 20.1869734919494 21.6138098315722 0 0
224.454485014988 -25.5561268217459 -39.7124334144506 0 0
239.843555167812 39.7918983857969 -8.64236162573236 0 0
-37.8578731159109 5.71303981270516 17.784441356725 0 0
122.108080728956 13.5872918059008 13.5470651872271 0 0
240.143677556567 39.6349741787603 -3.67163127072056 0 0
-242.887933752088 16.232940224504 16.7719782973406 0 0
-144.611918498445 5.25412899453949 4.96996697112318 0 0
19.511069410586 -18.6065207478209 22.4938954710961 0 0
-229.965034002186 53.7377215113264 -4.9071212121723 0 0
211.387656119319 -28.2142586971566 11.5057703342589 0 0
-199.203725435082 -29.0784577063553 -24.5564513434412 0 0
-258.136958767903 30.1494412648746 -13.5477853242169 0 0
219.594177557769 -2.35012882225373 17.2682590368654 0 0
235.213828797328 -17.7211687265839 -27.1714976804392 0 0
-183.274843894951 -26.078902964248 2.3061156673326 0 0
-220.028107270755 -10.9411889126155 -28.8920260175506 0 0
81.3991825784361 5.12265906543477 -1.05163177250713 0 0
223.392406555814 6.39641364867607 19.9201731293042 0 0
219.703041751798 43.1984204308932 -27.5560576875786 0 0
-1.87570902058262 -9.48489681326197 -1.99490522514619 0 0
182.701070020133 16.4316892093601 -6.21752499309423 0 0
-203.654292831263 -2.94126307508839 -18.0240384164411 0 0
-250.760110918179 13.1331558779021 -2.23200800685079 0 0
-194.006286178601 -9.52872502593418 -26.4284966363979 0 0
-143.040215988773 -21.1087981184394 -11.1328479427958 0 0
215.062476785953 9.07293486213447 -13.5285805415936 0 0
226.507867484071 -28.1584690431951 -23.0689894395963 0 0
-194.490537261637 13.1571949264371 -9.86727712374898 0 0
-225.325171967099 24.5723634386833 -19.6888185687888 0 0
202.287279007317 41.1283722450042 -15.6198646265779 0 0
40.8964521637494 -8.97060764121826 -3.30921955225459 0 0
189.63443905914 18.2305797122483 -8.84361722509546 0 0
-189.51153719501 -28.4904150649264 0.84074582624443 0 0
203.571228552105 45.8662666113275 0.692411684713193 0 0
-73.7196803454008 -1.4783671616157 -1.81533920941564 0 0
-253.321350619154 22.5379279271458 14.2209683394132 0 0
-129.215418627764 -6.59834676177126 -7.84641086391063 0 0
49.5568570394998 3.63534805619234 -0.384678634384401 0 0
41.7749844688958 -22.5208246179748 13.4591819632991 0 0
227.948015050565 2.52253604996116 -18.229138369182 0 0
-156.096987013722 -5.67513685951211 -14.9649727589919 0 0
184.030949184781 31.0299989938154 -7.24214966068026 0 0
-250.992889591715 51.6070494846688 -4.4801769097057 0 0
137.891086628125 2.14996827169593 -6.17547599663996 0 0
11.7108109408467 -12.0848054578767 -0.46433967964334 0 0
49.1011343177634 -17.5747193244714 22.2396725305469 0 0
198.756670372559 14.7362128121374 -12.7821296993469 0 0
45.5249836066706 4.50801611648236 1.96416280502807 0 0
142.178771036492 -20.5042323519475 -0.919857826010053 0 0
221.487484385091 14.8549798823808 -10.0651964052879 0 0
209.610802929642 -13.3757035129583 -43.4963237546995 0 0
-204.1568568773 -36.8711195335849 -0.517202515274237 0 0
225.202692960695 -29.310169441167 -11.3519472321156 0 0
182.978351003404 -6.31327432790112 -16.0693006506379 0 0
34.2354380790435 -16.8696272501846 23.3556280551064 0 0
-69.2933887662269 -25.5678560774873 13.3300641474545 0 0
228.06369651729 47.3160028441597 -16.4978447147941 0 0
-218.849052600789 29.7605704982569 -11.6665097245713 0 0
-162.64247235391 -27.6296391535111 0.851268776082859 0 0
-8.18366347605581 -17.349448747696 24.0829765937749 0 0
-243.859161654556 13.7729800447369 -9.14705456297092 0 0
-120.697599236436 1.3281612875279 -1.46371254466672 0 0
-221.278967279519 15.1402370670149 -16.4294882982524 0 0
-168.745213474631 3.93712410714625 -24.4220432860406 0 0
197.597190702438 -7.41551140328877 18.1733139315802 0 0
-94.115946202033 -12.2820778960761 22.9828969956366 0 0
-15.3858908703241 0.232609950679027 -1.43462663235358 0 0
-231.956832725768 29.2384475630422 22.1549690914446 0 0
-241.553436393869 -20.2710467885467 -9.21833229140569 0 0
210.5939758807 17.8696323994414 23.4985249219881 0 0
-86.7220758924863 3.86580004419343 3.75171514280329 0 0
-41.3499895753302 -22.2207313450633 19.9203932643748 0 0
205.817436091394 -30.7512786130917 -28.197950558278 0 0
-193.057661108498 13.7426415972632 -7.70572959312614 0 0
-203.243357910183 19.5711014839996 -4.22103897887066 0 0
174.723052075041 2.32726386528039 -9.35577185423828 0 0
-222.09471036061 5.75699116887521 11.4852856114486 0 0
-198.280027648536 -10.055985103765 -26.7426686766873 0 0
-229.498044275929 16.0099555188357 16.5918527034539 0 0
74.8877282252568 5.07914258026756 21.2650255397402 0 0
-201.142528682554 -32.8580794686593 1.52969994593365 0 0
233.218442112088 10.8426148501232 7.62813894595528 0 0
230.030188813377 41.287672322066 1.43115243831641 0 0
-114.024035753257 -15.5934843742126 -8.06934172270787 0 0
-105.172264734359 -23.3331771959018 14.4238153492162 0 0
95.8308597506803 -21.8863140949908 12.8826411146291 0 0
-55.1043863680536 -0.179548184221168 -0.67810269057334 0 0
112.233088893042 7.89450022782537 -1.73844654154736 0 0
-119.959728382364 -3.76472653494946 18.0722862297344 0 0
-18.8445767139996 -22.4711283799806 8.90027710229837 0 0
102.654170068738 -17.2005749262627 -3.58887192880004 0 0
-28.677532598502 -14.8356228603525 25.4181852658236 0 0
-4.72208079918694 -11.0385746905554 -0.894130415504566 0 0
-38.9229034611833 -5.59302505546983 -3.94091371741195 0 0
-256.809142386861 31.563000904139 10.9328330133331 0 0
225.500583374266 1.94269303103709 -30.8356328881162 0 0
-228.6615192742 43.8939207364699 -20.8306244210816 0 0
-241.7155788976 38.2587578592365 21.1929211157709 0 0
-211.653424625556 -2.55349384237923 11.0977698181787 0 0
1.72475788811364 6.79495134394309 17.6862868202733 0 0
235.010772705149 17.5683685296932 13.6979236481291 0 0
124.57778402604 3.94799660713974 19.7637268344113 0 0
63.6346606087276 -20.5990571230922 18.3224931880442 0 0
127.248626749204 -12.3720989731709 21.8878710682506 0 0
-214.077885057622 10.9319921902317 9.94185150738279 0 0
-173.128563074349 7.13655342597475 -9.31430385843567 0 0
115.185609723957 -20.3303861989529 -0.229636007956906 0 0
205.264208678205 35.8123339339327 -21.1236196362625 0 0
213.53405506077 19.7588575236974 22.6390874397242 0 0
74.7529825861551 -18.8073723447857 1.33180317981242 0 0
-259.874680010841 37.594852617799 -5.86947518848883 0 0
-23.4571119772662 -24.6789587139056 14.4041234562386 0 0
220.954118180121 9.16356346301963 -7.70449203411147 0 0
209.233547051798 -8.86810670317013 -42.1649605862602 0 0
-185.269516737573 8.56928156023383 6.7680566096814 0 0
201.177978339465 -15.9363115204116 -39.3205578216319 0 0
125.444338727096 9.75756220626017 17.731192941631 0 0
84.6576542727451 10.314224383796 16.1037608570429 0 0
220.981118965983 -30.6263835230691 -10.5214757043895 0 0
-28.5474609825146 4.46022599774659 5.80202851580011 0 0
170.05420390772 -7.77072906065457 20.4316644132907 0 0
-241.576009607117 45.2047285120811 -21.353217843046 0 0
-119.074892854916 -8.34497628444828 -7.25652710035364 0 0
186.812600939298 -12.1614588338096 -20.8185901114668 0 0
-153.455450608376 -6.04986360042496 -13.6289605189601 0 0
211.387107222015 -32.8461164546985 -27.3324115575642 0 0
6.04490342594844 3.23675161271051 23.5926963222083 0 0
-220.472658877523 -36.4522467182197 -13.1075208573056 0 0
203.376215071429 7.02176148415792 21.2415991637711 0 0
30.9888439522571 5.96486833099072 6.07664532042353 0 0
238.174900782343 36.5150311869645 -16.2598832316289 0 0
-177.039653117806 -21.7218161891669 5.80726756136957 0 0
235.58788316334 -17.2227451297531 -24.144201801329 0 4
-220.569841229283 6.33670010115403 -14.4215255826128 0 0
173.651651810378 -13.6647198775434 19.7884520134589 0 0
-148.70187471162 -15.5760831595407 -13.1998625000178 0 0
-150.609896992674 -22.6868579130716 -11.6219219060363 0 0
-36.4540013180726 -24.2725271789168 10.2117414379504 0 0
47.419568133993 -21.1065335989172 7.02993551960936 0 0
-215.821360855982 -2.14127866499583 -14.1300349965093 0 0
107.624983260711 10.7529066552726 2.14242454324153 0 0
105.371661177667 11.9021521915714 14.272197963429 0 0
-233.881655914325 -9.90519291604689 4.03666588121358 0 0
240.879708535262 30.2910957713693 -2.12904654149792 0 0
229.080508215426 47.4011764829888 -13.8331229195568 0 0
184.939728057592 -22.9749390876567 -17.66100245794 0 0
84.9010196012846 -21.4672960958823 15.1433201983144 0 0
-98.3078816726727 -26.844061606696 3.08763340655456 0 0
163.456466724056 -13.6182714934845 20.2398504260307 0 0
202.592328074338 2.70678101042588 20.5285416284953 0 0
-189.478983903874 10.4851302031797 3.60468964522843 0 0
232.769202635502 -22.3303154017704 -2.47384789461772 0 0
221.957496040165 -24.8624914628263 -39.6574218018613 0 0
-71.3160953339708 -9.09077964711935 -4.49857663502167 0 0
-227.920725897224 32.008064727045 20.4640452183376 0 0
198.784977060626 8.53281413067194 21.8005254432723 0 0
239.276486161945 23.7538547258017 5.84466057052084 0 0
-14.3677806989524 6.65689580677945 16.7345889987545 0 0
185.167926122684 -8.64517131392351 18.8445699502953 0 0
233.357763953228 16.1955328964644 16.4862249964099 0 0
16.9249543592952 -16.6477307154923 23.863005014068 0 0
239.50829594749 31.5211939589184 10.0937823727518 0 0
-26.9946985105731 6.65120453797648 12.2023905207799 0 0
-27.2886569297648 -6.04477475171271 -4.10981042778906 0 0
-183.403782073793 -21.9551166463893 5.36375834519752 0 0
-200.933039323167 -8.0696744337446 -23.4462668901872 0 0
-233.260823460866 -1.0629029958627 -5.53678051740291 0 0
-93.0700371830235 -4.78523722122693 22.1226472814969 0 0
119.773192711879 -18.7666366149043 18.7727785267231 0 0
-238.288822364806 -25.2112526394468 -11.4430982416535 0 0
-109.242522502527 5.33461192720776 9.4929289824218 0 0
-158.539436302944 -24.3334906699691 -12.3356452702458 0 0
224.259929032642 21.9558923575096 -20.8616400824549 0 0
-147.062495047154 -6.93073775700813 -11.8993567862464 0 0
127.944702369965 15.3416464864495 10.1615550270388 0 0
-80.0570277943699 -18.2274338200434 -2.7503890687516 0 0
-217.721221411966 -9.68862372303752 -27.2759813671149 0 0
-221.785934919907 48.829703995866 -5.56078739505546 0 0
-200.15085462244 16.6075137977922 1.31755913095228 0 0
-201.38411144109 -20.3042409942108 -29.5999613580287 0 0
228.172970451293 4.43583568848995 -2.85071048583145 0 0
-180.637074077246 8.99334046272756 -3.08866215255065 0 0
179.770219690544 -0.105738392962844 19.9086055294807 0 0
213.618669968325 -22.0654951459525 -39.3588831744058 0 0
228.003986209859 39.1100408875693 -27.5573027005107 0 0
192.812586448438 18.7763010081454 18.2523664629237 0 0
236.41844101487 38.5451979670796 4.15872792960162 0 0
212.115026755559 -7.53367677093667 20.4835830698917 0 0
115.709844729875 8.2067554420922 -1.95305620377881 0 0
-20.6038019115819 0.824817227408022 -0.283999251843106 0 0
-185.40448847256 6.84020749094461 9.17668253432429 0 0
-221.139401635351 28.5756048814582 -15.4172640245415 0 0
18.5003555357315 5.98888332521049 20.8669128401287 0 0
-72.7692240002357 -24.1983438759145 4.16416782199052 0 0
-117.719013878545 -27.8156973197812 0.228391873353587 0 0
128.882875129946 -10.5322673506561 22.1117125230508 0 0
221.522767867719 -11.2587857453777 17.6327942022899 0 0
-146.944760578174 -12.1873218078419 -12.5593211687357 0 0
-61.6407074871194 -4.90865671418834 25.2821470689013 0 0
-220.517442764308 -12.6177107235721 12.3408764523267 0 0
99.2313890624394 -19.4275202675876 -0.278763967927187 0 0
225.191350208928 -29.6317451310658 -19.9969080494138 0 0
22.9461925449386 -23.0727933659347 15.3899457004851 0 0
201.147127835391 44.2600303647388 3.87265815526477 0 0
203.599914860742 42.6263636281077 8.77979169279191 0 0
212.038228540452 -5.09979459864632 -40.9119938337711 0 0
215.718088905739 45.6220602156935 3.5037215758737 0 0
219.130672157808 5.58100805378534 21.8854239475481 0 0
-206.24793764901 -22.5890312470284 -29.9322759499408 0 0
11.1050487726154 7.43052736577778 12.6869158559957 0 0
73.7514119106347 9.19805743269333 5.87351732192896 0 0
-243.588178303524 50.6223896989808 -15.7426894927793 0 0
-194.750556784248 -33.3182212332297 -9.20082944909973 0 0
-130.4022049861 -15.536796160218 -10.9925850089311 0 0
28.8516387825645 -4.20447704940458 -4.71257351425959 0 0
209.395624641078 40.0426356747658 -24.9025362465954 0 0
-38.4417296793104 6.24872391220433 10.082887721017 0 0
-205.448853975506 1.45817621532936 10.1537689828853 0 0
192.326008346643 -13.5447282354459 -24.9666327386208 0 0
202.888842516802 25.2582630249559 18.5110199524271 0 0
-166.562675172855 4.12889705686145 -23.1295009235426 0 0
-234.089228926617 -8.70530705837969 2.84559782103052 0 0
105.902616929731 2.43732033487654 -3.96507045334976 0 0
-184.991892177625 8.7486020185825 -14.9725608929667 0 0
-61.9790827053139 -17.9360047191538 0.31632342629879 0 0
-17.4268329156892 -23.7779492458651 11.198227347517 0 0
69.535496777033 -10.8516657770186 -4.35081070589442 0 0
-194.588172711065 -1.47664145602368 8.98304363997661 0 0
-140.946455763173 -21.8170442532848 -10.2881099428214 0 0
217.178416708147 5.95571320196361 -12.2431353995903 0 0
65.8470794956016 -16.4734426133856 22.5560841408147 0 0
-91.947666848918 -27.0208319448758 7.47845016873586 0 0
231.88263331551 29.1472947195951 -24.3120673711037 0 0
103.751262989541 -0.409485734540831 21.3841634342746 0 0
210.145632944454 4.24549262503616 -21.2865503638182 0 0
64.7781196439848 6.57886302582001 20.5433775533022 0 0
188.274090181718 -16.8978906202121 19.1539369716828 0 0
217.753675038256 -29.0400120819383 1.86808282166788 0 0
-257.594727448345 25.2874793140181 -13.0709861676522 0 0
-93.3670265084426 -7.89572232620775 23.2083822691533 0 0
-156.032959516459 -28.690240272101 -3.63401184128544 0 0
228.191755928925 0.218341741239861 -9.03659499568701 0 0
-215.087364544841 2.8634501665327 10.5734869659464 0 0
220.834462759069 -31.3376421091476 -20.6422529044123 0 0
215.170157818499 1.74914188489053 -25.2621454848066 0 0
-121.855011002267 -13.5953468911612 -10.1694069627138 0 0
195.200570281303 -27.7156970987892 -14.108702161402 0 0
172.52460849243 -16.9032882500209 18.4145948513725 0 0
19.9233841635023 -14.8828434422661 24.6999765830238 0 0
-238.227410021619 -15.9634507276739 -4.26504763828344 0 0
-252.396295895806 36.4015716151057 -19.868326807511 0 0
228.411024776189 38.3069477062843 8.05754773150075 0 0
-220.438555180022 -34.237605919807 -3.33122345763417 0 0
-20.8401067465089 -4.36780661730617 -3.56303360465857 0 0
-170.444957027345 -24.5621945225744 -15.8384638546349 0 0
-48.1778825697612 -10.8420033042761 26.2601025704569 0 0
192.498261943207 -25.5820707924228 8.92999952235327 0 0
211.98584425876 17.7781415515326 -15.6441915906615 0 0
-169.056917583883 7.26462297768528 -11.3319086479799 0 0
-222.973538325466 44.3101682855547 12.8652417537086 0 0
230.488627808304 6.1619922334326 6.99012538926127 0 0
-2.01239431604587 -18.7265763301714 5.39679770798899 0 0
187.925745897043 34.0795475795489 3.58686565425686 0 0
98.8907311463594 4.17748728053403 -2.68806913802097 0 0
29.3064424472106 -22.7763483750797 12.8020288873489 0 0
-108.944993615839 -11.0567461892979 -7.43950060376425 0 0
210.195481212888 9.96805615275709 -17.0937520595963 0 0
-212.17761251748 -16.2548501302149 -30.2184557598073 0 0
-177.420365204628 -2.71016253755021 9.35195137933274 0 0
-117.566654855223 -20.3347651662359 -7.1707865109646 0 0
214.71152844065 -31.0592931613343 -4.86961466802727 0 0
232.791092195718 -7.16475653047473 -26.1647095156821 0 0
-132.735894523812 -28.6541219382623 -0.239114495982096 0 0
-49.9860286741034 -21.5899607638538 20.3838989907478 0 0
155.797927851013 -21.8385133275894 10.0949029141202 0 0
-259.367121167472 40.2390914352424 -1.99941732829004 0 0
-30.6447356906682 0.541392530198187 24.1249887960207 0 0
228.969405004146 46.637406429318 -18.6930743031197 0 0
-151.532813339989 5.57785194889071 3.44029039717465 0 0
3.0466897140614 2.38556499244355 0.141725247817535 0 0
-255.649916714566 23.1014896153824 11.4605183059075 0 0
-241.907572927468 34.5843534855353 22.0635895348101 0 0
-222.649928475412 -2.56779152883442 12.4796687530764 0 0
173.558832879191 26.7851461186034 -5.96688955098753 0 0
-226.665074237581 13.8426755284199 14.7937967872811 0 0
212.721239012841 2.19810702862094 -29.292111369815 0 0
-249.317201891588 29.7186358737414 -22.4438258361289 0 0
-221.809648621458 31.0752539959865 -15.8006946573872 0 0
-236.196979700578 15.6224522281081 -17.403135041361 0 0
-121.171181003593 -18.4474864608211 16.3101035387666 0 0
127.629033405382 8.5661551585105 18.338371609849 0 0
-173.129572325152 10.9377656934079 -16.9735888432785 0 0
-28.2971159974594 -1.75326318138642 -2.64487625084994 0 0
-66.5396140401428 -25.2148837540427 7.58755542394243 0 0
164.580198492821 16.8189794251644 -2.81632606398707 0 0
67.3001961705547 10.2420409781206 13.3680120348982 0 0
196.418428846628 35.6905415582284 11.2663474825364 0 0
-249.221655516127 25.8023242314934 18.6459102121617 0 0
13.2748417379399 3.38735512636207 1.97594438801759 0 0
-88.1343165585734 2.31726915482568 16.9361633569598 0 0
145.616327506585 8.97038773633305 -3.59156307653469 0 0
134.786059705462 9.43221882326584 -2.82645347957896 0 0
201.630917668532 -13.3050922479847 22.0261289584306 0 0
83.6759925054557 7.89891823992543 1.61098166481383 0 0
56.8024953725409 -21.2132456098586 17.3673710450983 0 0
-190.380066345092 -5.58419962314386 7.90958216102598 0 0
-158.605822328978 -28.5296769349751 -1.48754715556307 0 0
-129.327874792557 -22.0583373387759 12.1352840197978 0 0
-91.109811466998 -5.00663520568764 22.4877243712822 0 0
-78.4844285961821 2.64118718644189 2.31735712537519 0 0
70.2744245013186 -1.88924350357455 23.1690554919731 0 0
-75.8659130309291 -23.5915120433807 2.55186991257971 0 0
-66.7929348182409 -2.47284154548727 -2.78284283861713 0 0
183.085735159069 -22.0507985348447 -16.9745922223682 0 0
82.8853407967094 11.0528163170444 11.5320639109334 0 0
111.405761734291 -6.55600846923366 22.6511170071143 0 0
220.63688897456 -19.7478495471035 -43.9797150281825 0 0
100.094802062175 -21.2241582904024 15.3327106068649 0 0
219.255423894869 49.7872400750241 -22.9833209741224 0 0
-237.304884229756 -10.1764167044957 -24.1101353917398 0 0
-201.369973743926 -28.502691278541 -25.884619746845 0 0
-34.3333142874748 -15.2556882902903 1.4999325884433 0 0
-16.5201578331075 -20.4011982990389 21.9466445433224 0 0
139.695170777637 -19.9205237832588 15.5745333676137 0 0
80.3531742371534 -7.77950055441247 -6.09039867980675 0 0
-166.782393047803 -1.86675321434772 10.7549936389037 0 0
157.939504452913 12.4755213981907 -3.30249622911426 0 0
37.3888710029553 -21.8516919532541 17.4367381288534 0 0
177.51502006678 -22.0972216423494 -8.8008222856725 0 0
223.8807484109 -25.9320662194308 -33.7687389514349 0 0
235.109536406503 -16.4014064784583 -12.3248708420178 0 0
-188.095988002182 9.72533152391317 4.98258089234815 0 0
-76.6232719629273 1.02019144421828 19.3597629031961 0 0
-86.8734223564775 -4.44469181493635 22.6509870669188 0 0
-91.0003278538336 5.40501069123253 7.61695960022532 0 0
155.508121701224 20.4978753039403 2.58518253183962 0 0
-211.333793347261 -11.6324309899154 -27.7319266256115 0 0
-5.29134301557508 -6.21710007892577 26.5699816706639 0 0
-232.447365065022 54.8511498467534 -3.6447894229677 0 0
-234.72763021394 -16.6582821850685 6.54269492000734 0 0
65.3596860869592 -21.1089361451346 5.99564785288943 0 0
171.678477802219 0.453611660295204 19.8285132572176 0 0
-254.186269558927 40.9895667371411 11.5199944548072 0 0
195.946798727645 -9.92188478821134 -28.0259221617334 0 0
206.780617003154 1.38725580245613 -33.5504258662282 0 0
138.852004265215 -9.90414899743856 21.82750068889 0 0
37.4193783664496 -19.7783571176153 20.5331585256215 0 0
-177.785108921625 -16.0427190241751 -22.0884345698884 0 0
163.16283365839 13.3845393122351 16.3398698209104 0 0
99.094901437856 -11.6230900172825 -6.46790411397634 0 0
9.60981577066288 -5.70318385379632 -4.2464402240759 0 0
109.500989508991 2.98149897180793 -4.02439754359878 0 0
105.622258175139 11.010199556756 2.82125316410143 0 0
209.536917847409 47.1464887297594 -4.03213907204857 0 0
163.16729774172 23.3365345506208 3.16165965237579 0 0
230.592470854125 -24.8312003495044 -3.90956841327935 0 0
-243.925733933229 28.4519807057581 21.597300314556 0 0
-114.157849077568 -16.9277321835557 18.1634679603817 0 0
-191.316244515556 -16.3658358735499 6.24059480395126 0 0
197.240015940113 33.3058434616168 -12.7041195734788 0 0
180.365427082948 32.6608994670178 -2.27286039705358 0 0
190.089823371295 7.07190319892624 20.5395488808313 0 0
-198.729910772555 -23.7669857812824 -27.930445464481 0 0
-170.862799863307 -22.9347359189651 -17.4186402045254 0 0
-72.9506255103559 0.420262750956121 -0.183282214792135 0 0
-229.156264541409 33.3171485346156 -24.6814738082868 0 0
-7.6302872922769 -1.70741014393249 26.0919844645991 0 0
18.2729487690717 -21.780539961847 8.97881496834833 0 0
108.45133809291 8.59696548853769 -0.672644709041107 0 0
-30.7702645054922 -11.067185550915 -1.66348507260583 0 0
-165.79876209972 -17.1434550230844 -17.2979084963052 0 0
-211.963344815548 27.0389791505635 -1.78629115444481 0 0
-89.3687550928559 -2.37873815220412 -2.68455713550559 0 0
-149.337143671248 -0.0862739461612381 -8.58302625850935 0 0
170.856821406096 14.7384181336352 -4.27259599030928 0 0
-236.746297766757 32.0683872411861 22.9540865960624 0 0
186.561146709674 12.9546575067494 -8.51783537768969 0 0
-210.827750984696 25.8148543156067 -2.90006550012277 0 0
-235.384043965254 -10.2027042294705 -3.25862140666437 0 0
215.223507791318 48.3798626601902 -23.8534407334574 0 0
-135.74030909568 -9.94119766366307 16.3010288873396 0 0
137.250075117158 14.7632715994308 13.8975903384155 0 0
-11.2566914096186 2.55823401629444 1.8373759369456 0 0
-231.814447840755 -30.1114123599573 -2.31090590706758 0 0
198.725138735586 38.3124231898143 10.8971384052056 0 0
213.779765561022 9.64377666754858 25.5192427615514 0 0
75.3279162820278 10.499639495311 14.0112601352814 0 0
141.624003783937 -1.25133768081615 -7.99556503199054 0 0
234.371980871764 -12.9344364928056 -7.62861208004471 0 0
207.361498020609 -31.8475119933786 -10.6704139216881 0 0
-68.3381921075936 3.68952634796564 17.6132829647318 0 0
-154.579572979804 -8.57302710233236 -14.7414080759448 0 0
-16.4837824891308 -22.678788527912 9.32916694960136 0 0
-13.3511388045425 3.41525791259555 3.34311085156293 0 0
205.962434301613 -28.6550163020188 7.886361407593 0 0
88.368462590095 11.3448670487936 10.1050895197531 0 0
-223.389351037547 31.1722360145459 -18.9054981606486 0 0
95.3069369752168 5.5395247652924 -1.64432679409917 0 0
-155.566794571719 0.868797505514036 -11.1780137247368 0 0
32.2460756105925 -6.17015418032226 -4.74545496704331 0 0
32.9240831838275 8.04601005102808 10.896344016211 0 0
-217.426147950147 -19.6437970146836 7.74547723685134 0 0
-82.9768075747954 -5.05292560441216 -3.93624583117021 0 0
229.624188789567 -6.27385534934414 6.16055461602227 0 0
-160.890111910179 2.18605779248062 -15.0726262563829 0 0
-185.051710937341 -25.6152794753309 -19.9407002547516 0 0
228.466970610604 20.8159305936151 -22.1448174561143 0 0
217.492933643621 11.7386633101035 -9.93198405369087 0 0
-88.1749246925231 2.28885799380181 1.54930826520014 0 0
217.46677353359 -0.752333795401187 -37.03467256858 0 0
-214.290990037538 -38.543096293798 -9.99961902738831 0 0
170.631140124114 10.4813673713645 -5.58058012921259 0 0
188.944135582882 -4.92336187137223 -17.8887887970513 0 0
-235.51157826447 23.5923647446519 21.5524750324393 0 0
204.210373307864 27.2130678513404 -23.5731499213289 0 0
217.499730544551 -33.0540364989364 -16.1156315127972 0 0
-218.400763926159 3.74570854385355 10.9011570898343 0 0
-206.909739176086 -27.6124676025993 -27.4975795361894 0 0
-146.411755538802 2.6346870321276 -3.03611475057154 0 0
222.855861033731 -13.1927112130666 -42.6622862309146 0 0
16.2966922311629 4.2225071871427 3.43418583313279 0 0
-236.758844703197 18.89766123353 -19.9311878378301 0 0
128.448853062432 -21.6825547524283 6.05794979195539 0 0
-206.158193417264 20.4763370611619 2.57783852057468 0 0
203.78437710487 -32.6469580407355 -19.9182964495757 0 0
234.49389115248 -23.7929645944674 -22.1544060777726 0 0
201.665365045299 -29.893463107599 -3.12654487124402 0 0
220.81501096595 49.6797119984193 -21.118814581869 0 0
-125.712350693006 0.0418853301354263 -3.43704631441738 0 0
-148.631426517014 -22.3322013343053 -11.4561819312462 0 0
152.421509758679 -18.6136626117116 -6.7764911457849 0 0
232.322771413611 34.6457551418703 -24.7653922935434 0 0
203.306729322363 -30.9793802885541 -10.4372728528902 0 0
-101.740506078589 0.25065456462391 -1.20271132750422 0 0
-160.116334225363 -2.54781377047977 11.5838776686779 0 0
-209.75132439653 -7.39756342525002 -18.7228024049118 0 0
229.177857304998 -27.3444722136299 -33.4505254487793 0 0
203.176432088838 -22.1577538020571 23.205622961346 0 0
179.627813665381 -19.6593909884225 16.6446744512925 0 0
143.597727026157 -21.6427055613606 4.69095822882032 0 0
230.163664603819 -1.70317650946663 -24.8508897477648 0 0
-22.367415594924 2.6412804022344 2.44972980969334 0 0
-252.233281671139 14.1858493252365 -4.56675914012424 0 0
-148.508310274679 -10.5402940386767 -12.9189831795689 0 0
228.800576854815 -4.14450575329691 6.67744083050323 0 0
-115.232781046798 2.55738371653408 14.1584280919008 0 0
-206.801215127358 -37.2899597259054 -14.7341604039918 0 0
241.109358872482 34.0567689568945 -0.543995800544337 0 0
2.41690968163191 -23.8720106542317 15.1750609837301 0 0
-185.715896945399 10.5523487714944 -1.45491640394294 0 0
-110.592867215661 -23.8519340771497 13.0701305434186 0 0
176.319020428435 -20.949038273334 14.2889052188017 0 0
139.87620090316 13.3617863926326 15.5234988597181 0 0
144.571533817653 16.9522907612158 2.18085676645613 0 0
182.600046233536 -22.1665908091385 13.3130291883096 0 0
-249.129664847461 52.9492927755955 -4.84552562134054 0 0
-153.758328454676 3.33415201994264 -3.55486208897168 0 0
197.501613819518 -8.61284795707183 18.0626309317539 0 0
97.1333129722599 -18.8647405946918 -0.890677079696727 0 0
-44.2791660099106 5.91567842602406 16.6853989282133 0 0
-115.619955372363 -12.1931083560761 -8.78878440951794 0 0
-245.577182044784 53.7472747826396 -7.03822036450681 0 0
232.503322972104 34.1791201307911 10.8928129587055 0 0
-78.2771410618907 -26.2337086862028 8.10106419615269 0 0
-190.675962641302 12.0036726561327 0.409965754661744 0 0
199.160700876571 -29.497183160221 -12.3114594456289 0 0
232.159935682876 -16.4402600226797 -34.6454886361435 0 0
208.003092012711 38.5411462465556 13.0987729447688 0 0
-214.894393891282 -10.0478117764931 11.4008164259231 0 0
206.32670340056 3.31513705862644 21.5523359446444 0 0
-10.624582986882 3.44391679628076 22.7132827922424 0 0
-213.505051048667 -35.2162489790366 -1.38800863961884 0 0
-80.9621831450098 -3.28024687546512 22.5087442124129 0 0
26.795811503664 7.02086628126956 19.6124497602389 0 0
-141.282551568872 2.52382944865123 -2.2935587580354 0 0
135.668210131122 4.05123615220644 -5.20440622467294 0 0
217.752687031956 -31.0399811158033 -7.08787191915597 0 0
-258.606714783828 41.8605429945337 -0.849620919629671 0 0
201.304273405484 -30.2285695583309 -8.98213998120737 0 0
112.060321001176 -21.8569770292333 11.6753790812597 0 0
181.303279058901 15.4477822366847 -6.27042864780392 0 0
-253.247791831382 28.939147062919 -19.497872316632 0 0
174.741529500534 -4.91711091787711 -13.0280981955366 0 0
-258.571708454373 34.1281796137717 -12.2115199162056 0 0
-8.87196330940191 -23.8217916638065 11.8477624274287 0 0
202.756755740757 25.4079744160001 -17.4744847909527 0 0
228.864105517151 1.69321698517575 -24.5990254582007 0 0
-252.404695120843 23.9553826629167 15.673771847197 0 0
-213.690929896768 -36.6221139598165 -3.50243811962616 0 0
-247.637182931531 25.352510297303 19.5491536124653 0 0
-130.175790980336 2.41342345151614 13.0923162677785 0 0
-238.458401899557 29.8646056475942 22.8839570696353 0 0
-234.305590264727 18.0491531354152 -18.8897558251901 0 0
174.594566414905 -6.02042725568911 19.9777725470184 0 0
-200.884666731591 2.50718636171579 9.64165156148655 0 0
234.995733569041 -12.3776807959653 -21.2286181887636 0 0
62.5628473987862 -21.7757913279122 15.7399420904755 0 0
186.273925507947 -24.079923263425 -12.2358366992163 0 0
-218.225411031608 -1.96702924977392 -13.406699915321 0 0
-218.391636236299 -17.3133827928619 8.78115972468705 0 0
203.281524209469 32.9028030000741 -18.5995398814101 0 0
148.694736789696 -17.6342228905147 18.1008751085299 0 0
165.618567842783 -1.28549116016182 20.1554154251973 0 0
189.927752154224 11.4252001005241 20.1956724484376 0 0
-170.397243794984 6.39775787990516 -9.47767131524147 0 0
95.883034734674 2.44489769940445 -3.29354759891691 0 0
205.848341518291 5.29848384165847 -21.792432200871 0 0
-124.34110816081 -21.4161348235632 -7.55041217932533 0 0
186.861941182926 7.03504196280669 -9.67130352838498 0 0
-167.47848417776 -19.6067991309867 -17.4810858665333 0 0
230.301586671085 15.4987418139788 20.4192145487457 0 0
-88.6309945949907 -26.0029641041415 3.60257168150607 0 0
180.688360983378 -10.8416293106775 -17.7544450356741 0 0
31.2906861339971 0.451641208723492 -3.02879696753874 0 0
-162.170413565183 -28.7366194197857 -4.23321083089336 0 0
207.714482284412 19.6435492849025 22.2189484458371 0 0
-193.60791146951 4.02801251528225 10.0645349213431 0 0
-220.682869174279 -36.8870478981421 -10.3294322974292 0 0
173.701146807589 2.96328463461462 19.5910868724198 0 0
122.058385232272 -19.5846196924686 17.6512375590618 0 0
0.878063551652621 -11.9361599903194 -0.34168939169309 0 0
-32.7811920617866 -7.01621341139671 26.5905183903433 0 0
-183.85614642566 10.0741253591239 -2.63074067716414 0 0
-28.4014971743992 -4.84671520837742 -3.78376806350092 0 0
-242.605749434119 12.1569672901665 -5.26469853522683 0 0
-204.212062788173 -33.5999426685093 3.23516084723135 0 0
-247.685134292096 18.8696985206211 -17.1972160344177 0 0
188.748525427839 27.899158829458 -9.41893408812287 0 0
50.3842875907406 -21.3015653248717 17.3513075829517 0 0
-10.8818097149538 4.2575148808059 4.81139009663916 0 0
24.1681405473942 -1.43229626333374 -3.8609179250752 0 0
-234.520706505035 -0.183572185783715 0.982279304699931 0 0
-135.64271211779 -27.9359512441594 4.14177476016786 0 0
-223.806612958376 42.4355525614716 14.8302940899532 0 0
223.014147190869 37.6453590262373 11.1285329566467 0 0
-173.389825612666 -18.4015278099875 -19.7757496961208 0 0
238.714108515635 34.6046205454798 -14.8654083855123 0 0
-107.479307269727 -16.9812025844619 19.2864751776316 0 0
-103.962570975598 -27.2020729410834 8.1149881249188 0 0
-258.547554493009 28.3545673771354 8.06683589953735 0 0
-11.9255314073158 5.19425894113003 20.4861171653175 0 0
-135.691163956131 -27.1634946151973 -5.001729532948 0 0
-245.328669344443 24.4310444547376 -22.9367528873202 0 0
-62.1395249274867 4.11728643501278 17.8914237558526 0 0
151.369745226625 6.51509775542595 -5.12281970910598 0 0
-223.807265855525 -29.7848310449167 -1.36412904842421 0 0
-198.529715691205 -10.0738931351296 7.4427938354457 0 0
154.329484500755 -10.8779216465503 -11.7040646469493 0 0
209.10016050266 -33.0879728726892 -15.9603195977096 0 0
-257.296482693355 38.8201572249096 8.26043936603585 0 0
-7.1293661688249 -20.0718521537918 6.59333225836527 0 0
-189.145929898772 -27.2797719471447 -20.2271308478723 0 0
168.781974512147 -6.60743865383883 -12.7304049628961 0 0
174.773297215332 10.9054489521331 17.8668835201281 0 0
-30.1739949688427 -22.6447862149188 8.21628663950925 0 0
-6.08327999007165 -4.77584478112331 -4.37283082214443 0 0
216.807956585625 19.5909160119306 22.5960432014455 0 0
-257.514321719787 29.5500589913184 9.81893469808467 0 0
-244.067628785493 12.882163376615 -6.58620570367008 0 0
12.0554681091705 -14.7516175452156 1.51413587850136 0 0
-240.966927482986 14.1794732406543 -10.5526623951763 0 0
-71.1883148999096 -23.3080832924109 17.5766906534894 0 0
-191.736793259148 -1.37944834697066 -20.1631006656534 0 0
-92.0104643341111 5.49185226304093 9.88082605505143 0 0
-214.541366736244 -7.87890398486199 -14.2601352593054 0 0
92.3249593880591 8.12374488731037 0.630465271613261 0 0
-259.473022945936 34.41546003714 5.76279702845494 0 0
23.4263213912696 -20.304670903659 20.8522965745273 0 0
76.0257927703934 -3.9298460761458 -5.45086409492817 0 0
213.77072559369 47.3911107307904 -9.56583219549559 0 0
-48.3421959293596 5.72900031401337 8.35053355845393 0 0
-132.65176789706 -5.30626907806953 16.5501103966831 0 0
-221.189993100415 -0.90292512870049 11.9783388324987 0 0
233.623974124999 35.9747862598026 -23.58730569741 0 0
235.349303554506 -18.9548930203053 -19.3695380243135 0 0
230.726487615943 40.0011439766757 3.63501921751154 0 0
-191.002159881004 10.072468050748 5.93459513099895 0 0
-216.37739747557 -18.6421459162769 -30.9922658477878 0 0
231.095195802399 -2.35227720942543 -14.5734087775152 0 0
158.303908356013 21.5792676821464 3.04469085308697 0 0
-28.3274347514284 4.23810716926912 20.8777268280489 0 0
-232.210512580926 -25.9595979355887 -22.4175630095789 0 0
157.881017734173 20.6814747066899 8.31942711648634 0 0
175.235156403741 27.9392190517407 -5.84181717286613 0 0
-247.50123992173 17.9676444839552 -13.5327243871461 0 0
-57.0109491394657 4.07518134411821 4.37617938057821 0 0
188.596622493347 11.1108455841706 -9.12587364428488 0 0
-215.936419257627 11.2104327017521 10.7223710232472 0 0
226.524645215886 3.27116803738071 12.5673262643411 0 0
-253.308358870651 36.0843036257283 14.5793099582661 0 0
-138.678392179495 4.50345528597986 0.995319551165968 0 0
-147.568226395425 -3.27022102785551 -10.8296636472189 0 0
213.681199214764 -33.9137308475748 -17.4521103588118 0 0
-5.29881336903921 6.00030837985719 19.5390485480934 0 0
-234.915849558982 51.3678680834549 -15.528025368563 0 0
155.790807030434 10.0865603586152 -3.99734094245249 0 0
-133.422600852952 1.65728952589843 -2.57142408558288 0 0
-104.842497529657 -17.9366740471528 -6.14657883277948 0 0
-46.9943095394326 -15.0307432197063 0.250244601239049 0 0
-62.1424019063318 0.334975446464005 21.483287392625 0 0
-240.147789387672 35.8726576665347 22.2157333115511 0 0
230.574873553652 12.3277861000792 17.1948881817242 0 0
-25.9292732901434 -1.03902187596663 25.3630647122029 0 0
50.6104543664837 2.06872685260801 23.4104281908754 0 0
101.527146227713 -9.6028027951094 23.4427334731763 0 0
15.169725816345 -1.90541358483663 -4.0563850368589 0 0
-169.451207184074 1.85121323653286 10.3503070853536 0 0
-99.529483929006 2.53283011907737 15.7639045346507 0 0
-89.5467687322014 -16.6503379366239 21.7374361920573 0 0
-247.025687973963 54.1679877317256 -5.21271755555852 0 0
-234.404719336472 -14.1510200896621 6.10687942969601 0 0
102.507163124969 -10.3095541839309 -7.19062272043388 0 0
-240.498728696718 23.4395973902824 -23.6281179054265 0 0
104.989401118062 -20.8996393689132 16.0449828409524 0 0
96.8111212618629 -20.383810858496 1.78210397046307 0 0
-223.011865451183 40.473071484902 13.7186791197431 0 0
-239.613076730461 -23.8489035684217 -13.0026184357352 0 0
-216.306791013121 -17.0080111564267 8.40664287634408 0 0
-224.136508650298 49.7288652061387 -9.01131242182712 0 0
22.2377495464704 -20.3692045900335 6.80940885828505 0 0
-72.9542761741568 -13.8130575417667 -3.96015424364199 0 0
156.222678361495 1.90387548047111 -7.65846866464786 0 0
-239.288239650648 18.5063929177903 -19.7991440757025 0 0
123.564752200069 12.3198533781288 1.76994995308858 0 0
-114.742421848827 -25.2692409862706 10.8551286375521 0 0
84.9357315915971 -18.9856285396775 0.485781339080256 0 0
216.442189780269 46.2132789897197 -4.95009668365284 0 0
185.26664036838 -24.0826250508984 -7.63692195643252 0 0
-213.30323600862 5.01084235767269 9.95174178184107 0 0
36.093608360031 -13.5168426855872 -0.391607537983285 0 0
82.6256128285596 1.9303538355988 -2.96030696158418 0 0
80.9565603581488 10.8005443631543 9.77739810249389 0 0
-141.957604320771 -4.9314450458476 14.8906429443559 0 0
206.022588291264 6.38557275456552 21.6050664078744 0 0
153.415322181284 8.36081290505817 -4.50654703842601 0 0
-260.697924206762 35.6525958972585 -0.165557751930916 0 0
-2.98135137281705 -16.2052163012028 3.03199983652118 0 0
85.5671954119885 -15.4942946394133 -3.22594775747298 0 0
177.939762178531 27.8654936283269 5.43352048444788 0 0
-157.519381666048 -1.86049472091948 11.9552792090013 0 0
-90.6489068526754 -0.975009273417667 19.6597808828799 0 0
23.6811464183371 -10.6824654004097 -1.69677282809915 0 0
-226.728581792932 -10.2578102581038 -13.4716584601147 0 0
190.02631876983 -25.9789622247102 -1.33729878457136 0 0
-234.652631632112 -26.3537540110449 0.46111055557466 0 0
175.88077207668 18.0019485539802 14.7012792043612 0 0
94.5602014953954 9.46087597675712 2.01822019335793 0 0
-161.495051813032 -28.4571017337767 -1.43897808747674 0 0
-84.7821869939801 -10.5891739641459 24.2257861660521 0 0
-202.138680356524 -0.712224462331982 9.89389001623809 0 0
72.7572273050717 -20.2002136696557 3.67275303729679 0 0
214.929900132012 46.2340623933348 -2.93945732020795 0 0
207.07638443058 -29.2601699142355 -29.3364485804959 0 0
-97.6875037453936 -13.82638109109 22.0796527377543 0 0
-229.497537110421 -3.91144288669313 9.18216872591175 0 0
63.4871311362659 -22.2678715837554 11.3131315979403 0 0
84.240884244546 1.50813494965583 21.9481972462005 0 0
-222.63169717079 26.7565336885372 14.6973237537669 0 0
-227.517535111693 -24.8824486684724 4.0311602307866 0 0
-239.830383733227 -14.9217551112903 -16.8826455868217 0 0
-12.4318294932745 -18.2891381358976 4.84119341961255 0 0
222.973976652347 23.3737699723073 19.6059843556163 0 0
44.5468354845267 -5.85153447038487 -4.85957697026508 0 0
201.136844584656 -26.2279526342018 16.4617880747423 0 0
-52.8028666835947 -0.407408514614268 -1.12747260805414 0 0
-11.8285131545846 -12.8109956839255 25.9527300043178 0 0
-230.180151402213 34.6615822241015 20.9438803777838 0 0
192.24768749044 33.6156741746028 9.11569948461005 0 0
84.0364031884806 -20.4220047587579 2.99765236810937 0 0
-23.0426117138628 -4.65239242113602 -3.7220743064549 0 0
-163.044273244272 -2.83446964524432 11.1978641081833 0 0
2.96014181932433 -0.190256003070322 -3.4637992703985 0 0
-127.287808836994 -14.5082478129479 -10.1634657375604 0 0
178.027017083685 -21.7400732487934 -13.803717100262 0 0
-184.053180924384 7.83215540070773 7.96083676000987 0 0
38.4036553304143 -2.68046265474488 -4.32515140440443 0 0
187.55424403102 0.518869393660774 19.6777003077477 0 0
-230.03798733801 21.7097721565522 -21.6086197178198 0 0
226.353031599055 47.4639489487432 -23.8208702825227 0 0
212.903973059779 -32.01940368305 -9.45851306036294 0 0
-133.357793026136 5.15599988151434 7.55617770599256 0 0
-246.168911955274 35.858208901646 20.0440195294507 0 0
208.102780321973 42.126098273504 -22.0779865862337 0 0
-241.753115601855 14.4854442779501 15.5085333293352 0 0
-217.785784658206 -26.8941683117244 5.05828618462027 0 0
-249.875366905166 42.5990984696523 14.8575485191772 0 0
-194.531611564815 -11.9189838935476 -27.6873733863665 0 0
-235.122077191163 -28.8116509174676 -5.04534104745581 0 0
184.393399611763 -23.5127198188579 -11.8492572102271 0 0
103.948795977244 -21.6119126731733 13.8076309880113 0 0
9.23448138339534 -15.3462683853423 2.11816981332655 0 0
36.2191868783397 -15.5108536630487 1.10240746885763 0 0
54.5105299961864 -21.661643669253 16.2619133107811 0 0
156.048961229757 -11.6232039247281 20.9558342887074 0 0
-131.835347417914 -17.3805403387713 -10.3593107662131 0 0
13.5574207752513 0.480156580997628 -2.70192644627453 0 0
-80.9204950518801 2.92105327677896 2.50447055359435 0 0
190.048630992308 -14.9920850794604 19.4697314392823 0 0
205.895553687949 37.7462234902298 -20.8203347681322 0 0
-187.561955334872 -31.2600367359869 -8.51075771432378 0 0
235.994651785276 17.1150695664827 10.4600027022636 0 0
104.482345163133 -18.8255468572635 19.4148809675728 0 0
70.3180475712192 -20.9391736484117 5.28990096605244 0 0
215.482909249181 -24.0824039503455 -35.1540209515669 0 0
-49.9970505010185 -24.1149798369471 7.80876384111761 0 0
-246.767363323238 21.0411257236094 18.3659614894144 0 0
235.671674980826 41.7361555500588 -1.94700990463564 0 0
-244.974362405723 13.9904686116773 13.50178117132 0 0
152.035704024897 14.847889304784 15.0458593898413 0 0
-228.986788059996 46.8703368899836 14.9696277944253 0 0
216.42248080449 3.54088443172034 -15.6935492409024 0 0
146.10957116228 -21.8935079539275 7.66872335035178 0 0
-26.8401690997467 -11.3776768389753 -1.17373436427469 0 0
-96.7590730159573 -23.9449584689689 -1.68587998217698 0 0
-124.819575281505 0.519939595807569 15.0897208706943 0 0
-37.1550351832135 6.60295301864947 14.1351236279142 0 0
235.62537239424 38.4760304659109 -20.3531996369388 0 0
148.995911360844 19.0730338061758 6.40512405099557 0 0
191.570088558473 9.05772152462529 -10.5427777241524 0 0
-222.699558688611 45.5267978114806 -14.3023133346378 0 0
-199.678787375789 11.2447962304024 -12.5982257513835 0 0
-205.054212561419 -36.5439386580791 -15.6065414515148 0 0
-135.170048965162 -6.85768908148462 16.3661513870429 0 0
17.1378891713444 6.86861185859925 19.0564868712807 0 0
101.218375404337 -21.822795964043 13.0103076333956 0 0
171.38082829265 2.63013219707893 19.5545856305021 0 0
-224.874310961481 43.9313123336854 14.8406221190736 0 0
-131.085733936268 -5.94591942203118 -7.89999499365557 0 0
-234.698183515336 6.55381373731434 -7.79847017248962 0 0
-121.996981210849 -20.1816665045656 -7.70389037033347 0 0
-108.215639921704 -2.23222380338477 -3.87705583531424 0 0
179.237697851868 -22.1286173176643 -12.6683205696532 0 0
198.836351305612 -13.0778333166881 -34.0714695267462 0 0
-165.225656875744 -3.3819177324561 -21.1810058356872 0 0
-248.397057214837 37.629126129253 -22.3530517308645 0 0
30.7765285602664 -21.6092598052109 18.5729586337196 0 0
-164.90046834303 -10.7838642711016 10.3419895068722 0 0
173.362499164532 6.89827917844934 -7.09281272458632 0 0
-27.525926563358 -9.61470648563448 -2.6019123546211 0 0
213.497266466524 10.038666612453 -14.9303819257934 0 0
-233.91775147951 -28.8549899596907 -9.54757978828501 0 0
-189.987224262392 -24.7186162803181 -23.3100935098443 0 0
-15.8999908868045 -19.1357510833387 5.48486828964206 0 0
174.39775329862 -17.6253770231183 -14.4951332988496 0 0
111.151018535074 13.3568826262934 9.3861958966525 0 0
234.585603705228 12.9366948512569 5.18676850321411 0 0
-140.55678016994 5.27353136481731 5.96184053430093 0 0
209.603904299485 47.1084997816257 1.51779404601476 0 0
65.2768696029343 -5.58335368394209 24.1421022766601 0 0
148.034351158479 -19.9640458370913 -3.0878070989154 0 0
-254.462110695629 39.424717918706 -16.2760927671028 0 0
201.121530679291 46.6874925428458 -6.48595925614601 0 0
-240.101087098502 -17.3489596850901 -17.2900620000343 0 0
219.616660595109 12.3469477346915 -9.44161111409382 0 0
-158.898997772481 -10.1768972964832 -15.7271973534607 0 0
224.109409616402 43.0103001088549 4.20521340277592 0 0
171.790771480887 13.8149235713699 16.5266567082071 0 0
197.262491878104 -28.3206407404235 -11.8131091287588 0 0
-77.4010008521186 5.82580910495433 9.42286021255113 0 0
34.057726919412 3.56454150879176 0.76899571290364 0 0
223.844796090754 42.3072238363479 -27.500053652514 0 0
82.6613279584499 -5.35844696333872 23.5587465347359 0 0
27.767263076427 -19.9667194614125 6.1166247218178 0 0
157.85737071041 -19.6422313272254 -5.83145477281795 0 0
-176.389875756018 -5.27103411862098 -24.7097002162711 0 0
219.586995009334 40.7403805336826 8.78260230386334 0 0
-109.133018024581 -4.83763701085937 19.9988286129251 0 0
97.2284601924092 11.8583863354599 7.15895423974222 0 0
-243.366662402204 18.2294012506757 18.0180739639422 0 0
-154.932483294454 4.4642752017496 -1.3082995149821 0 0
-62.5273044175433 -20.7383307637938 20.882632407185 0 0
-10.0241682491626 -6.41709726207238 -4.43851025702541 0 0
210.592892871643 44.5875262173897 7.78210799315091 0 0
160.998248307543 -20.9048028367601 13.6746649610441 0 0
-227.216769522284 3.41930074061234 -11.6084133510236 0 0
21.0799700275515 -21.6283504558314 8.77157715883469 0 0
123.788966901193 2.11888982434659 -5.48319770701667 0 0
151.439174710243 -6.57853631985277 -10.6378054298678 0 0
59.1421635884113 -16.1156896335737 -0.19976050947827 0 0
207.536290725542 17.6969319112122 23.6140042557679 0 0
61.140568027569 -18.7480645433065 2.48565586029777 0 0
191.843488177086 -23.5047605293638 -21.5769528990011 0 0
66.1675329834986 3.42350249871797 -1.34448571651779 0 0
-116.995454247 0.454551722349626 15.93391409741 0 0
31.1463606064906 -15.8180527692528 1.64751913449932 0 0
-78.1499178661271 1.1048175126625 0.526613164005489 0 0
234.844968592117 20.259057592557 -11.8743008297734 0 0
-217.478774945613 -34.3200417436192 -3.14582964022686 0 0
-230.06487446982 -13.7680214491596 12.462921208904 0 0
228.02614201169 -27.794690373617 -31.8403150547473 0 0
-11.1256487743194 -9.78489002048497 -1.85115933920544 0 0
10.5754020487134 -22.6436621178431 18.2306641101524 0 0
-94.3516534261168 5.28215703240105 11.5993355196271 0 0
-171.029977998427 -21.6077383628396 6.30042828188663 0 0
215.802720243373 43.8589312924454 8.32203188284809 0 0
188.948158255052 -23.5738391849133 13.3257442168694 0 0
240.884221257797 36.8361223771205 -1.7949295663246 0 5
146.184483404029 -19.3306045689705 16.2302925604261 0 0
32.0372907911685 -3.983604547837 -4.72657912230188 0 0
-116.484999751135 -11.9115939848368 19.7113962862089 0 0
-245.140394788933 13.8931793926814 -7.94007700133618 0 0
195.059092598973 34.0040610530914 -11.4082270490988 0 0
124.986193379843 -18.0297875425514 -5.05921481653454 0 0
-111.557927228222 -21.942140645207 15.1931192399241 0 0
-45.5957925027747 -8.75737286493359 -4.20007801084278 0 0
-164.867407828351 5.54243232454795 -19.0318085592548 0 0
170.900456725044 27.0226986354418 -0.365948113117573 0 0
-239.035903375775 12.9616134814981 -11.0040008230017 0 0
197.428011605562 18.3120469959631 -12.5044375821362 0 0
206.506774787618 -19.9599037533541 -39.3159095417161 0 0
217.473293305291 -28.1130506354822 -30.2446580408155 0 0
-247.316754361295 35.6711068223854 -23.3375261014505 0 0
193.731320008836 30.6784723572832 12.4594530506702 0 0
-84.6364925727846 -24.5039235407256 1.8726770578843 0 0
90.473210059626 3.58954761608805 21.206634262828 0 0
-238.95377703667 7.32022452187768 -0.402940072114102 0 0
17.9534244086576 -22.7115297799156 17.2599165698699 0 0
165.624710849914 -15.434608501792 19.4696013559259 0 0
9.06441949545717 -23.2861720002491 11.7742722437286 0 0
233.245534687384 18.1945213245314 -10.8768432696186 0 0
111.71190040562 11.7589100479929 3.17236049914624 0 0
236.696704054666 24.5011132521343 -12.0171921436629 0 0
-185.67148102684 -8.20016916271202 7.88731387271338 0 0
