"x" "y" "z" "f" "a"
144.038454677687 8.01831397800564 -9.65766373690175 0 0
164.299182587253 -31.9677973634387 -1.33310252791876 0 0
113.67663461639 -15.5822692672399 17.8226103937785 0 0
-115.993764664699 1.25834101998486 -8.62317215376899 0 0
-96.0683953728373 -5.10646774574607 8.80289428860684 0 0
-217.564571148657 -25.2059500885054 -22.1858151960225 0 0
213.02959480407 -36.5525169842504 -5.28967599063032 0 0
198.724542605324 -42.2905694128118 0.474791458345863 0 0
-191.650591526908 -21.3716930829736 -10.9604862094639 0 0
-143.604399258912 -7.08761192870377 -4.60909549036473 0 0
181.235145258068 31.4259854434929 -36.3398900254019 0 0
-85.9309819470331 2.99267549499479 -5.96181591888606 0 0
-224.293344031907 17.1494828737889 -18.4966473796136 0 0
87.9026526562503 17.2492466447124 1.49794724508446 0 0
-143.956855462569 -4.77570508959992 6.92833722070788 0 0
-70.4912396771555 -3.1298468137516 14.7469640282401 0 0
186.173999310429 -25.6213276933142 -36.1367746934763 0 0
-223.661795906755 17.4301334414327 -7.79008979547146 0 0
-200.581536628457 -32.5856630013811 -21.3245236668749 0 0
185.091199050593 -7.24492884293502 -19.3464984626138 0 0
48.6556516481818 13.6114594669957 1.56360740335926 0 0
-210.85718956533 -11.2168584850435 15.3454726617419 0 0
-197.132971749982 4.16239240786756 -16.2574464765494 0 0
166.355859651501 -9.76374641927303 22.6115770942487 0 0
34.7895416569468 -9.55417804474559 9.94985672102949 0 0
-209.087501566979 12.9722938589316 -20.3591864241605 0 0
-194.231772378917 4.8684534093901 -19.2288899555565 0 0
134.411372585166 -18.4057896244396 15.3919112182451 0 0
42.5332325915507 15.5378670880223 3.96928057273324 0 0
-207.914186091558 11.7526285912826 -9.4051228050779 0 0
-11.4895203369343 18.0447559098744 6.38429365755847 0 0
-68.2747252963555 17.2963593263528 -3.55081759081195 0 0
53.671291960386 13.1498198674 24.1517703352257 0 0
177.968859570434 -40.8426827072116 4.07635017446866 0 0
-17.3221539320463 -3.76867837437759 3.90278824842464 0 0
44.0458146047851 -11.440926401084 16.1644574291597 0 0
186.961242817644 12.3060111164923 25.8877021075035 0 0
33.3045312159023 -2.45360311191593 -0.557055445995772 0 0
-198.203947383305 -22.2650197409735 -14.7923681477974 0 0
147.636103519063 23.3399539525064 -0.191339216501214 0 0
169.244924132141 31.7589776381925 -22.8456716090534 0 0
176.245477179626 3.49118233325631 -19.9415960879054 0 0
41.6980706694171 18.5301893455936 9.81998991285186 0 0
-165.606552516926 31.6958574289265 -8.72685560331413 0 0
-199.334531466253 -12.5465557406264 13.6128600761342 0 0
-230.314061657758 -21.0846356982859 14.2176877441841 0 0
56.6472414589367 8.31473904059004 -3.23329978170489 0 0
-201.320647834568 39.0511619544023 -10.8676559542934 0 0
195.209381115109 -31.6928019722982 -39.6967794713717 0 0
19.9753441581342 19.589810315259 14.329042481475 0 0
69.8638466387973 -12.916730804169 17.7254004491918 0 0
200.031163226068 -45.1209062394455 -6.86052099522377 0 0
11.7862984145065 16.4598217293261 22.1681489985808 0 0
-162.643920811415 24.5607128806083 6.10269431998206 0 0
82.5388495592994 -2.99370204504788 -2.05001955223624 0 0
186.535178607204 3.70085187665494 -20.8869302281357 0 0
25.0061794214379 7.21166701227011 -3.01923146397849 0 0
190.65157206699 31.783964673147 13.7659160346854 0 0
-177.441143400519 36.2601755392429 -15.2734083053902 0 0
-188.46024757567 -21.9743684164272 -9.19648940191294 0 0
-52.9923037762752 -2.54399248820346 18.0746703422446 0 0
-57.292280658371 16.6787725950748 -1.77196479955915 0 0
0.0074840225990487 16.3792276338799 4.96961807390543 0 0
170.290284950785 26.8723012883144 -27.0643130984392 0 0
-155.676610402142 27.0001580176095 -13.5020772545513 0 0
139.632634713423 -16.5402683330673 -3.3296593810359 0 0
115.48055467863 -16.9189524956324 6.00928758676554 0 0
-206.075897630688 37.0535605050363 -10.9613170021335 0 0
-223.531026231778 -52.6205878825277 -9.43170600184885 0 0
-43.4622714019282 -1.90782881311043 0.748226162155845 0 0
-184.941385386271 31.8689876922309 -23.8254031577581 0 0
209.569269229303 -20.5072790947184 -31.857734555652 0 0
-208.024166068939 -55.9866601695444 -5.00849531279464 0 0
-174.788431924048 -5.02278432758557 -21.5541679154978 0 0
3.20703059273588 16.8891791559936 5.83963706392364 0 0
204.115511732788 6.22502227619257 -22.2116769736466 0 0
-218.665446002244 -46.2521906311609 21.873302110418 0 0
64.8689840825043 -7.56558443818822 4.04531282023578 0 0
157.242640005284 20.1228981312093 20.1353958087433 0 0
185.505388294569 -15.6740472491856 24.6543592743654 0 0
-217.922285496588 29.8351629587353 -9.33987026674192 0 0
-222.591445219817 18.6895243962853 -21.9405360834519 0 0
34.0977132483901 17.8551497420132 8.00597738491485 0 0
-223.930526490494 -20.355337130055 20.2226229450344 0 0
-232.542268838447 -27.3445334502341 -11.6403953542297 0 0
165.778905751463 27.52958155345 5.85519863617006 0 0
160.514969856488 0.480733579744058 -11.4535846800619 0 0
-33.933329417764 -5.52334924212724 7.2017601425679 0 0
179.581557619116 -37.7817062999854 -24.3957507559096 0 0
198.272827138126 32.5055412641849 -37.6057555692301 0 0
-85.1964145508385 3.82165174862902 18.0518905505047 0 0
182.963875577773 -46.8880572298464 -21.968870093474 0 0
165.650364055198 -19.9921123149562 17.2380479873975 0 0
-114.549872675426 9.83349715572501 14.4215668304833 0 0
142.316954766564 22.8287713905318 -3.54489759913634 0 0
189.381717608382 3.32770626101305 -18.7257789072462 0 0
-164.733863032546 -12.7838118914989 -7.85124425517633 0 0
-237.00520428388 -33.820607261921 0.496580024641674 0 0
-212.169037853005 34.217693675499 -10.2517942328164 0 0
-112.657771163244 -3.65216557173562 -2.43215444185053 0 0
-76.2068795863067 7.49934783953967 20.5469057746749 0 0
208.8746189973 28.7828444032572 -26.974829221417 0 0
100.821027325734 14.9343882041079 -2.52062139997995 0 0
-59.4029408292658 13.2360959391438 21.5884004427333 0 0
-49.8753779456994 -1.32067242531761 -0.240263480948256 0 0
-214.29521250049 -17.9302029536143 22.4697902540407 0 0
-202.97554722322 7.16468202236909 -13.2308071991213 0 0
172.104832471482 12.2820948639712 -28.4885948999905 0 0
1.95893335632082 12.5446404753142 24.6642152179654 0 0
-171.778929064549 -15.4509275945901 -7.53266505626289 0 0
211.686132148522 27.1998186856733 -17.7287619449359 0 0
-68.2207639155478 -5.74762743781813 8.6097141237919 0 0
-44.5025416959069 1.93668012759413 -3.29980007118883 0 0
207.212290058217 -39.8970088294163 -3.18276077894099 0 0
205.712560353962 25.0580193088382 -31.9518330243615 0 0
-183.986307038752 -19.5668449729224 -9.18840622522636 0 0
-227.286990985152 -50.7314692507464 8.65327330119857 0 0
-48.0945298609153 17.4935017380321 0.678391506169412 0 0
134.540402569435 9.84161973884908 -8.73820835982043 0 0
-33.3406473310108 6.48926888276752 -4.339883084417 0 0
138.342034541341 -7.98466885008629 -5.83531695752843 0 0
-19.8460099361214 3.75726217695263 24.8705584688354 0 0
-117.045413379658 26.0526791470252 -3.39273646411176 0 0
97.5121475971005 -5.92283312087038 -2.27070006744332 0 0
-229.771022978863 -35.9389583620133 -15.6420950375019 0 0
-118.086172975633 22.5578671294496 8.04065309464044 0 0
201.931028559015 -3.36209256540325 14.7390982223853 0 0
-132.754901380358 1.54530496892913 10.0480961881492 0 0
195.248516620285 36.7255247665173 -3.9031640967973 0 0
-165.772168469826 18.0016698733512 8.32054241986485 0 0
-189.668540572496 30.7759620733754 10.1683964245483 0 0
-160.773562400098 -3.69599308542924 10.2960489324465 0 0
-200.929355027967 24.6973755898735 -28.2137167687208 0 0
-28.6084325743787 -3.83502026151675 19.8495897140428 0 0
193.349550074995 5.58129101790367 20.5144372137323 0 0
52.2216651789682 15.9024447254165 3.77091798223273 0 0
180.713839520282 -30.3766978740111 -31.9994460112235 0 0
209.638255742473 29.5270246150453 -25.2507316888211 0 0
-59.5979947525932 17.6520822062709 -1.52340000954928 0 0
21.5020293756034 5.38942558924064 26.2030148502165 0 0
89.3293876686052 12.1273876228389 24.7851818882483 0 0
187.337985483057 -6.52642520603421 -18.5642507399195 0 0
-67.9481433834781 22.6409902198362 4.07512346577208 0 0
5.04383710003683 -1.53257921387014 24.2292949263088 0 0
-174.482655545814 34.5965375189137 -12.4151237902819 0 0
42.2610601303958 -6.09300953530388 4.11992664087088 0 0
179.664102438668 -41.1878126373005 -22.5949625820116 0 0
-193.217934616753 -44.9152636196451 13.1699933180651 0 0
217.535556065361 -24.0605046185313 0.903873593143494 0 0
-199.134288980602 -1.29705004768481 -13.8590114978489 0 0
200.072895315188 -41.1675950880073 1.36863973941238 0 0
-193.919326828465 -50.4281038997627 -0.00765507636537579 0 0
-191.516514317129 1.33727680384308 11.7006342697053 0 0
-142.288307810851 -0.930230509675226 -17.3389821353092 0 0
34.2956446341218 0.874494602016325 -3.16884056576091 0 0
-193.333297297401 4.7230439353439 13.274843342068 0 0
49.6478477045046 18.8607233896858 14.1112298714164 0 0
-177.035469950955 -15.5012252731052 -10.6881932076564 0 0
181.934887146369 -40.2446210421117 -29.6723703465279 0 0
147.051982949609 22.1270997563648 10.6500944049988 0 0
159.073846037966 19.2211005867396 22.3589533195285 0 0
150.001691237285 -15.9776951973108 18.1191456759207 0 0
200.405059681807 -44.2219658067216 -4.44720548330404 0 0
142.682989976878 22.5328068486016 2.52656988365715 0 0
181.759687038318 -15.1450602516136 -22.4367059783376 0 0
182.942878394638 -47.6667209505076 -19.7609710539241 0 0
62.0472551408288 4.49520999426924 -4.21382228238537 0 0
204.565892305497 -38.2961862387793 -36.066316663283 0 0
-193.759253305416 3.06432945377849 12.3519015974525 0 0
175.934060518527 5.49422329514188 24.8806385611877 0 0
-219.771955011321 12.2780770487489 -18.1040782306033 0 0
-79.2723252983956 -4.75365562433124 3.77422510217376 0 0
-209.197059719042 -7.40254717410025 -10.9787400446012 0 0
207.135818527131 5.80844215895674 -6.28721129776451 0 0
-227.888128421943 -49.3622712144998 11.2561518507944 0 0
203.995543008519 12.78542022668 -29.2629501393874 0 0
-62.0791397624153 -4.03327210602726 3.26437571502224 0 0
37.8611641195254 -8.48664015488807 7.54400954088896 0 0
118.693921073018 10.2036991076888 -7.81617100104391 0 0
163.818303351921 25.4100292427964 11.0468440801048 0 0
-176.668257838876 37.0958310896256 -5.98787755562801 0 0
-88.0628434024474 -3.94280893832683 1.03284329159961 0 0
56.6757529407237 -4.82834828044954 1.16730386203526 0 0
36.3791063997289 0.662917270126995 -3.20551623722287 0 0
193.081942921336 33.5713616911008 -38.5863635087021 0 0
89.9135097851446 8.88685236808542 -4.85070468625871 0 0
-15.839662590671 -5.85320423163622 18.9592429002217 0 0
-193.056453788171 41.3680546387451 -8.80751525473569 0 0
-177.058390202651 10.9574944093588 -31.184379972016 0 0
197.779104629764 35.1320713721342 -2.10961029445038 0 0
189.025881943137 -44.4930089663138 1.48327487513747 0 0
116.787695269374 -15.6147385845545 3.85923711503225 0 0
207.901658469215 -3.80959346581645 -0.0206727863941457 0 0
91.9002169276715 13.8953335372626 23.6006223123597 0 0
-186.121715751313 -17.7254392348062 7.37497985143558 0 0
-125.647341259445 18.8405544901243 -13.8794451840037 0 0
-147.932477310071 -3.08166769878613 -23.0074507748797 0 0
214.293482408009 -16.3328112282433 -18.6243512093157 0 0
167.183907179162 -39.8404130457714 -12.6729076569482 0 0
204.980208924629 -27.431216950082 -37.6546530371894 0 0
-217.843445210264 12.735306166332 -1.74317845133623 0 0
218.507144626307 -35.2929902969932 -14.0184965741233 0 0
-39.8333840433048 3.37536066711419 -4.03340999566321 0 0
176.638951528817 31.3015646061285 9.86123266531943 0 0
211.509865882131 -40.9807541866328 -16.9383276795992 0 0
-126.810511136352 -6.22809068813452 1.91661049376229 0 0
210.894055019838 -28.049964477549 10.7411743005292 0 0
-199.016158246127 -16.8399146764578 15.4714696770347 0 0
140.544290887658 -6.41487220874183 -6.42549561974807 0 0
-80.7982720508052 23.7831740836569 4.68750693018423 0 0
-218.821870698585 -47.9584482612781 -17.0875837818575 0 0
-149.209134834617 -7.32461311873385 3.62728687041569 0 0
104.398254844059 0.304373359545211 -4.52125314036171 0 0
105.352954290126 17.8881876142425 18.9608361414941 0 0
-120.293856621872 2.31509412432575 -10.1543715401227 0 0
-208.385384831097 -15.2446872583755 -15.1770139905849 0 0
-23.734691053521 -4.61680757676321 5.44335590310897 0 0
197.101700799542 -46.1823859299728 -10.6364266580844 0 0
-37.8933981308896 20.104065848577 18.3266791111455 0 0
-12.918640579555 8.45614770991364 -3.51250275137775 0 0
-199.611603523781 -54.9427519020267 -0.455917204241222 0 0
-223.32459901664 -13.7228749560871 -7.07120419770637 0 0
201.609605055576 28.0250954537929 19.2001855979648 0 0
196.422443789942 -44.8306509558315 -20.8572720854341 0 0
-67.528061891908 -3.6569185631589 2.43814597505906 0 0
-191.291173364545 -36.7156067817372 12.6506386712737 0 0
111.051709147685 20.3982550342479 10.3626660127253 0 0
-213.920066237455 8.63969360845508 -0.854730116972715 0 0
124.735690267952 3.52252590330605 26.8395594832303 0 0
179.520062613343 -32.3883836463198 -30.030140234577 0 0
10.214051559407 14.4754231460938 3.13174189872056 0 0
186.598926510735 24.1526924288585 29.1845184127768 0 0
208.831110607748 10.9726091528744 -12.3890755772587 0 0
-212.748254022304 16.0118172453719 13.8411979635015 0 0
-222.08656761352 -29.760549021712 -21.0194301012957 0 0
213.397561859616 -40.6074605165512 -24.5835040668031 0 0
32.1942024583442 2.3412519073215 -3.33050439050644 0 0
115.509436602851 20.5287537293393 3.99841974713802 0 0
-236.198190701547 -33.9194979504426 7.30973866523839 0 0
-94.4281797716852 23.6009721119873 -2.65134294733009 0 0
-211.724970887998 20.6582792848106 13.4432646510776 0 0
181.44143263067 22.8151740075375 -38.3165547984795 0 0
-206.601290611842 35.7262097664619 -2.32276236398358 0 0
170.759184664948 -22.2916857305002 -15.5831201162642 0 0
63.5112491592315 17.0580709613084 19.3048781131164 0 0
-2.26296636136173 0.301417095063715 24.6472531010696 0 0
-191.437051190273 9.10595172347985 17.0646038669734 0 0
-28.2661790692698 11.7150934632597 24.1395370646763 0 0
23.1969523005872 15.6185345982301 4.62060270841552 0 0
-191.023813863124 -46.6863357090239 4.23302284875344 0 0
-201.294889033532 -52.7935996915068 12.6817623856605 0 0
144.627980881226 14.0507329710874 -11.5588796500178 0 0
46.1636789152709 -8.88544255124209 7.4676898758605 0 0
0.868221532961035 -2.40311638276404 1.14087480736332 0 0
150.783379448166 -23.5101485190737 8.34219934706359 0 0
-213.270200219399 8.47127776150652 -2.83603890829807 0 0
201.945499148426 32.1138240560254 4.18994803077183 0 0
166.711171249228 27.2240937989343 -21.7200050784995 0 0
158.872846445674 -10.4760148889512 21.7561079826103 0 0
-182.195798847218 41.5558197691931 0.095863006565054 0 0
203.638418840917 -44.0316825236218 -13.0872957582381 0 0
-73.8496733840557 -0.911646626041909 16.6186866609534 0 0
-103.674538657621 25.1178276068728 0.380928849149256 0 0
218.466458227473 -33.1224815666735 -9.95797322903239 0 0
-202.831489814258 -54.7087349156454 10.2349332968881 0 0
94.2297210059129 9.05399455451854 26.1234443210262 0 0
165.175430388469 21.3328130476382 22.2250152200743 0 0
89.1338066568943 19.5437838740593 10.0294621453248 0 0
-173.994678680179 12.2607725535889 -29.7707451617731 0 0
149.094621509209 21.7727268981198 13.076143539257 0 0
-174.31852170248 -13.0378714209172 -13.8463641598892 0 0
99.0781351889288 -17.0343551937026 12.4534996807731 0 0
192.753596152991 -1.5832163038163 -14.893374927723 0 0
207.665145043698 34.2726744647025 -10.6977444612373 0 0
-40.7766871531178 14.8466225152263 -0.258939972987565 0 0
-214.60953056241 -53.3038157729191 0.712331200288021 0 0
-90.2687611454396 20.7018417155952 13.7609275451804 0 0
-212.371667793021 4.5574229134216 0.925447936877926 0 0
142.753512972366 -17.7865755119823 -3.87775963339246 0 0
38.0243472779318 18.9535107327695 15.9956315588376 0 0
-153.007539007358 -14.8224654962079 -23.5075670301397 0 0
193.829946417632 20.2566829430652 26.4026315906065 0 0
11.9172870042369 2.93981640772072 -3.70339102224142 0 0
-152.196273565074 14.7845962653704 8.95427237753562 0 0
178.765383811881 -31.1211078152775 -27.0888879160903 0 0
-226.941634923007 -30.0820113737239 -18.1305256595656 0 0
198.685104106869 -39.9960622846825 4.57405264233878 0 0
186.711183444203 37.843665576215 -2.51142270981871 0 0
94.3131279391797 -12.5435699584537 4.93929062412779 0 0
-232.55688457653 -19.2721956747708 6.28943232130295 0 0
-113.432487735098 2.26571836519038 12.9335456069204 0 0
92.9270912490514 19.2046627920038 14.049674770623 0 0
-161.602677478742 -11.4268512511115 -7.48357616082128 0 0
160.514697113177 1.24019679725015 24.0390852608921 0 0
-49.7631406929411 9.53598274859192 -5.27325248130935 0 0
-151.15490814953 -13.2344277173208 -22.0517644278398 0 0
59.0878796894701 -7.09344565953107 4.1990672933634 0 0
32.4576919630253 0.136242138846396 -2.50197942076625 0 0
175.312049817347 -27.7462738301428 -20.1543032580611 0 0
-215.142295640127 12.1703670110505 -26.8624238324743 0 0
192.709814337365 -3.92975670514364 -14.7927332202468 0 0
-194.124712371442 34.925116570171 -19.3047594646191 0 0
-121.428596182785 16.7607054978433 -14.4683409644933 0 0
-203.619693068782 -7.22134227257349 14.0657605148523 0 0
-91.7218913363987 11.3431217315232 -9.20387715395673 0 0
209.833939665806 24.8869887107463 2.50551061250576 0 0
204.440769990556 39.2168607814292 -24.251493339111 0 0
166.771071935032 -15.248569719233 -13.5136433343489 0 0
-235.520618715118 -36.3170398728993 8.96836150261764 0 0
134.532752073752 21.7355478474317 7.01580212026767 0 0
35.358818835167 19.0485140019768 15.9137386680829 0 0
-208.819202874832 -13.9936657538457 18.2150840485567 0 0
217.116094081535 -16.3922648211083 -5.50629421081871 0 0
-137.107540373976 18.1093337653459 9.40479829531819 0 0
-206.505094401221 -1.16612360291287 -11.1725623025059 0 0
217.945762083292 -19.2621683284318 -4.93916279085262 0 0
211.300293425721 24.9598978209286 -20.0056908903123 0 0
-94.2558110929247 13.1582090041954 17.4137554504315 0 0
82.7223196066713 -14.1524151780063 16.9932623273939 0 0
-38.1063015867615 10.5051530150414 -2.96732529311374 0 0
181.993743783135 32.6260679083489 10.4717729390065 0 0
-232.06174806203 -47.4601669665751 -1.85692085266764 0 0
-226.749671896814 -52.8782708329929 -0.575139033562897 0 0
-208.813505465709 35.6287967381416 -11.4647680624032 0 0
-93.7304666987016 14.6576194307552 -10.6643067350986 0 0
217.689409008685 -34.0977175982531 -10.7229490834745 0 0
-194.461219001034 -0.0782013814575149 -15.8897244797494 0 0
169.479429803978 10.8563050260692 26.763194803469 0 0
17.0297698770229 17.7635414477118 20.6100834599476 0 0
171.750729577306 29.9400425882931 7.74048571048385 0 0
-217.092621514555 17.9417729340553 10.57096025416 0 0
-191.067932495785 -37.3649389472485 -5.67001234620903 0 0
-175.262772090478 5.86156493065506 -30.017689904809 0 0
-217.623902847728 12.0236623387176 -16.5160059085324 0 0
-231.439823177047 -41.7793874190575 -11.1056755477372 0 0
-189.022464622264 -30.1476030801779 3.1870099850273 0 0
175.355301220948 -37.4297852073231 -18.6481096929227 0 0
-209.255789307801 13.7758227191627 -17.7150318291349 0 0
78.1812584055687 10.3924694953855 25.7562088125933 0 0
152.078502673132 -10.74383874556 -9.10014540571835 0 0
-72.7547710226591 -5.38794091641765 5.946060244451 0 0
-163.178095435462 -4.41442505538216 -30.5392013860303 0 0
-197.347675105149 7.52328677186326 -21.8320878421345 0 0
109.349031975806 20.2791072981796 4.83228894167132 0 0
211.231972668854 29.9822464176753 -20.3396166488341 0 0
-100.66547180321 16.7007576014828 15.3446379621308 0 0
-176.105768786073 14.8075493018965 -30.5746408322627 0 0
94.704164851883 -16.4937001363336 12.0753417720221 0 0
-220.551674691865 16.9102998768489 -2.74891898661049 0 0
35.7665376377421 8.12256346624205 -2.14897916698396 0 0
-155.332524948597 25.6744166869351 4.31513425816729 0 0
170.236894996148 20.4736996592866 -28.3613459570637 0 0
205.025165865818 -32.8726881584488 8.93895070388302 0 0
-33.105638393652 17.0363232365893 3.01771134880701 0 0
-120.049253401509 9.3881239080792 -12.375799297428 0 0
-116.85127921813 15.7513463014514 13.2089376899798 0 0
203.437049353724 -15.4144592856323 21.6997800044547 0 0
-206.856498411118 4.13818566375654 11.0419733000669 0 0
-85.9710732476804 5.37780702069724 -7.32140815834866 0 0
-208.9837930828 -44.4570031132841 23.9015040065223 0 0
211.37753826661 22.601526708248 -2.9594644522642 0 0
-182.49431908895 42.6208030074133 -7.17538336788455 0 0
-103.686898613265 21.9565797897807 -7.51573539656727 0 0
-217.196767734341 -53.5968087416632 -3.46238481162572 0 0
156.438299048584 -1.3448838177364 -9.71220593575918 0 0
61.5754798169345 0.176393522359644 -2.7530449364999 0 0
-199.957352632074 29.8482926261233 -25.1346451777911 0 0
81.4867403853607 -15.1708111241537 13.550390565597 0 0
-36.9842209182528 3.26545415581283 -4.04825803884401 0 0
173.631727386083 -19.413986075638 -16.9630351127738 0 0
-221.185161926334 14.2383398576582 -12.4004432157303 0 0
166.834925668816 -28.1624891816977 8.66881173455581 0 0
-194.312899304413 -26.3107131608339 -10.5456671858146 0 0
186.749097795146 -43.2837879533249 -27.8881366433295 0 0
-214.410714630797 -52.2929241374915 -2.36618656696165 0 0
-150.072502697335 -6.38214173537318 -13.2200257089186 0 0
77.904948846921 3.08519042412873 -4.4590387345549 0 0
-228.204520714182 -47.5779086386694 -10.4546595934098 0 0
185.947472807242 -25.8717649180784 20.8956857831639 0 0
-149.106570325918 -9.16672601505777 -24.9470747433522 0 0
194.174695835669 -36.1390145444754 -38.5318372657745 0 0
-74.961146355935 19.2551948601118 -3.4574120851905 0 0
192.803937392185 -5.39728291039125 23.3734072828779 0 0
-17.543807099466 -6.72927345786354 9.27129429771638 0 0
70.8708057358208 1.21005337655867 27.0285278479427 0 0
-209.146039194834 19.3550712509943 -28.6642422281079 0 0
36.8176448152132 12.1348879936917 24.8048844038589 0 0
-126.744676390614 0.34880409108452 -10.0267055502697 0 0
113.678146734072 -4.79089351936409 -3.80127211497605 0 0
-45.7241462515327 19.3371817086523 3.47263014456624 0 0
102.688343162559 12.8081401786195 -4.05752872714506 0 0
-188.458842567371 19.7446053258465 -32.7756235555862 0 0
-163.714298076476 10.3684747514652 -26.6910085879978 0 0
-113.11582988206 12.9433790266909 -12.2878365254627 0 0
188.388737340895 -45.9509157165992 -21.4372820936682 0 0
-200.091878474127 -23.4675837861134 21.7615427380482 0 0
-206.604931612483 -23.5394153768497 -20.5043811685158 0 0
-188.533463098268 13.6782709071922 -33.4160073030034 0 0
180.250401369668 -40.6016616993414 5.64737412258172 0 0
195.034379893518 -14.5919048142921 -29.4310952765266 0 0
90.4730109589189 -7.13756711567901 24.1751677156002 0 0
177.682700546592 -1.14823696527366 24.2499428554713 0 0
65.1605698674891 -12.6238658474078 17.585716356377 0 0
149.669581357209 -18.3401222493671 -6.95665565834465 0 0
-147.640096188227 24.919355960832 4.27355061028639 0 0
-186.228176658091 2.40859511254574 -21.0217012213847 0 0
-20.2945813274534 0.349346029966697 -2.64379843973932 0 0
196.599037910147 -29.1399694113732 -39.8540737879875 0 0
211.015700134771 -37.6797379600961 -5.58722333447579 0 0
-72.3544865639436 -5.42294676988166 10.0152670834839 0 0
-175.296265537755 32.8987445641146 -17.3584164803668 0 0
-47.1850336602198 22.4251828261034 10.2262302827228 0 0
83.9972527125276 17.9852187811704 3.37838989861846 0 0
-91.8985995302731 3.29057337162054 -6.65871025645354 0 0
20.5885759774448 -0.533138132714255 25.162242246725 0 0
193.255087570258 -16.5871831566741 -34.1376906000416 0 0
153.018384234357 23.0720194641311 9.48168448114085 0 0
-209.199071062774 -41.2567673021435 25.2856436500294 0 0
135.018995382551 -10.9965527340284 21.3035298781166 0 0
-199.766788633482 40.7192714390876 1.66387016579881 0 0
-17.6916625216833 16.5814196100938 3.92932414875625 0 0
-149.901307345378 7.57322488377502 -21.4508500400467 0 0
64.0614146157732 -3.77819299912502 24.9741956143949 0 0
28.2930093254129 19.3486789229602 13.2917915285786 0 0
-144.92930119399 23.302168817473 5.87203587215372 0 0
180.162833928593 -19.0332845062246 -25.2214186705107 0 0
-200.103972585502 40.0187326732498 -7.87043430338853 0 0
-39.047963240441 22.1156517802366 10.5674433440807 0 0
55.1508455596922 16.7829265754363 19.9558307600844 0 0
-155.606758678054 -4.39744958039025 -29.5889757144827 0 0
-121.566082473704 -3.34198922929219 9.19570667712382 0 0
-166.040059478715 5.35582723824421 8.73349103572963 0 0
-236.48782906412 -27.8933289639398 3.10300305628228 0 0
-17.2593117385884 21.0955866989793 11.9267627188844 0 0
-183.217510653481 42.4751652136124 -1.21860489816425 0 0
95.8846341786656 19.7571733922447 6.95305669483243 0 0
-147.625282857561 28.3858014103346 -7.56568201695231 0 0
9.43636634736595 19.550432882099 11.6045597853995 0 0
-6.78808553202042 10.6999468875738 -0.740839556446763 0 0
186.722634592165 -42.7679487548121 -30.5324955866007 0 0
-104.614420566045 -1.89974049919736 -3.86828908477243 0 0
-155.245669423659 23.3283143352209 6.11333358982541 0 0
130.058288643196 -17.9267037191454 1.07819160702876 0 0
175.868250284811 10.5045820783938 26.1882343648226 0 0
169.268269246768 -21.610984526893 -14.7333254078525 0 0
210.279052879145 30.9555135904062 -23.7674486626474 0 0
172.74919811546 -28.8544397758933 12.2918621866505 0 0
115.001620564402 -18.3562029115212 13.921086851705 0 0
-89.9993842910291 13.6724932411791 -9.94668124216198 0 0
-209.082611341814 12.1967074383874 -11.4386662762608 0 0
-224.618804893228 -24.7153856080083 -18.9492001833019 0 0
-214.076526797718 -51.1943900416531 -15.682944790723 0 0
-183.475829109538 8.40027657051531 -31.5871022271423 0 0
104.116484273458 -8.50578384155409 -1.76026186001132 0 0
-211.517591846407 -53.9928909366313 -2.44334236000807 0 0
-46.2907763857566 7.16581521731261 -4.83496173444053 0 0
61.9776988971531 -7.3670710882526 22.974113589952 0 0
212.996494883095 -14.4855326111144 -16.7654564988429 0 0
-154.112708573032 1.04511688603042 9.38852263930162 0 0
-179.848618842288 41.9688370845001 -8.05173802944129 0 0
188.024923101389 30.1324461728513 19.2255829816473 0 0
-196.427102372561 -49.7366787612294 11.9862175891931 0 0
-211.707529790355 -34.1029958590476 -23.4068171122577 0 0
-115.519540834014 4.11697060078848 -10.0639691992751 0 0
-194.670104295664 -0.687142175821607 11.4033970965354 0 0
157.166886129976 19.3503943046548 -17.3271939835602 0 0
179.581596926183 -47.3614801805939 -6.2843603489212 0 0
178.674504006078 -26.9181175645442 18.4255784330643 0 0
-135.093304156593 -3.64454931589977 7.8753340098051 0 0
75.9474932282589 11.0425315236584 -2.43285358368063 0 0
115.339445970287 -14.2882535472805 19.052533927176 0 0
104.721582906599 19.3898010950114 2.74010131415264 0 0
191.118221993661 36.4737337090619 -0.530336723511394 0 0
-221.895266512745 21.120044827871 -21.1275536250126 0 0
46.6499465785898 18.9070953176128 14.7737581430933 0 0
169.091387010331 -17.8487293714228 20.2977030483533 0 0
-154.655140389268 25.2337636662485 -17.1427688559933 0 0
-219.247824351653 -17.3859134156881 -14.4266008187109 0 0
182.068695111121 41.9037609232185 -18.2276628461901 0 0
-199.860387430378 29.7044277249659 8.69583211334522 0 0
179.640205698173 -47.6621238158129 -8.85477555000056 0 0
41.8784683699872 7.64057948421529 26.3577080905392 0 0
20.4867705073002 10.5025749706322 25.4478977971897 0 0
-13.2363323590106 0.762788081528011 -3.32292093886935 0 0
19.7795050514894 7.37546042433441 26.088143742582 0 0
43.5931555046248 13.7984519743284 23.7246371696816 0 0
61.3534026695623 17.7547826254533 6.3748023769738 0 0
111.970669856005 -18.0042667621919 14.2276882975472 0 0
-198.529032323921 -51.5940337537549 11.62725488996 0 0
171.933166948102 9.3365958404904 26.2421654419715 0 0
-215.010184120323 -15.1920168381123 20.3702075575994 0 0
198.05725261693 30.417511604697 18.9544168792218 0 0
-174.372999058155 -1.50887429060286 -25.3811542320147 0 0
-234.557919291294 -43.5411852740848 -0.546790387594692 0 0
179.785858178865 -0.195853556217086 24.7729725449854 0 0
-208.775785574053 -52.3704753820258 -13.8680236984975 0 0
183.877902465603 40.7060685411647 -21.8815909303627 0 0
-46.3844137795427 -3.98592460983952 17.2545412732582 0 0
195.461994348009 -42.9001384295206 -30.0596404860623 0 0
-107.259791068386 25.0218594736304 2.62957066645366 0 0
-184.02658136493 -13.3049834956693 8.52132154171725 0 0
-136.215033104092 -5.81334971552924 -4.34646976746166 0 0
-86.9938408456003 -5.12759328670843 4.01998961569774 0 0
-153.806687234458 -1.39496238027307 9.40753550312577 0 0
181.483087625128 13.2389917754251 26.2253789204422 0 0
-217.842342915354 -27.4886657197506 -22.5328966754892 0 0
101.077706467886 14.987720984186 22.5605577965794 0 0
-189.945139135535 -11.1415145482808 10.2931503866544 0 0
144.449265804218 21.0959293705044 13.71210045782 0 0
47.6270717234328 3.29004035814665 -3.55869181184448 0 0
-211.857628536043 -1.32702991217983 2.7888764003606 0 0
37.0315212912973 2.27239401641998 -3.41117304109744 0 0
-23.8747762122621 21.4605611046547 14.6114582990238 0 0
-212.727374526282 -14.6970594488412 19.6114550144083 0 0
40.9576286983869 17.9730521058732 8.18743120623406 0 0
177.589142396317 -6.73331483117356 24.2780449321882 0 0
-106.669307333005 15.4939011986799 -12.3038795265769 0 0
198.977270326782 -33.6050453859809 11.8372343061958 0 0
-16.9456860215698 7.60918995307653 25.207166214973 0 0
211.381675656556 -29.2242250071093 8.87194883434753 0 0
193.574126670108 -10.8241209407653 -16.2520429809481 0 0
212.523977908817 -40.5328433314593 -26.7571871562593 0 0
-180.362165154747 23.7844708043578 -28.8884786288724 0 0
-175.746259441483 23.4168216081963 7.72772472152096 0 0
-208.336701662617 -23.8698204058405 25.2373191217913 0 0
211.062301775066 -14.4257398486729 -20.8809844475009 0 0
203.0441675636 -43.5540173172774 -22.4071620350191 0 0
204.333564402645 -13.2684902697167 -23.7505445276392 0 0
203.646775922392 -18.369571309074 20.5173710722392 0 0
-203.303282177406 -4.33268700576779 -13.4774299269697 0 0
167.924051954646 -36.3630603518344 -13.3704191067494 0 0
-196.623960123647 37.2269592162034 -14.6436413729195 0 0
-199.759066289455 27.4466981950481 10.9017182397273 0 0
-171.950068054441 32.7211528885653 -12.9171861279098 0 0
-199.540808434139 -39.6137910263415 22.8715926229507 0 0
157.430293028983 26.0332127943874 -10.9203220385454 0 0
-93.5156824654261 -2.99414834001786 -1.11433590728253 0 0
164.923050380022 26.6056277312761 8.35747925214589 0 0
185.65651298859 4.97915663894045 -22.1535883033531 0 0
68.2952315547942 -11.7607970096319 19.2685911392056 0 0
-219.32887488134 11.8048400750886 -26.5403195148808 0 0
-132.503989437005 20.8359259824451 8.42573822370633 0 0
-165.456948017792 1.49801189124902 9.68773434637236 0 0
170.831648883786 39.4861705695538 -18.6602653355109 0 0
-40.3885334636098 -5.37349859044019 6.83983094320268 0 0
-39.2122198310554 1.57248108721838 22.7507774792737 0 0
37.959608625205 11.3303513052093 0.104609228783327 0 0
45.6874478388244 19.0371615908925 13.0237566876825 0 0
-217.576639385173 -22.8650423315256 -21.0744016963727 0 0
-212.178726139353 12.3420353457645 -18.4046725256075 0 0
-139.786857456288 17.3847624069415 9.25255771599037 0 0
-139.363369830602 3.16264193053079 -17.256100117522 0 0
-207.120666572708 -53.3237121687399 -12.2054657854912 0 0
197.787813542679 4.28493582561019 16.701404455259 0 0
-204.229875148851 -0.5798833312663 -12.8356904754116 0 0
-49.9909125899804 -6.0383147131155 12.0794364138136 0 0
-18.1863283903081 -0.435427775115582 -1.21070021010807 0 0
157.934958203868 -27.6557926038057 -7.06119853943337 0 0
211.573360733974 -10.7467172740857 -8.7263081876451 0 0
-220.687791743356 28.7146963729672 -2.63996941767022 0 0
-210.799156407212 14.7162567359997 13.8209784141732 0 0
114.368360560367 17.8279031769807 19.7004337695817 0 0
-176.047359786345 4.45025475513179 12.2489630232298 0 0
167.226134133795 -30.8716587456409 4.40447725426233 0 0
-234.825089283418 -28.6395273485713 10.9245016237024 0 0
49.1720621788862 15.2566968612402 22.2651911482648 0 0
175.93361687735 35.181426688193 -23.9724721616713 0 0
-19.152690560009 -0.483541465915405 23.2089509485763 0 0
-216.502753785649 27.9113308921149 -22.3054058371455 0 0
-167.825362957791 24.7858250476661 6.47469669348161 0 0
134.287475391177 -7.56666604980183 -5.20366857140911 0 0
-193.936234835723 -42.0050263029092 -12.9708417056091 0 0
-197.673862251725 20.2818879467613 12.9534703219693 0 0
-46.2654081443831 20.6107418539819 5.11097520211541 0 0
208.9891737401 -7.08989765702553 -5.71205282590471 0 0
214.656640097851 -15.5099771951466 3.14478346480034 0 0
-216.648074321218 -43.1124373864405 24.2809797612171 0 0
-184.188622166386 -18.392781785834 5.69524000168273 0 0
73.8770464182272 -14.0845692260676 15.5569195938207 0 0
142.457212110028 -18.3107819661369 15.7102936019592 0 0
208.320737849331 12.940404637529 -20.870793239699 0 0
-201.324192415716 -38.7595286003889 -20.5601326411399 0 0
185.26869592831 -35.1333937418206 -35.5398681055273 0 0
79.5046885986831 -4.46240039566583 -1.3638729800651 0 0
69.9651062279159 -8.64387943216994 22.2550295902694 0 0
208.169512316204 24.4337020574669 10.3172272164137 0 0
113.40001483758 5.53688022630525 -6.17967150469933 0 0
-172.947729389848 29.971041643884 -19.8624772471856 0 0
39.6076360826669 -10.8732066755872 17.3921524366586 0 0
44.6310773744902 18.8968126068383 11.3777782563852 0 0
205.760257629453 8.91041465794692 7.05590316438884 0 0
51.5137638717207 -3.54132021717621 24.7319181967835 0 0
-225.437545108364 -35.5265116947479 22.5113788356801 0 0
-67.624235279994 15.0581060494099 -5.24806348294128 0 0
-88.8652586190493 23.9249702003494 6.95210024126255 0 0
94.9372938170437 2.98179952771744 27.0896220910945 0 0
207.053422755546 6.39331619978236 -1.43212085748509 0 0
186.553918805349 33.4010664230543 -35.3494622735094 0 0
-155.982207330002 14.0105045158954 -22.7089259560501 0 0
-190.28134422759 -39.1590073932338 11.7385262147761 0 0
-179.146138801007 13.4014545833642 -31.9662951618683 0 0
194.549297040605 -2.47112693693653 21.0422385251537 0 0
-11.670588026978 -3.47931879916979 21.8457144478125 0 0
125.104686064303 -3.32904581130627 25.0111917110382 0 0
-218.035912677184 -17.7018773312343 -15.8806906887178 0 0
115.004093235305 -11.381525969679 -1.29183685324098 0 0
-203.546156238854 -40.3158197390979 -20.8514781779892 0 0
-5.57288425399291 -7.95988427203958 11.950763492134 0 0
213.638669496241 -31.3535391401485 4.65659640156962 0 0
35.3602932660622 6.01455400256413 26.4722380627196 0 0
-76.2799708190569 5.70484976577561 -6.60605370912019 0 0
-178.442174002987 2.14470291357216 12.605930380982 0 0
-185.977396401836 41.9523929442737 2.5924260581754 0 0
202.81959046708 28.7347683564717 17.0187485118848 0 0
-109.238525380643 3.15716768761567 -8.60979591014523 0 0
-171.54780515737 -7.6153705456899 8.5305454098951 0 0
188.875769434048 -42.3930626037094 4.59321423999211 0 0
-34.9885537125673 19.2048217748692 19.5960463279153 0 0
-7.81025358061721 8.83409826040998 -2.82702965802135 0 0
-192.857026430667 36.5237537343336 -16.5769018112666 0 0
-197.879108565581 31.2724220123233 6.99133686635104 0 0
179.044148683928 -27.4582882374675 -27.9714167849161 0 0
118.690620899118 -3.29199977329505 -4.5426936423234 0 0
86.3828958007991 19.2712191215275 11.9144753700527 0 0
-193.271663494771 -14.9886906349742 11.6513286040187 0 0
141.048215054798 -10.3243146326768 21.4490251073653 0 0
-140.362446854618 28.0131992332919 -4.61006122599928 0 0
18.5850487795254 13.8499897312785 2.66444519593822 0 0
209.394737200029 -8.69209885878552 4.71910412444779 0 0
199.325134786204 30.2165549422001 -37.1453275642581 0 0
-33.9978663046568 14.1326814077719 22.960467974343 0 0
-45.8059697042719 -1.75272888573859 0.446057617740242 0 0
-178.074530368088 17.3226342168182 8.71859379260758 0 0
-170.009661241888 -12.9743972733255 1.21417394108253 0 0
156.040130403048 24.5331592403437 -13.6459290836814 0 0
123.331687224281 -3.74656904163452 -4.79103580665995 0 0
185.965209993834 -42.32346962405 -32.5614986711119 0 0
-219.286184924466 -32.0456182489557 25.7478365266919 0 0
-210.561773216759 11.5794117849094 -26.8849202321696 0 0
-174.663272054072 -14.6712898296729 -11.1019119165447 0 0
-151.838131261011 19.2126249430192 7.98844343225334 0 0
120.60438801369 -17.6829371629717 5.42447148307198 0 0
-222.431985158535 26.2450510566553 -2.03018991214191 0 0
87.5593054042779 -10.9797034347425 4.63289546236345 0 0
-235.837881032272 -34.4120287076886 -5.99801361479047 0 0
-180.692482380018 -1.93553385092686 10.5468184195011 0 0
194.054792145492 7.61795946591166 -27.3592075964131 0 0
-221.20503108733 21.4970534250347 0.986911356840629 0 0
-198.283459105245 -11.2967293784467 12.6177039775652 0 0
198.879721747187 22.4875189132202 23.5585571782314 0 0
-26.1705836241697 -1.06744783330558 -0.306781029305263 0 0
153.122428339349 -25.2745299930271 -5.3590618784992 0 0
-198.015691078578 17.9227295101149 -30.5854158984807 0 0
20.8068509801296 15.8524674015769 22.4612822853543 0 0
-191.05339561204 -41.4638262614789 12.9914757297007 0 0
-216.875335958876 32.0430270929397 -9.83379392522916 0 0
-199.358740175534 -50.398777847288 -11.7337012271256 0 0
-170.920359544942 -15.3440273758141 -5.33635115568195 0 0
185.708845906404 28.3890897388664 -39.0546243121094 0 0
31.3341045135115 3.62549068773694 26.3620425087426 0 0
135.997583634384 21.1886206343193 11.9738374271599 0 0
-189.613262428753 -41.7960882313285 -1.77841562978626 0 0
211.395127926462 18.2745385707859 -17.2282082029758 0 0
-182.847327457854 38.7107030109286 -16.0229716298865 0 0
-157.327695632577 -4.44678062432374 9.94809466030776 0 0
-209.558655775384 -34.6118860149281 -23.2937693529654 0 0
-110.490136665158 24.3920427543786 5.0292869229538 0 0
-170.2871651913 -11.6797290488917 -20.0798595435806 0 0
176.177824475138 -34.6661019116962 8.23343622246624 0 0
-149.396700935494 3.95288536249803 9.41953948498281 0 0
-212.076017729795 -38.5161255751193 26.2340056438967 0 0
-223.370672687336 20.0561790765371 -18.3615109598298 0 0
38.2551670907119 17.6593049631415 7.50405224034898 0 0
-179.885859804713 -17.1368512809449 3.49304107148397 0 0
-217.579734687016 12.2544258923473 4.38831024959052 0 0
-192.425386865697 39.6270285958269 4.28498640585127 0 0
171.099499501952 14.320410805389 -28.1989508163497 0 0
178.071029955706 33.7085492603565 5.95632109459351 0 0
-172.405889277225 30.7681126400632 3.6266522211754 0 0
214.800089402772 -35.1170379687526 -7.50051286006401 0 0
177.004987078721 18.8614727537147 -35.7836867830086 0 0
-231.026685622809 -33.2549801225833 -14.6547692945787 0 0
211.202088270842 -11.5298516407816 -12.5133599562822 0 0
147.336522342598 -9.51651321480456 -7.68428148401483 0 0
-78.3809804025544 13.3515498385777 -7.93502644440318 0 0
-221.61968486042 -19.8436240278421 21.2743308502293 0 0
139.559406392731 -20.5507596205459 12.560182831608 0 0
59.3281600724541 -8.41287539055658 5.52056850913977 0 0
189.970734710977 -47.61394697599 -13.1802740108398 0 0
-94.4107575573668 23.9077171325843 7.13881319720607 0 0
-163.178815669862 30.9661372047826 -8.98786780100011 0 0
-162.244976872358 -12.0395320624412 -3.88462127671025 0 0
82.745270621742 -6.07387553242217 -0.265870609015214 0 0
202.405721521302 32.7812744957504 -1.24527453335778 0 0
191.841427207406 -47.0098633203874 -16.3759790749749 0 0
-233.43608481182 -45.6627515642652 -0.387106313451704 0 0
-193.542943278736 6.91764108065137 -24.0894824155729 0 0
-118.119595920707 11.4586974322819 -12.9009001134535 0 0
-228.615240327717 -14.9783088841991 8.11878457523251 0 0
206.021525760747 -17.57685541898 19.0655593002697 0 0
-88.5751148384508 9.31375327972491 18.8348801527281 0 0
-170.074779626537 -11.9888722148204 3.4713133731776 0 0
-146.47910262467 16.8798125357494 -19.0534568923609 0 0
-162.350068386169 13.4243234871332 8.66441020204188 0 0
196.785639677265 28.3382700780768 23.5982055434545 0 0
207.976399212976 9.13469145703658 -13.2552839742223 0 0
-146.350035768792 -6.738579442552 -6.76175732184398 0 0
68.4283632260161 -5.40290930037019 0.0415157613633173 0 0
53.2614481806622 15.2815059709812 22.1961211668129 0 0
192.226936774015 -40.2514984887151 -36.8672329534634 0 0
-133.143876936012 2.35074152517233 -13.7793253033603 0 0
-202.324765135418 -27.5746166877817 -20.2626645611164 0 0
190.199897048792 -3.28237159813564 23.6475375004054 0 0
-195.971177845693 -35.672623497036 -15.1027951539828 0 0
-97.0926075266376 0.884002470119743 -5.54408032102861 0 0
-124.886535669814 26.5803642164094 -0.355999717951046 0 0
-147.431685442089 -1.06253482611243 9.01010844070492 0 0
-188.837316761638 2.00967961850156 11.9515505218704 0 0
-130.417836263868 2.95785918338823 10.6303127516309 0 0
-204.965585504475 6.6539586070496 -10.868825166659 0 0
-48.5250214027159 -4.12199976018924 4.07512882858244 0 0
109.941192626242 -1.16546409093475 -4.4430936390969 0 0
208.375344849294 10.5302674374264 -1.05041083465682 0 0
-40.9580659669967 20.54530054231 17.5096839400216 0 0
-171.784037136722 9.85967993340062 8.65151701873444 0 0
-131.942572135005 5.61527260543443 -14.4790103085537 0 0
86.0315307181152 19.2199259532862 7.38515879900468 0 0
-210.164538428981 -54.5004882044778 -12.0631481186769 0 0
172.78611288547 22.3401308393063 -33.6990226647096 0 0
-145.959525680938 1.09084288756315 9.35017178546036 0 0
-96.9187161966732 6.71130257648293 -8.1548413225106 0 0
-27.143840639162 5.2330940941144 24.672327356961 0 0
-48.1387143340687 22.1097981078008 8.07847044941272 0 0
88.9022567682043 -11.7054678109598 20.2152367246251 0 0
-46.2588741335749 19.2625794808797 18.9198143123128 0 0
-98.0305820365604 24.4234690176654 4.7354238474109 0 0
101.445598181497 2.23520402260567 26.9492920157494 0 0
-2.46904786624098 -7.62954147934036 10.132060523656 0 0
-204.4205390372 -26.2534486074552 24.959435545009 0 0
-2.28505882584112 6.15368432791351 -4.37482567359874 0 0
191.715679588359 23.9162170975963 27.9676629073946 0 0
-24.9275176464081 8.03007073095987 -3.82712566744004 0 0
160.889875050239 -22.2627204598797 13.1708892697091 0 0
131.253495948434 5.66207708085347 26.6962244259012 0 0
-8.44142346689415 20.7052352180867 13.8760718851623 0 0
130.73859380891 -0.0614037020638124 -6.05138569438506 0 0
186.675195150719 -14.930707601768 -21.7793358339777 0 0
-222.709653162685 -54.3532042126945 -4.38422293093236 0 0
-220.610759625074 27.2598007846437 -14.1098861572301 0 0
81.1014344968124 8.81796706023806 -4.14727048538217 0 0
127.154649105302 7.49472607203865 -7.43896315728154 0 0
-194.561904050195 37.9706466336255 4.63635416511227 0 0
186.319009739768 -47.8741308249273 -3.05234630923523 0 0
-150.702800234678 -5.54062259853235 7.46499496635471 0 0
-232.32255016404 -20.267273727711 9.19006220330637 0 0
200.218848659027 -15.1842683338224 23.7896570774023 0 0
-186.375553223339 -8.32767273314083 9.72829996526801 0 0
167.218276934145 -35.6962465993461 -4.19521925662457 0 0
91.5228500968526 19.6539491370549 9.65747288303921 0 0
-162.618690198965 -16.0592198618752 -20.7836232139963 0 0
-211.279513157532 12.8339282779601 -16.1676491078298 0 0
-194.512853013593 -31.5416193205273 -10.329198261366 0 0
15.3451686493369 -4.13233978217037 23.4501811307462 0 0
45.1278995606268 15.705953359493 4.01144567526715 0 0
-196.797418317579 38.5299782916669 -12.7258579916227 0 0
193.619275876254 36.3667822714327 -36.671104021683 0 0
-147.613501225163 11.2013330193809 9.61170835910021 0 0
-47.5386017901466 -0.460413378022522 -1.0636514323057 0 0
185.037877179379 -28.9878236834438 -35.868511562839 0 0
202.61205405522 35.0681597484187 -34.6806408179062 0 0
199.777454626274 10.9046843166355 18.0177772193482 0 0
-201.085574013527 25.1890908333223 11.7794088639813 0 0
-212.227905188022 -13.7036134699995 -13.4136692174419 0 0
149.93363383041 22.9554927394351 8.46123838766335 0 0
197.064213810933 -34.9192569254457 11.3568477320381 0 0
-135.577891815343 23.7330878975539 -11.9725170820535 0 0
-218.439012560598 11.4724063870394 -19.2165064448188 0 0
-217.2960305743 14.4706576030191 9.98064011498878 0 0
-209.161939178785 25.9620932215486 -26.2137180167384 0 0
-53.734919596234 -4.04168255282755 3.70030124781025 0 0
75.6155220690453 -14.4245817028443 14.6214022117027 0 0
161.263201692875 26.0604356716967 5.19780236855022 0 0
182.598442795991 40.0976344681143 -7.98225978930388 0 0
88.6530412863859 19.0560989309297 14.1375049494366 0 0
-176.517168273755 0.334694974150229 -25.9111478841106 0 0
51.1820297153715 -6.59420386713212 23.1450090625262 0 0
37.2208082313843 -1.09339231755722 -2.05564054636678 0 0
198.055239222901 -18.480976433592 -35.9763569480321 0 0
73.4219409901301 8.62147948642502 -3.85504462427403 0 0
-86.7498495688907 17.2689026531668 17.1055475581163 0 0
202.474945700682 5.54664540993503 -24.4861291903886 0 0
160.22184723194 -14.8843166086578 -11.9864745165315 0 0
-144.634355625756 -5.64865083124565 -8.36628866528088 0 0
-197.773570245004 -0.368340106805915 11.9637280394567 0 0
87.0099829785901 -12.9843423319275 18.8381824195013 0 0
162.924400556385 -22.3820489828227 13.7026423202755 0 0
194.414193485443 36.3301441703067 -23.1875564160463 0 0
161.613962284062 -27.5179349239947 5.32574278937958 0 0
-108.507163442335 15.5805657821877 -13.2191289876983 0 0
26.2553257826561 4.50117278971696 26.261248428918 0 0
195.834750955808 36.5225065629459 -24.5577559913037 0 0
-205.143616274512 27.9262561652314 -25.9251566258765 0 0
206.729830377197 -12.6337370444502 16.8150369542905 0 0
107.735141747352 17.9395042514018 -0.494292301035828 0 0
174.351157850327 33.1676301277095 -26.5936253062189 0 0
161.625703706163 28.2563435870901 -5.74465235587021 0 0
-87.825794846689 1.41587105601189 16.2957782474277 0 0
-182.559734937435 22.9303788955503 -30.2076463589147 0 0
186.93256373818 25.1467642523353 -39.4470453894556 0 0
187.345525640902 -9.9109730545408 25.9272502236636 0 0
63.1946150781904 -2.01400455975778 25.6407616546313 0 0
205.971592323861 -13.7654729043005 -26.4748548616764 0 0
-82.9824105793196 7.04265025581164 19.5888563575726 0 0
-182.605925824554 35.1033481101665 6.18531978285168 0 0
91.8066073394746 -9.15145702213472 1.41715156476252 0 0
123.150068386915 -9.63857008696783 -2.9553185302814 0 0
156.979695635852 -29.138086554038 -2.39716139720709 0 0
165.470429480282 -26.0163942038972 10.5484214681561 0 0
-168.64148728006 -14.455360479517 -5.33020685762994 0 0
198.658285092915 -4.95002848386056 -10.4253490726589 0 0
209.140067989598 -10.3822939944045 8.30023552205893 0 0
173.378202281999 -0.953541631160014 24.0297373997155 0 0
203.094752242772 23.2257064120799 -34.5513131865983 0 0
206.206590932153 22.0449582376079 14.862562272012 0 0
-147.702255846939 -8.18919615229524 -0.758771774399055 0 0
-225.700563748911 -53.5041886036096 1.80731673946074 0 0
-201.488296496316 12.343964546829 17.5413677036348 0 0
39.228879212828 -10.7501583966622 12.5393143023225 0 0
-208.651488649508 -57.0044649225127 -0.00989110332336941 0 0
-187.478038034067 42.755338054103 0.259595525128677 0 0
188.833058247815 39.6710704676956 -20.0810489781157 0 0
-0.387574426864631 -7.86474211573249 10.6568304600868 0 0
-124.199667601986 -2.62343655793164 -6.70719626412586 0 0
-148.500580020704 -7.90833494711074 -18.7237100432791 0 0
161.705519774883 15.3384584843583 -17.9556832639808 0 0
-114.424733985029 -5.19488140615266 7.11171988480385 0 0
-169.360866379914 30.5558310781648 -14.9018388931344 0 0
