"x" "y" "z" "f" "a"
82.942626640449 8.69261593057117 -20.5986691810375 0 0
188.357964622064 26.2063449666478 13.8879409277261 0 0
237.78325814983 33.1874013080682 -2.56394496153709 0 0
70.3403425362607 12.2451347756739 -15.7862355420905 0 0
220.479896672 47.3275565350749 9.27762174972386 0 0
129.546690181269 17.6556566646869 -1.73128252133502 0 0
238.879704347023 12.8723605552909 6.9376209891043 0 0
19.707257451237 -14.561130935654 -18.7313632436283 0 0
206.710762570107 22.483476209253 38.0463567591755 0 0
122.509814947251 10.988142739184 -19.3225021778869 0 0
133.368481699521 13.1747676941991 3.37953942890778 0 0
218.289031953695 -6.01115088132614 -22.7395770081964 0 0
128.351035187707 16.1018345338228 -15.1057984100552 0 0
154.413377766024 -16.416933462145 -10.0797477676722 0 0
79.4025405769856 12.1460664674268 -17.2264566547659 0 0
211.820951114436 29.7469496500247 41.8215716129588 0 0
227.787743123057 9.65406290979554 12.4144438736763 0 0
116.059914790292 -15.6550261421754 -5.50850004504286 0 0
217.412982721563 -36.5722447078157 7.82224038210037 0 0
216.868897910523 46.3280472802242 23.324949303553 0 0
81.183787339983 9.05068491817864 -20.3208204533234 0 0
40.8207081164506 -1.50790592310853 6.30377871073963 0 0
205.880147014967 -7.69847570701373 27.4644793392829 0 0
202.08712758993 28.6446730953388 33.132956078518 0 0
211.888126746726 36.0295347847977 -8.97330888281295 0 0
30.0909299819913 8.94197606825575 -16.4932733803611 0 0
100.218402854195 -3.86323157131445 -23.1379459259492 0 0
235.336012180139 27.3421576649333 -9.93643475836122 0 0
209.592943734442 -9.24459251983582 30.0200200664683 0 0
136.900487080673 -12.1044524058204 -18.1773086886868 0 0
124.865553458108 -15.4274424689363 -9.66527661100265 0 0
191.847116644318 28.6778880503456 -10.0673852025616 0 0
133.393612861873 -7.39940729964179 8.50885984819927 0 0
223.721555755341 31.1593368750241 -10.4083896956537 0 0
120.172120181978 4.99815642020068 -21.6084052047053 0 0
138.51181162343 -16.1212616355033 -7.95530228505725 0 0
152.304859043822 -16.6886005984138 5.52020565264521 0 0
80.6552464994351 8.98296605157807 0.0521887402384908 0 0
207.821007852222 -17.803707081944 35.9848880338351 0 0
38.1487304544786 -12.2343528038267 -0.0975938728359343 0 0
140.832505409357 -16.4745446297178 -5.19805288427199 0 0
68.6439754669709 0.380914701963641 -23.0490513499093 0 0
4.69468206686237 6.4644683140919 -1.27125728383512 1 0
11.0048112965261 7.90745678203018 -3.09533171452461 0 0
230.570301695588 -2.94102069047047 3.70750042223372 0 0
95.6676085908417 -6.49988875240264 6.33063512931209 0 0
162.361950790725 19.6181242496778 -12.2714308478731 0 0
214.466716455454 9.5477228232423 -20.8559976991724 0 0
91.5877541120281 15.0010171759939 -12.1944628808187 0 0
216.717003826191 -23.6322799556601 -23.5392719627102 0 0
40.7466148871163 2.1315382417825 -22.4717075331325 0 0
236.006008414642 9.95014082146352 -0.311375438791232 0 0
53.0185224878012 4.07422078469919 3.57057698405476 0 0
176.357554577105 -10.8872307347117 -21.7579606703977 0 0
199.854636079869 -25.3001028183824 32.8609840981636 0 0
78.6516874850311 2.31281316659282 -22.7230808267737 0 0
230.85595559529 -34.5331385899053 8.76007975307625 0 0
150.602164317488 -17.1168991055351 -1.97263157406823 0 0
234.50427962988 13.4844472920965 22.1093097573502 0 0
180.339975755522 27.5745044568109 6.50938011929727 0 0
138.50092994279 19.26213025318 -2.63805774559486 0 0
210.239119098073 -33.9829530036186 32.9449088896186 0 0
102.539870414109 15.7761281001778 -6.66222883870902 0 0
209.655122722558 45.0358182887929 3.94077275514513 0 0
214.58357495813 -23.5878781106496 37.6492774880623 0 0
61.9708126331011 -6.64120571797462 -22.885522164648 0 0
138.711119266835 17.8312825074426 0.0611260942622119 0 0
98.4035635895095 3.69561889308656 4.89001373573027 0 0
145.811061041925 -16.7464123105617 1.53913204830308 0 0
165.998093205756 16.2343878515643 -15.531533302462 0 0
197.251522676318 -12.3211324732377 -27.5872903148788 0 0
227.059034716155 -35.6983293919623 13.9874225391275 0 0
209.36288620274 37.0056737139579 -7.69301425949271 0 0
223.480952214375 9.47126099124769 14.8591273313861 0 0
208.633598729251 24.9623300495724 -18.6745659448667 0 0
205.71973677417 -15.8950496584345 34.6924583593476 0 0
192.520820716284 -0.191766416679673 -21.846354785233 0 0
81.3267811140878 11.0367756693389 -18.7386137905004 0 0
55.8555082228487 11.5324531263674 -6.92677302621163 0 0
3.24119557569776 -1.1465313968444 6.90245019663411 1 0
200.157609448384 -35.5639310919521 8.55134916996879 0 0
188.228334861812 13.3072734435231 14.7642747347294 0 0
176.059140772759 23.73274542831 -9.13876959554739 0 0
194.431109279384 -31.4221600017746 7.76908481808099 0 0
112.867972900506 -4.40711160056788 7.2807906136611 0 0
55.9576022606817 -12.2134589608747 -19.8063164096089 0 0
176.287803403652 2.64514808660588 10.7143444141165 0 0
96.0284373698874 -2.61162640313608 6.55027340716332 0 0
229.067642683395 -7.58814640177679 -11.7859022045185 0 0
204.906834471306 -18.2663637364661 35.1539540178645 0 0
40.4553468758225 6.00284909200417 -20.7387527514247 0 0
54.0760065214191 -0.453387413043153 -23.0955017465484 0 0
161.2973216429 -17.3670623873843 8.26023166950808 0 0
7.59127600138256 9.17755407687193 -5.54507102035408 0 0
195.861771166914 39.966038221616 9.67102112268214 0 0
225.03292236114 11.127143654679 16.5634873924459 0 0
211.073901801853 17.227565448283 30.580688442141 0 0
194.720567938999 36.2269909790538 1.90403715855127 0 0
200.038240767768 -27.7593403412154 -10.7604380893605 0 0
233.898105575252 8.42472058068351 8.55788572274888 0 0
130.190383519386 -15.9945239312218 -0.131940695171299 0 0
194.460913012723 35.7102096169215 15.74295093177 0 0
33.6150374171634 10.6393658857974 -7.77805106740567 0 0
7.86109527557941 -16.6234769042914 -15.8846266435574 0 0
209.184705392109 37.8184511288506 38.3270573006254 0 0
89.4945876325577 -14.6510363533143 -12.5300810537422 0 0
227.928847445984 -36.8438827369241 26.1583728635441 0 0
187.585338565667 -25.1492976321508 3.90367170999583 0 0
201.891598115879 -15.6861701799504 -28.8864062985344 0 0
208.727141115001 -29.3849207263901 36.5867880173725 0 0
174.107766062729 2.41860927045669 10.5187109026834 0 0
148.336921090371 20.8454661983912 -5.05715720517752 0 0
129.377562553664 9.25647125529166 -19.9500059031465 0 0
221.855730570115 16.538149387745 39.4940731900451 0 0
173.86592228256 25.7569590015385 -1.63507410838881 0 0
197.786675628164 -25.7353649754882 30.8879380419052 0 0
74.4330900542885 -12.5540501048288 -18.6085871208508 0 0
72.8213035627506 13.053774541263 -8.4613148541743 0 0
91.8383918696 -8.44804622034011 -21.9667747251306 0 0
185.630488462962 -7.83924227772097 14.3389916455244 0 0
232.637925397262 27.1131447199184 -11.6692468796089 0 0
220.379311098058 33.5852599393691 -9.21559309837966 0 0
53.6428225574242 10.8563630797087 -5.54607418427015 0 0
229.571779275335 -0.396789270257779 5.80723459968399 0 0
84.4828086112959 -15.0248203480274 -10.0097961919976 0 0
224.302354179486 -4.9303259463571 19.7693836713038 0 0
120.34655749728 -11.2221943093643 6.43194442988417 0 0
133.792298698145 -15.2277223111026 3.97231773207028 0 0
88.1553019771003 -12.3658346713591 -18.3923983087561 0 0
109.220006721729 -15.4963986806014 -3.75372772616349 0 0
15.0491480838345 8.50873816466466 -3.77165337337027 0 0
224.646864318809 35.9083752574646 -4.46628208170711 0 0
134.411611931746 -15.1950058132872 -11.8107653724182 0 0
14.2260576264541 -6.27277067878643 -22.7374890420984 0 0
69.3575853720318 -14.9879391104608 -5.72801574188909 0 0
76.9600188362217 3.69142924550391 4.30754043415601 0 0
198.208879538489 11.8829033682517 -19.8306701067618 0 0
226.760945720512 -28.2614310789203 -7.59571723922341 0 0
117.150713946503 -12.0388047636426 -18.2801584699263 0 0
100.023475727476 0.15194380379543 -22.9777756062589 0 0
206.984399911096 5.24141763825967 -20.3932684385246 0 0
150.839668862295 -3.50227795824345 -22.4921735755347 0 0
52.5797053502915 -15.373715085535 -12.1060635172451 0 0
138.342169554749 17.1371322245622 -13.9674569686322 0 0
203.856657281256 18.4030640889037 28.2157524066614 0 0
42.8784135537488 -7.57272165247954 3.40822756785974 0 0
196.513514518909 -19.6548817176838 29.596665485429 0 0
195.69221687702 -18.3738312407523 -25.8201373122033 0 0
67.4586299697801 6.76403478101417 -21.3108978708511 0 0
170.393375871857 -18.6724401346561 -5.6470851994083 0 0
141.361878052791 19.2354007020897 -10.1951982763217 0 0
216.187192971661 18.4305874114028 41.0058479868122 0 0
133.544069265884 -14.0191732306659 -14.8941244418298 0 0
194.207926995098 -7.82434488907163 -25.8448433300746 0 0
119.578714852201 6.5767848589184 5.24466350212876 0 0
203.024179838027 -4.18515873187023 22.5007189957078 0 0
97.0150077364065 -14.0687236930363 -14.4647591036712 0 0
8.09339773863938 8.18090478338414 -15.5316027887599 0 0
210.279701070817 -30.2507632099126 -8.19676043160858 0 0
138.451555726017 -15.179718086718 -12.3049130888191 0 0
128.580230653159 -15.93113107651 -6.58447408024033 0 0
150.679054047964 5.66863901391277 7.99985029772521 0 0
87.6167676572225 1.40700602294551 5.32367231762433 0 0
88.2837403201006 12.1618536148301 -2.50342561259428 0 0
172.063918937944 21.2183721610476 -11.485253645848 0 0
156.366228249091 -6.65982028784944 10.0617399857991 0 0
228.520907998326 -1.09567451671785 8.73820036365125 0 0
220.323601581137 41.5489331204593 31.9175733729658 0 0
66.6495497743797 7.3548983509927 0.355082247487683 0 0
186.529857938728 9.79095257312701 12.9445185067076 0 0
199.504988189729 23.6505480799892 26.0522584570935 0 0
197.715640479396 -18.4502129002154 -26.353570852759 0 0
183.328245582832 -23.7010617434864 12.2341474265238 0 0
202.550550947424 10.9362704017554 -20.2200948702671 0 0
67.8802876312514 12.6600510641729 -14.1025782952004 0 0
122.324901295188 -2.68529877089206 7.54449788821544 0 0
210.909031225977 16.8875449716693 36.7711062600202 0 0
229.111566681545 -13.6366966481191 -15.7021154686804 0 0
218.031516583873 45.9513552581269 17.1171274457777 0 0
200.96681632937 38.2780757732483 -1.9501472094409 0 0
140.663492682737 -6.47460772056263 8.99455487614563 0 0
27.8804232816043 4.95930795038752 -20.9149780422754 0 0
204.952440266268 3.62007921939245 20.5803585795557 0 0
216.436060352711 -31.4476320056534 -3.50009512655158 0 0
222.111199281898 -34.6078714554812 7.65832963303 0 0
189.146411554864 8.9558097536353 13.5926407246304 0 0
47.7109339385779 -11.6613077976294 0.471021957077713 0 0
45.3173234036522 -12.6008799354798 -0.48375604909443 0 0
178.170825383134 -20.5877221228788 12.1632122225426 0 0
233.414682086647 -33.0240661381141 11.8799902234181 0 0
198.6548419682 -13.568089284212 29.5033637319048 0 0
217.274242715341 32.2161689747388 -11.7873713716953 0 0
189.544069417125 -21.898831762306 -13.1589898862225 0 0
233.666115659794 -24.7459785934539 20.4590270345982 0 0
221.870267146789 -21.0665846955698 -24.3780538113193 0 0
115.819339982094 -4.6746848727369 7.45159788866972 0 0
231.401490951294 5.93227872648923 -6.14230868339665 0 0
10.0738108267102 9.5163816125619 -6.26810187402804 0 0
228.310798874064 -14.7429226622915 -17.3500856630651 0 0
199.194796692638 7.13160078581982 -19.6139152705129 0 0
175.520708493119 26.4430487481569 0.265198776298781 0 0
190.899235969025 -22.9489830916955 -12.0525010757521 0 0
214.631067757183 29.1651536350143 43.0224089265471 0 0
234.119309537177 -26.7396390453309 18.1224273299263 0 0
44.6008457948572 -4.51098789010245 -23.2086119545189 0 0
227.584211433124 -3.91778253300474 -11.9049395285156 0 0
215.841360204338 -6.55965888083178 24.5146318562998 0 0
154.635923604206 13.1932394703654 6.36253738744453 0 0
77.031769633307 -14.179437401462 -15.0526299866845 0 0
2.69408748555474 9.42199750303844 -6.75032160086885 1 0
218.829383867164 46.4116504807088 6.64634845418697 0 0
212.852540756253 42.3156349583199 31.0261981855061 0 0
136.315648569501 -13.1878655558058 -16.6370671516819 0 0
231.471279241794 -8.50831152276272 -5.19315206398375 0 0
85.2939983452079 -14.5027332697516 -2.28313095027842 0 0
228.682757054468 41.9314826471745 31.8265919791103 0 0
180.52786351608 23.6425654917426 -10.8769362285683 0 0
233.454809726087 -13.291926834921 0.492396377199229 0 0
197.24372904848 -29.7267357710571 -1.02460887079245 0 0
227.914113344574 -34.0922888427581 8.37858176842794 0 0
122.147078755014 -5.38226015043506 7.81818439963557 0 0
172.67175419786 -20.0309879469458 8.783061430984 0 0
140.271234983556 10.5678651249112 -19.0401711348279 0 0
172.332465387937 15.7172829093489 -15.9442837334712 0 0
193.034439443644 35.424919261304 3.20822909409681 0 0
2.54570678290668 7.98951561136508 -15.5173187317762 1 0
230.803750700941 1.23463030466663 -1.89087194757389 0 0
208.81160394498 -3.73760412801653 23.3890687754361 0 0
157.023418797029 14.012048810359 -16.9449013305683 0 0
218.706974131387 18.9814021090114 -20.9311788004687 0 0
223.08699698078 -1.82901982788207 13.8016915232322 0 0
31.3765811712199 10.0116746822843 -14.4301044287714 0 0
53.9510457327301 -0.901061502463118 6.19560100263516 0 0
74.0441561187199 -11.8514833887351 1.18440396700861 0 0
215.120803578957 20.8096517559913 42.169230974301 0 0
194.440087468767 -6.50645542480761 17.1082863907446 0 0
236.86808257618 24.5543776090349 -9.80754396553839 0 0
178.63697218129 -21.9355033223065 10.333853626069 0 0
126.731133382908 -12.2017681496818 -18.046366558568 0 0
190.055449378572 33.298476758294 2.30344442508235 0 0
135.888904774998 -6.96092883227137 8.6863839757156 0 0
230.619382305506 -31.6530134391654 2.70830228897037 0 0
231.458039368931 -10.097871131148 -7.395034011196 0 0
180.221172391159 16.829278018019 12.3452585996019 0 0
138.827651277314 -16.0920144159799 2.63015856272186 0 0
239.65066096952 32.4265828094004 30.2840738899622 0 0
230.429318774758 14.282776780482 31.8576704840588 0 0
220.947106898524 -14.1201864916201 33.1234509279925 0 0
80.1978204971933 13.971023768123 -10.856041758386 0 0
103.820972702641 -9.76297476550974 -20.9442059560922 0 0
76.0746529692821 10.7982043925413 -2.45332574519088 0 0
163.00240839116 -9.7867007134218 11.081985012242 0 0
85.7476976779839 -1.01230780678796 6.06599830647011 0 0
95.3844053725 2.52571294711269 5.15548774510014 0 0
231.065108683444 -10.9584062421594 -9.66361203351709 0 0
229.012074431995 -9.62594163615515 19.3560360018304 0 0
102.886451832896 -15.1503973715842 -10.1956096273851 0 0
50.8209935892431 2.25332820453669 5.08240067435455 0 0
179.669763899787 10.9633968919988 -18.0036176986007 0 0
114.370859427009 -12.2817517788279 -17.91029042089 0 0
38.4884142112629 -5.14943297503873 5.15026604501282 0 0
176.23856533818 19.9420690200484 10.0195582027743 0 0
63.2971123193437 -11.1915369503503 -20.5612291365976 0 0
199.552981710047 33.0243804122252 25.5578562931984 0 0
168.798942054063 3.29392774515535 9.81855453777307 0 0
86.6135383830395 -3.86871752460418 6.55719074314525 0 0
230.108122278341 10.7817987456703 12.6354237784737 0 0
198.90527675342 -29.1284428086443 -5.98028281504594 0 0
237.386529805073 40.8163338518224 27.3116064258121 0 0
217.423734206245 -32.5952454300367 0.0719249383506917 0 0
141.218169295261 -16.5008165097447 -0.92987961451436 0 0
116.562235330153 -6.95293632218553 7.53518116244907 0 0
213.817615621683 16.2431448327231 -20.1549694443282 0 0
205.311860310828 -34.7809063864828 23.4265945575734 0 0
187.566052593928 -21.1318183459176 17.9426944435463 0 0
97.1804008427871 -14.0367577322022 0.393050769071199 0 0
177.077129378314 12.7604005662639 10.5403577566076 0 0
111.188015560854 -7.17971784189306 7.24464189281654 0 0
176.074261365088 15.2383318693894 9.9741364499419 0 0
19.493757171219 -13.6870604132816 -1.64340195588568 0 0
189.368458826544 -1.34613506910272 13.804415686117 0 0
243.684241310506 30.3068635195991 7.42585929714888 0 0
156.139474274046 20.8739962712745 -8.9561048748547 0 0
220.308201250779 39.9458621952462 -1.41143308156114 0 0
212.49616282747 -2.02875957155164 -22.9781163222033 0 0
214.77924890182 36.4826814360868 -7.66209067727149 0 0
4.06614176102834 -0.0457184947612043 -22.2121750584289 1 0
128.286874950845 13.9777737531636 2.23190241692709 0 0
199.493780976283 41.319827299131 6.2059226319775 0 0
153.144467203014 16.9974652099603 4.32503022404762 0 0
206.035249685143 -2.07408525634862 21.8428466401159 0 0
93.4665289548239 -4.55837111489328 6.71027607247849 0 0
11.7998092638284 -10.4055560218773 -22.0233340275305 0 0
58.840153429073 12.0387335268244 -14.043774599891 0 0
55.0690953647897 1.93210377921202 5.37324229510203 0 0
15.6646188850633 -9.38042555329934 2.67375036469181 0 0
97.2788856131346 15.5424185161721 -8.73277720246801 0 0
165.100409820541 22.3467437379516 2.77679874723324 0 0
86.3871850743204 -15.0133222769552 -5.23235325717274 0 0
104.899209120848 14.8471189806941 -15.6500644902897 0 0
7.55963576819402 7.81565014323403 -3.07159991369851 0 0
222.681462065882 12.2465367038054 19.0764830943602 0 0
205.524319370121 29.4346189102586 37.4098722826801 0 0
35.0221533833264 0.975334416955062 5.81415007795905 0 0
206.126512352861 -9.05028316302467 -27.1164012977407 0 0
205.499496535788 18.8498436908884 35.2583809013716 0 0
177.89645303344 18.3667603606511 11.7397477243052 0 0
171.982476446108 22.9964322902615 6.09793614014649 0 0
26.214533858755 -0.262152141368514 6.56781280017366 0 0
238.020027694402 31.0632480068325 33.0225021095247 0 0
226.728596590221 37.38718831544 -1.54214713738228 0 0
166.226322862231 23.6171015327879 -0.244419752086554 0 0
173.097192113317 -12.6359957868668 -19.924203517306 0 0
48.0939432871577 -8.73253802991979 -22.4430720732038 0 0
220.143846182546 45.7338314944418 17.7845191296186 0 0
228.23040809041 -5.67684758926071 -12.0461413395376 0 0
215.644231619392 -35.6300282194456 22.9147102129174 0 0
208.647867406004 -8.14900974991278 28.1448245975751 0 0
192.628409454277 -27.5106824067506 1.29068773669317 0 0
177.198404170448 -2.25807740121476 -22.0603342190952 0 0
194.246429970996 -27.25766147968 -3.75630328106631 0 0
53.8367546666595 8.80068660970641 -2.18957644620781 0 0
138.276933504947 15.3346179105528 -16.0154762085089 0 0
33.2608312777499 9.60617786332257 -15.5803122428392 0 0
126.043696633513 5.59221599075358 6.13887342220217 0 0
219.05725588458 -31.7409485111889 35.8232333067376 0 0
107.043205831075 12.4027834878562 -18.536311511883 0 0
153.065036991051 -10.0497268859819 -20.6141951771727 0 0
66.575374247688 -1.02200767993451 -23.2077043196872 0 0
208.436707469782 -2.12604265473906 21.9573317932733 0 0
191.257809294066 22.0934724916315 16.5417468583698 0 0
114.970336534781 16.5736212311114 -3.8754646305953 0 0
227.587205723258 -0.721235424223401 -10.7170489067377 0 0
225.51917864455 -9.42270220695864 25.5455999844782 0 0
223.956558572932 -10.5475620185773 27.9290565494796 0 0
79.5979552324538 -15.006808239539 -10.7164564240575 0 0
176.290604379328 -21.1735530705623 6.56078358393868 0 0
233.044965761817 -14.2006574847973 -5.24412648224902 0 0
191.830184776785 6.58078900451139 -19.5799027111144 0 0
195.916583837142 24.2630747581297 19.2467079421663 0 0
12.3013031289031 9.91819749160739 -11.5489469095195 0 0
233.631933370162 20.1524074425644 36.5539278229553 0 0
185.323467428555 -15.7259985352321 -20.4420687878714 0 0
240.863999499426 15.5604013568542 4.33615276545892 0 0
122.339248542597 18.076413291804 -6.56578511961389 0 0
184.244574084959 -23.2288130553064 14.3192829281781 0 0
213.34997175354 -23.6956529879903 -23.101436841366 0 0
153.803053043334 6.53529826108142 -20.0905371230272 0 0
229.304855988972 6.94307459353405 8.92339797833875 0 0
100.57622144183 15.964528745394 -10.0526711747822 0 0
138.980221639282 -10.4749302901038 -19.9384911439023 0 0
172.106991107603 -16.7072940034605 12.14780610408 0 0
226.127142890163 2.85036896637375 9.73066225841269 0 0
13.6397407519335 -15.0446446094174 -3.95970047283198 0 0
227.733125157727 -10.081668760491 22.6342730632515 0 0
41.3844469600485 5.36456798071832 1.36669121501521 0 0
220.011454254777 -33.75467948208 15.111952856541 0 0
177.601121268742 10.4242171239305 10.5436892901182 0 0
242.157676563724 18.0521149045345 7.49302281445307 0 0
238.5957218313 15.009586482513 18.7053448965162 0 0
200.070549479702 -3.43062617167449 19.4490544932425 0 0
118.890234688409 11.1818932584516 2.60339000174979 0 0
76.8022737238736 -14.8900675804746 -12.0021543723955 0 0
211.257110697484 -7.28765193545981 -26.2398244330903 0 0
31.2323299834531 9.44781948412949 -4.58657118089795 0 0
208.167642730968 1.79303856342485 19.7737180424042 0 0
62.5427464048102 4.87971570239175 -21.959368475332 0 0
157.9965173385 -8.95447012359646 10.4594834559627 0 0
183.979164284339 -16.4914067281275 16.6393852157251 0 0
105.94983656779 6.79522549517619 3.88983715153875 0 0
231.191373763876 -9.62160308359976 10.9274694115459 0 0
88.7027286775193 -2.32245924385037 6.412977740586 0 0
195.288978869761 25.417590903494 -14.8246240409052 0 0
131.581196285451 18.625726064073 -3.5687923650652 0 0
210.190131220382 -13.9649840816717 34.5905643977351 0 0
217.116559845566 16.4749993386823 31.6442262944637 0 0
24.9721665500115 2.9616638978209 3.969061140186 0 0
193.07121163447 -30.7087251940043 18.6417887016775 0 0
173.429957002028 -9.75191217031459 12.6659245608946 0 0
3.416720771077 -8.32781423579788 -22.4201509511604 1 0
160.570100474588 -12.1125960411997 -19.1692091330061 0 0
212.208150264522 -31.1718395114146 -5.52545413977995 0 0
169.83237951171 -16.5096562528643 -13.3434618310193 0 0
89.1138791022661 5.14135033136376 -22.0501176576482 0 0
87.9190479659026 -10.4487783274027 -20.6849716829422 0 0
95.8570583497242 5.28990004540606 4.09647060328961 0 0
182.525839508341 -13.9385153501395 -21.0074822750503 0 0
242.409617496266 32.5463419250059 23.823043446791 0 0
232.676762917311 -27.2746189091637 -3.34725189120497 0 0
124.479644050022 -10.9644587679607 -19.54523625157 0 0
207.644017563246 -29.895949324714 -8.67260641385413 0 0
218.22685587814 14.3006958893829 35.1507194782117 0 0
104.627732301226 16.2645414417412 -11.6194228914172 0 0
70.36188566155 5.3004344129013 2.64279900054547 0 0
224.337918053677 45.4843582395605 14.8029919740409 0 0
6.22207814480101 -15.8887135216584 -5.69600526621568 0 0
225.391014716111 -36.106612793957 30.2355404859133 0 0
207.645395842801 33.8717364828829 38.5836447552147 0 0
26.4007773967252 10.5537027016894 -8.82224009311183 0 0
220.819549100936 -29.0715038093222 -7.10767612194759 0 0
217.872197673121 -29.9735225982112 -6.38282117426432 0 0
117.57955566131 7.32767797275396 -20.9715968168301 0 0
141.003638953804 -16.0510399790751 3.5504911161781 0 0
49.6637857796601 -15.4148165148179 -12.2211364709268 0 0
55.6725859357131 7.44468986287989 -0.496000803810393 0 0
38.4260187968848 -15.2503299489077 -6.40558477774674 0 0
125.561421557948 18.2737180974739 -5.25224095706417 0 0
227.121620198483 -2.22244131278594 -11.7987155616682 0 0
219.004967483054 45.8301086812409 23.8717100908618 0 0
61.5228552750841 5.13140044820407 2.50326486320241 0 0
88.2194161941677 12.0041624063209 -18.1933755484859 0 0
229.497418114535 2.0862832040825 -7.36923127193464 0 0
232.19286556783 5.53982154950865 0.967098288493392 0 0
213.979861774565 41.3252677787466 33.5373978599517 0 0
219.530834973808 45.8685431647825 15.9839394599395 0 0
62.1803151431388 -3.34801375113943 -23.2709965533914 0 0
179.954810500896 -19.591488150907 -9.94401245823745 0 0
141.157852002741 -5.53188558570077 -22.3270674520554 0 0
155.568147483317 -15.7976125079109 -12.443801314554 0 0
109.280679099619 -6.76485570705554 -22.5288634132872 0 0
236.151848804107 39.6435943195068 15.6892114176303 0 0
227.281467017037 -35.4339298822604 11.895242775018 0 0
116.545006704316 16.2687998823215 -14.2024657370677 0 0
134.875694488195 -5.5626783754376 -22.3441513902152 0 0
231.590597192877 -13.0971220190719 -9.89465191005063 0 0
134.452131288709 -16.1995772553561 -5.27533499230494 0 0
166.847845996568 3.73268452767216 9.62008252951514 0 0
222.677143777808 -33.9657414077202 33.5585484672788 0 0
204.724132748231 -32.1527405859922 -2.01914754284158 0 0
151.898548840143 -16.280785371065 -10.0312371886328 0 0
234.294966934233 -25.6708028382825 1.69350431640163 0 0
194.301428096415 -31.7545356874502 19.3853091610206 0 0
95.460394824251 9.90431371708043 -20.1511928548422 0 0
221.387840154333 -2.0230908329906 16.2526820465862 0 0
230.73688332899 -7.20181270390862 -6.88598649275825 0 0
16.3572205367187 -1.40470090525314 -22.7610952738712 0 0
84.1633540760391 3.30740874243075 -22.4977304344025 0 0
33.828673681434 -1.50198483823477 6.47757774359231 0 0
205.598427762506 -19.764811782971 -28.1492659519628 0 0
182.348283299386 -9.81175765631967 -23.3664433800984 0 0
64.631784865736 -2.61603424966072 -23.2815563368128 0 0
240.087738208461 30.1739554539357 -2.97206206231483 0 0
201.26357956699 -1.34829429080368 20.553630744818 0 0
223.33351788741 21.2696177347751 -20.2904013336404 0 0
223.249737006155 14.8532957732149 28.1385515513513 0 0
223.321495136898 -21.9470851900082 34.4884933218395 0 0
127.370346984479 -4.93629263950556 8.12047448035316 0 0
55.4025818947329 -15.4161872578163 -12.1469408557478 0 0
208.348475004235 15.2977930181588 24.8184178981352 0 0
241.396045393538 22.5697919308305 -0.465461639703698 0 0
142.82367050148 -1.35629998521209 8.70522184985765 0 0
211.357870068361 21.996589151286 41.1573722558921 0 0
210.302228378473 -0.103822609757216 20.3501123405289 0 0
220.524405765662 7.80430527821481 15.471513943329 0 0
113.812640791414 -7.07862974511289 7.37583701062225 0 0
220.287774571317 15.3279003557813 37.579468901126 0 0
196.260697253857 13.5826429176348 17.1323401860956 0 0
10.1745129020263 9.38042602490082 -13.2635232017319 0 0
205.093554439704 -29.1983242509588 -9.77450497289138 0 0
234.128262540351 41.580506767077 27.1120799375086 0 0
186.968096935707 -10.5446797677683 15.5703352808244 0 0
158.871134655034 21.6705002800678 -7.51103028845945 0 0
9.0319595502597 -8.10239166057103 -22.5329561644871 0 0
201.78506704924 16.9418259674078 -20.4524287694362 0 0
227.273445165671 25.745101078043 -14.2533718828397 0 0
213.06515788813 16.338525458716 36.9304681245238 0 0
181.670167289198 9.04031219355725 11.3091190581458 0 0
226.161731954237 -1.04458976739605 11.2393371579841 0 0
198.443899969897 34.9753777461931 23.9040484157691 0 0
159.784311990889 -17.986238499684 3.67368649030801 0 0
225.644183903737 45.406795396158 13.0339170244299 0 0
244.148000986494 31.3655318264909 12.1755411512565 0 0
220.911050690008 -5.95708070250848 -20.6585321427215 0 0
219.175837438271 -31.6324130415158 -1.23213767306225 0 0
92.659854609715 -12.9454636333499 1.45549850085536 0 0
224.249488244866 -0.689960039691099 11.7526237633606 0 0
185.404786991193 28.5177014059515 10.1040059022079 0 0
124.715688561586 -15.7136669213675 -0.00231465812758499 0 0
188.188661863158 -6.410654453701 14.5831477567779 0 0
141.221031210094 19.7962121773046 -3.52874102117319 0 0
223.391056446995 -35.4481793487045 32.1789055976723 0 0
125.925892905884 7.73226800749359 -20.5841625147493 0 0
179.977042334832 28.04408576993 0.847199878980276 0 0
235.325559561474 12.9951261579244 -7.48472616330538 0 0
155.528615401776 -11.2601801314527 -19.7725867059353 0 0
205.869126568744 27.6520475967262 -16.6684039509627 0 0
240.968382271132 23.6844649335094 25.6507708340118 0 0
226.307078032939 -34.6277715598823 9.82258611763509 0 0
185.56349346306 -25.1579394974517 12.4229729413777 0 0
209.343879063355 46.9305118312966 8.64533489475584 0 0
154.986189334106 -17.210134287564 5.17530707320677 0 0
228.371630809693 43.2776469243617 22.5139932557245 0 0
197.300045649292 -22.8558543881279 31.0307856311365 0 0
27.4888846077933 2.42629013694101 4.73570552259621 0 0
74.0610960828259 -6.31162232618575 4.88293513924937 0 0
166.823144893558 18.9445606714687 -13.3660617908489 0 0
186.352991612727 -25.1354958109184 7.09402951956144 0 0
202.664830383155 -7.30543509399636 25.2811053456851 0 0
219.748420024626 4.37798649935358 12.8840393199578 0 0
107.574077387198 0.549972518386025 -22.8544091665594 0 0
194.92292178692 16.1640960260103 17.5366442708028 0 0
226.306126154466 -30.5792419046503 0.369960364792044 0 0
231.399718917246 -7.08520705509403 -3.0669396937079 0 0
178.655026004855 25.9259272403263 7.30913194377145 0 0
222.658884765638 29.9710867477027 -11.8859170964364 0 0
187.848838756676 -21.773377312555 -11.491612849052 0 0
143.48665950845 18.4453894322807 0.322151842057595 0 0
131.131491386114 -12.2158032974107 -18.0283968077122 0 0
199.128289558451 -33.3450952501228 19.0329615237906 0 0
38.263426694948 6.13108546806729 -20.5800109607655 0 0
74.8940795755201 2.28375228550213 4.99845129852029 0 0
227.03141208141 35.5248752606899 -3.65257216493625 0 0
77.5781707994364 -8.14711131510032 -22.2497028192916 0 0
165.471964704922 -18.3299556744746 -3.07130192949313 0 0
57.0051068224446 -12.1574326987053 0.161544134445589 0 0
11.9152646611218 -5.07640076084034 5.65850118907472 0 0
226.034022152129 39.2042504483228 0.348335989891367 0 0
205.211997213676 12.9177569299771 23.0113912150279 0 0
216.314471084804 -37.1296602781024 9.4880376315322 0 0
71.9494833800351 -14.907842748185 -13.2616266067626 0 0
234.571792152969 -20.7415664477116 10.5444042668786 0 0
230.97212228243 -26.2194635396602 -9.13329460677451 0 0
232.107257858441 -8.97672574100839 5.84137599888749 0 0
197.736131870991 32.9800935745849 22.3850864729701 0 0
47.9826335423758 11.4673310240044 -8.4393018651985 0 0
217.389585352828 -10.7459425695564 32.1874576500032 0 0
232.052286465906 -9.39106506799573 -2.65704359530653 0 0
17.6958058565936 9.64640938827091 -13.3987566706402 0 0
234.341973957471 -23.5474282621858 0.903343277239951 0 0
23.8002760790405 -15.9589862809368 -8.52028528889212 0 0
203.590743605926 27.8918304099488 35.6206199892759 0 0
201.112483567209 -34.304361549475 4.8579742039754 0 0
230.552600086028 16.3743848431672 -17.5368155654347 0 0
229.283974014767 43.9115955941405 13.2336748012154 0 0
118.181041860421 -9.00072263437542 7.33067575140856 0 0
225.210895057189 7.85636235499651 -16.0316420285255 0 0
25.4579240285018 -1.05929324163396 -22.8710662109067 0 0
141.042657473576 -14.7886567047813 6.04470095915793 0 0
219.587470857078 -0.385417920289278 13.1978255247735 0 0
155.499776605809 -12.0442760947898 9.95265837577454 0 0
156.696718182378 -17.3455308928509 -4.7990732732852 0 0
208.123313888408 -3.57024459985567 -24.3267957762165 0 0
232.099749153387 -13.4916861968329 14.6555380620007 0 0
205.024619151469 44.2485218812741 4.43411776045042 0 0
80.7944265209571 -4.93274930627146 -23.1787192627791 0 0
197.378314080519 20.2570205932318 20.383893870945 0 0
102.378888167593 11.3534790979197 0.572926161787793 0 0
149.311100129612 16.9460658834012 -14.5926378100377 0 0
199.514122308668 -31.833371277021 27.4138020516148 0 0
196.728067195974 20.5812789563427 -18.2396920278178 0 0
71.427841884246 10.8772935819712 -18.1882049083409 0 0
193.551763171725 34.5020813796009 14.6323167510581 0 0
211.015646193335 44.2358490004767 27.6065824302579 0 0
200.469093264098 -32.7735533949236 25.5611371868328 0 0
199.685742283328 4.34467028959095 -20.3161224624829 0 0
193.624766704026 -4.38349179749018 -23.9683790637593 0 0
135.689681888923 19.4529024251713 -6.15070776896111 0 0
8.93953484842101 -1.07835298342401 -22.5868473130689 0 0
196.6146553588 -21.1169944064605 -22.5941973005304 0 0
30.4574909156536 -0.727467261737811 6.58912003370621 0 0
1.00927780822316 -0.163847481142728 6.52744204028975 1 0
205.185687210591 -2.31006465071257 -23.7616647282373 0 0
86.204755120992 14.571586447411 -10.8858734466755 0 0
237.099272403767 22.5601296798445 33.6830936458942 0 0
233.800971858885 -15.6733899981027 -3.03618490223976 0 0
110.319095845667 10.5142206822435 1.97828201297255 0 0
160.875995165772 2.31979163251058 -21.1976267101584 0 0
4.06886917116134 -17.187784832985 -9.01633559642947 1 0
126.6602820456 -15.875889743483 -0.697092310435719 0 0
206.005651187205 -4.38821974894962 -24.7676835129435 0 0
147.218240196688 8.95423776111476 -19.4914382819922 0 0
126.585749104916 16.8655221583754 -13.8903606844303 0 0
60.0579904496239 -3.90031479344068 -23.2648826694014 0 0
115.663628738029 6.25071680696831 -21.3476583488436 0 0
216.142178127054 26.9164945513338 -16.2068213705078 0 0
234.096106617144 -28.6074748698032 4.37955580165819 0 0
131.226075651579 -9.48618823026241 -20.717728641515 0 0
40.4182684989266 0.84318219934443 5.79016027092354 0 0
69.4140896180497 8.76109276288095 -20.13567495364 0 0
94.0661081269161 15.1199410215245 -8.07203411418215 0 0
227.365550052558 41.5663193436429 4.87319142503383 0 0
6.45284914462925 -1.31429323587103 -22.5739440128217 0 0
166.74989147742 -6.64423020451126 -22.3954074720518 0 0
78.2487316446179 1.84452539103345 5.1236642095943 0 0
213.769043300233 30.6488381856807 -14.0391435902979 0 0
215.44057147198 16.7377723791252 38.9655807046831 0 0
199.972736365337 -16.1679534317151 -28.2264717201255 0 0
179.4866987962 -15.8898059119284 -17.5356204713571 0 0
233.709470053048 -20.7447382070875 -5.82818699519588 0 0
146.668565206745 -16.8863584821546 -2.65012869228176 0 0
119.944736788942 7.55805732921906 -20.8173039092884 0 0
38.5699893585573 11.1032343902771 -10.5634375183724 0 0
145.950051862243 -3.71628325452633 9.15909640895118 0 0
242.669570022357 20.5333542286001 4.96173124474766 0 0
10.4870132146945 4.19919405221716 -20.4387331918185 0 0
93.5402513745573 -12.4897188051561 -18.0434858369257 0 0
32.5067570899646 8.31186679662764 -2.67160231581925 0 0
231.510271020755 8.49559769074965 -9.30766504322067 0 0
198.899242676448 -9.53531530048445 26.56683128401 0 0
84.5931119539763 11.3781146719955 -18.6095340260405 0 0
208.971206659193 17.9047312817116 -20.7135148482163 0 0
171.923177307906 -16.1668500700755 -14.6519092681972 0 0
233.329534735512 -23.4321158717973 -5.84296295113778 0 0
194.877428700087 5.28026799625389 15.7124311476523 0 0
202.788707235329 2.56607194937711 20.6721314361773 0 0
197.415009542946 -26.2232071873182 -11.7690115230898 0 0
231.694119334439 -35.7214498740633 13.8623602855115 0 0
82.8154919933903 14.2247179792529 -10.2887364925945 0 0
210.841467560933 -33.8932187198987 0.726002170076566 0 0
152.448615167561 -17.2631194019421 0.551047002229822 0 0
182.476092395902 -22.3634582981182 0.221752240529721 0 0
46.7337557208946 4.24300237481957 -21.8023867900211 0 0
211.333188554411 15.7834965617823 33.9262352027981 0 0
59.4650948502143 -15.253229629648 -6.55805569582215 0 0
67.7631209559239 11.839359804197 -16.3364452889109 0 0
176.257160970914 -9.82119647556046 12.9930405773241 0 0
195.836688522088 -6.81497965552729 -25.52844048739 0 0
141.165780658402 5.42884954406312 7.28447450166947 0 0
82.841702485039 5.02163797803685 -22.1254844920637 0 0
175.39967280168 0.234912003484429 11.0955135931416 0 0
215.326836190448 -35.7479951156637 5.63038461966211 0 0
33.409742278667 3.24181668891805 3.84019867378446 0 0
217.827990229735 -29.3479795923755 -8.13509961414174 0 0
184.466374658566 -22.2447095618336 -5.27458497490314 0 0
220.189570454673 21.0100424327683 -19.9187199765023 0 0
187.778066441918 -24.1877695820453 16.6749792155505 0 0
140.871707942442 -11.5223388400713 -18.966096114491 0 0
226.586662296715 -26.1622820191479 -14.9708203014967 0 0
111.889582041622 12.9173169014196 0.584285366484809 0 0
202.948704324038 -29.7596866189185 33.3505363118924 0 0
155.259777622163 18.989699802027 2.94863233536383 0 0
188.190542940011 -24.8231006213668 0.746664090796815 0 0
142.915752113413 -16.6513053015741 -3.94650526117225 0 0
214.646938450546 38.677998038983 40.0617320736911 0 0
53.3752943497323 4.25545896172673 -21.9075245492411 0 0
75.4098214638248 12.6626639080769 -15.6379303350007 0 0
230.96580630801 12.1125414638768 24.6716458524337 0 0
69.6376593519766 -9.39268359737316 -21.7503404216416 0 0
183.071574133194 -19.5519475247745 -12.5613138734293 0 0
130.715153040204 -15.711648967714 1.89147468354261 0 0
77.6371734579233 4.92795507450008 -22.1535230011687 0 0
67.5330242668734 -14.1439700440307 -16.0941350351691 0 0
11.8015729383137 -14.109224684594 -1.89725262194868 0 0
210.167966932896 -21.7501996856097 -26.9422838216016 0 0
55.1195428659877 2.7022477136429 -22.4749708187316 0 0
65.5529552123943 11.2410316294304 -4.81587273061113 0 0
231.618647594154 -7.55859273597956 -0.0365870348281803 0 0
230.738293543361 12.0567163436266 14.8470017749568 0 0
227.39069746343 13.4503829480974 32.3121499081518 0 0
177.013200716827 -17.5741835876528 -13.3748264946941 0 0
115.705804006178 -15.3963147435243 -0.424368772823195 0 0
121.09066739772 2.2698377433408 -22.2613260337901 0 0
43.2311460466179 11.2282692826802 -12.6760504125508 0 0
141.166656223985 5.09196966332886 -20.9580254878697 0 0
196.318371675378 36.1588982552554 19.5032482822028 0 0
37.4959846961539 8.99633162826279 -3.30206903499037 0 0
162.198488389648 20.1461479784987 4.43744004407399 0 0
220.65627530955 -35.9075331079874 33.0020054074938 0 0
195.430003024977 -19.5465921992696 -24.0850266768463 0 0
199.763905477011 -30.6107209549785 -2.36654409367564 0 0
162.119469762274 -5.23929792026919 -22.4334210008729 0 0
47.8836260963756 7.14956691868125 -0.488972396151654 0 0
178.533375738301 -20.7891039348722 -3.11499179791088 0 0
234.41565115738 -21.1557127090165 1.23939791388109 0 0
24.1330762383552 0.663442404893582 6.15974918618099 0 0
234.52505589132 -20.7019083136833 3.85112096591212 0 0
244.174413636598 28.0777816856545 10.2262449494977 0 0
0.435464144607798 -2.10849156708167 7.10361732406552 1 0
231.508332732439 40.9109105275653 33.6645238306285 0 0
207.411978303063 -27.8586293401392 -14.0692662363848 0 0
220.294423477908 13.7752432436075 34.2107028602339 0 0
36.1778281372524 -15.9318203811944 -13.5273623098499 0 0
60.4230682046523 -13.5918932216558 -17.6857272533532 0 0
146.917646502501 4.48555092236067 -20.9894192288065 0 0
71.3758019934577 -5.34141880121878 -23.1312354284733 0 0
121.336221760297 5.38041638112079 5.83899118696024 0 0
150.0108614727 19.6856093771846 -10.6032357453958 0 0
198.387572183166 -21.4228764222156 -23.3612667940987 0 0
79.1905383018381 -15.0312070207278 -5.67285882095833 0 0
194.369119071349 31.7045811550102 16.8708161557206 0 0
164.697965599566 23.3748170285 -2.31023269781927 0 0
85.9057419476343 9.8626350650731 -0.150267451761339 0 0
48.0174011383856 10.6739926634085 -5.72104006274154 0 0
232.925260452403 -17.8303596615468 18.8963439773224 0 0
223.721257874559 -20.6819581815569 -22.8654143826982 0 0
137.976022893582 18.8938417720715 -10.6402824476815 0 0
179.150315332277 -13.061982237828 14.7195598949893 0 0
128.942012266386 -0.829623608068598 -22.6190670754784 0 0
217.637656155262 7.68290644670112 -19.7885587938448 0 0
18.7757112163435 -8.88651820596703 2.8321412752216 0 0
225.76313377981 40.2276367085729 36.3351371684027 0 0
191.094830329335 15.3397300159258 -18.1811450356086 0 0
234.060206464361 -21.1170363344548 -3.73549263893846 0 0
237.894215416867 22.5921155905667 -6.63531179141332 0 0
203.219410396279 13.9970732489948 -20.5849913366093 0 0
145.840972276297 7.40244370148365 -20.078627044117 0 0
212.472547200423 37.6019317531003 40.4213352988116 0 0
121.349304811498 7.83617062121648 4.77160466276699 0 0
106.197730383221 -13.4484207968771 -15.8120753671777 0 0
125.591541345238 -12.5269931551035 6.04678457451894 0 0
205.070666280073 -30.0673688714923 -7.40142580799143 0 0
197.292136295351 -27.9332186359286 29.3986808421374 0 0
90.6070904998637 6.01569779625297 3.35852848583665 0 0
235.852390307402 37.7111017011408 6.70650734059824 0 0
225.330697177459 -2.12013240457138 13.0908055893938 0 0
42.994540551327 6.77769634971193 -20.2805596116878 0 0
106.217092598283 -11.396632932293 -19.3034687058549 0 0
176.852018771024 1.12705821415929 11.0447982257108 0 0
143.015975356108 19.7537284318603 -2.4523127022677 0 0
156.698118704974 -17.1808094935606 -6.56641030354395 0 0
103.922200062927 14.9613072543189 -3.64036409750011 0 0
94.9703003146146 13.8468519013893 -16.2994391768393 0 0
240.531121847026 26.5404018130222 -2.01055307177581 0 0
178.30928398798 5.96359552200308 10.6868620746375 0 0
234.442694900349 13.6415103111689 -10.3818831303522 0 0
205.197072125108 43.3230536860426 2.50000551476425 0 0
211.042211597452 -35.0966265948399 26.9048572403232 0 0
230.056006516559 42.9184522115112 20.7806713902826 0 0
221.781445434371 7.46319601158347 13.8378346588333 0 0
110.629391554896 16.5067664379165 -12.7577915640184 0 0
214.088714017686 -32.2990249674975 -2.09744144468878 0 0
184.163283110871 10.9935025744521 12.4341917894503 0 0
138.738140830861 9.34023100499383 -19.5828415645742 0 0
119.005048536443 -3.06672663275417 7.43886159354571 0 0
182.681999257569 -23.4134342556102 7.58408933229411 0 0
232.0575056108 -18.9814844702712 -11.1468360524299 0 0
170.479000425311 11.7707238579208 -17.6801792102213 0 0
191.974081552761 34.0596419237711 0.777698122515412 0 0
229.388519181647 42.4106186795638 9.65165532637858 0 0
55.4465946919619 -13.6915891846844 -2.01274731287768 0 0
124.381675643481 9.64834129461847 -19.9272982088227 0 0
35.3952428462641 5.77719231736795 -20.6680666681063 0 0
180.337075697754 -20.4170637582915 -7.64879020760709 0 0
17.6091602646899 6.1417551720431 -19.1766147689713 0 0
78.3505630949659 -6.39645316410905 5.11687960863775 0 0
211.944105175203 47.544056161575 21.2933889601014 0 0
180.047073113023 11.5687035471089 11.2766088431453 0 0
228.825328015634 14.0640939613437 20.7641831213156 0 0
229.616818178169 38.1492411752111 38.8957152004587 0 0
135.265620877563 -12.4892389286748 7.46705370694928 0 0
106.838512628682 -14.2871038304099 -13.5918331334044 0 0
0.662053840523079 1.72614554475714 4.62213715881317 1 0
146.206088770199 -9.52035080492677 -20.8014709026324 0 0
37.6846950402511 -4.97062998406105 -23.139727897819 0 0
52.3179138726575 2.50946186138024 -22.4922864419947 0 0
125.349147938664 11.7344898386914 3.11167360439091 0 0
51.1373200769899 -2.12255525753916 6.26673685357286 0 0
220.373531200558 -15.6673472047279 34.2745068523416 0 0
196.851320220501 -16.4818136295788 28.9156951267526 0 0
234.724871997429 -21.6179760093768 8.00882800639106 0 0
203.666636286919 8.85863787926759 21.2380556596287 0 0
169.308389303787 24.0041360996319 -5.13526627338992 0 0
158.808197736605 -1.94022268314382 -22.320875298971 0 0
121.187700933322 -14.3217067515452 -13.7857960191891 0 0
153.246140686736 -4.44313314495585 9.62503692270179 0 0
181.594074097906 -21.6586522719378 -3.08406347617425 0 0
175.722263016599 21.84889076197 8.80287007573543 0 0
68.3441552679924 -0.466900890921995 6.00971342042287 0 0
175.242210671567 -20.1404979222013 -2.15852295848277 0 0
225.488543605718 -29.0013995141397 -5.00281691796472 0 0
79.342362040014 -2.9003093001907 -23.2684578002639 0 0
159.159458020519 8.31972216298087 -19.220983803353 0 0
210.850502011032 -18.7530835464692 -30.1440051916928 0 0
206.198374603417 -32.1245134308353 32.4926178481443 0 0
208.741438968645 -19.3721904874324 -30.1132472586792 0 0
53.7670437905337 5.7722822118744 1.32811999283455 0 0
75.9049990788014 13.2247087975696 -8.11382464548492 0 0
208.535215947939 -7.3559511990807 -26.5805946380286 0 0
93.8053212272212 0.363850976288744 5.79112659249749 0 0
228.486422894651 44.5611505556292 16.0874310134055 0 0
93.1537227714002 10.7545889608358 -19.5365694539279 0 0
22.342059548143 -8.14943705191409 3.06150559053305 0 0
173.465674237677 -18.2934119106343 11.7452945116882 0 0
177.796372015039 -16.6695587771461 -15.5938915743467 0 0
233.979396988031 -18.6104777641713 -4.45481131725753 0 0
59.0035281855951 6.7426304182545 0.522251321526495 0 0
185.352639799194 23.1884401204783 13.5315692672324 0 0
195.515480080443 -31.2102937691551 22.4868107935736 0 0
192.599591163644 -28.2780426693963 3.80863144611828 0 0
227.289728162402 4.84589309061429 9.09359798957852 0 0
223.790330923855 46.1263894346993 12.2336326143128 0 0
228.826250154086 -31.4794493202371 2.07372911604286 0 0
222.736435130882 14.6935943314844 36.41782927916 0 0
60.7046551692622 8.67081637551336 -19.7993240806734 0 0
227.430982168301 -12.580889584924 -17.7323910637413 0 0
211.483011057831 7.18348471040786 -21.0439606310309 0 0
100.995054284677 -9.10556014191669 5.56776636786954 0 0
207.023922573109 -24.2724111510664 36.6702170329831 0 0
173.883694030049 -20.210412735659 0.922406243994326 0 0
76.1170405810239 -15.1588074433008 -6.99290124135211 0 0
10.0975259764372 6.94906491464941 -17.5364984531322 0 0
186.770362815349 -5.30308359071986 -23.5323415189153 0 0
104.276672386143 12.7371771670736 -0.422405055674953 0 0
211.211953029016 -29.5929768839099 37.0933640410334 0 0
111.035188566797 14.3711967818238 -1.01235367936481 0 0
45.5748083814441 -5.5822298928518 4.74545131446758 0 0
231.200091564879 -35.3825081874891 21.2658716303244 0 0
198.622535251966 -7.49920381867275 -26.1988899538171 0 0
219.222457666238 45.0256533757546 25.7583267641152 0 0
226.264850614136 40.3897193219151 2.17672648848834 0 0
241.671183535453 17.9762088818751 3.57626171158302 0 0
199.876412166983 -11.0407209378185 -27.4244952359853 0 0
194.933583630039 4.0879255940208 -20.2845412450323 0 0
218.898405003404 -33.2558789101405 18.7086022363022 0 0
59.2287632985197 6.59824434851601 -21.0976254742136 0 0
208.368702930375 -33.2670721446735 31.5433986695688 0 0
160.51090579878 10.3099853333668 -18.4859314176726 0 0
208.388832549782 19.9013281341115 38.4509725573104 0 0
147.241042562908 11.9443363629161 -18.208454332676 0 0
219.988744658993 29.8509854594063 43.5324824765041 0 0
231.915889122194 -29.8624073928041 0.580627295507588 0 0
137.190928308593 -9.36629909271033 8.76623153918831 0 0
168.596840217054 19.3264297442698 7.04068694800754 0 0
144.464711841113 0.0951121830650877 8.58738151423375 0 0
8.23144529278935 -2.28711908850601 6.82656499127394 0 0
123.941133872913 0.267045657362721 -22.5618556448557 0 0
170.830305298257 20.7071048035128 7.14271789317006 0 0
191.200095265254 -28.1219891545271 17.3898280609625 0 0
229.300318546566 -37.2699309671023 21.0346448918149 0 0
60.1144139675705 -13.1997923520961 -1.03724323341988 0 0
230.391992310468 4.2631707232889 -6.90160801868129 0 0
220.198078662124 -34.4894709745788 34.2125075345817 0 0
87.1765072631375 6.45750478463212 -21.6946796487597 0 0
205.920880680752 17.1917412689176 31.7032880362342 0 0
157.066855563266 17.0108989880549 -14.7929135473761 0 0
76.7363631771587 6.25506121254487 2.10334849632307 0 0
166.777515638775 17.212626176251 7.38422082843258 0 0
41.0575082582266 -9.63982649481246 2.00731775204272 0 0
153.225667753548 -12.5399943438674 -18.3621857580062 0 0
216.848839579842 10.4139206894793 -20.4506441738013 0 0
137.533799732135 -2.64180994118168 8.5019114924319 0 0
227.756523856086 17.603156794741 38.9151467319123 0 0
29.4703486045308 7.56739546238256 -18.4990274310936 0 0
137.977696028245 -4.37662874455577 -22.5148110792139 0 0
220.55071977291 -6.41839249161369 22.4472936637356 0 0
176.927479502513 2.74559124085586 -20.4635555370374 0 0
178.05508460185 -18.6748594619323 -11.1096238957885 0 0
198.041486835094 -2.86584188096706 -23.0482086087624 0 0
183.933387229632 0.784753821903312 -21.0765174278449 0 0
145.752667116213 13.7022668428054 -17.3754373250594 0 0
188.253447696147 32.6490330618499 4.83293058796666 0 0
175.403810362736 -14.7959786878559 14.0312752856112 0 0
163.224488846273 21.3275373314947 -9.63684449804265 0 0
36.1626255246201 -3.20420811938443 6.28987057137035 0 0
67.2927269832724 -15.5409022412251 -12.6998923472336 0 0
