"x" "y" "z" "f" "a"
11.857953438751 7.7591134544593 0.936074342584675 0 0
-207.083652461236 25.989793042577 18.8683885907117 0 0
-177.361950859087 -11.0819673591717 -22.0397068653152 0 0
-48.9687681066578 9.26574420430689 1.79587795407686 0 0
-178.491854440044 46.3876088498236 -10.5857338635371 0 0
-187.233837193923 38.5955450256403 -27.7700260799654 0 0
-139.407905179401 -19.1989251587578 -8.8081428618965 0 0
-110.134824683553 -19.6794795613012 10.8459064274815 0 0
45.740135898386 -19.3571108165998 16.2839622370349 1 0
-154.68849558387 -18.6293968814781 22.2815367887808 0 0
25.377821865732 3.56857110006486 -5.53142543437854 0 0
-174.189682490333 6.70155518195224 -14.2207410739878 0 0
23.5457145532424 4.57567464065523 20.9796966161536 0 0
-128.979663041432 2.29539734426166 25.1108519039688 0 0
-78.6404325726832 -18.148490237484 9.83528404647693 0 0
-186.011772419482 31.0021442404131 13.6914506518099 0 0
17.623756531521 -9.11338298553343 -5.7543238880095 0 0
-24.1557403766895 13.4049635070389 13.730519093061 0 0
-156.176973260141 -24.8090396460982 4.62806704398208 0 0
-107.667500650812 -10.3620970672573 25.7514235562532 0 0
-34.4067524390253 14.2151314374549 12.4974175301216 0 0
-199.831505765948 30.9579355162795 15.587614159611 0 0
-83.0726267607759 15.4751635129182 7.38939471809722 0 0
-186.394791605688 -42.1689779474477 -16.8537145629927 0 0
-219.407512922072 -21.9219833128994 5.1594121976365 0 0
-179.794213247695 -22.8134211233108 27.0437281764627 0 0
-164.883600447915 -2.36783714124592 24.8433864492433 0 0
-81.1266616885727 16.3175593869195 13.0441160110815 0 0
-204.460059328556 17.9247117403865 -35.8882894012521 0 0
-144.477765196244 6.42109866339638 23.7805646072006 0 0
-215.195192599819 30.817166242712 11.2522106086742 0 0
20.0186844786909 -5.96925063534655 -8.01919974861399 0 0
-87.353175928926 11.6510446405517 20.9689544025825 0 0
-154.635909480429 6.58784348625078 -9.6647059803949 0 0
-170.043186779721 30.9819831734661 2.27004988827678 0 0
-205.538497053534 46.2663830531996 -30.3950031087088 0 0
-207.335863938734 33.2448191646136 12.1836959652569 0 0
-32.2430105319834 -18.6773687742821 7.80071770230106 0 0
-184.606480955047 -11.1295546580094 25.2552428849602 0 0
-168.035838032221 -29.7560042083085 -4.19815027125193 0 0
-219.474430931096 -35.2212550548025 -5.97684011311526 0 0
-214.654974549427 28.8010681516388 -38.8005290518291 0 0
-199.751733656162 35.6495879623159 11.5920933227371 0 0
-197.022591469385 19.2055049876022 25.6461342631092 0 0
-104.580464416788 -18.0851835814927 17.1537698684679 0 0
-175.135959128184 -32.5209469584339 -19.3732005212612 0 0
5.2272085514989 -9.63120936342854 23.2034178111304 0 0
41.0360812087079 -19.6943905686137 1.61011692620677 0 0
-227.762984057078 36.6449136563817 -1.86593603388245 0 0
-184.187937594942 -6.22568394355515 -23.7147216912193 0 0
-131.639900408021 -2.59569499706955 26.2671332795474 0 0
-155.905038141164 -22.5280866541795 16.8002020602671 0 0
-155.801017750632 27.4571009360491 -3.48206721460331 0 0
-10.3923328834138 9.63418077261935 18.5176273941092 0 0
-222.386492057487 29.1051095882683 11.3519179089616 0 0
-223.604633282831 39.1827933091632 -29.3475862091199 0 0
-214.913070751797 32.1904061911164 -38.6112514791649 0 0
-4.05188905553404 -20.4348519874602 14.6073671849066 0 0
12.681359823711 -6.75082236307311 -7.53050711474194 0 0
-172.178061054064 30.561692099315 -19.1140545806248 0 0
-173.099477634308 38.1282936439594 -7.77677926892201 0 0
29.9059486130778 -6.45473288737559 -8.55200043115598 0 0
-174.4036183704 -2.83512084001988 -16.1384612247228 0 0
-79.5582901620291 8.00102388678636 23.2251517882368 0 0
-218.976410755994 15.5125055545473 19.8390093033439 0 0
-146.967256074727 15.6375588364919 19.273091980207 0 0
-216.500736143524 -22.9263528083055 13.1268544185352 0 0
-175.30735688647 -35.1064005462834 -6.85602636464443 0 0
41.2417934776084 2.09993179069609 -7.49680836931753 0 0
-121.104734993656 -3.30304186226441 -10.0010613688572 0 0
-217.349234653054 15.295647502694 -30.6495663098001 0 0
-220.821340726547 -22.0866201819527 -11.3476516608914 0 0
-211.847978514607 -34.552954852801 10.660122586439 0 0
-170.745048160075 -3.17637407994409 24.1740925865434 0 0
32.7470421267778 -1.8335435299057 -7.59616804301967 0 0
-142.41786398274 -19.1737843323449 -11.8208807397707 0 0
-60.5826045027546 11.9771152423195 4.43270837554735 0 0
-45.8498489798827 5.70216852531894 -1.68955046940457 0 0
-218.043674521399 -28.2595992545526 -30.8863985249008 0 0
-67.5840164483689 7.88878173437749 -0.314560959566077 0 0
-197.008819665553 -4.75057938521984 22.2437821015205 0 0
-36.2099759877351 -4.93075857705588 -8.44113188031525 0 0
-201.246611670427 24.5974663650905 21.5617210835452 0 0
-190.771692970503 19.73351490879 -29.5317262829707 0 0
-219.941671511713 -28.4631651551042 -0.255327720066031 0 0
-195.683318499317 -39.1931607387828 -28.2570212478268 0 0
-223.459868584526 23.8080695611336 -29.6859541931828 0 0
-226.141921462104 12.5451636376984 -2.74651413992782 0 0
-185.042121084003 20.7629224636061 22.9645376440167 0 0
-221.021946411877 -23.2811113722912 -8.13592275604874 0 0
-194.451676808094 22.2961734814546 23.8108897372221 0 0
-226.247267337201 15.4169943813548 0.342595133945131 0 0
-83.282017858944 16.5294022803239 11.4361499466207 0 0
-159.093828547167 5.64549786736339 -10.5791699457979 0 0
-177.095447480744 24.0107245869902 16.9531631385691 0 0
-206.240080657633 -1.46155916970488 -12.635393253409 0 0
-187.937068236902 47.5953398162806 -3.75017277631349 0 0
-218.927038438799 -27.3613121380214 6.18457905659067 0 0
-14.0492921046908 -9.76108279645749 -2.67891335907992 0 0
-75.7841100678652 -16.1430711990171 3.48990881440743 0 0
-109.384277709529 16.484729883918 3.67178648961508 0 0
-160.538428751269 -10.0096235959909 24.9868233508231 0 0
37.9566244226752 -21.2898560601972 4.52229157361867 0 0
-61.1650367807663 -0.930770575746152 25.5557863322415 0 0
-202.991286169192 -37.9574494373133 -29.3500060423684 0 0
-211.590025050382 5.6887726360026 20.4070971658787 0 0
-201.17346429293 -38.4647665944826 -26.781613949709 0 0
-180.60525332411 -32.6368398051881 -26.4894946159295 0 0
-201.017809109172 32.9980541707232 13.9344917983707 0 0
-208.950452372621 -32.8005744729359 18.3831061106006 0 0
-34.0327276890738 1.63951044603178 -6.54736637086708 0 0
-113.062353559037 14.2376789454721 -0.110852591143137 0 0
-49.3046752966279 -14.574133609437 21.9009259718604 0 0
-40.9884021391232 11.6239706395969 18.5605134444837 0 0
-210.92208234588 18.1149858947001 23.0940698104739 0 0
-211.6982977072 27.3450878758735 -40.0078217717647 0 0
-120.551465183237 11.7643474124869 21.2549569104891 0 0
-68.4392084881566 -3.78518484050028 26.209950645589 0 0
-136.077346210863 -18.4994633505461 20.3641350403732 0 0
-215.787937111561 -37.7437575140817 -32.7015241263827 0 0
-168.397697303335 -16.7866821928002 -19.4535341698682 0 0
-193.605672790797 13.4441872925471 -23.2713710286743 0 0
-145.752791662031 11.8476350552711 -7.42858614531389 0 0
-53.654816419146 0.850393750267967 -7.21135838498089 0 0
-141.962980272403 17.8218763635512 17.243812690908 0 0
-169.696135820409 -27.6263793941125 -17.918423805965 0 0
-34.1279009581233 3.48433245778994 -3.54141023140835 0 0
-158.781522456509 17.1272709293481 -9.95013093660887 0 0
-176.643613852257 35.6590046344141 -18.1664904433685 0 0
-191.557191784743 -3.85764494338808 21.4747766343175 0 0
-174.295676925951 -36.7296887930819 -13.1791563122787 0 0
-122.059058561963 17.4438912276361 1.45515573059538 0 0
-3.4283488939397 -8.69114461741177 23.737300646638 0 0
-202.730243315689 5.07660640175415 23.8804051298164 0 0
-186.233353849515 -25.0273062091682 27.6839804404739 0 0
-181.340328832565 -10.3615498573666 24.9446538193049 0 0
-212.779865561969 31.619586365273 12.0044380394086 0 0
-205.44941435703 33.1690978403545 13.9484101288658 0 0
-133.781816691201 3.22593653754292 24.9092533478851 0 0
-175.873463685402 -20.0355402385426 -25.4960528394518 0 0
16.5491441359375 -21.6397377219043 11.6531143798788 0 0
-150.693274385754 -23.1452726369673 -6.49587670423012 0 0
-100.05686002322 -10.5441539263968 -7.55059375059543 0 0
-132.259097748112 -20.2853576264078 16.1547998251584 0 0
-72.2570770650464 1.0327963552414 -7.2689204540446 0 0
26.4020907308379 3.56350093763494 -3.0417850680916 0 0
8.77588235135049 -15.3672732681983 1.43462412037505 0 0
-183.920559169082 -41.172710446695 -10.3836315811143 0 0
-216.981565055743 -1.35553256915131 -5.22369024412658 0 0
27.3904550754998 3.21940565426462 -5.07429151926655 0 0
-194.779439890304 2.01304742458477 -20.9714389855747 0 0
-104.021039869527 -7.52027672484011 -10.8809774549374 0 0
-67.5314603280876 10.7628734119689 2.69203081954833 0 0
-142.833735993639 -21.2859468440141 16.2467191309465 0 0
-75.3152258115591 10.3532994079082 21.6186861699544 0 0
-63.8856724620316 8.636710879729 22.2380689772068 0 0
-190.397456751426 -31.9741946322712 21.7686040269 0 0
-12.684622388182 3.36655332304207 -3.50147886598478 0 0
-222.96463472189 42.1549717921001 -17.7333711495992 0 0
-7.91033969990466 -12.3049503124365 -0.17324513787375 0 0
-177.403242358268 14.1534161389728 23.5604361956662 0 0
19.4138035711043 11.7347139893129 6.99736721115291 0 0
-84.8211731648547 -3.8861410605721 26.5773524914753 0 0
3.01898468764326 2.84405858985117 -7.56644979277781 0 0
-209.525774746819 -14.6390598841286 19.4463869237877 0 0
-5.12743350563656 -12.9359680788209 0.306541233936191 0 0
-154.954874583756 -6.5484335440217 -13.274508773266 0 0
-185.953326851915 -13.2665474616358 25.8366054554567 0 0
-23.5838118086605 8.49756046961298 1.55342153468197 0 0
-139.357409865818 3.30377072509703 -8.86774736580383 0 0
-134.252486214334 16.128315531723 18.6193511513645 0 0
-53.725769848931 11.835097510302 19.3184012318277 0 0
-68.46504141734 5.31023222210551 -5.16059635057279 0 0
-164.496707040555 -26.849641493347 5.00046699899892 0 0
-200.15062691498 28.2843117584466 19.1999539054387 0 0
-150.380337631189 22.0186038978729 11.8181879545153 0 0
-60.6101360987898 -18.6048387757314 10.4944629359316 0 0
-164.832093451747 6.00769067751711 24.1216409867949 0 0
24.2125460894275 7.41710810270998 18.9548369905502 0 0
-177.390040129467 20.6942189506585 -20.2690524063788 0 0
-183.170093470604 45.0876698007718 -2.45658987211175 0 0
-179.612680335844 38.7884235987052 0.329537649971227 0 0
-202.527185687682 -12.226255767277 -36.9393230928031 0 0
-183.995062756155 -9.06497434642947 -26.6003662876518 0 0
-154.804520058192 -21.6078265852885 18.605300133813 0 0
-187.984415366386 17.5725188251694 25.6737381420978 0 0
20.018529386475 -0.0429777586768145 22.9141444261177 0 0
-25.9911021474343 -19.9141889298511 10.6940895504472 0 0
-225.963589970163 12.1938448649955 -7.87408391872682 0 0
-72.2015369392354 9.203870322431 22.2390319230412 0 0
-136.191367677309 -12.6972554690883 25.0093515544208 0 0
-56.5492356361256 14.5323579886757 14.9096063140907 0 0
-219.409120971678 22.6843582229701 -34.4416709680899 0 0
-73.1462917814528 -6.41903540790016 -8.64103650929499 0 0
-180.302983155649 -16.9639129015986 -31.3600366310231 0 0
-158.679758681114 2.15801284562808 -11.3324208802851 0 0
-206.247903530276 41.7426411083866 2.73739774762495 0 0
-156.25914046803 -0.779654823653222 -11.828760921383 0 0
-80.8837875144385 -18.1685717081397 9.42091341572508 0 0
-213.587273465022 12.9520879638838 23.0987370776202 0 0
-139.072122154676 21.2645791344315 0.614367133010915 0 0
-139.483022087533 -22.0955615344557 8.0334042863109 0 0
-174.428466915707 17.899741034474 21.0430611285099 0 0
-41.8348632208017 3.05417618699751 -4.83086018755316 0 0
-148.976154561513 -23.4097724917117 6.87589839903978 0 0
-203.506273347806 -1.27006462833336 20.5117429376056 0 0
-167.496123072448 16.174607037507 20.4319723097592 0 0
-228.656670112397 20.1282625096347 -10.0455373930137 0 0
-2.56169510641307 -19.3727646587817 6.59880734456916 0 0
-228.815907047649 38.0381657918562 -9.58706540269289 0 0
-97.2704249981422 -2.54350161389356 26.3787598926412 0 0
-216.444935269003 41.2602118744369 -6.16456178296521 0 0
-212.324047659471 16.7213984816875 -27.8163554935283 0 0
-24.5094400305501 -14.4001985367852 21.59988285456 0 0
-31.66014709331 14.2291120924428 10.9702624731202 0 0
-7.10172618338935 -6.87486834640134 -7.43325224719274 0 0
-175.831895480276 -19.7464550119895 25.8355601601975 0 0
-201.202628164049 45.9064304160909 -10.0658218146766 0 0
-123.367330689784 3.23277204514666 24.6443915703445 0 0
-208.435261022333 17.7071119297303 -35.8079520631245 0 0
-168.275559980502 23.1005714821973 -18.7268370114043 0 0
-192.607999559319 48.2153676932736 -21.4717189291156 0 0
-200.498533866461 -43.3538600465818 -12.668480804062 0 0
-227.010610965315 14.7935005341835 -3.87841185812548 0 0
-177.280846079116 -36.4103175907065 -6.76392611664415 0 0
-176.817676432556 16.7785737307077 22.4923158045966 0 0
-181.386382547669 -36.0330165808188 -23.4151752066929 0 0
31.0780900246098 2.93048460190349 -3.98337413754517 0 0
-201.854578401492 3.15907377514899 23.1666364203368 0 0
-153.611107434907 19.6253448077355 15.8272920220149 0 0
-227.33836222115 16.4989630204075 -13.4453808450117 0 0
-209.665419197924 44.9340367451331 -11.6216284330632 0 0
31.6294028182176 -5.65848645350087 22.8111605258778 0 0
-52.4449245025056 -18.4458492530203 9.16472660527866 0 0
14.0842512086873 -4.88647462703826 -8.71053996005186 0 0
-201.123185118319 0.810564314059635 22.389768365955 0 0
-104.851660590932 9.94391269445686 -2.59244442000095 0 0
-16.3906800487512 3.16773202232415 23.6075592021898 0 0
-135.40784329671 -21.4037111356403 11.9826117223715 0 0
-133.80036298236 21.617785781413 9.03954877679099 0 0
-203.528481256995 16.3902623084405 -24.1813503167951 0 0
19.7487099963633 -12.1488906839947 -2.12429645008721 0 0
12.1289824530055 -2.98496174631951 -8.06218078998017 0 0
-193.121722281403 20.7005168684035 -36.2539189173251 0 0
-0.849912591107984 -1.77114023886087 24.1677509750591 0 0
-4.89285806849183 5.5389416957674 -1.03079204073873 0 0
-120.53539499244 -16.741023885297 21.3068547791713 0 0
-192.811507529309 44.2331756770697 2.48229410350638 0 0
36.0129617132531 2.47919122541287 20.8400145937905 0 0
-214.477828789587 -7.30516011230492 9.67218705341977 0 0
-203.027388933343 -8.31607447844918 -25.9393430410178 0 0
-164.001205524669 28.0631260440499 -16.541934724047 0 0
17.2817240656397 -16.3409019749605 20.0041066992154 0 0
-7.67261049433312 3.76321123029276 -2.85729732319486 0 0
-188.581083941175 21.2478899119217 -33.7390134046385 0 0
-35.3585119885254 2.75789067797959 -5.2867166252707 0 0
-128.759790550352 -9.12578240731454 26.2027439695171 0 0
-171.629335978318 -31.8905494247397 -4.31849205648179 0 0
-170.286498082959 22.6375852430849 -18.0116891434328 0 0
-17.9859135046066 -2.75316190997728 -8.2571123280811 0 0
-31.6806956003995 -19.5391348551881 14.1484493927457 0 0
-219.649541823842 -28.0417041786843 2.58204590521377 0 0
-81.2850984469051 -7.86162830965592 -7.32806192686576 0 0
42.9558657657083 -3.23777015175591 -8.99934125725142 1 0
-202.951590330424 -8.775771054582 -29.3905038998188 0 0
-211.637250211446 -32.2049353307259 16.1487410438093 0 0
-101.717208213154 -18.9968731123884 8.04295189594825 0 0
-140.202836611358 -4.55058263467073 -11.2716417790461 0 0
-135.913071030621 -0.495496569026989 25.9837179133165 0 0
-187.817204135583 -14.2721863859056 26.5782003236489 0 0
-176.529132752278 -29.2613706207544 16.6289201351145 0 0
-169.509919510272 24.4418584169627 -19.4705517107342 0 0
-180.463089714243 -11.2828863519511 -24.6690031177378 0 0
-210.889708288786 35.1520518722455 9.9757789691144 0 0
15.5776965556281 -8.20207094981049 -6.5570062401777 0 0
44.4240154191352 -19.7937084536718 0.908093806784838 1 0
-195.99902415092 -20.2713992683814 -41.206365891406 0 0
-31.441705656708 13.5799083738654 7.59053299235168 0 0
-150.443899023922 -0.24629686928399 25.6374123205249 0 0
-195.163283470463 -14.0239536306438 26.3591940979837 0 0
-27.2661749594104 2.15471792728581 -4.83197853623309 0 0
-226.456730547718 39.7732265453123 -10.5170840151913 0 0
-142.967710610248 6.83117226778949 -8.2434677753421 0 0
-181.715553205678 44.8683648836574 -6.49961608984894 0 0
-219.494834929351 22.1116484030798 17.1642017541572 0 0
-191.977841599418 -35.5191043367399 12.735754579883 0 0
-206.122637912957 45.2171988396874 -8.23340641309154 0 0
-215.501187015619 -8.67334118952803 -17.5113673307233 0 0
-218.991023384641 -17.2833898995026 -16.5446491009973 0 0
-200.037770744397 -2.89621573711316 -19.2590694107266 0 0
-204.930450033748 -14.7675648587728 -37.7651775577113 0 0
-193.346345599864 -34.4401833459181 -38.2479923040582 0 0
-93.6530276672128 12.1036676425108 1.18318019495652 0 0
-52.4681931605079 -2.07127242037554 -7.93356396259991 0 0
-222.758251453428 36.6771080088699 -31.3464103062332 0 0
-163.894298365891 -25.8760203326329 -12.999387497896 0 0
-8.0953981449813 5.30883850031973 -1.30676465181727 0 0
5.06404142924949 3.13010997212676 -4.48531110911918 0 0
-202.88874924376 -9.01643082535799 -31.3490990226214 0 0
-100.548399902969 15.2989420339592 4.04796292336146 0 0
-103.288298610901 15.0169579478242 3.05855565510851 0 0
-120.953194978334 -20.1139662922375 5.25703045238668 0 0
-1.4097161508914 6.47700831190283 -0.18714438548593 0 0
-90.6907525307644 10.1707288496187 -0.247463714959384 0 0
-205.172619239601 29.8274306437603 16.6331634867166 0 0
-188.037145512637 30.5100198277191 -33.5612671924154 0 0
-218.897515711561 -12.1409107700026 -6.34851159664278 0 0
-83.577002470443 16.4192316218662 13.5538381016511 0 0
-149.0975381256 24.1960846217642 5.70839633846093 0 0
-183.461836284066 45.0704692724825 -19.6276435698016 0 0
-16.7337784343046 -17.8161251784612 5.33386190570237 0 0
-140.832357771581 18.4992744728574 -4.21645961336894 0 0
-97.8018696799726 -9.15907121530731 -9.20247888353076 0 0
18.9527242628074 -7.53529608837894 -7.04023638191773 0 0
-173.691229177583 30.8869745780811 6.00908475821524 0 0
-110.034751726218 -18.6645146730322 2.62152026390866 0 0
-98.7623800781588 -1.25871367013765 26.0400624399297 0 0
-13.1035113101766 -5.43232841977348 -8.88189044912393 0 0
-143.968528821874 -21.9993180084504 14.0363862972295 0 0
-189.214675243219 -10.5412369389584 -33.5701622435061 0 0
-143.863287761795 -4.13911149722518 -11.4582340961633 0 0
-228.027841063748 20.3203007452222 -2.33742612773482 0 0
-101.240561166692 -12.0530069499402 24.7744643517232 0 0
-44.612966774946 -0.226939258469633 -7.84779952656589 0 0
35.7731911969588 -9.12768754184048 -7.34809358302427 0 0
19.1546096769644 -9.93520735640029 -4.50358524754166 0 0
-173.211611763792 27.0444259115044 -19.7832199257827 0 0
-102.197471556774 -16.0946175678037 20.8316037615195 0 0
-73.4483671867526 -18.0150869896637 13.2188166657606 0 0
-83.4093421966449 -5.50086457662462 26.5250900757184 0 0
-149.152998005395 -9.12491057268806 25.6487515736118 0 0
46.4454670835055 9.10624691199402 2.58954874499226 1 0
-29.4470799798928 5.32030669555425 -1.59589140068394 0 0
-198.239931401489 -2.56842876180453 -21.3463048649637 0 0
-146.85359340527 8.44563662285772 -8.3263016324867 0 0
-38.7632262696257 -12.5225008009678 0.200405475331024 0 0
5.51870924201325 0.411866685904406 23.4554477188397 0 0
-179.177009757686 28.2742360859209 13.5775679901448 0 0
-134.485048121787 0.932453945122292 -9.31758055970051 0 0
-24.4339936521635 -14.9161020178077 2.84094308873805 0 0
-181.841367832962 -5.30920582650376 -20.6445541969946 0 0
-192.797281986612 43.0928208324931 -33.9743778584029 0 0
-200.842964635795 6.59800364909845 25.4096046235216 0 0
-210.27847043002 15.4039740567584 -21.7926157768445 0 0
-139.653074831584 -9.75694605590767 -12.2568247584962 0 0
-109.307313293193 4.19709172800839 23.9824848204185 0 0
16.0477654302106 10.9996246922908 14.9584805945159 0 0
-149.638909183714 4.62745218856315 24.5642583589789 0 0
-179.259622665008 36.5628015608146 -21.248083762821 0 0
-27.9899006041659 -17.8408689273919 17.9993725307202 0 0
-210.620952778656 23.717669582164 19.2976812789578 0 0
25.1864905900734 -21.0261810329498 14.4440185332467 0 0
-214.88237670547 25.1922281568746 17.0667530399779 0 0
-154.980255749304 -11.3879331052934 25.1583282068782 0 0
-187.242267751042 -1.0810625206927 23.1338424032069 0 0
7.82983417866584 -7.2665252290562 -7.45183003534883 0 0
-171.049106966128 -29.1043057199298 -17.7524206297569 0 0
-176.823333876861 -6.37067491376525 23.9212741783643 0 0
-162.742589768243 -26.7769598541536 -3.9604988647602 0 0
-185.541932522213 22.7931996415005 21.8890968867369 0 0
-91.5742034605465 -7.11293037437476 26.5635512023212 0 0
-10.566143721331 0.182963158399408 24.1123215008303 0 0
-199.086383391805 -41.113044438484 -5.70356689033829 0 0
-205.69476127123 9.40820757873953 -15.6099245914443 0 0
-114.64594316841 14.069923885839 19.9691247736009 0 0
36.5367332829572 -1.74497650163829 22.2527652824273 0 0
-190.29972108445 47.2417275569142 -22.5892182203218 0 0
-184.805217729823 17.1000426872645 -21.7581778078233 0 0
-55.3728250345638 -7.14492162976205 -6.95445816864674 0 0
-138.841624968972 -5.20889228055827 26.2532906911077 0 0
-208.910545738992 -8.40448396185989 -27.0550347088396 0 0
-83.3828888187269 13.8803804177505 4.89502644694151 0 0
-166.120515256225 -5.63140342677006 -14.8531667921028 0 0
12.582988382293 -20.7284373596869 7.63231925183887 0 0
-122.391206046738 -14.9303812794878 -9.05291198300167 0 0
-183.421142650231 18.893308854047 -21.5191602616892 0 0
-65.7803691710641 -12.6645236759894 23.4448625670034 0 0
-213.963275672994 -10.6584223044474 -25.8030686213268 0 0
-174.675048635537 1.06958255880291 -15.2046491138944 0 0
-217.096579667907 17.1369781910674 -31.7634519149316 0 0
-157.105818858925 -22.0308615572592 18.3128289045589 0 0
-17.0638981845504 -14.7755682074228 2.54876046388294 0 0
-180.808203587675 -4.69776702477061 -19.093639520893 0 0
-181.331958916585 7.39414109709391 24.932124592228 0 0
-209.683804874975 -34.5068178204735 12.5392631530379 0 0
-118.180929044074 -14.4036737694693 23.4983185977735 0 0
-203.348964700785 45.3385582787751 -0.909060797121656 0 0
-4.26159617362799 -1.62599273125127 24.2011866963158 0 0
-176.736661220997 37.6802822493697 -2.51468191607246 0 0
-212.459246296226 0.222270834010304 15.5343821632857 0 0
-144.404494002142 -5.42437500574651 26.0525188524002 0 0
-158.315804669572 24.8622446716941 7.88612083750601 0 0
-95.8454047923968 -17.3081031715735 17.9503573707868 0 0
-195.496411777118 21.6368149318585 -36.7533716972757 0 0
34.989191874959 -6.22062783104821 -9.1519819305698 0 0
-162.562838060608 30.945421213295 -11.8223121873345 0 0
-172.947889771862 32.8168582926043 -17.802910853318 0 0
-13.9834334025202 13.6639073032606 10.8421243664072 0 0
-163.827093394506 30.9934248524055 -14.5441108273993 0 0
-8.62077895897628 -2.39887633055473 -8.43081354937785 0 0
-114.962242335842 -12.6263674291417 -9.70279370494165 0 0
-161.694932480865 -26.0940823492814 -7.14401882429102 0 0
-139.735849626447 -18.5101236456602 20.8164129906782 0 0
-205.666509815066 3.712805040756 -12.3666964756166 0 0
-198.162971548736 -39.528836613285 -26.8732427208107 0 0
-217.656514968776 -13.9068532863277 -16.751515261128 0 0
-227.783387139669 30.0620144107342 5.43562601503236 0 0
-202.332727927946 27.5598281067781 19.2798026776722 0 0
-112.652658282303 -16.9065390675513 -2.13763916211448 0 0
-144.57713228572 -14.9883694009043 24.0342593887029 0 0
-112.353630085889 -7.00295845364354 -10.6121282472798 0 0
20.2756138658031 3.79376022997415 -5.28039302953392 0 0
-97.4260150078758 -18.6409871030399 7.09323935197068 0 0
4.24859555682591 -18.5602748812592 4.93727196699582 0 0
-191.491506963035 48.8299894158002 -13.4948253846291 0 0
-70.4267186216646 -13.8765811247283 22.5047918246683 0 0
-122.389524365223 10.0397666278325 21.9984687117271 0 0
-30.4619419595627 1.53439934881447 -6.2187311165526 0 0
-44.9452160627915 -15.5804104384634 3.57331406394248 0 0
-52.1864021832232 -4.75912910948284 -8.76427050060078 0 0
-157.984966967693 -6.3622393677236 -13.6477852292842 0 0
-183.504859889965 -35.5847262106596 -23.9194427805191 0 0
-207.6599000311 -3.88856299721536 -15.0928928171865 0 0
-188.890620727589 0.990648743505244 23.813430556929 0 0
-155.906526947305 -14.2153287694756 24.540668345627 0 0
-61.5980333535879 3.95764264718819 24.3003602376727 0 0
-182.819556288213 12.7871448369695 25.1851987939107 0 0
-207.175700830806 -40.38066944907 -9.76225019047428 0 0
-109.397903616728 -18.9198541056286 3.98821037435132 0 0
-220.411662605086 -20.1169595813701 -1.82192579787286 0 0
44.7936893274532 -17.2594199140109 18.1658532826466 1 0
-187.802563608872 19.2346111047938 -26.5215085603401 0 0
-67.4446424058271 5.87393021868541 23.6902305431438 0 0
-184.150450799338 -3.32136492561267 23.0920682468259 0 0
-194.594223974601 35.0540345373327 -37.7903416924444 0 0
-216.581114112253 15.5073949004282 -27.9276675536377 0 0
-135.775177366642 -20.2940324607741 16.9652546973832 0 0
-178.560138122245 -36.2770118180383 -4.33630062396918 0 0
-125.877037092592 -8.58669051579763 -11.6116557755432 0 0
-103.774720301019 -18.8435385207348 14.2796117672302 0 0
-200.864973005212 -9.11229149322275 -30.9310740468528 0 0
-63.5654601513636 -16.7123866916859 18.5973643680055 0 0
-221.349415463373 -24.1196415637879 -14.9844637122911 0 0
-100.967210288357 15.3789497244377 17.9873558484806 0 0
-58.3147972278134 -5.26292240166422 25.921258533296 0 0
-220.856346032322 3.98900820811487 -2.79571964452672 0 0
-196.53965135841 -37.4966549415435 -30.6351430880413 0 0
-75.7635423803889 0.470670232352571 25.5791754915709 0 0
-59.2827162373047 -7.17510808765521 25.6631504569013 0 0
-202.532878200195 -42.4777299645858 -12.7042027118303 0 0
-202.620618726652 32.5643117368363 14.9162045841494 0 0
-219.845591751431 18.8843759882441 18.3925734789982 0 0
-217.679625021716 -12.1775195583392 -13.7693905135737 0 0
-171.897221005269 5.44355198872447 24.3438564120199 0 0
-196.890202008711 42.8367731336307 5.23055165828632 0 0
-166.872897570287 -21.2395292800132 21.9402851548967 0 0
-227.473795405736 37.9801163841851 -4.74808594585929 0 0
15.1201667421869 -6.57997678322715 -7.42254408274382 0 0
-220.60386812094 38.8304044136616 -33.2359726451397 0 0
-206.653163012885 45.3655458783453 -13.5887453240515 0 0
-150.31125996619 -22.0034492502526 16.5994834771789 0 0
-197.803547598509 13.6046589880946 -22.3026183638865 0 0
-87.4765507551599 -10.9611589364009 -4.95978724298678 0 0
1.62240345309284 -13.3978768555523 0.485412765779006 0 0
-206.666436521856 17.7009035490691 -36.3788052838774 0 0
-198.117043386642 -1.51299632474012 22.5305617173751 0 0
-199.956256584524 -11.744018075269 -37.6099704697172 0 0
-163.79182882326 31.1474272987077 -2.56499183333895 0 0
-86.2320243320105 15.8926016461717 7.58129284199538 0 0
-192.966141619827 48.1882947474598 -8.45224205411263 0 0
12.1271272502488 -5.35520865491135 -9.05408777608988 0 0
-206.511753474065 37.4932635265786 9.29151680705474 0 0
-188.752262415539 48.9887218457303 -17.1140129871651 0 0
-61.1157958305469 14.1062025045821 7.97117844502501 0 0
-202.63499747974 46.6514038277778 -2.8377147850829 0 0
-169.869748527269 26.4960146006122 -20.2985481331466 0 0
-7.78345415486668 2.6014282584508 -4.41380570445109 0 0
-210.838927944895 -35.9113759128786 -2.27846293875245 0 0
-200.194963793936 -7.9559233947097 -26.5437435387979 0 0
-112.178626225424 -1.2682252399553 -8.93507456467035 0 0
-216.04662102572 45.0661282802807 -28.6000046142285 0 0
-168.365804580321 32.9770851507345 -15.344969073135 0 0
-149.570600417485 -15.3786774213809 -13.707084562489 0 0
-93.3193112906682 -18.6744156471381 9.08093278328562 0 0
-146.365543556531 -17.6073628125175 22.4850178543811 0 0
-48.5176946783007 7.24923334247112 22.6506439477743 0 0
-182.22842691833 -15.4109275013811 -33.3951346554963 0 0
-100.093330647019 -3.75731415227031 -9.51326016933918 0 0
38.7861686959341 -22.6482730835083 8.58111369837273 0 0
-74.5501998814289 -2.72703433527233 26.2582195117115 0 0
-186.560051989407 18.7673732693865 -24.7314324986796 0 0
-212.254628336162 20.5071137238296 -37.7069680138606 0 0
-125.490738974987 9.5985233304582 -5.75691153378412 0 0
-204.292387046893 -11.7074893712091 21.9957842525222 0 0
-112.822083296971 -11.2943266085824 -10.2813863762131 0 0
-192.522530630152 -22.624347367661 -41.4481024184207 0 0
26.8270210595153 4.07302927039565 21.1469874824684 0 0
8.07342387317823 5.43778636524675 -5.50163596336706 0 0
-192.100619109586 -14.8223028424263 -37.8432115593641 0 0
-21.9365244006074 13.9546332325134 11.642511801473 0 0
-187.587367660059 -6.65755517034845 23.3597196387545 0 0
22.5336489340226 4.2987646858261 -5.76852017432466 0 0
-55.173243580776 4.06342419562547 -4.41074956070816 0 0
-63.8387849080041 -18.365629624814 11.8615676130623 0 0
-227.976044536037 17.8641224701139 -11.3068003177284 0 0
-186.175731950177 -35.2999673505278 10.5864820109882 0 0
-225.949776665301 14.8738105387753 -15.2361009751729 0 0
-195.647039661737 -26.3353565597558 -42.3153746500669 0 0
-86.7608568916408 -3.33503984190023 26.5722712096143 0 0
-22.4221291741365 -6.34103482375131 24.7985775022001 0 0
-152.176855246574 -2.27125726598747 -11.762628587894 0 0
-98.2363094085388 -12.8191267959952 24.1292231694526 0 0
-103.589443661283 9.14034467863709 22.6169962050504 0 0
-108.114846177747 -17.9757023329456 1.2339638053963 0 0
-119.792646951871 -9.08195971998007 -11.4935120792845 0 0
-181.796799774731 47.1580426509937 -10.4546207419612 0 0
11.2672261133448 1.23738338978611 -7.58563285888955 0 0
-99.3274670366723 -3.59048731012167 26.6142304469724 0 0
-117.514034603085 -11.370764712428 -11.8164674661092 0 0
-190.983723989547 41.4426949397865 -30.5881035734511 0 0
-112.944526627317 -19.59673339798 13.3636398878805 0 0
-60.4676785438544 9.03254029356628 21.869903869832 0 0
-65.8245083272632 13.7201998310493 6.48620439022072 0 0
37.5451003749642 -20.6112161658351 14.7804316510625 0 0
-130.571897591111 18.7561323054123 0.382599906461626 0 0
-150.643005774977 9.41207217945232 -8.61160902768182 0 0
-76.1552852293726 2.18514274021231 25.1528778983745 0 0
-198.055938923669 -12.8663200288417 -37.7479879167006 0 0
-177.749895126906 -3.86320322012955 23.53663338094 0 0
-67.9929478289925 -4.74223348428316 -8.53563055489596 0 0
-216.286994249205 39.4491849892621 0.689651295754577 0 0
-212.732586242514 14.8474409398259 24.4610750310515 0 0
-126.734849265043 -0.511354056186038 -9.34243882408285 0 0
39.9086448242055 -17.022880567023 18.6893528104962 0 0
-9.60618194397638 10.7908079101348 4.02785634630657 0 0
-176.959832039637 41.7816333979375 -8.1932063421793 0 0
-102.494482873824 3.53566087327317 24.1622232226185 0 0
-142.338001742995 -15.7673226760117 23.4707081433539 0 0
-186.130900216622 37.7021557133152 7.43746491917434 0 0
-174.144360070502 34.3930560090262 -16.7809215297307 0 0
-204.212137819071 45.5640277668909 -12.9544910248016 0 0
-204.348555704827 -39.9343517169796 -5.73274803463953 0 0
-179.228362858251 -18.8014541482048 -29.4089799703083 0 0
-106.047067074442 -19.3723754867241 11.8447485328667 0 0
-179.554741482189 -1.64032955514866 -18.1694318473172 0 0
-219.828441005075 -36.5651905961607 -24.6059432832219 0 0
-93.3708229367897 0.618323648416017 25.437302723146 0 0
-93.5966513085044 -8.96841745943521 -8.22656665888209 0 0
-153.549088027823 -24.3310412416429 5.09580119134095 0 0
-194.804143127538 -28.4985684195131 28.5678806088123 0 0
-184.288965812878 22.7520671623779 -26.941110291723 0 0
-224.802600715937 9.50979124744347 -1.14433093734521 0 0
-178.519701465724 35.7636374734774 3.91106254117133 0 0
28.8193610616417 2.77240877303165 -6.90798982541225 0 0
-194.713083097853 -42.9925543813124 -10.3957193898276 0 0
-98.9946861233472 9.8727637156445 -1.72829057989439 0 0
43.0613026967213 11.6457753909237 10.6963053144858 1 0
-200.202237275455 18.0882951320041 -35.8417188941719 0 0
-212.053214172243 4.51453700053353 -10.882825160394 0 0
-227.504908731483 21.2998262653061 -18.0562933432425 0 0
-12.1265787826538 6.83163993759925 0.233830525582253 0 0
-56.8270436290585 -13.2422349420518 22.9205395860691 0 0
-189.043967423257 -34.897030274272 13.8124820077095 0 0
-165.790486288709 -4.60570922314113 24.6964521295794 0 0
-227.569001418056 40.5121120628238 -15.4065501126287 0 0
-206.281339469925 7.07800273169511 -13.6075941824667 0 0
-110.829644359028 6.1950333050728 23.2149720940803 0 0
-149.883369770263 15.0267176856308 19.7517447449779 0 0
-50.9991579855803 3.94003903902558 -3.49437543520151 0 0
-173.074868606192 -33.5379515931587 -6.24377316578927 0 0
-213.46923649301 23.1538398867688 18.7057387993644 0 0
-173.744226059291 -34.1952456191581 -14.2525022478045 0 0
26.3064019542816 -16.5157184867279 19.7595498043359 0 0
40.3227443918548 11.7784664450581 10.6825723021923 0 0
-209.067974993751 -12.247524668048 -34.0655127890033 0 0
-174.513670437328 21.2747929669197 18.3304774392236 0 0
-119.884108430027 -10.497934536702 25.8557427171647 0 0
-218.130699556032 -10.7139267945471 -9.43104905700084 0 0
-176.459468587367 14.6017908800316 -17.0566152981113 0 0
-159.901856996227 -22.0944260854047 18.9069713269009 0 0
-108.200690109698 5.50172024818952 23.5873154676327 0 0
-182.84637184848 15.9586254602539 24.7174154657536 0 0
-188.769159776562 -19.6520003272665 28.1016425169167 0 0
11.7347615077694 -11.2969783369018 22.5778110444168 0 0
-64.0302329667963 -17.8798833201087 14.93515603617 0 0
-124.671108028212 5.36177728553382 23.8986168436812 0 0
-191.118744451327 22.4907405791243 -35.3584238029833 0 0
12.2597949409007 -12.3503407395952 -1.22648840144104 0 0
-210.809708868366 16.2726676985255 -25.5864483480896 0 0
-161.444854430177 -19.2094747079349 -16.6876958200101 0 0
-57.4813654529102 -3.88065386538915 -8.52066743874136 0 0
1.33203057214426 -9.99914653509807 23.1820405494071 0 0
-128.476979738723 19.2755057305006 2.2414062838591 0 0
-225.982235885977 41.2586598357895 -14.2945165600096 0 0
-75.9759796574443 14.8495548143879 7.329585387322 0 0
-179.543168529535 31.7710975664237 9.4255680610075 0 0
-177.991874195953 7.43674124343405 24.583450347676 0 0
-214.524715273636 -21.6909968412803 -33.9580279321733 0 0
-172.703394831737 38.406154754473 -11.6867982988861 0 0
-195.370579762656 24.0593021201311 22.4190062635754 0 0
-145.281357387055 8.65335668100399 22.9584869634788 0 0
-11.6571254325073 4.61011936830923 -2.00512212413003 0 0
9.71179131457466 -11.0788432025403 -2.29388964742597 0 0
-229.861855506685 34.6198257082178 -6.99319383024055 0 0
-156.739230615757 18.4837902428968 17.3386745700725 0 0
-28.9665886728665 6.65519567384136 22.7169076964183 0 0
-0.164341513451049 -15.5535788643196 2.54910074664337 0 0
-161.178055843956 -24.9836188965662 11.8398920612535 0 0
-219.287057032215 43.6689677560223 -22.3698502095377 0 0
-220.362075834824 42.0505191332394 -16.5961749628262 0 0
10.0956963147905 5.39290988042125 -5.71462879088618 0 0
-223.998564865086 26.4760238467909 12.7115253566224 0 0
29.1014411696895 3.04965761518237 -4.12193915680238 0 0
-112.739935159368 5.72988871452128 -6.45070654585396 0 0
-207.416162351002 7.0749567277689 23.4371668545393 0 0
-172.996274152718 -9.19810429863284 24.6189872571478 0 0
-194.943067033423 26.9138592144472 20.3448124512944 0 0
-167.003707043871 -29.7521384761977 -7.58408423190587 0 0
-215.167309491797 -3.11360872747646 -9.33560140894019 0 0
-200.019586135985 -4.64639182894086 -22.3791090023482 0 0
-183.398531933206 -13.4869109493717 26.1070214937395 0 0
10.2963335905925 -21.104387572762 13.3887698798852 0 0
-174.996570915053 -25.7676661464309 21.6879314201071 0 0
3.35157366652147 -15.4025085714837 2.21029442701337 0 0
-77.3730821053113 0.317938239515903 -7.42887626884753 0 0
-197.247182550971 25.0297306083436 21.6830273999529 0 0
-182.935558264015 29.0466639872544 -28.7069866851574 0 0
-208.627804952756 24.5615510024761 19.410286003736 0 0
-204.272536919881 3.14329015385918 22.2610300051686 0 0
-215.10729931296 42.3603678430432 -35.6782264983235 0 0
-218.070186199811 -37.5451745522537 -8.54972425508646 0 0
-34.0575589354457 12.6479510693255 16.1652858137335 0 0
-41.7585039490124 -7.26863251353107 -5.85876700402272 0 0
-65.8726001753554 15.205513326411 12.6566835962486 0 0
-93.8505819888431 -3.06468949288939 -8.71968798668753 0 0
-54.3863160877283 14.0710213185065 8.03469207199075 0 0
-220.478073251202 -31.4294197880319 -3.98361510226339 0 0
-6.50362737703397 -5.17281508678067 24.3071351610553 0 0
-221.643867688329 18.2245009648962 -28.8247811642504 0 0
-67.603950945308 -13.9838537455898 22.3284334779394 0 0
-78.1419867541545 13.7607973958717 5.306034919764 0 0
-21.8868191827751 -12.465128757733 22.9045046971899 0 0
28.6253793694316 -1.82811749564782 22.8432170972826 0 0
-139.737672501156 3.83884036934675 24.7690086630504 0 0
-7.73498645077868 -17.1407335603511 4.25551261047432 0 0
-131.075824409828 -8.62516042576147 26.2631100118092 0 0
35.0596613424923 7.38646890222368 0.47279978801921 0 0
46.6396047215697 -9.84412066597066 -8.66886782759828 1 0
-206.301554750019 38.961145282199 7.45634281487507 0 0
-42.1577080040792 1.00818392503927 -6.90410788326054 0 0
-204.594208831161 -24.6273160951926 -41.3104077444581 0 0
-174.102972404602 14.2463023150414 22.688207825988 0 0
32.8274627747562 -22.1250192788815 8.65891727784819 0 0
-85.1992659147382 10.0588585663425 22.0657173613969 0 0
-221.539449836985 -29.3641507555001 -13.3517279285447 0 0
-65.8945237747097 -0.201664202392077 -7.43547222310367 0 0
-94.8793698446656 9.86075478482401 22.4107170620798 0 0
-194.348920112647 -8.42062415750069 23.7259074460942 0 0
-140.426016975227 -0.851056728285734 25.8668742955192 0 0
-101.937435468411 -19.0961263559952 11.7087223546655 0 0
-159.721796086087 20.4080263612643 -10.9891092862529 0 0
-212.664251964001 -34.7882845764565 4.85028331475807 0 0
-164.105203389897 32.5886313717864 -11.8324211484249 0 0
-20.0074382187751 5.51395009374152 -1.03896876978998 0 0
-174.406816446219 2.74558335766204 -14.6857276559974 0 0
-157.385488227229 27.7436466295279 -5.70930411829157 0 0
-117.215852832407 -13.2296481802932 -9.88637570088319 0 0
-220.494787801781 -33.3206934628819 -10.5604701703717 0 0
12.7174390648425 -0.590263579709439 -7.5842545518159 0 0
-24.036229964041 3.19923520445294 23.942926240422 0 0
-190.581268413601 -8.7286401563797 -29.5369576066923 0 0
-201.127713723012 -28.637842842676 26.692040385041 0 0
-185.82574633107 -15.3066759782674 26.6647506660157 0 0
-63.9410944643246 15.0280123810141 11.4395038475195 0 0
-201.458731133819 -6.47741570700603 -23.7952682794699 0 0
38.0158306592499 -2.23946155633309 -8.41199217722953 0 0
19.8102545953524 10.5293918532051 4.59441658766635 0 0
-219.686056075034 -28.7468355905116 -27.544286637996 0 0
26.3630830816462 6.29123139506921 19.8815979860683 0 0
-165.317041217862 -27.8445288074213 -0.928582131179559 0 0
-153.735078660267 -1.26699364117008 25.6198796043473 0 0
-213.837615100981 -36.0106408943494 -2.58695956452044 0 0
-90.7135434008986 17.2234537585986 12.5855002401158 0 0
13.8851498681634 -21.4994794787713 10.9555118170597 0 0
-67.3488349272793 4.54035900314711 -5.00393520076887 0 0
3.4769538431254 5.50677509640042 -7.3115787511879 0 0
45.4931494269346 -21.0156251462188 2.7331937970648 1 0
-211.348705069231 12.5203713954606 -16.4773100039621 0 0
-223.582920793843 19.1866336096955 -26.6197390511562 0 0
-64.1310920965363 -5.58746012054644 26.0085310549401 0 0
-224.997904629802 21.1935959330672 6.89283657224991 0 0
-206.242519073559 -8.62315161164554 -26.4744973683838 0 0
-101.982431023203 -12.4568488354528 -6.0826609797114 0 0
45.5134158148867 3.02638449322522 19.9171158254842 1 0
-137.827490206628 15.4589873633626 19.2738992443956 0 0
-177.959801025404 -19.6471668441781 -27.4638942866946 0 0
21.6099009890271 -9.96217637205842 -4.67238300976011 0 0
-205.310967728961 -32.8411911536191 20.4914422025178 0 0
-170.877699488335 -25.0166860297995 -21.1738984267841 0 0
-229.419394745252 29.0340856112345 -3.69768624447241 0 0
15.0682988710829 -11.9003025515827 22.4310157739968 0 0
-211.482486387088 -10.2243111393339 15.5229258857019 0 0
-151.961304677149 -10.9988432528637 25.2550377874985 0 0
-163.627354493571 -9.94156636535739 24.7946566182572 0 0
-86.4992850144065 -7.66452883973257 -8.80626962252214 0 0
-187.337763185209 -36.0596390471602 8.68571991020288 0 0
15.2450261832422 7.56445121060514 18.9747557038302 0 0
-32.5135507638763 7.09905935000436 -0.0753540324314372 0 0
-124.196070822447 18.5743626660417 2.51388503878241 0 0
-9.12776626192966 -13.9414220695914 1.45506406062157 0 0
-225.979287054136 40.3015077917959 -23.7052759057835 0 0
-163.225219518452 23.3478157071542 11.9683246748109 0 0
-221.568399843782 -25.7468916113295 -21.0118309945325 0 0
14.0085881245042 1.24758047740753 -7.46199429695889 0 0
-180.031803670604 20.295216811654 -20.4951241073184 0 0
-148.901951648403 -20.5470847470462 19.4502635929876 0 0
-190.364732015257 -24.6839429745742 28.9777070223685 0 0
40.7295537581979 -10.781038517876 -6.31212587879948 0 0
15.3584716627249 -0.667922942670315 -7.65252397653711 0 0
-58.7885419130743 13.255631668069 6.35325693225882 0 0
-0.70033994940205 0.945763424879357 23.6232565530115 0 0
-69.1788135269394 -6.32323970865316 -8.91045402557927 0 0
-7.01297213614991 5.21533542617072 22.1581248417757 0 0
-21.110368477182 7.35787588378547 0.522481055829344 0 0
-208.937709297623 10.7956464651368 25.1481374416374 0 0
-169.365215819835 19.5967034620628 -16.7687121174836 0 0
-116.240627076937 -9.92696241112787 -11.5452662244384 0 0
-166.398320156837 12.5554725392688 22.1896332314575 0 0
-146.922190721387 -3.20985439667086 -11.4766318514211 0 0
-54.1387092039302 -17.2805739385085 17.787082059601 0 0
-147.787235657931 -22.4570351871252 -6.73246955470368 0 0
-112.088865005567 1.29442599653343 24.9635069465341 0 0
-38.6575533257183 -16.6943967474036 4.77270091747166 0 0
-140.773883116091 -19.6393531932545 19.3491919795138 0 0
-203.093808241317 -37.6317757291179 2.12216158641485 0 0
-216.301574421717 15.6302745832107 -23.284698859334 0 0
-185.550656388528 -10.5702870489489 -31.0480484401508 0 0
-77.9819434885017 5.09001655998797 -4.68057112222323 0 0
-217.701918066918 -31.6453561614608 7.32900811310066 0 0
-220.795243135228 -33.3283184254448 -22.8881930382366 0 0
-168.44722633428 28.7224668680942 -19.1294966023219 0 0
-203.533071787253 -41.1613529123651 -8.55385639060495 0 0
-127.829144970075 -20.871549870561 11.1543994641718 0 0
34.4008104527443 9.13649129527066 16.3031296921058 0 0
-131.390761669022 1.21279565012836 -9.01890578855244 0 0
-9.28293801627269 0.392659543391666 -7.1132595882107 0 0
-54.8384289649378 -18.7175389867806 13.9838018786475 0 0
-57.9295872559069 7.68014518050485 22.6151563728995 0 0
-196.079860275525 16.1914354282804 26.7950082129247 0 0
-181.916227390404 43.8756651986904 -4.2292273258874 0 0
-159.833397112743 -25.569707746506 -4.79947101637418 0 0
2.26062434845059 -7.42497092029603 23.8962639672147 0 0
-6.04221095506849 -2.83988658262151 -8.51927847475968 0 0
-68.9301826772257 -11.532982573667 24.2338867699787 0 0
-73.5684132385103 -15.3228481745435 2.34745975329714 0 0
-62.442642208615 14.4804965596794 15.845707179092 0 0
-73.8714425267149 -1.5431746121383 -8.05166344313239 0 0
-123.600127443199 -13.3108851203867 -11.61330991789 0 0
-95.3625545650679 -18.7432309297442 10.571327779068 0 0
-175.990761648087 -10.0912644539849 -20.387189440066 0 0
35.963475244282 -22.4506476623578 9.00297402355856 0 0
-133.001624377133 -8.14658869501431 26.2588751311465 0 0
-189.244752194328 -35.8416348928185 10.800768494277 0 0
-100.016509206651 13.9244988397654 2.27941514029947 0 0
-176.810875332554 39.4653250147909 -15.523923309993 0 0
-175.730981400679 -9.16117089604762 24.4197730288688 0 0
-213.953516760872 -15.6103177632078 14.8567401114771 0 0
-220.270223633894 32.5882388458846 8.40161580688138 0 0
9.02952359974278 -13.1243677182737 -0.3380352184576 0 0
-203.982164010171 15.6748063247367 26.2269617415133 0 0
-159.399579236925 9.57565397576557 -9.91196113519974 0 0
-214.639451337226 37.4978579232644 4.7647838062923 0 0
23.6438730261823 -2.03957042922622 23.0937587774263 0 0
-189.165332145723 24.2909892477329 21.8932308143845 0 0
-68.7007429823249 14.2702579213655 16.9096399313442 0 0
-110.726256784704 2.91798029534073 24.37528382563 0 0
-39.6778080015278 4.33759413920225 23.8068169587869 0 0
-210.05072022632 -7.53726250080316 15.8564728522906 0 0
-15.2433186545472 11.0444676325199 17.1242896472238 0 0
10.7049932350111 11.9443853433971 6.84488753727273 0 0
-101.153965972629 17.711988179615 8.13930086648794 0 0
-55.0061447642956 7.31726697851409 -0.259716420043036 0 0
-165.879783831401 -21.3244958247702 -18.8588327268778 0 0
-130.203865082843 -20.7454708696585 3.72974323444485 0 0
-114.191175264404 -6.60365960875589 -10.5693583755636 0 0
36.8955309375364 -8.03332411733685 22.3573363925508 0 0
-134.3436325427 -15.0921225568265 -12.2261981866277 0 0
-141.265943205387 21.3962631645551 -1.05002953303766 0 0
-105.08816103977 17.1310480230362 15.7305336046212 0 0
-92.6295971528982 5.55153201508209 23.6890923327691 0 0
-90.376743699396 12.2162901557885 20.6756874869759 0 0
-182.542567566378 -36.9185015291475 -22.0281677540892 0 0
-43.7591151636702 -5.78137934152906 -8.28978299050697 0 0
-16.0819601405317 -15.952132676065 20.3376682822491 0 0
-228.514222572403 30.9813722806199 3.29554294672008 0 0
-16.1141698677754 8.69883729801352 20.0831315243844 0 0
-43.0000756180054 -10.338041800867 24.5828116979267 0 0
-211.523550046972 -36.7837296061326 -3.90396465726997 0 0
-186.01740292693 -4.36351779756942 -24.2318008006868 0 0
-193.146604568231 -18.7808670651233 -40.3189311764085 0 0
-182.335727809111 38.5258273458696 4.09549662171585 0 0
45.0041306903884 -17.9584023088054 -1.44604453845038 1 0
16.756106831364 4.25191560083364 21.5251126614313 0 0
16.0020318448058 -20.5430124476756 6.72824171393038 0 0
-146.441952228208 -6.16234277568265 -12.1862995935061 0 0
-158.04986797796 -24.6439152577434 9.93752018678567 0 0
-37.6624560772485 -19.306994755814 10.6079249428527 0 0
-175.211486592029 43.3908143955383 -14.0177192650752 0 0
14.6206956095104 -2.84006895971806 -8.11722970224739 0 0
-72.1763323973071 -8.062552574468 -6.69696498663187 0 0
-69.5359386610286 -3.4898349227317 -8.28964733780145 0 0
-130.442957708697 -9.09095351129022 -11.9118398843319 0 0
-165.971232909469 -27.2426339267224 -12.5442520100057 0 0
-47.5430235499823 9.74679217305117 21.1230892605806 0 0
-78.47555409943 3.91141441878271 -6.01388984026579 0 0
-83.400391256175 -13.3457275142449 23.1428176675809 0 0
-76.1516056764138 -13.7382836717818 22.8280412193064 0 0
-67.7913754078342 -8.75621441424486 25.5108522071373 0 0
-11.9493270181186 7.81127716778801 20.608687996057 0 0
-19.5068203972046 -18.9501292331638 7.28993009753334 0 0
-178.779216555522 43.0661392045217 -7.86529313497456 0 0
-33.1927956420002 -18.2950706922432 16.6848917622162 0 0
-180.217517695194 9.41102118135492 -16.8291360581546 0 0
44.346585079586 -21.0572800894823 14.2665138580105 1 0
-165.005868379963 -13.1919583057643 -16.9819300613491 0 0
-215.576358038765 13.7729353733651 -17.4468647354103 0 0
-182.111210589122 24.5783245148195 -24.3252754893146 0 0
-226.801917733424 38.9659782522565 -8.52426635262497 0 0
-162.21036603146 -18.1517001421513 23.3199940803243 0 0
-117.936594911124 -19.6344791501072 14.9911717046555 0 0
-182.416716597313 -18.6223510809161 26.8613138270174 0 0
-106.839691495959 -13.3034814301443 -6.17561144221002 0 0
