"x" "y" "z" "f" "a"
27.5316602871968 -18.1231219055554 12.434216823745 0 0
10.2911423015 2.19918595931567 23.8819654963404 0 0
193.111654491581 -35.0483486694076 -6.87524800889438 0 0
182.7208000864 -14.7276029948826 26.2720328945651 0 0
208.676842841699 -12.695078059359 -10.8604200578007 0 0
-37.1191172285684 2.31560425417482 5.93374600929425 0 0
-84.0438072309635 -10.4337141225811 21.1958207978152 0 0
76.9814177595993 -5.78236263354689 -1.97002546277581 0 0
-60.0256807559873 -2.33596102803048 20.5265217236178 0 0
-57.5153822976453 1.95695305361259 15.4793356092029 0 0
202.771012374336 -8.66047707227114 16.3532908742539 0 0
214.239202847617 35.4530754736648 -25.1449999921981 0 0
189.432004936093 37.5492681681673 -35.4546838213872 0 0
-40.0430000282693 -3.19603342083897 23.8241946028285 0 0
-72.7590836112687 -14.6095553835444 -6.21539462747623 0 0
135.062101870049 -10.7010899413748 20.642001767226 0 0
165.566724429237 -19.1856098910097 -12.0432446259284 0 0
202.283694409402 -22.6297129968536 -31.0624961150513 0 0
-12.9069428742396 4.645713097884 10.4164874349129 0 0
152.587639759797 14.2471377028563 14.9343622267382 0 0
213.419453133664 18.9809398285857 -22.7006793072619 0 0
107.804050988032 -16.0135220667596 12.5032605005431 0 0
155.621755907062 -0.273309349151089 -8.10137126997277 0 0
-24.6561244617591 -22.4795011106037 14.0412396459006 0 0
216.851354133029 36.12815552504 -12.1754470822759 0 0
205.116849354388 37.8372833730923 -5.60955724771576 0 0
-89.2012498950402 -12.8020045813318 -8.74653165751909 1 0
-75.2402721870682 -24.8079259757265 6.93146402901239 0 0
67.3241625024081 -16.6658977885486 13.7167248355596 0 0
189.868916659603 -36.0586646696554 -13.5748254147341 0 0
193.121947144729 -29.6736864137145 -34.6938289809623 0 0
206.373401144242 11.7310282216157 -24.5305251765777 0 0
210.954217091948 13.9689946507536 8.47291927919016 0 0
162.123456448005 14.1556014333315 14.9862867903156 0 0
186.635763404437 14.9138137965682 19.2303255137438 0 0
34.6785762605763 -3.89935054895502 27.2123179698344 0 0
103.987707006231 -0.100121101642922 -4.0315142719883 0 0
-31.826120660912 -5.65234505303634 -2.00007528448555 0 0
129.25742476188 0.992320931813808 22.7300164304525 0 0
21.9979212352099 -17.9513421416891 21.4824178433322 0 0
66.7803039767612 -8.18035667773666 26.3144745879475 0 0
-68.9971535646084 0.440568985765557 2.40197486145503 0 0
44.7561695055583 -4.31123789877783 -1.94388111568718 0 0
-31.1658852952729 -22.1804785977613 18.5049240803885 0 0
170.898578682869 13.3530836288465 -13.7889428009154 0 0
8.48855666336281 2.00339548037151 3.32264661819236 0 0
-38.3728663891795 -3.8954662740493 -1.54306922075014 0 0
162.009012776048 -21.7100109096592 -1.25702084042665 0 0
213.326725478936 12.374373925848 1.2019911642063 0 0
217.65414130336 29.0188143320802 -1.1795767682718 0 0
11.8265858118266 -19.2034174387902 20.3822668554403 0 0
158.26578925385 5.31441790221097 18.4877023289681 0 0
-73.9854180977797 -24.0117774034823 4.45768590996086 0 0
123.577440003451 -13.1228843649435 18.7018635186721 0 0
96.8952727508522 12.9934160671815 13.0190655636355 0 0
-21.6421897468848 -18.0017651621726 6.02645077097825 0 0
98.941423712261 -4.06612721757299 25.3321328156287 0 0
161.346933246182 21.7136482183885 3.44210042883527 0 0
182.868254855461 -1.14195626447575 -18.2111691072198 0 0
145.325907860094 2.2531742054018 20.7081244786265 0 0
165.170406312054 -19.4878486353195 12.40772088853 0 0
-24.382924684001 -0.0420976545663995 1.9145992777126 0 0
168.558533180693 5.48267109944414 -11.6740810127795 0 0
31.6719719077124 1.17704402387132 25.5018151329714 0 0
188.351402553572 41.7593151213467 -5.60269615238621 0 0
194.648021261524 -35.5320390140124 -8.60000940216785 0 0
18.2201188114102 -10.8232884062044 27.2038556518232 0 0
24.4423933701561 -0.469266059544381 26.1555704305024 0 0
169.137692226613 -2.21905377937708 18.4303115315804 0 0
96.2412685698471 -8.69900348388744 24.2738915063841 0 0
204.581135656824 37.5231030744299 -4.49851433130167 0 0
-58.5878034412034 -6.53118515371507 -3.74389483788406 0 0
179.927274758146 -30.1230515837153 -27.8948155444665 0 0
127.10112227434 -5.63246267474174 23.3467006141685 0 0
199.376873324939 10.1695431334048 17.9347103556286 0 0
181.498692757607 -9.81723766682754 24.55304517161 0 0
177.264506776271 31.2533733116963 0.457472536422175 0 0
7.45233041928753 -10.4059544792267 27.5220831445005 0 0
212.878967180916 10.1357193736095 -2.37769230778339 0 0
206.325469187487 -29.5258838087453 1.73601946575554 0 0
130.746109250631 9.13048209172797 -2.67165948056509 0 0
186.227696315843 5.96787276931825 20.4481940730254 0 0
151.283143161015 -18.5564696750432 -3.96979574774255 0 0
193.47722084633 -27.9728630678913 13.6225673309298 0 0
40.715807121154 -5.13097051531696 -1.3669336947277 0 0
-24.7049207124856 -1.90964108611248 -0.141948063245349 0 0
173.08590623207 -13.2777383606377 -16.8980679151161 0 0
180.540578284155 30.7592245963997 -23.9931017149556 0 0
196.249543101886 -19.4475961926617 -34.1557530498203 0 0
186.366198266674 37.6240550238764 1.43177541070216 0 0
143.726723097632 15.5300663334574 13.8061493739113 0 0
0.967152205805279 -1.55920671900878 26.2060098529813 0 0
166.789690672268 -21.4243639407907 8.92707467256747 0 0
24.2946999104331 -18.2024136803076 12.1462717969949 0 0
218.242574541368 25.9349630325164 -4.93897202669557 0 0
192.576256797254 -17.3398686752354 26.1663170716516 0 0
174.840397322853 -21.4435296100731 -24.2172116385306 0 0
98.9777631249402 -13.5005339829103 2.62793035424585 0 0
-83.8174577950187 -8.42616247987406 -6.18209086227131 0 0
215.852738468609 37.241442577143 -14.9088838758808 0 0
5.17695722028737 3.75663819613733 21.9720426227574 0 0
173.559361838123 -16.5596233099766 -19.2089862905676 0 0
134.939544840534 6.14494439446262 -4.9226118696224 0 0
72.6506198841588 -13.633290643244 5.22089667799825 0 0
-53.3710774160241 -1.85733597084527 20.9627167557391 0 0
168.12497897884 3.39143037468369 -10.409913341605 0 0
179.071548146174 22.8054916833003 -22.7406469545739 0 0
176.654112237755 34.1323517859271 -12.9328410346721 0 0
-17.6394279442847 -20.0564724815812 9.42333518387417 0 0
209.09970126165 -11.9099249211916 2.88271759395865 0 0
210.55764206389 8.4434431352898 -9.40182045185551 0 0
49.3458857952252 6.49428240757753 22.4830899866006 0 0
164.929321815078 -22.0677424321972 3.24778797741337 0 0
206.751955587891 34.8339653107288 -34.5209102747801 0 0
127.81084734037 2.89610053041944 -5.23559504143276 0 0
-31.7264947304465 -2.5604387916426 -0.824779572646666 0 0
101.828257895084 -6.75196766649707 -4.14310397772287 0 0
-87.9267785085007 -17.5875665201416 -7.14566295786932 1 0
174.39558927764 10.7626150255262 -14.8551623526973 0 0
117.656645496552 7.32238507579255 21.5461958588055 0 0
23.5662546085151 6.2964705189047 9.18859765861168 0 0
192.201839846078 23.5022584297339 17.0119790790693 0 0
100.138462953169 -11.7652830554828 0.218254886443393 0 0
67.1754638959521 7.17286949656601 22.9416413073777 0 0
210.79883008623 32.2955427084273 4.05501529984944 0 0
57.8214722272235 -8.24663350200223 0.551709140869632 0 0
40.7919570726911 -10.6811974180473 26.4923858140482 0 0
-68.3332146202361 -15.8418510052937 23.1388032878625 0 0
-55.647214788624 0.107346896200115 2.32050226944363 0 0
55.8993968347529 0.764107563882416 26.2035902594222 0 0
99.0447511987016 -2.45007494650516 -4.24894946032946 0 0
182.392490785303 -29.953570463201 4.17419123251909 0 0
172.660162596803 -18.2359841889765 19.2656975039105 0 0
13.6722422215472 6.72647410255003 15.0575861129807 0 0
200.030001775573 -19.6518915309831 22.476416887452 0 0
123.590955999264 0.82239017854052 -5.37003099823214 0 0
-60.1929293356488 -8.56139573604606 24.2581560080827 0 0
104.141520937413 -9.16807506680567 -2.65010036435379 0 0
-39.6033241608305 0.0826629960761608 20.9353119487421 0 0
14.0483712890564 -18.4108510209424 11.0530061702288 0 0
133.748184534206 15.8610892594805 12.671317839357 0 0
-62.648549121792 -23.3019610655542 16.2272872801345 0 0
208.456767594599 36.7276076203944 -4.71857748561007 0 0
-2.73298581366854 -5.61496496524347 -2.11058402630951 0 0
64.0558528769697 6.96130096008186 23.0121188542647 0 0
188.600957203545 37.8472821435639 -32.4506854809839 0 0
201.447153335034 -15.2155313847151 20.5239456566895 0 0
-59.071265382348 -17.6040079880637 23.3030180243205 0 0
171.059335902769 18.4098117414889 -12.4785531302236 0 0
-31.0649669397638 1.9232762607472 19.8584502982689 0 0
173.609559822435 -21.9383122239568 -18.8705106398857 0 0
150.22299362715 10.9596249282038 -5.39612593153193 0 0
158.160545106013 -3.85822874145588 20.0568753769101 0 0
97.3010547931846 -15.9334897801067 13.8468302442559 0 0
-25.3026820983706 4.31278102886717 11.8998872072887 0 0
210.78814262758 -25.8534921996437 -4.10400810528648 0 0
204.639344100082 -33.0893759872431 -7.62353696111662 0 0
96.2096572399413 -12.7417090450077 1.84179358005334 0 0
47.6132291441918 8.02610577699752 9.23725869506347 0 0
162.892123693052 0.371290128124263 -8.95396962014911 0 0
110.813116477886 -2.9639776244077 -5.0989822793135 0 0
206.353329269488 -32.4216865413255 -5.7249678433682 0 0
206.34112699979 -14.1294703302925 -21.8108552477038 0 0
171.50162484281 27.5044284585473 -8.88187843078586 0 0
-76.7604912764607 -6.73911144601941 21.0309121484793 0 0
134.956890607231 -8.80100869483682 21.7255848467801 0 0
172.621013387685 -26.8800988744463 -1.07515818060211 0 0
170.234288085022 24.55563465247 5.04006274843493 0 0
130.946697018508 -4.11425744550805 23.1649074486047 0 0
183.613648503619 19.0949585910627 17.7447800580585 0 0
92.9621547181423 8.27083356512894 2.23953165596944 0 0
183.740555996483 16.0292982327009 18.3288087977626 0 0
100.586751606382 -4.25050637742795 -4.65287605149046 0 0
-67.9997561729322 -0.730692688988766 17.9059609838005 0 0
150.774060342737 -12.5820840003001 18.6825830398634 0 0
125.391247951566 13.3936373667857 3.54899321480202 0 0
128.446895639944 15.7892441812434 11.228729645482 0 0
-18.8268220314726 0.710629249272548 2.43822628241167 0 0
209.853526115471 17.870137092973 13.488115421725 0 0
-82.4982898265295 -15.5433224945258 -7.37336658653745 0 0
81.8063539558446 -12.845819930877 3.34571090530587 0 0
190.01338012836 3.2706147979884 -16.0515742502425 0 0
-79.6729431117839 -14.9743635498553 21.8179306863312 0 0
211.662106294549 32.2530233011916 -30.1677611376848 0 0
180.90275373706 18.98968994439 -27.3911891706381 0 0
54.63269055334 -14.2702895627406 6.88351451683593 0 0
73.961009303746 -3.50424021410591 -2.61230649855277 0 0
103.898515095797 -13.4591857918993 19.6488876322073 0 0
199.609765514079 40.645720104358 -17.784890605016 0 0
185.123592195834 -29.5368365213392 6.35503296362006 0 0
-21.2587433382492 3.40122080714523 7.46494102051963 0 0
156.232141004479 -12.2277236762267 -9.35796542562544 0 0
0.375813473305216 -19.6381257231752 20.8490944041046 0 0
190.358883849016 -32.5794728655029 -26.6504582751767 0 0
180.150629701415 -25.4371903635834 -31.7948478984743 0 0
33.2676063203935 -6.87324158359069 0.000885461883071591 0 0
-34.6922531768012 -13.3296834445873 0.296608138017697 0 0
191.667662500591 -12.7936274086725 -31.9363951165325 0 0
203.695381984776 9.23952208735324 15.0108550206441 0 0
-61.8710411399855 -1.33873998939403 0.395298213147035 0 0
145.832557274342 -11.1691509419589 -7.3249106927481 0 0
192.685292235956 42.2371867128189 -19.5776031940524 0 0
-19.0278850977309 -21.0925552525245 20.2084531652939 0 0
112.764363952155 13.3296759560293 17.3779223170673 0 0
2.59415469504264 2.92668564053017 22.702193120923 0 0
68.5376226879481 -9.42743562893858 0.739237622180564 0 0
205.57574770877 39.0782507215145 -14.4082913762971 0 0
174.028122675608 -2.623066637197 -12.3325899879792 0 0
-22.5914708409367 -2.11509191859915 -0.389259435950569 0 0
212.398968807215 21.3719401257122 -26.5835760240213 0 0
218.615590803023 29.6655407785527 -11.5221649898275 0 5
-42.3884016208281 -4.19023577453296 24.2475745835416 0 0
137.396187574212 -13.8849925858295 -5.4835241303172 0 0
193.435133761715 -19.7242738441196 26.1298617065067 0 0
208.745910804972 32.6018390547444 4.08274036002296 0 0
-24.2321869261392 -22.4169206220321 16.9205895228689 0 0
69.3130987567464 9.75459901522372 8.73767513116452 0 0
-81.3836983464913 -4.82799517028977 19.1319831750421 0 0
-32.2032015964531 0.303601297862005 2.36671423884814 0 0
41.8633953110871 -8.05999838051873 0.996394941775381 0 0
165.311091608307 19.3815880180164 -10.8678858318769 0 0
-74.6247354544782 -1.39877549635828 17.5453674186559 0 0
162.662568296006 -10.2693552571112 -10.674368561038 0 0
193.865311919741 37.6910276140794 -36.2713138559643 0 0
1.68971724576586 -9.25808084260896 27.6645986160852 0 0
105.019946747854 -15.0380954083312 5.04115688973778 0 0
187.33759010382 38.9193489586354 -26.4000569086786 0 0
-20.5557378008691 -15.8831176235661 25.9052115738455 0 0
184.648658613407 -22.8669075297063 -34.5237480411724 0 0
-3.25613709396657 -21.0997448799847 15.6513484648962 0 0
122.352915691818 14.9522670169108 7.59219741308048 0 0
-59.7959556679821 -11.5867900898882 -4.61534660827134 0 0
66.3616889078217 8.67781172915699 6.7861927489526 0 0
150.173336136106 -14.7624458214008 -7.11371526172399 0 0
-67.8657290331698 -9.48516120491735 23.5197600515071 0 0
180.546087111331 33.9524311969414 0.753236212136464 0 0
-30.065543850033 -19.8083846593439 7.03457822752418 0 0
-86.227271683517 2.1807074581162 8.050602066223 1 0
199.792382359394 38.841716227739 -32.2538026115822 0 0
111.599835921728 12.330689956146 4.76209154115684 0 0
166.003992812778 9.25748688029379 -12.47796647918 0 0
185.213646398688 35.7776965861208 -29.9305127360598 0 0
54.014484235828 -7.91642404984945 0.559288374200695 0 0
194.035123424571 -34.3597992613077 -4.94051080650065 0 0
209.43701642591 -11.9776768322087 -1.45719298997241 0 0
-75.7792520127268 -19.8420446418477 19.8910860066394 0 0
133.053740766658 -7.76474310811337 -6.33305865067384 0 0
176.266341574546 18.6402283863889 14.8715487604048 0 0
80.1398187384776 5.3261149832355 0.840800967795366 0 0
13.8415540620777 -3.94466444072329 27.2297337427959 0 0
67.9749807023313 2.09798215028571 -0.52963209807845 0 0
19.4416672464241 -19.5087157241388 17.0492158997996 0 0
96.0499519663561 -11.6937452463832 22.3212674558835 0 0
172.081640654171 24.1856891903944 -12.9793709725013 0 0
188.390643707221 13.7655969428585 -22.3584070917837 0 0
151.060629757141 -6.99711667810175 -8.2135160102422 0 0
20.8676924069879 -19.265136739338 14.6531979667962 0 0
-52.8783467509999 -5.49266366284843 -2.78762292860921 0 0
178.418355103387 -8.26238358462209 -19.5101301362724 0 0
185.855861069135 15.102462377373 -26.9872750659682 0 0
20.6256726264733 -9.17492296197394 1.84533004615357 0 0
185.753412369828 -31.3423000545017 -27.4697940547578 0 0
51.5247540016717 -1.6364280028242 -2.45259208116477 0 0
196.490194228987 -33.4371961062851 -4.89392259077445 0 0
-54.5988331692725 -5.19569953817042 23.3580341905833 0 0
45.4196206089731 -2.0691128942784 -2.3228401602674 0 0
207.84017844663 -26.6276666993842 6.25546435521841 0 0
196.521534044091 19.6296820019145 21.512487297312 0 0
34.7037684218149 2.3034684997916 2.29226531342456 0 0
-77.3927601167209 -16.8561084053999 21.5273365607822 0 0
32.2236974681631 -2.81360843172541 27.0155570006063 0 0
165.332234455307 -23.966404023077 -4.86996987595688 0 0
196.816517055775 -7.5269712806633 21.110179035839 0 0
197.009613901923 -26.9038278666721 -34.2550874790504 0 0
-60.2239650752535 -22.5443083576031 17.9288972198808 0 0
194.232120121716 12.1647017098328 -32.0433012362389 0 0
96.9097956880011 4.54275562275483 -1.75694364108444 0 0
186.924310814172 -9.2681437940744 -28.506666190379 0 0
156.842058549897 -7.64147921950786 20.5858266215266 0 0
-78.4912372015358 -5.51850116139316 -3.97457160264734 0 0
62.1451836412628 -6.02488558290203 26.8516387828108 0 0
-23.9416282601296 -13.4569091547904 26.8296760945853 0 0
-85.5322498640194 -18.5598718262777 19.4047874808631 1 0
176.712656462867 0.99166674936585 -13.4664644509885 0 0
180.241248375184 40.6588682742421 -11.2084992918827 0 0
193.039236390234 -6.12563475920506 -19.8852769163564 0 0
205.019135850365 -33.0461553788236 -26.55012963653 0 0
3.78436841728487 -2.91055671106661 26.9886796695024 0 0
195.380861818279 -34.7287787110188 -11.0270211423688 0 0
-78.1508910396425 2.19661057769161 6.41197811320324 0 0
139.776432909779 0.978117781101198 21.6199008057878 0 0
196.390150679706 41.7540282160252 -21.3229019965079 0 0
177.663043247856 -9.03972571160677 22.9323824640451 0 0
202.350495530281 -5.1553014007218 -13.6952236714759 0 0
64.2114347835756 8.75496637564612 20.616998509061 0 0
-61.7891260237006 -3.52393229048103 -1.53194179059134 0 0
5.50495438000473 -2.27966296872449 -1.48851164610953 0 0
193.641184708119 -34.543729639183 -28.9892927755316 0 0
108.412036090407 -2.03095612060887 24.7602807124474 0 0
198.698380015576 8.63547766512265 -13.7959624136986 0 0
185.136508375552 -34.0403642958412 -3.13959691659661 0 0
199.662674603006 10.1100263444902 -15.2395907677439 0 0
169.379630663003 23.3782759065365 6.46851921251495 0 0
41.9610013737667 0.0163566079525067 -1.44898328037822 0 0
203.114503738333 -7.95272909789783 -19.9937439307452 0 0
31.0371648395527 -16.2235935119222 23.2129295065001 0 0
200.135192004869 -9.93150067393825 19.8210103411826 0 0
24.1793446589182 6.79672730612212 18.9876024962289 0 0
177.202970926043 -10.2258304405606 -21.4545435826395 0 0
46.0972556638458 -17.6048487738223 17.878291919661 0 0
177.385757054511 -19.4332620959988 23.2936007752538 0 0
-24.3166185867198 1.45128458254876 3.76499478708438 0 0
106.929172188403 -0.845189533600887 24.7222393745203 0 0
107.015889700761 -11.2575474800243 21.9355575384008 0 0
-73.0570942972015 -2.7836868189485 -1.54854833722529 0 0
205.842961383737 2.20673245267476 -5.7928755475148 0 0
89.6089352410523 2.68365806193491 -1.96202788083903 0 0
35.7175321686193 -18.4531516824607 16.114634127871 0 0
201.187623498258 40.0367517932776 -24.6116617668335 0 0
209.548283500029 -14.27683600004 -8.96386347760142 0 0
72.6847182777132 9.11790380015585 6.5834528687915 0 0
115.710572981274 -13.4063744242114 0.28112487103536 0 0
188.946788803671 27.0598679973972 -37.3136137341136 0 0
201.658528038507 6.83231834802096 -11.8366433763167 0 0
210.368923927696 -26.6008609792272 -18.7383848860438 0 0
-8.82200234767842 -19.1652697572053 9.32209586240602 0 0
137.105885895025 -5.89692289852163 22.4679834018978 0 0
185.987104417333 41.8296132487641 -19.6537952328178 0 0
179.77350029199 -20.3523318943335 24.3167589441602 0 0
186.721578773934 41.8956727903342 -6.56395854821272 0 0
203.953818154694 -28.6524033604429 6.58479765056653 0 0
198.77493118238 28.5091032288336 11.9376640467175 0 0
180.265463329093 -27.8224922480021 -30.7365457087519 0 0
37.5879540639216 7.74194675663193 18.4993752828273 0 0
94.3484026355653 12.6755988153603 15.0419829863664 0 0
90.2828379392781 12.3300112509182 12.4316917890682 0 0
101.889816501349 -14.4644052021149 4.08635653574289 0 0
88.5112582462868 -0.396806998094744 -2.81946422440693 0 0
0.145662426630456 -1.26428427572583 -0.595792726693563 0 0
27.451368804312 -12.773042719593 4.89841419494871 0 0
208.214439873597 -9.29461288342252 1.82962948652607 0 0
31.3286532796964 -1.2111768131338 -1.53463210876174 0 0
213.225644843505 38.1123825861356 -24.4464137919528 0 0
197.872617312166 23.5001616452752 -37.9601926084812 0 0
171.947297892822 17.5430344813077 14.1013264121006 0 0
93.7836816597761 -15.3377404594638 16.9963669874729 0 0
172.615116455821 -8.83959574217072 21.2175381892544 0 0
-50.4114406752777 3.0637021969694 13.2349221241491 0 0
-0.402616265349701 -5.72282149550318 -2.19377129176268 0 0
149.025615444806 7.75515358814448 -6.12251956066502 0 0
101.989623603263 13.5080791951328 13.3706007146496 0 0
189.327651824044 14.0117469838826 21.4652376315056 0 0
-29.767389442434 -1.35361599221936 0.589923744062322 0 0
13.9101306458252 -10.7036840588196 3.1588955628449 0 0
182.004835450807 37.0620609927408 -2.69975784203108 0 0
10.38057910749 -15.0885814378231 25.5191474130947 0 0
161.892436069848 19.3670435767802 -8.758476584084 0 0
208.099486210622 -23.4435060593057 -24.1057877895044 0 0
50.9485309383244 -17.5171630050852 15.6509462884072 0 0
-43.7661107891411 -2.58040938021756 22.8768837589092 0 0
38.0844369805104 8.21177536874299 15.1433791659987 0 0
175.980839350132 29.1186610610641 -15.0824841194561 0 0
101.492054614258 -12.7655390490178 20.7906791992947 0 0
183.266187785258 37.8570292142008 -1.64837789232753 0 0
0.0383400213534067 -14.1570797286063 26.435224600621 0 0
193.184424170626 4.43422459170549 18.4846437090967 0 0
208.092876155276 -10.0803560930256 -8.88732079187433 0 0
-71.300314578614 -9.42145461279507 -5.2956075937848 0 0
208.944658481251 -13.6483780105475 -12.4820979333105 0 0
65.6141106368156 4.75889976024009 24.5724088621633 0 0
205.379489961122 3.47034635996875 -8.01462158098545 0 0
15.9319524266491 6.84892065445555 13.5067383157888 0 0
183.014300337817 6.8810979256872 18.3478815731396 0 0
13.5697100719445 -19.6846807457785 14.1719557055305 0 0
62.0603361480962 9.99773769198329 15.870301574705 0 0
149.956139602953 2.93211785626234 -7.40173445294187 0 0
-47.8449221505272 2.998586588794 13.9591544812601 0 0
17.5543289702603 -13.2859583653776 26.3495480611223 0 0
165.348313374682 -4.01920341591118 -9.84588329108292 0 0
195.839747280877 -32.301984523418 -15.124070205277 0 0
156.698081900933 14.2505296370822 -7.14175559126708 0 0
184.22258904911 0.135312484851908 20.9435962875772 0 0
210.380567643355 -20.4558226088507 -17.9851532658198 0 0
178.538774290795 13.0913501118518 -16.8048633487583 0 0
16.6064176611518 -2.82589121148912 26.9450815337636 0 0
157.884215027094 -17.4083388858072 -8.4317836631154 0 0
85.7178680321403 12.0226687106467 14.5837490114261 0 0
206.910997131026 -14.6316188754476 13.0224739659003 0 0
-68.8630259613507 -2.82245413439892 19.7117122560408 0 0
182.373144773333 -14.1841474617851 -31.1575382165096 0 0
170.440481388431 26.3024578731361 -0.365069944219254 0 0
210.394369940313 12.0050411696513 -18.3905660538592 0 0
186.044564522043 39.9190694943677 -1.98428425785875 0 0
205.353465544183 10.9200784386026 14.7781465085047 0 0
188.955290914107 -31.0973202686728 -33.1411878539785 0 0
194.953911627468 40.7541914307063 -4.0110187447108 0 0
181.976851229868 -26.9906938052767 -32.5677482777202 0 0
151.120195202804 11.2273635437782 17.0953000943127 0 0
32.943010343547 7.40083767962569 18.8423585268044 0 0
183.103764676783 -27.5278867302201 10.4402801250152 0 0
-3.7441261724247 -9.26452476515763 0.0362494432083712 0 0
59.5900086276302 1.84153243890898 -0.133094759634744 0 0
17.9655556676774 5.59380888422655 8.46880029664309 0 0
211.976671210141 29.1948358092929 -29.6265206884491 0 0
198.386059647426 -2.78016012999329 -13.5331439135469 0 0
160.269822477703 21.8321324671233 -3.3656376859503 0 0
82.4657102650765 1.55998802557889 25.4074948506785 0 0
193.19235545104 -16.3387030206753 -33.8453765315033 0 0
183.15898343607 34.7058931825514 2.40190538508877 0 0
186.098026356368 34.1111551543278 -35.0003327260544 0 0
-31.1686191276581 -9.95954706446118 -2.14025969588834 0 0
48.4344246898083 -13.0131672244906 25.0127368343517 0 0
146.259346691069 -0.397052265169747 21.1508837567423 0 0
-78.828290057725 -7.40500139759776 -5.19683263825392 0 0
12.0952234639519 -1.5108096968921 26.5280914948187 0 0
208.844453575345 7.60216567184332 5.29143000483394 0 0
146.413635123719 12.7119431655432 -3.44172598199122 0 0
115.715418775747 5.8249674145378 22.210334515656 0 0
-53.3959424030073 -17.7961974295729 0.643901920554811 0 0
121.424219091249 -1.57035505704302 -5.70406948580437 0 0
203.05959509003 -12.7851645686105 18.0624754217801 0 0
-58.5518180774943 -19.5169208786779 22.0118925337728 0 0
125.833678835531 -16.4858469529664 6.76403776490494 0 0
-76.1550400902182 -19.1623841319152 -3.23654789576733 0 0
49.1486787184273 2.68477621101767 1.39084061433708 0 0
64.8156039359071 -7.01117229351531 -0.635519794652396 0 0
108.167098402453 5.05814906892283 22.9598752685476 0 0
215.30789184672 26.6339960044389 4.75536122434745 0 0
35.9746530795692 8.07020560519835 15.5267296862395 0 0
195.045159639104 -2.28516803116843 -14.4118777056651 0 0
60.9913952112835 -11.3592431641524 25.2647866518452 0 0
187.975139727129 -35.9630289905543 -7.50678139637809 0 0
92.9226905762268 -12.3147136709851 1.67525933844766 0 0
85.3601735625517 -14.5501384876408 6.08703943737113 0 0
78.8243315349756 9.81685331802558 20.5842288333289 0 0
187.405348342407 -27.265748834286 14.8844873164474 0 0
197.889998965765 -4.94200554895599 -14.5376532125534 0 0
178.778959838184 36.2253461955504 -7.82428840222356 0 0
183.731176695959 -6.63991478872784 23.8014087558396 0 0
199.316833384412 11.4048936683289 -29.8035125909503 0 0
105.07347372349 -0.152665618945049 24.7297121841118 0 0
172.42244082333 10.3086284075764 -14.1708519695685 0 0
191.231595911753 25.1025996464396 15.7207420058319 0 0
52.820992464478 -3.79942823289826 -2.08407312910697 0 0
14.8073326021564 -4.25369644468617 -2.28165305335484 0 0
175.721952971698 -21.4553716809412 17.8103970776569 0 0
207.16068832052 -13.7455876734457 -19.6650960703386 0 0
198.088168911541 31.0814425395921 7.7613033833997 0 0
153.042238752957 -18.774345014745 6.72068593331618 0 0
202.784190728886 14.3885709226961 -32.4145215958032 0 0
209.028288684625 -11.0956296980064 0.543506708827649 0 0
203.427664166916 39.8937842575957 -20.54561018786 0 0
165.967517473957 24.2877420284451 -6.30997493427585 0 0
85.160730375534 -6.57631367047256 25.7169296722692 0 0
178.052519597887 -23.6808412250929 16.3010729879518 0 0
192.696378254289 6.13761965683582 19.0665236165834 0 0
-39.5736167844781 -6.08549748527636 -2.12175332427324 0 0
-85.0924763207134 -22.0039128210324 -2.09514699028051 1 0
189.048988571571 25.1223873460614 15.3971547747419 0 0
215.090542880938 14.4088882561738 -4.52387471806337 0 0
101.805335042603 -14.523688664101 17.9693433829779 0 0
155.777938722431 4.65831186584494 18.9487515140324 0 0
193.034550065384 38.5559648410394 -31.5666183306126 0 0
53.6099047996937 9.20213116728548 16.5519736096871 0 0
3.369945424462 0.665751221092493 24.6959713954313 0 0
19.1164438557725 3.2502854709553 23.5803987700808 0 0
-55.9779387303933 2.1419945281815 6.03986408322546 0 0
194.75491412816 3.75307514395255 -12.9410615887134 0 0
173.846170677333 -19.5662045480747 -20.2218967327674 0 0
-23.8534344382782 -7.91518183064458 27.0311434533231 0 0
187.256559966835 6.16753837857665 -16.9658669066356 0 0
40.9738245420557 5.39419839298695 23.0506257235979 0 0
209.80468692103 -13.4013066372849 0.506873547867929 0 0
-13.8682663517278 4.11699468813761 18.926162405623 0 0
202.058012527452 -35.7795719686499 -19.1242310832903 0 0
210.783426003746 33.5779474386999 2.26475866046427 0 0
184.098494981591 -25.5649584472806 18.2474329129419 0 0
197.458239443708 6.12829582296874 16.7604490542707 0 0
176.251517002231 22.5061538246461 11.4137347198869 0 0
160.37633800492 7.74891918901705 -8.98371449099987 0 0
174.144170632224 11.4685848951864 17.0206571803015 0 0
-48.9138262753148 -4.41280943614781 -1.93615628659959 0 0
135.520008311825 -14.390256140609 -5.18162670415413 0 0
201.032369048452 30.7445340808302 8.65474836475574 0 0
58.1341327254961 -16.1898644400703 20.0423932953031 0 0
14.4189534850006 5.81734399535239 9.63092948804652 0 0
112.59379227897 -4.39720827776749 -5.2814032067169 0 0
159.921924907705 -20.9532671029451 0.251880733877274 0 0
208.398490273028 11.1174389108656 -19.8143065930688 0 0
-62.2195898566776 2.2625149280659 6.36959042553237 0 0
211.174851893528 -24.3716203675956 -14.9245683884883 0 0
205.450071768697 -4.61104585816668 -9.4053763880013 0 0
204.238867423789 11.8836454756986 -19.1426387633606 0 0
19.0913640454119 6.67648015929013 11.2007164119951 0 0
-64.8466525194587 2.69381469689622 11.3180690201533 0 0
190.398687015962 7.11090612843418 20.0964999708809 0 0
172.210918554916 -10.6526945120188 -14.7690256803153 0 0
192.820344147265 -1.72631683141989 -15.3127440899608 0 0
78.6143495674055 7.68563053466175 3.49971128220614 0 0
177.69982444419 -20.59382227328 -29.395943735207 0 0
-16.923209182912 -3.30537659395345 26.1309678232755 0 0
199.607911571356 -1.55884960948889 15.4929132705483 0 0
46.346726691131 -8.85410199252797 1.52096803180616 0 0
180.372277970861 5.04376093409908 -16.4938470538659 0 0
184.985875395608 40.4672970145788 -4.4956296398756 0 0
-10.6906773501822 -5.0362532300141 -1.8532926891202 0 0
128.607008951763 -4.32835428748054 -6.40057600369465 0 0
197.675287745172 -1.29694860229265 -12.3473624010103 0 0
213.920006332858 18.0026810536301 -20.2931369560731 0 0
198.254577731484 38.6331224631167 -30.47480386025 0 0
-29.3108126925807 -6.17044796875366 26.4317174017941 0 0
204.942845828419 1.84672115259914 8.91597354821165 0 0
185.851480392194 0.56118310762627 -17.4767941623627 0 0
132.846125891174 12.276569093847 -0.335335056984928 0 0
187.236113662492 -2.41149929698295 -18.6478446001732 0 0
146.318938662003 7.25373134167209 -5.87326637269384 0 0
9.75263731016367 3.82183828286618 22.2607604990489 0 0
-38.8377145320124 -16.8970102566257 2.51096919902608 0 0
7.80630951178455 5.82371020451882 18.7155780547484 0 0
216.411839805972 20.3829871378947 -9.22426493007815 0 0
39.7374549830591 7.78662631569083 10.3627659565135 0 0
196.454959331415 -23.3469733390889 24.0020461334296 0 0
45.4663799166844 1.39035232268705 -0.431625228245061 0 0
131.233391019156 -9.0230603475014 -6.14009312857222 0 0
186.562042056289 28.3293828925972 -36.1087203129852 0 0
180.134051233832 12.0725633512038 17.8868167792263 0 0
189.111496385853 42.859675491333 -12.4530386721138 0 0
-73.0915194833092 -5.95692204076275 -3.99749805197139 0 0
5.85843812987076 -7.22795398203921 27.6615547421721 0 0
92.1942790784919 11.9731899812546 17.43539223661 0 0
-13.226191701308 -0.636238827334936 0.800618807640668 0 0
98.7400244470061 8.25300349413681 1.25680889991278 0 0
172.508197746507 -15.7680094875464 -17.5487812166655 0 0
138.049392660863 13.1633815381912 -1.12897226729662 0 0
200.467290076323 14.7837908641334 20.0073464771553 0 0
206.964422519491 5.09261550910243 -9.45733448122455 0 0
-46.4341712460077 -1.61919570322485 0.527108754413092 0 0
19.292985456704 6.95720275439429 16.528915999396 0 0
190.307888161864 42.8492817223031 -10.5805466825441 0 0
189.150126916668 -29.7909751533659 7.57255853464885 0 0
195.635839985329 12.8507723935375 -23.8175570699511 0 0
134.651004593901 -15.8539061886237 -1.08075496225353 0 0
214.038362966689 12.0615919572875 -2.67715177209477 0 0
206.291785543799 25.185837466862 13.8545335234784 0 0
153.960468366432 -5.24841815570641 20.8696278242445 0 0
171.802921239053 19.012862674772 12.7162725021574 0 0
207.591168554077 -10.3886686141237 8.29628811857288 0 0
177.364527288923 4.02145340977335 -14.3958717820766 0 0
-39.334085708707 -1.29079186527787 0.787865570785153 0 0
-3.90470158039542 -19.853935833096 11.0263076666688 0 0
-26.8777264273023 3.54881706639237 17.2280031261649 0 0
201.33964096397 -6.35352678942487 -17.4153283827303 0 0
178.056486636676 -26.2152024333331 -29.3099104530309 0 0
138.102464210716 -4.14526515344072 -7.01421137209304 0 0
200.697161407008 -2.90555715088047 -12.6291628694439 0 0
100.332015488534 -10.5255000750576 22.925445309025 0 0
199.915877470084 19.2575363643946 21.4033097783505 0 0
116.41012090286 -15.2058330052159 3.50379365695193 0 0
133.895355927677 14.5596826095079 15.4529098633424 0 0
188.866277625047 -10.1688609245733 -29.5047492445237 0 0
-48.5705785007384 -10.4247728940877 -2.79142520951386 0 0
186.576014465801 16.5364010784646 18.782307287462 0 0
152.060555910446 9.49182857943011 -6.38912397684748 0 0
-50.6941943124906 -0.426532413461549 1.79314109272759 0 0
-66.2393314323347 -17.0730098933742 22.855776778469 0 0
210.625716936791 -17.3640254247846 -10.2530818001968 0 0
175.930676511425 -24.8177987133286 -26.8091229855905 0 0
193.42279704652 -8.68366260181079 -24.6952172291207 0 0
193.935624598797 -33.7867511121119 -13.766061397523 0 0
138.345458466183 -1.3033400836691 22.2391314054378 0 0
169.902338505563 -0.0646851796814019 18.0113211781182 0 0
55.6297234690094 7.59452790810146 6.49366936612673 0 0
-29.1675043982812 -2.80893982914536 -1.15913281176421 0 0
-68.0556045773551 -12.7577109852605 -5.9740608484708 0 0
178.050491817187 7.2228034747109 -15.190415020443 0 0
201.627884893166 28.4268561699292 11.427822664969 0 0
154.273034997984 -16.3566571057801 -7.60069960802208 0 0
101.118394823451 -9.24898537640154 -2.19551474457859 0 0
125.495924385794 -15.6480254995713 13.8393113065651 0 0
194.196826051787 12.9276287008235 -29.9091100868505 0 0
169.627590519592 2.26974511033678 17.0109516999357 0 0
167.733360838565 -23.7115705023886 -11.2998657434851 0 0
174.841615885365 31.0201100050253 -6.36497810359954 0 0
-2.31848980953589 -5.1455625610258 27.3455392381731 0 0
178.769768667183 -2.49150342897076 18.7362461790213 0 0
183.564970984763 34.1448042569166 -25.7823928592181 0 0
206.959496286723 32.0701802825813 5.55787744391624 0 0
-4.35432990616739 5.46864880838823 16.6110403326646 0 0
-76.3670247172966 -24.7177652175564 12.0895842208504 0 0
160.910088772531 -17.0096000146053 14.7680847294258 0 0
111.690025779608 6.64004787202275 -1.7979593821514 0 0
159.145197299679 14.4330162928656 -8.75622934206258 0 0
191.281586411745 26.722531052 14.1372302790756 0 0
176.49207127761 -26.5777350639745 -26.570572015245 0 0
129.960514859521 -16.6320663915124 9.35599875908118 0 0
-36.389530959804 -4.84355711350363 -1.87171691728688 0 0
-67.2752438326641 -7.28349208942255 22.8568430015486 0 0
213.907249822664 20.754233716665 6.27151480131434 0 0
-84.1962536618854 -21.0178707704712 17.6973961211 0 0
-71.8258579681756 0.096385209406172 1.74012244300087 0 0
34.0639706509571 -14.0679487078272 6.45931074816398 0 0
153.823086170923 19.4695291651494 2.72262222876679 0 0
186.809237081666 -15.1482547575845 -33.3082308654079 0 0
104.731858920421 12.5032784124719 6.74925431026326 0 0
157.543908791395 18.0683530129476 10.4862583471761 0 0
208.195954541428 -25.9543748834995 -23.9699584061112 0 0
-47.8847002364468 2.71897143061705 7.45239499346061 0 0
120.344366150715 -16.3640516736459 9.75280676611786 0 0
215.794954773195 35.7430435002489 -6.24958978147008 0 0
165.232933170253 12.8234522498266 -12.9866512874108 0 0
-85.3197650425129 -5.15513625381972 18.6937466215442 1 0
175.456198418731 -14.6872923149113 -25.0808187159221 0 0
93.2707818075116 10.8100223666607 20.2030043724022 0 0
-75.3841002164747 1.86880030801868 12.6195167042878 0 0
185.589090655625 -33.3630405779306 -22.0884197130529 0 0
-49.0148767121186 -15.8307776571616 24.9201297176141 0 0
-51.7096824122159 -23.8753576460123 13.6180331314451 0 0
102.181031393282 6.68102845441086 22.7751043594291 0 0
19.6714008969774 -1.36980716744253 -1.30068197100137 0 0
38.2727815643529 -10.0001972050385 26.8075391500762 0 0
-88.7630901656247 -1.83031120339333 15.7862489973004 1 0
-48.210500401626 -23.3281782813707 16.2272322691141 0 0
112.669170976309 -4.56083064488571 24.4337289506178 0 0
195.9672035326 38.4710932551191 -30.7512257041239 0 0
-59.1902472827192 -23.7166685535143 8.22507475826295 0 0
71.6948028670091 -13.214466488246 22.9518760266737 0 0
70.2823334527686 10.5151992753604 11.6905644968108 0 0
185.917028654784 -25.0877814277296 19.5135439649547 0 0
207.47319098069 14.5096361256944 15.2583114543883 0 0
215.255783987252 20.7141800001971 -18.0826975836054 0 0
153.212892527111 -9.63191120045587 -8.57578382486746 0 0
135.820052125974 9.73878662495212 -3.16255644762607 0 0
183.89230306096 31.3584067337224 6.73307481787195 0 0
-32.556576876958 -16.6705564445463 25.3028051123579 0 0
206.119967649903 -35.1505149792487 -13.9624009271656 0 0
-7.05893147944047 5.31213313975477 12.3354351473478 0 0
-13.0445051352864 -20.4090588694671 10.7639997541112 0 0
-58.4664341880981 -6.76734248108915 23.773192051597 0 0
-27.2529117982178 3.90155426714889 9.68519828690203 0 0
196.839844657607 5.48153901450448 -12.8310522859246 0 0
115.354462464967 13.3275750352206 5.75594580948985 0 0
118.337798012274 14.9935363058681 10.8738006572161 0 0
114.397578961611 11.4228075812607 3.07639223070641 0 0
150.4261216598 -18.4125729646539 6.1819044685127 0 0
200.582946354806 23.0340017055321 17.4956847820552 0 0
-70.4052160583719 -14.2280076821198 23.3169997843721 0 0
-2.98819621447183 1.13030914794625 2.38405415668792 0 0
213.229097480239 24.4192940265333 9.1263933895747 0 0
193.089363279292 25.943149128407 14.7775608311876 0 0
89.5220668621563 -11.6706999891816 1.22265320489791 0 0
-7.19998700769699 4.60716030866893 19.0032781329796 0 0
183.703865617658 4.30184421786823 19.9822774407592 0 0
32.9245228323295 6.12103002006724 7.37995990372336 0 0
140.950169538833 2.56993575695138 -6.46770127235882 0 0
177.137928092358 8.86277937164941 15.9422333218885 0 0
205.078818050891 -7.93077384387095 -15.6680382279337 0 0
165.057380549495 23.8448148188028 -1.97817372035588 0 0
-46.0158591935339 -11.3916318060881 -2.55857626143415 0 0
-55.5988945456259 -7.63203182335487 24.4783958066776 0 0
-78.6133402187002 2.40069972237672 8.93359664397282 0 0
157.941740242471 11.5065215562055 16.5578757464854 0 0
7.18011254077294 4.466031910222 21.1714793321981 0 0
127.143134700865 -16.5582634038973 9.36349552988622 0 0
-19.7895692508616 4.61536441594435 12.4447811906499 0 0
168.876435815883 -23.6032228051301 -12.9723968588055 0 0
207.075540139489 7.14511106199438 9.18082720773504 0 0
213.103469952862 16.1834062530555 -20.5101956155706 0 0
69.2281593381314 1.89669466085317 25.744497603123 0 0
179.307196028745 20.5312598492338 -21.8124365601113 0 0
141.449706779124 -5.94750831053397 22.0781144450275 0 0
171.32885271932 -20.0032779321791 16.0365526571915 0 0
194.691973638042 42.7271753660493 -10.1028627221553 0 0
56.4972544775487 8.73898804317977 8.94198945214991 0 0
-64.4294923475573 2.7569750042889 9.44448044846984 0 0
169.281740255395 9.97118794880002 16.9953500578977 0 0
144.723075794909 10.0760919907134 -4.4355004565299 0 0
139.756255122237 15.9240303368161 13.1068930621245 0 0
152.201357736433 -4.81535656172567 -8.22676497962832 0 0
142.178937712254 -1.48150360950679 -7.29204952921657 0 0
124.322725756616 -16.4796970041745 9.41289186953452 0 0
198.309010707203 -15.3555991931224 23.1862493242572 0 0
197.120704255471 -17.2672729203394 -33.0229925630198 0 0
181.126685616867 6.57624992010088 17.6028302666219 0 0
209.770790655954 -23.2138970158908 3.89732981894614 0 0
198.223187046202 18.9789490471482 21.7035209396177 0 0
-28.7644136575351 -7.82396596741972 -2.40353063896124 0 0
139.866107191507 -1.04568401900721 -7.0543990695473 0 0
-46.2903334542198 -5.32296248827706 24.5368786154636 0 0
199.466840403502 -32.2713264540349 -3.50975954000338 0 0
164.361010021592 22.7231594734568 -6.8155136489351 0 0
127.00218330351 -13.2494632915363 18.4164264238054 0 0
-27.4987026043697 -22.3939545031062 12.5008555177821 0 0
210.240697028216 10.1284085712238 5.74307401420757 0 0
169.22060585232 4.04698423779545 17.5384203678308 0 0
200.29830123187 32.9161876514825 -37.9444730381786 0 0
197.411946138955 -29.1445325511027 8.38716293613296 0 0
187.672749727229 1.07213460369894 -16.7804666384494 0 0
81.2660731635894 -8.60890457342229 -0.780055629325717 0 0
127.481947155961 14.9740452725748 5.73208277363427 0 0
114.406735191128 -9.16468296212387 -4.53852615126963 0 0
-9.787349424119 2.66569906367381 22.0469359294815 0 0
137.73066156193 -5.35532246314464 -6.93335921340021 0 0
22.9258882687445 -18.9311187725507 13.8297001537862 0 0
12.1302208270559 4.80598487876497 7.66411742244849 0 0
192.146154696123 42.4019569946452 -6.80628053218903 0 0
200.907869506058 -31.2689847168226 -1.4202739633911 0 0
172.910634291231 19.949792777178 -13.5933998961254 0 0
206.48885063729 26.8369938391495 12.2030982818282 0 0
187.480867901263 31.0504439259472 -36.595899246012 0 0
-9.03145980681235 -10.7619943349824 1.07787788404394 0 0
68.5019682793257 5.83786043930812 2.6801277954751 0 0
-40.408306702574 -13.4242803079863 26.1499052536093 0 0
-16.9936475590809 4.58877939353118 15.9605569029397 0 0
131.567307440536 -16.3876527092299 11.1310362362468 0 0
98.2091689963119 -9.96485744788352 23.454133784306 0 0
164.771430958568 -2.92538975044686 19.1559899604728 0 0
180.401143410267 2.47427195925068 18.286018581813 0 0
155.321492930562 12.0907124895254 -7.00736213936516 0 0
75.3184688452535 -14.5104935511141 20.986765382111 0 0
19.4702159956017 3.61718819880549 4.72880574312427 0 0
197.954005050967 -4.92758262374845 18.8567047900556 0 0
-71.1382583181723 -5.61253115746632 -3.56860889310314 0 0
156.305528998847 -19.2477212924859 7.26746220025117 0 0
70.5375297928485 2.29958869119612 -0.601475467812511 0 0
142.43791243152 15.3688609380247 -0.100516236554973 0 0
70.2662284412677 -11.4234351856359 2.45768224344065 0 0
36.1264994008893 -9.67373027945358 26.9595554666288 0 0
-24.2629518367477 -18.9403106868096 23.5025926565343 0 0
210.124711491371 -30.275078884232 -10.0779673396935 0 0
209.346541656723 -32.1388472628628 -12.5638313112411 0 0
167.876545459668 -19.6938923297192 13.8337196628499 0 0
-67.4451127675163 -21.7859309095459 18.6331337274234 0 0
217.862506399985 24.1242591048388 -4.95990571503925 0 0
177.26351307638 12.2597872993537 -16.0542732324574 0 0
75.5642487536314 6.19580371537271 23.836397582083 0 0
201.656974635486 1.05447936691429 -8.50382727406545 0 0
201.356935165781 12.5357328409343 -20.8170592891774 0 0
187.720586746527 23.884741025145 16.1525961963939 0 0
133.553814496009 14.6822106898534 2.99398900911791 0 0
71.5843432659075 0.200709398156264 -1.8596527924841 0 0
74.8104306933477 3.08758247408528 -0.507153050798485 0 0
158.683863916516 19.6328908279714 7.92068791468765 0 0
153.909384734945 8.88162402501806 -7.09518498283515 0 0
31.4848121771835 -11.034696357431 3.33325393976317 0 0
5.25124123272795 3.90778732165149 6.48868983125791 0 0
208.289107260317 4.75765861276008 -3.56170924758663 0 0
-57.6825929858212 -2.77685271600593 -0.843675052767377 0 0
-74.6132251209242 -4.59150779552568 -3.01149837042687 0 0
208.446813691176 23.6282392398401 13.9685214482746 0 0
173.038464018603 -18.3670932304127 -18.6277724780859 0 0
132.389989750145 -6.16425783967847 -6.48490840159883 0 0
206.033091435333 36.7981670535205 -3.46211895513672 0 0
-53.6857741995547 -23.2582273319741 8.33177560766768 0 0
171.634671048812 -5.3845270982132 -12.156348462763 0 0
207.579055741844 31.918248486878 -34.3276718073967 0 0
190.544983075841 2.05372829478234 19.9053585757198 0 0
35.6512123828735 6.8050647567134 8.38151396326682 0 0
201.73954489467 38.6426681274429 -34.0982071828805 0 0
199.715697715075 -15.1216879640612 -30.4647528599347 0 0
190.932808379731 11.0844618962693 20.9163674407637 0 0
179.371611537991 -16.9187767898555 25.4407679553092 0 0
201.245520480275 -0.784801545861155 13.6094928269855 0 0
190.176491609311 16.5378569809747 21.6061720797748 0 0
-57.7242150048 -9.98357352264221 24.8584193598788 0 0
-16.5732753482591 -18.339167788793 7.0693960053144 0 0
-75.9852076058942 -11.6126383952365 -6.69516089039334 0 0
199.469103202157 30.907749929868 -38.3200661881882 0 0
192.104681086555 -33.9107062915056 -16.2801655706843 0 0
172.901520940155 -22.0776888526465 13.6566057690811 0 0
-30.1944581139412 3.24336493142178 17.4312377653574 0 0
153.613507369701 0.0291463237162873 -7.88914721700105 0 0
-71.6650519503521 -11.3038814278817 -6.04568323441813 0 0
18.511613665133 -7.51344011969338 0.0632301631436879 0 0
156.083301434152 18.8766377892753 8.77035624107064 0 0
18.7395085104432 -17.6740476109276 10.2916627441007 0 0
195.499602373832 10.3622993387576 -16.8615047541843 0 0
154.031310738161 -12.1009085427784 -8.79422583838684 0 0
177.04119852884 35.440788514304 -8.87377104732489 0 0
208.76397934788 -10.9083184321457 -7.24066937451176 0 0
18.551877800514 -16.0862460432517 8.05221442699195 0 0
18.1624994984044 -18.5928279400681 20.8746189027492 0 0
62.1351369241741 -1.03343751633464 26.600176330026 0 0
176.098824000708 5.87519597283744 -13.9548818003286 0 0
208.149484378154 19.3667754745627 -31.619749052433 0 0
198.88035852208 -28.9207489133201 8.94627451693275 0 0
34.0869226807282 -2.7171106232348 -1.9939456312981 0 0
150.48334403322 8.71932831101862 -6.20072335345428 0 0
157.592329439945 0.278123496178207 19.3925571276918 0 0
105.107894645705 -16.025943363764 10.5590885603526 0 0
151.792372124693 7.05610342198272 -6.86471652350517 0 0
184.331465674208 32.90499255748 -33.6728678134264 0 0
-27.6048004585733 -20.2022272428259 7.85666375928865 0 0
-51.1040256190742 2.51002661320125 15.0939049024021 0 0
191.207817316119 32.6011090570712 -37.9820517048305 0 0
102.110304652321 13.3176709317856 10.4727993910324 0 0
183.484436317291 40.0546476795551 -5.8412014194915 0 0
208.156456286937 -14.3723498518425 -17.8888714654933 0 0
176.241431960114 30.7378874557167 -1.32327301570527 0 0
-70.8645247020102 -2.17197032292576 -0.871330914831646 0 0
117.580175174268 -16.2682852802672 8.5090869443565 0 0
12.6514840258925 -16.9409402621245 23.7017946074543 0 0
191.107687793881 -8.68552390196059 -26.0456946389593 0 0
157.908562104577 -20.0038097286343 5.14406320634469 0 0
-48.7504387753137 -1.07429580633712 1.11251115018944 0 0
215.248853618267 18.1819880025479 -11.1935622825269 0 0
165.979867941715 14.7326802980522 14.8985426345396 0 0
80.1442298976845 10.4976476241915 8.1147341376586 0 0
124.806617861979 -15.0349396534002 1.3983559547893 0 0
135.942336101105 -3.48801720838564 -6.86395234620539 0 0
208.564953392151 -11.5330740812599 5.59863884838492 0 0
176.983434746798 -21.4597304614336 19.912643016511 0 0
185.622029100582 9.36693214279777 -18.3761028817316 0 0
-55.6617354116438 -19.0919524906703 22.5726991913824 0 0
170.409049988898 -9.35588564676678 -12.9666601606088 0 0
164.963653099424 6.99779655271008 16.2452331952038 0 0
-17.4625304901653 2.3763354247498 5.25799721784578 0 0
78.1816856078129 -13.9141126236344 5.36091056960386 0 0
169.866248626031 2.72939753514962 -10.3394720061517 0 0
-80.6909385345875 -12.4619983074348 -7.68805801208276 0 0
208.538766756801 16.7847069399442 15.1783137306635 0 0
-80.7622197833873 -25.2907640997127 5.85020307028447 0 0
168.822554213124 12.0625185015133 16.2577826815849 0 0
204.088554794109 10.7784717440774 -15.5513452235317 0 0
58.5000118119483 0.0948743950706712 -1.59911267492508 0 0
179.341431351288 26.2824947745652 -26.1096309328983 0 0
156.12368536399 -4.47174034642099 20.4802355300697 0 0
45.0271208072868 -10.9071514790856 3.14297413989959 0 0
47.7070184761623 6.34359563985814 5.84252515195763 0 0
59.6893801327858 9.47891155490491 17.6730856457102 0 0
204.89258800392 36.1345100772263 -35.2528064344969 0 0
21.9481514559596 2.48094824290288 24.2458974952954 0 0
169.365128039741 9.16313496856812 -13.0892163032674 0 0
-11.874720792411 -7.15762436757088 -2.07508134343359 0 0
137.957057325649 -17.1503797867718 6.72549558249583 0 0
146.232188308367 -6.36490795481764 -7.66043038980778 0 0
-5.86248040145138 -12.5073860496333 3.18406448356856 0 0
57.1906605855015 -4.33380280344588 27.0164758705155 0 0
-66.1640595115652 -10.7655468935625 23.9745388063342 0 0
72.7103989883972 -16.0730899006413 17.669541304505 0 0
25.4445245647476 -19.003521101945 15.0747480709162 0 0
-14.9597160988862 4.81957853514962 11.9286777238899 0 0
127.529021732095 -3.23450326393673 23.4505435405502 0 0
-37.8724603597456 -22.2141457987292 9.7084793850835 0 0
