"x" "y" "z" "f" "a"
84.343434095107 3.78968006290698 -2.63011190158108 0 0
133.29985147038 -11.8847706578255 6.07279322922525 0 0
145.328661146118 2.80519911263913 2.37735830626926 0 0
204.396314230808 -29.4848452331966 15.6174606001445 0 0
183.508120515181 -21.0180259006976 29.898467923332 0 0
150.04989049118 -4.44071623551163 -21.4420985585393 0 0
182.700275016123 -10.6951351602091 -19.5393142497692 0 0
214.435570410785 -11.5220256628323 1.4360792498369 0 0
164.634599221765 7.53126882053766 3.77594997478257 0 0
189.521399635099 3.86936276362928 -20.7237553454558 0 0
170.729139532394 -6.70154440549996 -19.767790402635 0 0
96.6930698073192 9.24097681914438 -17.3627578328743 0 0
185.490522943514 -6.46648222501085 26.1639963433018 0 0
201.887460130539 39.9568089761216 0.643854269769284 0 0
223.954397830146 23.4870405183648 1.93630646032961 0 0
187.11394594599 -0.780856957120218 17.6806450127466 0 0
184.268435007015 33.5090203065137 5.87095516648472 0 0
49.357072777702 -4.90253324384125 1.16260024929156 0 0
26.4445515314333 -0.0856278225058922 -21.8133583114891 0 0
32.7296587748684 -8.87424866902398 -22.0338839594322 0 0
184.525167740053 22.9819694031651 9.13371292910977 0 0
169.24696591847 -21.1809880295857 -6.94453337196084 0 0
62.5293686378715 -16.2892478702913 -12.0290056179985 0 0
219.566112973569 19.2014158411847 -8.71541307767536 0 0
161.466287110731 -19.4659293661695 -12.3677857878177 0 0
156.014547430892 -0.609103730146052 5.1443007965435 0 0
176.605002464207 -23.165362472455 -4.76430441730371 0 0
75.8106499401874 -1.55711432590487 -22.5298615614194 0 0
149.122082991466 -15.8230256583273 4.30790406782557 0 0
209.926889231779 6.01455524812619 9.26874912655904 0 0
182.19029355724 5.7206252901835 11.075897175414 0 0
183.134616970589 -5.55824366671071 -20.0095029498356 0 0
179.800326455384 -21.8128160208602 -15.8548143999513 0 0
129.523743487929 13.8568523092147 -12.7630008945767 0 0
215.539256016711 35.5407287077878 12.9039774987261 0 0
7.27917045674844 -0.271578586355556 2.01583666487616 0 0
155.70871615518 8.58950865751466 -19.3005536414656 0 0
185.856780481668 -3.91361180324219 -20.3825883679943 0 0
204.496939297928 36.9750797304549 28.7035137428232 0 0
198.183727813186 38.7296037604059 -1.60007427664727 0 0
74.6741032802297 -0.816742748121008 0.665500578441734 0 0
206.114515631367 -25.3210100078564 -10.6419988287832 0 0
24.8413475189336 6.98083202794786 -10.6874039971296 0 0
199.544013624937 -4.84960916379414 -18.7223846710228 0 0
198.501010413278 17.3583387101661 20.4182757682571 0 0
153.232933301492 -6.89529918647825 7.41704398800797 0 0
218.489085675355 34.3682389993582 11.9121361622721 0 0
163.168312149159 13.6930659883646 -16.7735771561352 0 0
0.918967835886636 -0.773748254688733 -21.3751647753157 1 0
103.056137154499 -6.76162188045448 3.12951985388566 0 0
208.378667436038 -6.34598144740177 -11.7434748003466 0 0
160.479808536217 19.3335091998171 -5.42761342095 0 0
205.390887591402 -5.52953844259305 26.677033445459 0 0
180.526973668532 12.4482139302978 -18.8740824070111 0 0
29.3358425476029 7.24863930839416 -12.7860473082065 0 0
197.680773816061 19.3613543962474 27.59063210232 0 0
110.099564064215 -16.9767151262069 -7.64011735216507 0 0
154.048074239258 7.27477583732071 1.63333369596457 0 0
148.962831265228 -10.4726540625138 -20.5864128206991 0 0
168.781499400005 9.05983419463331 5.14413724670579 0 0
78.1742037684629 9.67115300505058 -13.812362348252 0 0
213.690556699298 -21.1255812427208 -7.33409616140382 0 0
205.121641889172 37.5044150651264 -0.147409074118904 0 0
137.926512430721 2.74897823200687 1.64316749647701 0 0
15.4042357879932 4.61190923555682 -18.0256066465196 0 0
118.905555838442 2.75047051799391 -21.3827548734883 0 0
154.071771474551 -11.7929597975959 9.026739346989 0 0
185.346215792664 0.526692064260889 -20.4785047450741 0 0
17.1143554503599 5.82515954740535 -8.14061676925986 0 0
207.512278362755 12.526820943685 15.5902539970822 0 0
210.61612612131 1.08104253733447 -10.7861199549952 0 0
65.3870510865805 -3.71551160630052 -22.7934245083121 0 0
78.0416411630862 1.26651382548961 -0.395193687943476 0 0
181.607333495162 28.6510953858912 4.97034968994382 0 0
163.492397400309 3.35611437833451 5.05259551738055 0 0
103.881587942445 11.3068549682091 -11.3062636617125 0 0
183.082159944862 -27.1221162450648 19.8857526362696 0 0
164.279379154404 -15.4836209389856 11.1351697150646 0 0
148.149628158986 -0.201551801493549 -21.5261969562628 0 0
30.6728434064846 1.63628158981871 -21.0754035816217 0 0
2.61662618908655 -4.25248107063731 -22.0872829903138 1 0
175.568874828076 13.458507249611 -17.6955695933858 0 0
18.4422074096991 5.12578663571177 -17.5702939627948 0 0
212.963329111894 18.2289933513054 -13.1036605099897 0 0
61.6600333959046 -5.85033616831124 -22.7891857603628 0 0
205.305088220601 15.6963456692443 20.1011882121725 0 0
191.666258388259 41.5440748741631 11.0708567425992 0 0
147.728895999746 -13.9168025932455 7.3209996784413 0 0
172.734427597404 23.0493895873596 0.668778135127871 0 0
103.600633893998 2.30058609625395 -21.5263238368665 0 0
87.1334224893915 -16.0507869323769 -6.71406906875657 0 0
162.766109801505 19.2855238837336 -3.71764201021718 0 0
78.0183840091108 8.23710980257192 -17.2718977520165 0 0
179.277723818514 -20.0706551105561 -17.4041643722563 0 0
94.24408956445 -2.74091704218038 -22.6011415338376 0 0
125.361668424796 9.69456503150738 -5.03508621136374 0 0
35.2355011575196 7.41799426285659 -11.8358539561156 0 0
103.204449938216 -16.1695139021027 -4.88996292361588 0 0
136.035528639817 6.40948157336365 -20.1217471017786 0 0
209.368701924186 12.7278365169318 -17.4628577920103 0 0
186.906289257729 -28.2275116104054 10.2200218867746 0 0
217.920675255082 22.1948626514068 23.989173456064 0 0
105.230101252784 -16.8490732679928 -10.8798842804784 0 0
99.8191508317511 3.30256516967106 -1.05235399447087 0 0
179.784236938418 -10.2424760797933 19.2988402961614 0 0
197.011592039082 11.2559354155286 -20.4366806841257 0 0
220.035967946633 31.2382469184093 21.7102526453421 0 0
1.15379713632156 -8.97218363591608 -0.139256362113437 1 0
185.352390242081 -9.33821128378194 -20.2383133041963 0 0
218.48677133442 10.508838262707 7.54361137820307 0 0
173.675537849544 4.00698273411842 -20.2117748718167 0 0
124.247973988481 -2.96099763735325 -22.267574189925 0 0
119.190049537608 -16.422921396153 -3.20844360824235 0 0
48.5329083360297 -2.05508263455397 -22.4483688403701 0 0
214.510916129716 -25.4658003841622 14.9741159272419 0 0
196.777597253455 -25.138410010819 28.0644071557881 0 0
212.785197449454 -25.6896367041675 7.53236386077303 0 0
210.952219187128 -5.22110858477394 -6.33643449069435 0 0
102.830465865382 -16.5468968174115 -12.6300497421228 0 0
144.870567094823 4.12560458341974 -20.856481443662 0 0
189.526297350689 7.87531052272814 14.8619887653129 0 0
133.196858716608 -3.85350017236853 3.89264758460679 0 0
173.142841710541 -17.5135112208231 15.9576764104593 0 0
150.012866250005 7.70660507704911 0.708604121405431 0 0
166.86650622302 -3.94121883466335 -20.4229420888737 0 0
118.94723622816 -17.2777708137154 -10.5296293586279 0 0
57.1227945266185 -2.56943433758317 -22.6345936227403 0 0
214.847555700262 22.707308607916 -9.11223335993327 0 0
105.344545781165 -8.45653168623586 3.05144698762708 0 0
107.933523796841 -6.75964593621391 3.64345373995126 0 0
77.1361577964236 0.806643569920407 -21.9646047023588 0 0
6.58319134933904 -15.1965212227698 -16.65600798206 0 0
196.375800744075 37.445510329676 22.6359326356612 0 0
156.952273280161 -9.43513818746513 9.08381863587677 0 0
61.2414628098879 -2.16794098084073 1.61897207282806 0 0
209.116681459444 -27.0685748281561 22.0199649446661 0 0
10.5556062083448 -3.35596982570229 2.89889787350468 0 0
4.08702217301024 -9.10003405144102 -21.4940376492809 1 0
189.448975058157 10.6296650683144 15.0793876030534 0 0
187.859291140742 14.2611480897663 13.3509831038147 0 0
192.934277470328 20.2801282031681 25.4580551931527 0 0
177.182643884553 -22.2903726120842 7.30696754604629 0 0
222.753968694227 28.3723302647314 16.7820608355708 0 0
159.106974060801 17.2770754847185 -3.3915963562096 0 0
161.505484201656 3.21105948727874 4.71410812855504 0 0
188.61724697218 -31.1773824426151 18.2223914971999 0 0
162.35815676291 -9.40861170830288 10.4520412296547 0 0
212.737415356274 -26.1077242792918 10.0600956114961 0 0
211.098211008808 37.8439381389654 24.0373624494 0 0
38.8770402112874 5.45121135641496 -18.4729811322657 0 0
121.090809242372 7.42372273482672 -3.42420571131076 0 0
189.428439467799 -26.1046781859197 -8.75016152229481 0 0
134.773794193022 0.718630365049144 -21.7218401329817 0 0
206.574736337977 11.1803409064988 -19.1233954850446 0 0
181.521766314127 -14.0624481080798 27.2971524234615 0 0
8.79105173161628 -3.13060616217813 3.08002026170886 0 0
194.510122329096 28.7428674975613 -11.1722851572544 0 0
34.2054616157133 -3.66649688590723 2.04127239800542 0 0
187.713018858175 7.73785346825027 -20.247142476801 0 0
144.651554792747 11.5511545045052 -2.79157107527917 0 0
181.066089914868 -20.8032569596401 -17.6707065512128 0 0
13.6808275309629 -10.6508419139956 -20.9933399194222 0 0
56.752362862275 -3.10122955526579 1.77364870799082 0 0
37.7203535915876 5.24030788347691 -6.75504521910981 0 0
188.29089838171 0.382924260962022 16.9847414892794 0 0
31.7298183764568 -5.33113366455682 0.971295158565878 0 0
223.31976161963 26.4086663529066 2.67652054934228 0 0
212.933608561074 25.0510672015097 29.2162322774418 0 0
198.334774238021 23.4329728269417 30.3764195190978 0 0
199.092425561413 15.8069537831957 18.7845598880461 0 0
199.015449310652 -27.2623453134268 -3.48724464693142 0 0
18.3893317635764 6.54880918079229 -9.85161144043012 0 0
177.106018103636 -22.2757045939204 9.74298564880591 0 0
207.9481902602 13.9740669214922 16.9815753087092 0 0
52.6983190528459 -12.0286169377424 -20.1959804800502 0 0
157.503941106119 -19.5795561029044 -6.81950024593199 0 0
10.4635857496695 -16.2142849097214 -7.40645795612368 0 0
182.315831063825 6.62847525713677 -20.1601975681919 0 0
211.786458922758 19.4973457857427 27.1666372634235 0 0
79.2099742368199 1.08834890061671 -21.8914276812829 0 0
180.031857007414 -19.6277861994252 23.1707115412368 0 0
148.171022085659 8.03775511490588 0.24950276763723 0 0
218.014326429291 12.3073197872462 11.486781938315 0 0
212.59726522713 10.3414534663816 12.1482736876684 0 0
131.472572185486 -2.5806419986135 -22.0905519796753 0 0
112.145633162417 10.1314135025271 -17.5495135878529 0 0
178.870059919037 -6.30419999630761 -19.7739116494624 0 0
209.6284338007 37.5864637689566 9.3018181459955 0 0
191.159246088482 18.4140040368781 23.0861479643926 0 0
107.027388576596 11.1492698401115 -15.5509963289469 0 0
5.9351240676452 -12.1894766316573 -19.8556324307487 0 0
178.818168600011 -22.0381347356993 18.7519263147619 0 0
215.44578216505 20.7780778909145 -10.6021817917468 0 0
178.60631259525 -17.7451871002048 21.0904815196944 0 0
174.763938037724 -19.4676565159739 -16.4342371223257 0 0
163.532196100636 8.47140375446994 -19.2823036351842 0 0
170.348734395439 -3.10694857770443 9.31996487905326 0 0
202.589284732296 20.3293725926312 30.1574275508087 0 0
81.7030230824492 -14.512139492545 -3.06887516412336 0 0
193.543070686853 -7.29255140163232 29.4930775951774 0 0
52.5630001305072 8.39296945374564 -12.5697991114955 0 0
148.262679272359 -18.7543915278146 -6.64348050212805 0 0
120.072427324578 2.21195347603586 0.501145823056623 0 0
116.692386260888 0.640411970280129 0.984773301508491 0 0
52.1101316966189 2.78528905904672 -20.9345404162393 0 0
198.972571557966 -28.964063360669 7.5345839938846 0 0
207.156206610925 7.30779690601508 11.6497943606735 0 0
100.290352219792 -16.652041091356 -12.0906042413719 0 0
184.038956956963 -25.6337452727993 -3.68632384060326 0 0
128.012673998443 -7.20261979551839 -21.9139704927562 0 0
203.955081059287 1.75687654440079 9.44519032448461 0 0
146.270640716614 6.63710951990053 -19.9918206510752 0 0
220.051328408009 20.7112557547281 19.8929382018957 0 0
76.9295842933881 -6.01335904892584 1.44642149215268 0 0
187.702047567681 7.716643435577 14.3231898510655 0 0
83.1068751329131 -16.3869567176632 -11.5631250358658 0 0
198.730447310335 -27.7418705035391 1.46995564121501 0 0
130.190485294623 8.76076188187791 -19.2374642182528 0 0
208.636850125729 -26.8648444202572 8.80075697488446 0 0
222.149256473139 14.5741453562989 6.74892502983908 0 0
190.613849297388 4.94128594568831 15.1555978730697 0 0
206.579977668756 33.4314283449527 -2.59773204445691 0 0
170.510250660216 -20.9772430996072 -11.4548821988128 0 0
129.124238122763 -0.406535184707074 2.17045984260184 0 0
7.76340507386743 2.52418091339984 -3.06962994546592 0 0
166.147981891819 -4.40788066820951 8.71681248499171 0 0
191.466502393375 17.0594008704354 -19.0189211053038 0 0
84.4284592010498 6.35119632955091 -5.54082483881898 0 0
207.528563625779 36.9707211627637 28.0296798504443 0 0
173.99813114557 -20.4886146242375 10.9624633635308 0 0
215.152183110824 15.6684565872763 19.3958553064968 0 0
44.4361593931235 5.66255448801993 -7.06439198970603 0 0
160.161331772756 -19.5396029809929 -4.1325739134413 0 0
210.780524153424 -4.32213090934834 13.2332435544992 0 0
187.980473982813 24.0950368552153 17.5508558835755 0 0
19.6019650395224 6.68306314807914 -14.6624180956252 0 0
136.850112221131 -16.0220844282623 1.15389242357179 0 0
214.221669458986 32.1501157995468 28.1311955468257 0 0
221.377895313936 27.5476493473364 20.2143769677229 0 0
79.8939188354822 -3.65210195847951 -22.8124702464753 0 0
65.9081302990396 -10.6228181127596 -0.656079483827406 0 0
173.431569055627 12.4373148762768 -18.0092061337831 0 0
193.367974321517 13.9139502567514 -20.3325025853538 0 0
160.700135489083 16.9355683586016 -1.7828435481039 0 0
174.074880333757 -21.652483053495 -12.0541244960479 0 0
47.8616244200073 7.63266366780519 -10.2885078132877 0 0
120.05429599368 -6.04301863617759 -22.326233146996 0 0
201.070625027047 39.7218525905414 17.2013073312388 0 0
181.313610796 28.5562358324539 -7.92860319397196 0 0
177.610594063053 -1.51386729190054 11.2121540349019 0 0
104.502505428965 -11.0680356543163 2.20026047218855 0 0
153.11228573455 -17.639450124708 0.229066791135188 0 0
164.688517030925 -12.1272084076669 12.3032245612475 0 0
192.326695824622 41.5842416417889 13.1399388710844 0 0
212.714625228036 -26.8306295254928 14.4204363742233 0 0
155.310993068039 5.76670495594763 2.60036795343747 0 0
19.4052792268895 -6.33053149197003 0.688302336287782 0 0
26.3551355794763 -5.21078642363382 1.17919272610186 0 0
205.232846659525 22.6496726082345 -13.4907544523567 0 0
16.9456250660481 5.91492803510651 -16.2334186729402 0 0
162.490992099174 -19.9854936539088 -5.24659278908722 0 0
166.400673824362 -11.5017379640882 -19.3995090381328 0 0
191.744901700394 -30.9623071680746 20.7567295068928 0 0
113.073958701633 -14.9903002448627 -16.7074970504688 0 0
65.4937442452268 -12.7827554257442 -2.15444244820264 0 0
169.633977743559 -14.3069041812258 14.6422363542176 0 0
185.818752246234 34.1226894589959 -0.187483868381732 0 0
56.0570615657669 6.81248675329425 -8.03245322562105 0 0
213.247069674229 3.88217486463955 -10.3699342375964 0 0
181.600504358153 -12.4572080905038 24.8694784946268 0 0
158.980692701696 7.38820555834331 -19.7367658013734 0 0
206.012464241245 24.6370835686847 -11.7288871787344 0 0
199.355466730825 -16.5393729639019 -21.2859958793656 0 0
211.821124272084 -7.31680053689385 -4.70248632431216 0 0
170.877849504631 -2.37102581978498 -20.1788626909036 0 0
143.696891769273 -18.5612474368947 -8.89592732863638 0 0
202.482885720181 28.4743003993043 -10.1012872129177 0 0
214.107811797152 -9.61534572799489 4.12410288128342 0 0
95.2217389272352 2.10769128985093 -21.5996496422456 0 0
171.063720105608 -1.16960756469626 8.79390178426845 0 0
7.59344560307157 1.27769057608159 0.613142973356334 0 0
47.5720875261917 2.6103031293569 -20.8845186605285 0 0
175.489103335079 12.5359013641552 7.56079158933063 0 0
44.674943871821 7.70377874757576 -15.5549817314046 0 0
190.463008458282 -32.0352486619247 17.3883144500485 0 0
186.919904221153 -20.8042328027911 32.9236293606506 0 0
101.413856965819 -10.1072168185572 2.2640636320902 0 0
188.114922553216 21.4975715225327 16.2462730822385 0 0
209.702006537287 36.704701911603 4.45716956934871 0 0
138.957501882637 -12.1567496394753 6.90064449967295 0 0
195.8426072863 -26.9018003666589 -6.18492843749049 0 0
204.723046774452 39.1857991892913 13.7854079180122 0 0
189.153580137623 -15.563203463684 34.5451275474022 0 0
58.8425188395634 -6.57249348728647 -22.7280271383636 0 0
204.854662201 4.38199471450444 10.0392953394514 0 0
151.362899957433 16.3702504322453 -13.9601059448807 0 0
202.184221986038 -1.06882769085474 13.4229913418547 0 0
99.4828514084917 -4.81708722857786 3.13478946038911 0 0
143.717606871704 9.68376863559253 -1.3660839726399 0 0
201.900265663655 39.9149819598092 11.1637376673574 0 0
221.949956443256 16.2509425074471 -2.21678277717915 0 0
150.348726410436 -9.67045197606073 7.98677855981852 0 0
18.6188324679296 1.52230392212926 -0.669874228768809 0 0
151.67942686535 17.4379107125827 -8.23313237553643 0 0
135.417827831198 11.2403617401688 -4.93037380602843 0 0
214.619297942549 -16.1943079928493 20.4809683356073 0 0
183.212432304193 1.70715464666837 13.5156578447303 0 0
62.9448346284097 -13.0459669021023 -2.51413135851693 0 0
152.48852049999 -10.7676635752743 8.60690887663349 0 0
133.282805842659 1.99377103694752 -21.5014109417039 0 0
175.915515404619 2.4382177177191 -20.2572244022929 0 0
201.046271629525 35.4605281770188 -4.24699274428774 0 0
66.1644233417089 4.20606513736665 -20.5136726782691 0 0
201.811941419905 29.0874993274443 31.9139760364561 0 0
196.555187620101 -19.3396658719456 36.6604478125667 0 0
190.643959870469 -24.3433876567576 -16.2855823510776 0 0
195.106234077159 -28.7650721516987 6.00479222186826 0 0
212.04400831755 11.6002423903786 -16.5210244604916 0 0
220.009503916155 15.6331436621923 -8.24191765471809 0 0
189.005974782116 -26.622597254273 -5.56266286856005 0 0
202.405089629155 -6.42814350192553 29.0848040676981 0 0
55.9062329312571 -8.00084720952535 -0.120927123818433 0 0
167.391194905215 -11.2877523197086 13.0688656432983 0 0
15.5815970755736 -7.90547405054018 -22.1139439150909 0 0
142.174832491209 14.5743424962215 -7.46438114406095 0 0
206.159649199844 24.642756376334 31.899518694395 0 0
72.0699884901877 -8.87437117223948 0.382379224394526 0 0
15.6800822586241 -12.896697117011 -2.82662358078014 0 0
222.170214535081 15.0933865888488 1.37327445461507 0 0
183.958987937447 -7.57372706541773 -20.0520387682389 0 0
22.3321727386847 -16.7572640569973 -12.2752610073707 0 0
210.68389318168 15.8755371954674 19.7124992856849 0 0
12.4297305570753 -3.24677479863252 2.90439100184769 0 0
212.195120076067 28.657553182297 -4.71855444942811 0 0
187.15481931358 -0.889513603172984 -20.8608345535826 0 0
106.425174766689 -0.526567245411467 -22.277509764791 0 0
187.219485874157 24.9625521550849 -13.7382834676387 0 0
195.696338239904 -18.5366670616259 -22.2243554555991 0 0
22.7668006406022 -9.65687756983892 -1.09447276754025 0 0
198.648157493759 -5.69145164435287 28.7354207638012 0 0
212.907554958784 -9.69994312927761 -3.43321014026348 0 0
27.0220602116745 -16.4939385254715 -13.5337994705219 0 0
172.296897312166 -16.0566076531473 -17.662856881062 0 0
211.263782887773 -8.20746192453916 18.6306619763604 0 0
166.262910690712 16.0934751299589 -15.5262788600181 0 0
151.461754211863 1.04539337579528 3.88549729123116 0 0
53.5700122718144 -14.4639120257343 -4.46989913039998 0 0
200.402278125157 23.7912732722276 31.3587708976987 0 0
199.160664634706 -25.9115864845903 -10.7234292216692 0 0
203.13012065727 24.3310534193741 31.9723784656879 0 0
181.375240790108 -13.9051492051607 24.6875361759048 0 0
177.581251839079 -13.032424511167 -18.3845229923463 0 0
72.7393123407199 -8.22911283633308 -22.2982788501182 0 0
215.066103240128 36.0248658115795 23.870012896958 0 0
151.932324174007 9.27685699882664 -18.9731282804685 0 0
211.519885845029 19.9174503437 -12.3695270204696 0 0
78.693847987471 -2.47748636005116 1.63578243689514 0 0
29.0937208204896 -15.9658585728908 -15.0600075429533 0 0
25.1647086977325 1.42547810957424 -0.154447623097496 0 0
121.25186791405 -16.9189535886481 -4.9791780852093 0 0
106.251162587877 9.31810367108003 -7.04122075539642 0 0
198.716112164523 -24.40516063744 -16.1825658099907 0 0
184.15260346426 18.0053479634218 10.1375547297262 0 0
164.519064970551 -6.77366579887948 -20.3716951284708 0 0
184.538023836713 24.5863683158733 8.77604777393338 0 0
66.2609368873277 -14.8170458402718 -16.6268557172426 0 0
144.044744845137 15.0022057723867 -7.40440732644707 0 0
188.881705927342 14.7398135870378 -19.4905643228749 0 0
200.965907466419 -21.9108453029521 36.0525673448551 0 0
57.4093832741969 7.09957052407928 -17.4874099116993 0 0
168.12462243915 17.7937901166205 -14.5258799759385 0 0
33.1095157373595 -2.10810813731247 2.21362046017425 0 0
195.530369057393 -15.9287381583582 -21.7894934949172 0 0
171.382152455132 21.4318319793529 -12.1790358289014 0 0
153.510347559013 16.9392434768584 -5.79013000164327 0 0
102.166171744427 9.84061276789179 -17.0464976978753 0 0
205.665239372261 -26.2975919910982 23.7838449032593 0 0
82.3341592104022 -1.71321506040149 1.09728495242049 0 0
193.917712859087 -29.0722779122391 7.85800461817866 0 0
147.106441272334 15.8843269700816 -7.56486149299189 0 0
202.973310526423 39.8133090123378 14.8872260823884 0 0
7.54904590698263 -15.7880743769211 -6.38969926368056 0 0
208.135417814857 26.9215136046872 -8.71380445633185 0 0
182.358933932564 10.1689688744447 9.92264906848275 0 0
147.065864097739 -6.26129687890977 6.27223534023373 0 0
78.0562931873889 -7.63302745464395 -22.4757879297364 0 0
12.0218009155508 1.86427544653984 -2.15053286421112 0 0
99.7165439463957 -16.2473205765748 -13.8028255674231 0 0
81.8712506436921 -3.64549824420175 2.26020837697579 0 0
221.380949438405 32.7588892434146 12.5101731004808 0 0
220.98232508089 29.9543703864406 20.5682116724925 0 0
187.186009437484 -31.1041273162186 15.9598117917178 0 0
147.077422058935 -12.5913393607569 7.75048085366392 0 0
216.234965386029 16.4421259751742 -12.9396498001948 0 0
106.258386715113 5.15048744157978 -2.59752255380142 0 0
102.130923352664 -16.7254658125439 -7.81092998212776 0 0
182.854209185199 11.2414199379728 8.93513805958297 0 0
118.409137305566 5.68254889940526 -2.12682026585588 0 0
75.4809004938795 -16.3302960685901 -10.3051256277942 0 0
193.977010082147 6.51732199104634 15.1320595913907 0 0
133.375353929414 12.2155111301741 -6.6270019315253 0 0
187.474466846932 -28.83075240259 11.9986544646162 0 0
155.086229087556 16.961772243499 -13.8452459940085 0 0
182.291532197407 22.3543415905746 -14.4493950779404 0 0
218.786255963552 24.3800279254343 23.7526542675533 0 0
112.340052790196 -16.695449738504 -12.7427753450783 0 0
56.1691564523888 -10.1218507214507 -0.942051644785853 0 0
134.151940620975 -14.8997961005282 -17.5998024909639 0 0
215.243404326968 14.2921439524789 16.8741715688188 0 0
205.332244479749 -26.8411712426101 -0.405508493700938 0 0
203.545896486658 -26.3948190921318 21.5742103418738 0 0
212.992601273745 4.22603354307094 7.08036226702165 0 0
79.4125132934029 -12.5312900553899 -19.5466500379788 0 0
135.999044455984 -17.6335692030889 -4.89946356374333 0 0
118.263275085474 -6.52034630923218 -22.2791932693449 0 0
156.332030266132 2.39418264161867 -20.8702943326132 0 0
204.201924916129 -26.5012769406037 31.4877740003768 0 0
194.43773937147 -31.8389478501226 16.9134904568031 0 0
160.785125515836 9.32066340795081 2.34441911122834 0 0
208.981055268626 22.1642752583357 30.4328025853318 0 0
179.21543024787 6.3889331250489 -20.0378683319057 0 0
99.0649105173125 -2.18390187688121 -22.5956559066485 0 0
200.965375371021 27.0848178386869 -11.7513751246335 0 0
206.195042198643 -27.1617327628215 4.20585345681027 0 0
151.218831959079 -17.9707769402242 -1.64201269880305 0 0
202.007776876844 -2.08292184502948 18.4674264264516 0 0
182.041869798493 30.5532781384702 -4.67010155335583 0 0
10.1283466176435 2.03216588125404 -20.1379671766201 0 0
159.364111624216 -19.6900436191422 -10.2911920080028 0 0
214.831369436237 23.6122041288728 27.5169703883341 0 0
214.87076805296 4.08476442146809 0.224850937625122 0 0
168.315444851099 -4.72365065360773 9.46734807374602 0 0
203.383571939736 -3.1550579181877 22.4252741178336 0 0
161.284146089766 1.59798355126191 -20.7986488390006 0 0
211.421753974892 33.5561441933316 0.546466389242216 0 0
164.838049196703 17.3729969921563 -14.5494301979807 0 0
208.819437294044 37.5920602128804 5.57472535554091 0 0
92.1901574683184 3.9522648498196 -2.34241434100767 0 0
171.601117861554 -18.6784780416458 12.747193570001 0 0
215.708883206589 -21.5073884498644 20.1194138881292 0 0
149.120566323681 -11.5624924387687 8.00087116049823 0 0
182.73792726801 -10.7809472214814 27.8850312775168 0 0
23.0446507014791 6.18753211536989 -16.0335308892637 0 0
198.918703902906 -3.56207819507986 20.5020254960305 0 0
136.322370764012 12.8427091045688 -6.77120322286966 0 0
199.78767693158 -2.53600863892583 -18.9050782469252 0 0
123.296078526261 -14.9213679370764 1.03709799189613 0 0
99.3185822707284 -10.1765487331213 -21.2427182142396 0 0
91.6623497748857 5.66999093800007 -4.17353278472091 0 0
203.452318102963 -25.5266009201664 -10.3926291635339 0 0
194.92933877501 -23.5513319156653 34.1699893284495 0 0
201.772338320557 30.4201573846414 -8.71954129418581 0 0
210.899919060845 37.2806701012479 10.9635287942349 0 0
137.420233488982 -3.60925034214925 4.12244581136676 0 0
63.8151369561849 -15.5938379311396 -15.073808019633 0 0
60.3119337364865 8.79020699956786 -13.8414286033337 0 0
179.340002888547 -2.74574248626781 -20.0796928349375 0 0
84.1183745916492 -15.4718259053293 -15.2556838435807 0 0
177.708697926722 4.43522991459288 9.09948162142838 0 0
187.83615315485 15.9856450628552 -19.0115760383894 0 0
7.54811013896722 5.23907118639738 -7.35610995572756 0 0
216.690308109007 6.6018933406416 -4.22625789891841 0 0
143.157023410429 -13.7865008180611 -18.9802571211935 0 0
12.9872908147627 -6.72206184179544 0.653415012940788 0 0
9.92234931620906 3.7280849369669 -18.6719485591793 0 0
179.167965856656 -5.12037071334956 13.9221291595232 0 0
36.1384438074905 -15.1841918088388 -5.92446805877606 0 0
180.178909699376 3.73244639681641 10.1948978094539 0 0
162.417965485802 -15.49154836162 9.98082937046476 0 0
187.319790284612 22.5043385936547 13.1431908415928 0 0
143.931393348755 -17.3833632273216 -1.50415680715612 0 0
51.0129420412166 -5.37215080397091 -22.8093634726904 0 0
199.394466935204 -28.0613024825175 3.28006219574591 0 0
53.8488961178169 3.61417703312809 -20.5173364351103 0 0
146.245819582592 -11.2437617510328 7.70062471540422 0 0
202.400384265789 20.736711261215 -15.4461849011477 0 0
111.646337445808 -16.6462665173019 -5.41840863220084 0 0
211.680983222286 5.49960041628792 8.31337824790549 0 0
199.851723695237 28.8687326776947 -10.5087033814914 0 0
114.147016189963 -5.60940080181327 3.88067287511039 0 0
183.153462680449 -0.256967837307774 -19.9552162910646 0 0
78.6543962672234 6.16186523019851 -5.8570323666947 0 0
154.992566295635 -12.5853068946004 -19.7340961822519 0 0
146.867275492705 -18.7632199506006 -9.43546410481667 0 0
112.62437790821 5.81021661005984 -2.75212612352942 0 0
161.117672836003 15.6784875017541 -15.5310791637868 0 0
140.678981658878 -12.7791686262698 6.84386527418667 0 0
184.080029401425 16.1069475867593 10.3761131406505 0 0
157.039324812242 -10.9581586286923 -20.2206966783406 0 0
208.696486100216 -5.52214712262122 21.4378866674758 0 0
162.798994036203 -16.559999115154 8.93301984844182 0 0
172.409096480159 -2.4938982132411 9.79485809203432 0 0
17.1089183764716 -5.23006993773543 -22.4740986088521 0 0
213.939919416057 13.66885790229 -14.899476580657 0 0
94.7005120755565 5.71039584956003 -3.99797488854284 0 0
161.847259691906 -19.3386231541443 -1.44115387533065 0 0
223.03369063019 16.9670034456212 5.42331701425395 0 0
186.717194368858 26.2907479709438 11.7996234162841 0 0
161.911118191678 -17.1878641467606 6.99913544002115 0 0
191.225276373529 25.7255832675899 25.433124857086 0 0
185.945803227704 21.7296678997633 -15.6280707989868 0 0
205.356851995769 -1.56756514298244 15.5750879240411 0 0
152.857724069624 1.27428356710117 -21.1681068684733 0 0
50.9441899656389 -16.4819785707161 -11.0994016102525 0 0
152.53213207848 15.1134458585306 -3.94375150905664 0 0
21.0534901042731 -16.8652145997855 -10.7419181879166 0 0
80.9098696965803 -0.111291141235821 -22.2093413018974 0 0
172.978010484383 -21.4503814246721 0.477861879460643 0 0
132.642467399728 -8.55888718439626 -21.4839917389278 0 0
41.0247830537195 -16.3970693246927 -9.54797169020043 0 0
196.769744333432 41.2803236654987 15.6196276926826 0 0
182.194516177594 17.2366766871513 9.56254787941905 0 0
12.720243841241 -15.1424130273847 -5.48238109132391 0 0
58.3260818033104 -11.5495936092568 -1.55639959738143 0 0
139.42429864576 -2.29736961588053 3.81382126366536 0 0
213.962002151556 36.1971387835757 13.2564440205038 0 0
181.431769400068 -24.6877899312207 -0.820064927147468 0 0
188.522609324627 29.8366963845368 -9.47595074614476 0 0
207.668537674198 9.83708181872631 13.18917463089 0 0
172.81802105469 17.1858869950121 4.94763295425022 0 0
179.847920037652 -17.1237177525108 23.2577676958256 0 0
184.450873452638 -19.4264610442211 31.8720414676957 0 0
211.614301236405 -27.4613568652504 20.7861431918174 0 0
56.734580435528 -4.99952706650768 -22.8309031634955 0 0
203.680994425912 -24.1630969662333 -16.2185724087827 0 0
63.962709360845 3.14112843045075 -2.4884343844099 0 0
180.450718583898 12.4363560248134 8.98568352928054 0 0
218.91084597254 23.7321154917173 -6.58521082706399 0 0
4.97890178144981 4.70612118737814 -17.1863980370911 1 0
197.400694809756 41.6888551169127 6.15376406365826 0 0
198.032746803801 11.9214567561026 -19.8753804522185 0 0
197.132815306517 30.1517498043312 -9.85639084465638 0 0
187.242431262044 36.5807451142349 1.9203673647691 0 0
148.168617465679 10.8686034009399 -1.21812338300566 0 0
94.2061701622547 7.74058691387276 -18.7003375483116 0 0
41.0329461695779 -14.9996016218031 -16.7361487371604 0 0
212.687015174588 14.9595939774486 17.9939625429895 0 0
4.41781023147642 2.05334862032472 -2.21299323583437 1 0
216.983315670118 6.31178346679178 -1.33322036393183 0 0
44.7851154323792 4.17957137730834 -5.17911094970415 0 0
211.699786386094 -27.0218839151442 12.5193003879177 0 0
164.754883013606 14.3678777305493 1.50010809582348 0 0
183.54795041045 11.5949277073229 10.4452104631588 0 0
61.953273208237 -3.93751928530548 1.61363736939823 0 0
208.500595289043 -25.5897560039674 30.9217671205939 0 0
183.090734215703 21.0982308567174 8.64210483211537 0 0
148.997601963712 -14.7458417579019 6.61444933829271 0 0
176.381245400011 -22.6576173353839 -10.5417063507655 0 0
80.4315700258548 9.79114597165036 -12.376908662459 0 0
196.79877883639 -3.00324686733109 20.3895927808381 0 0
188.528628477795 12.6119812807451 14.294230864627 0 0
163.706350854916 19.0452064778092 -12.9804782247746 0 0
137.56752552818 -11.165812150858 6.84749706011255 0 0
53.5076596394559 4.22226046708874 -4.68077685171247 0 0
161.8630262636 20.3477075155006 -6.77188026430448 0 0
51.7845368437218 -1.42504434885482 -22.3229531015453 0 0
190.820911635414 21.8886818752001 24.3066290427586 0 0
211.884662352886 -4.25064675624474 5.07762512658715 0 0
189.409331173677 -29.983439413985 20.0659311996221 0 0
108.702241623344 7.04782066164433 -4.2941237718796 0 0
189.122749501939 4.38468064350077 15.1157262253178 0 0
100.297499579061 11.1306205459543 -13.860741130935 0 0
1.52864781170427 -4.50832345150539 2.5042279555773 1 0
134.612782340198 1.64445499253534 1.8318703639498 0 0
171.815141361496 -21.7015382433113 -3.9309849769526 0 0
58.239586231538 -14.6153766039819 -4.75297864040839 0 0
195.760261513926 33.7171999065173 -6.51756214927881 0 0
189.512558739598 24.1357458009033 -14.5871092353833 0 0
147.93167855012 12.1502240319948 -2.39803626041449 0 0
67.5710797816197 -2.26263346177798 1.75820597247634 0 0
150.288517584793 -18.8602408866401 -6.19373942264784 0 0
106.877502229572 -3.91904379592557 2.86014266033806 0 0
79.3729859728461 2.29503022781563 -1.17484569588051 0 0
181.478559624731 -25.9898415911896 14.122992797585 0 0
207.096798093144 37.9515237010838 25.9432624510801 0 0
99.1424878452838 -15.2120314882659 -2.6646195686718 0 0
68.1969610682437 -11.7836423727411 -1.17704792183312 0 0
40.1316175940578 -3.42823790210833 -22.6761282566224 0 0
40.0623961006071 -13.6100367775367 -3.73709017988029 0 0
223.348966308125 18.2596401756767 7.48036384596716 0 0
69.1532815071779 5.60942712654889 -5.62073796094093 0 0
219.105590144909 8.79191302030091 0.410605368512295 0 0
163.378431477542 1.79832611954436 5.61361490424467 0 0
32.1258969552528 1.36328789657466 -0.0394740131476842 0 0
216.787793049468 24.8091104148347 26.0948871652328 0 0
213.741999881461 29.5290666962356 -2.83738518998556 0 0
186.617372860865 23.8245519846424 11.8762596474584 0 0
183.701753476942 -25.6327734673926 1.23993067827199 0 0
203.930407904477 4.54230404035284 -20.2059531752072 0 0
44.5628348870913 -3.60906912510451 -22.7204145194479 0 0
192.636015066237 41.5911257184147 6.5510167799034 0 0
178.07225274358 21.1810755503331 -14.1453060105196 0 0
128.389288774682 -11.4887203341428 5.14967345094344 0 0
75.6082192057095 -13.4581870604421 -2.1483858646219 0 0
23.3138074945445 1.38749838892153 0.184354321703347 0 0
203.159756317819 -1.56030271081597 16.7676574279205 0 0
190.754076715888 -0.289217184196695 17.308254096949 0 0
206.938460763801 16.9634622044079 22.609969111659 0 0
202.950868359433 15.4838722452878 -18.4132263793129 0 0
92.4088856856443 -13.1139446544913 -0.302743103219751 0 0
55.4736933793913 -15.0958969746503 -16.5500424546352 0 0
214.69039503148 -20.4170122910011 23.902802217912 0 0
162.4134292339 -7.75080887401599 9.67465333720232 0 0
180.791292576558 24.1978020013956 -12.6778228799498 0 0
146.060625212819 -13.5014175368738 7.34038692093922 0 0
205.928286772768 32.1649007247657 -5.48309878427885 0 0
181.068514864492 15.6235104634617 9.27944547667032 0 0
164.356467077691 -13.9093266356974 -18.9516714906907 0 0
209.368408289968 23.2473966739939 -11.1571512409895 0 0
164.756384241653 -8.38759160745451 10.6522356909338 0 0
17.2149861932437 1.58460293967759 -20.7126736373197 0 0
194.047903591428 39.2432953019787 18.6278700662869 0 0
115.808522709353 -14.1943763358597 1.08032218247266 0 0
135.993923380776 -13.5453343323284 -18.9494108527602 0 0
133.674914146375 3.28006454809351 1.07997134622938 0 0
172.151699842129 -20.0289515477251 7.60270316442977 0 0
209.261167020907 -25.6574265175471 -3.69863692690403 0 0
61.43015407066 0.143799147283412 0.410195660507457 0 0
63.6914007023214 -16.1191850076798 -9.08937432135347 0 0
61.2820185875495 7.67092629719957 -9.15372889138436 0 0
182.326895257468 6.97482037692615 10.9135082867845 0 0
24.4677902909474 -8.42319686163403 -22.0797997860928 0 0
183.89037216572 28.2520383831542 -9.86916578132471 0 0
167.170222657728 -18.6106931824728 6.33307545720167 0 0
151.453383020165 13.4745590262535 -2.49837023827643 0 0
85.5721620772186 0.432078180444686 -22.1013008290248 0 0
199.339461829314 -17.0189089782021 35.9443161779483 0 0
159.393270174937 -3.45222781921116 6.97286582095358 0 0
147.512819485805 -3.44817422567906 -21.570667847115 0 0
191.320595003709 23.2224523458749 25.2688842507049 0 0
3.47375278224129 2.78726784699889 -19.277929756867 1 0
141.475724183271 -15.5324360364418 3.11568892994264 0 0
121.224710326395 -8.3455813756262 5.03147858316231 0 0
180.860403660186 -8.44476324759574 18.7934481690779 0 0
177.539774815857 -16.8471752183813 -18.0371370156646 0 0
64.1398678716244 -14.2682264897284 -3.97639701073355 0 0
37.577051490213 -2.67924279127118 2.2437300859546 0 0
165.881759665926 -20.5735480057485 -6.59971642991978 0 0
85.3279243684979 -1.20749942634222 0.835256907025949 0 0
125.93312493014 7.50974307914209 -19.7378931224805 0 0
202.020823388952 -18.2638442301488 35.7235024772333 0 0
176.163191875724 -21.7696525584489 -13.4103337701362 0 0
198.133243984714 24.0843845912071 -14.4036544947759 0 0
195.4450307768 27.3251069395996 29.0637823874018 0 0
180.358862618773 -24.4329335499308 -5.35171100791937 0 0
26.0013194204248 6.88732989409333 -14.3807636742963 0 0
187.213410466944 7.38628830862828 -19.3426246167947 0 0
83.1880041610464 8.94483656015077 -16.6806712706813 0 0
214.195343192554 14.7103504654082 18.0025867610341 0 0
202.597346177047 36.8529779240812 -2.1327444859191 0 0
182.191157057905 11.145428685841 -19.4139250170888 0 0
185.677681808936 -16.6972500909612 -19.9935473844164 0 0
205.139489488783 -28.4380161878946 11.9921713796723 0 0
118.487234219899 7.63191222976778 -3.90631962027119 0 0
191.29218735499 -10.1450588724552 -21.2160170829036 0 0
212.465063554954 -11.465333638744 20.9347585360848 0 0
187.379944931144 -24.3134684301604 -15.4631373792377 0 0
74.9395910526598 7.66798285708345 -17.7991415184118 0 0
173.058564530215 5.37009358773607 7.34382685906819 0 0
160.474663043264 -19.8416100632219 -5.65631195164796 0 0
168.531092882858 20.713268746945 -12.2436642702844 0 0
8.89721188684136 -7.39309340759351 -22.1108530788334 0 0
5.94293422973173 1.965094673936 -20.0277882606117 0 0
131.089373258883 -14.1836871766393 3.27776768265795 0 0
186.222766228213 3.35323797785898 -20.6783977443287 0 0
217.51795376059 27.3094679936228 25.7240245125507 0 0
212.599673209936 -13.083916726995 23.114947293796 0 0
18.9730908992802 -6.94004455960717 -22.3807765276107 0 0
190.550322989352 40.9198459229599 7.06222555415232 0 0
221.470075856112 28.0289537234569 1.24529813949221 0 0
66.6149452344784 -14.7006846824806 -4.65590546545007 0 0
149.099189159373 -18.9275835375445 -8.94822876824358 0 0
191.878887713787 -1.87683907218537 -20.9416673877726 0 0
177.194897172317 19.4687247454343 -14.9905228982404 0 0
43.179709256932 7.50429408479375 -10.5264637421121 0 0
165.7604588232 -16.2436926263644 -17.6128898766608 0 0
2.07029063820769 -15.8417963449833 -6.02267195885765 1 0
202.368686053869 -4.38885431717952 24.6436185782678 0 0
208.527811880938 25.9779762460623 31.4490968276241 0 0
209.906706682523 -18.0477233317775 31.0976919737968 0 0
177.471155066543 -8.84410664308268 15.9448421419439 0 0
34.06693001953 2.02375997783163 -20.9330013348426 0 0
177.393957499551 26.4726243505912 2.38507844250069 0 0
181.896987060646 1.3030405417528 12.7262453755619 0 0
198.818949592399 40.8707335272445 2.30414261169001 0 0
14.939667324531 2.66727296842432 -19.8565609449362 0 0
202.486013832057 -14.8916063758129 -19.5846986286141 0 0
69.2636257729102 2.82888031058395 -1.8927669854352 0 0
198.492598135016 38.2175059319175 23.0991050301433 0 0
199.04589234644 -4.21778797342054 22.8287400032763 0 0
42.5850058355515 -3.69213276830764 -22.7277422247567 0 0
214.107462921959 11.112835023888 12.6653324393889 0 0
126.113804522059 -13.2668168501964 -19.0211581010224 0 0
142.848286941957 -4.99775649846125 5.26999951826705 0 0
209.075221860187 -20.8957237407344 -15.2031018192116 0 0
208.145933073228 37.6842478248629 3.51578528024968 0 0
171.141753261978 -19.8398981392651 6.1170246950922 0 0
206.386805231329 -28.1324650294047 16.3149379447966 0 0
173.139410196672 -19.1791544397475 14.2566844687497 0 0
174.221033645594 11.9353268665568 7.02400066641327 0 0
3.03292306667088 -5.91059447424355 1.42773799344507 1 0
174.717206076893 10.1604061705792 7.37064242612463 0 0
176.249144844903 -2.94824597442448 11.6195465616655 0 0
206.414092413699 38.8685093800666 19.9259178561978 0 0
198.515448856314 18.4420622222973 26.7137994677372 0 0
20.671664877816 -13.133279078987 -19.1266606487129 0 0
151.45300959823 16.1025538932203 -5.71511279487749 0 0
41.4881318721074 2.35981719107587 -20.900860427271 0 0
194.692305080048 30.6636098811212 -9.49009177439812 0 0
118.448047054546 -9.79829231954496 4.15395061236368 0 0
183.892410037189 -6.43141970175659 23.0560084742848 0 0
210.921967379371 15.2745373830882 18.2748457522184 0 0
149.520020607351 -7.29260200661165 7.00913963746607 0 0
179.787586556353 -23.8336516388919 8.44455641054777 0 0
27.5181498116687 3.99604620488395 -19.3393577001335 0 0
10.1622075200509 6.7258458301093 -11.42074845381 0 0
149.346468054136 11.9830358912865 -17.6765426629757 0 0
14.3377833929608 -5.50186108659074 -22.4002479415263 0 0
190.669719495103 -12.594148267064 -21.3672061346068 0 0
144.472172803904 -16.2604000125857 1.87455722608765 0 0
3.01417922023131 -11.471931700261 -1.42177979232774 1 0
7.82675140133375 6.67253199241172 -12.9035086551947 0 0
152.744786072779 -13.4598157038883 8.48736186729788 0 0
210.448057897431 17.886678565193 25.8097019529755 0 0
142.138944339335 8.59667990290789 -0.989438802055737 0 0
89.1693372025876 -2.3844269754266 1.55430556854835 0 0
179.664011343896 -24.6500835821927 15.4682910701088 0 0
158.288732898988 12.2374430820114 0.121328922618194 0 0
223.073944315323 20.9693577586657 -1.33212271482474 0 0
181.178549228754 -12.0373722414195 -19.1303272233625 0 0
214.296127613596 -24.7592090644124 9.58274072692245 0 0
86.2743482104304 -1.45500895508698 -22.5123786108914 0 0
211.589405528775 -1.89126953720963 3.29089411434999 0 0
179.45887417795 -6.82037758347069 15.7016079694223 0 0
93.0498186699779 -10.5561737221459 -21.0729316182464 0 0
188.333366050037 -26.9031635973357 0.305774262386835 0 0
175.040739550675 -8.99910843260633 14.9671800308426 0 0
185.936665381731 -27.4061957014914 8.3332280181174 0 0
85.7422794814504 -6.80325851916505 -22.5577075916474 0 0
172.66948339412 -19.9342941528397 9.63662381519638 0 0
127.589533508373 13.6273676488506 -11.6167382628821 0 0
178.197511600679 -15.1095987683209 20.4170931510614 0 0
129.755964182402 6.3800686995006 -20.1670043874733 0 0
210.967033771102 26.2310859277772 -7.49442917458025 0 0
70.040721139683 -16.1553034306742 -13.0721179498387 0 0
91.1479120030146 -0.120675044691207 -22.2316448242555 0 0
62.9479068861529 -3.30938891855648 -22.7628552988355 0 0
177.107905838132 13.0388074264881 8.16832902886463 0 0
213.391941856557 -9.35777270488042 10.8549235778957 0 0
217.997923785768 14.934376872964 15.7740830064164 0 0
170.745811928682 9.09398085624357 -19.1231895456626 0 0
223.530520760849 20.9729858488004 11.6795359893084 0 0
167.84132193066 -20.5760798440395 -2.20711221638789 0 0
126.413970916341 -3.88108223038187 -22.2462650490736 0 0
188.269517151812 -28.051971285214 22.3809569531995 0 0
187.485914354675 14.2220266194236 -19.4365727495779 0 0
72.0676053124358 -3.52339243869053 2.00973119926511 0 0
182.784990454922 -8.5450108787675 24.0190774521096 0 0
172.20881446717 21.25333838667 1.93818673592494 0 0
168.42078754607 -20.7449099713774 -10.5047385116612 0 0
82.0021128309135 -2.04467098344227 -22.6265512220616 0 0
40.5265946897067 -16.2987384897327 -13.5440595172786 0 0
196.162410008985 -0.276325220799673 -20.6567077394255 0 0
115.619031562848 -8.44803973659566 -21.8583540176925 0 0
203.424363734329 -1.03397662624043 -17.1147355781495 0 0
181.01583088478 -25.5205627291872 19.1015343936329 0 0
182.656859367164 -24.2927084771241 -11.4417527448132 0 0
70.6682540326843 -14.2280296929504 -3.45131856308591 0 0
123.258119601981 10.4331247986963 -6.19038612326574 0 0
195.901136696073 -30.193154016567 11.0324748007071 0 0
182.984009582465 -19.7235939731959 -18.9733905783749 0 0
202.508920128286 31.3737972618786 31.6518571843641 0 0
124.348597595529 -14.9305231310139 -17.1236120321223 0 0
202.083402883712 9.31254165507007 -21.0329149990947 0 0
204.597638985525 20.4845904566707 30.343210638077 0 0
46.5006574574637 -11.953984265237 -2.18864322263848 0 0
204.432745652483 -3.82753852539658 25.4621761051487 0 0
68.9852383729751 -15.3490731370622 -5.87342062345018 0 0
141.353380143286 9.57196438470471 -1.73465037745879 0 0
178.988163761583 -11.9858189080546 -18.7527733875888 0 0
209.018020075255 15.4643753929595 -16.2720219477736 0 0
205.619320332794 -25.6828668359919 32.5199823846214 0 0
88.1407840129158 -0.41296314311787 -22.2681406408344 0 0
28.9490252975326 -7.96362542103279 -0.434455269164859 0 0
196.635512225431 -27.1414608424906 -4.69349962701985 0 0
64.1819060398125 8.64132456299287 -11.089642734345 0 0
26.3366541150395 -10.852078465865 -20.9593579745471 0 0
189.497329095173 -8.89813757385571 -21.2074631916884 0 0
56.8071021375513 2.85485646706277 -2.3817157541898 0 0
132.114244323087 8.64238859078082 -2.94386898910673 0 0
211.523641671244 22.1211255532777 -10.9184666696091 0 0
183.960419976372 -4.42588725342845 17.5675459231927 0 0
79.2858849453144 -14.4264400606093 -3.08333132178245 0 0
137.9525281575 6.55888373622338 -0.361919786498514 0 0
160.177882709593 -18.879485258411 -0.829084881196059 0 0
189.162425245352 18.8977856949263 17.0903220303601 0 0
206.987903963074 38.8185599744995 9.39044590704881 0 0
120.719115263423 -14.0047582146837 1.98546315770143 0 0
78.2825177985605 -16.2549835466474 -9.18680107661405 0 0
198.06822359682 31.4698388321421 29.8162128548017 0 0
183.084457312031 28.7021572758165 6.43202620551573 0 0
144.980287889575 -15.5226485634582 3.82189658010391 0 0
130.810354913485 10.7828482080636 -18.0831561968122 0 0
210.203917513304 -14.3285472932852 28.8818087223438 0 0
176.680526384486 -21.2535069735407 16.0794161019751 0 0
108.551570214743 11.7145538097719 -11.4243226305833 0 0
3.43007384248916 6.51156440717406 -11.2634251939487 1 0
18.2827703027181 -15.8452235335719 -15.3912957905652 0 0
190.215889296579 12.65569913459 15.5322640630761 0 0
105.20970376217 -14.0027616004676 -17.8753345837862 0 0
140.762717422778 -14.0174887998678 -18.7078664083011 0 0
130.131832158885 4.31325896311995 -20.8577983616341 0 0
214.327577022551 -18.0734432485362 23.5539291692054 0 0
220.794025191817 33.5286153666438 14.7104269291648 0 0
50.7779540705266 -13.7989927039301 -3.66116861046376 0 0
111.202522087771 3.30013174905201 -21.2319386816707 0 0
204.759883044951 -26.3772135831909 -5.72267583000703 0 0
191.759984334362 -25.8710699684469 -11.0826917929178 0 0
206.42325666639 27.2646057165703 -9.47802943544818 0 0
212.832312024652 37.620287068779 22.4556065661597 0 0
202.369157619304 18.6622498957618 24.3727504564327 0 0
61.5289499754693 -15.759569917091 -14.5503755197546 0 0
159.238092706236 -19.8148875140871 -7.87442532594904 0 0
32.8879976166759 3.79512629023718 -19.6817713402773 0 0
200.945697816721 -29.7984468909583 17.3115192412583 0 0
59.7901338814653 8.08801952496399 -16.0949651443581 0 0
187.490233177305 6.06192068011592 14.42665689954 0 0
142.646855523676 -11.5458157922329 7.3026865305514 0 0
168.727982205106 -17.4762102338935 11.8065696500345 0 0
206.121711619264 -27.8662987773939 11.5879060663858 0 0
123.991793076672 12.7453616709702 -9.78459978446609 0 0
190.909685384983 9.27040207573219 15.1766370507537 0 0
73.0259114292605 9.26165766363527 -11.8987256203672 0 0
70.6035017085896 -3.01084906279569 1.94646502699185 0 0
73.1511139451841 -16.3065998349744 -12.0066766988789 0 0
183.168825745748 -26.0632040299567 9.14439107535337 0 0
215.839543649669 -23.5579028467354 14.3320075702412 0 0
195.796587188041 17.5768270219191 20.4703177089903 0 0
32.5702204937531 0.125669220908017 -21.7827915533378 0 0
211.436053984796 11.4467908994219 13.163024237951 0 0
17.5608289952758 -9.55779155989523 -0.86277727341795 0 0
211.882552944602 32.436767046932 -0.792220982460332 0 0
188.080125165531 18.5358066222318 -17.813826539131 0 0
143.128805570551 -7.28749573833917 6.20613544427408 0 0
