"x" "y" "z" "f" "a"
85.0073441409407 12.7984543225488 19.624265408187 0 0
-141.934768704535 -7.42459987348644 -19.5854723898001 0 0
-89.936169037081 13.7417625828595 -7.73348552257487 0 0
48.4735933804681 -2.83642087306564 24.6191906924873 0 0
-214.691214464627 -43.4049670129352 -17.290462201429 0 0
-134.587259091811 14.2735344448952 -14.7817132849388 0 0
-170.022809486469 -10.5442058039115 -7.75561485394842 0 0
-90.3647213936037 -5.89515384087562 10.7993959927431 0 0
20.4137737950777 -7.26120320716658 21.4090697519783 0 0
-126.715524889279 6.10709892301626 11.954474919518 0 0
-222.264942827054 -8.73478231241405 -8.85153215778262 0 0
-142.730800277539 19.8173565093826 -16.041493046853 0 0
-14.396423169114 12.5458794453899 20.0910285410223 0 0
-25.4545319131418 -9.44495511058231 5.89434954793793 0 0
-195.027825514133 11.5730811120524 16.0475295832391 0 0
20.8958633138185 -10.6661165805308 6.36754778748831 0 0
-47.5780381665321 -3.4289644741095 19.1941723774535 0 0
80.1564811944643 0.487454663298638 -1.83461406290507 0 0
77.8973307025519 -1.56876624889336 25.785433347922 0 0
-129.251514767473 13.9699779139156 -13.6123785810423 0 0
-89.1089329742126 0.0688998745099054 -5.36609672544813 0 0
-60.5938347204369 13.51421530979 -3.67489794545411 0 0
42.1969670962855 14.6666690993902 14.9281172649452 0 0
36.2003390445135 1.46563617155433 24.8435527649126 0 0
-40.7748562955206 -4.01311127654703 19.6618709553656 0 0
-148.498977455142 -4.65793072521276 0.314001615637235 0 0
-223.25037448835 -9.22247112879875 1.6784546155367 0 0
3.64503003509707 -4.36448537261298 22.1971260102513 0 0
-196.9535192046 19.3168712024705 -12.2798947591774 0 0
-66.7165633923354 0.765921691926657 -4.34911744904068 0 0
-172.455660247164 36.545250778078 -1.74488087361668 0 0
-159.297030365291 -0.825067632141785 8.52985570143886 0 0
15.6968322402122 15.2041789353832 10.7491859973075 0 0
-67.9191482008493 -8.73912188829224 6.45527660271165 0 0
-175.648601692124 -5.14047866130227 -14.4324090578204 0 0
-132.364442639708 14.9405990139917 -14.2180040562363 0 0
-208.377418853579 -12.8538669279401 17.9692556348906 0 0
-68.8909033687682 8.23478115140647 -6.68029311411165 0 0
44.5357386493539 -4.85555214054079 1.03456083879623 0 0
-202.339629754299 31.7550930295391 5.88201511158527 0 0
-181.259303566556 6.06113042666455 10.7552595241665 0 0
-3.66073365605098 12.311926809813 20.7795925962639 0 0
-190.035654359692 21.8216561401195 -27.4711918609234 0 0
-207.262028611733 17.9840230773647 -7.94149011774595 0 0
-28.7279236741585 11.8376433120764 19.9105867150509 0 0
-235.735263698253 -30.7472139118072 12.5017542222097 0 0
-211.260261131693 -2.95402473377858 -5.93895185530293 0 0
-145.274050554059 13.7920209130901 -18.2904921259086 0 0
-187.169428382087 -15.9245825530201 -9.67661684455227 0 0
-193.705478220349 18.3048813609426 -24.877060148571 0 0
-195.855246063381 30.0456947102381 8.9055316423943 0 0
-167.110375561718 34.209032697444 -4.32094573758541 0 0
-197.315356888027 -19.0912039190913 -12.3556650141727 0 0
-160.831317142166 -7.24640319557982 -1.87073092049679 0 0
-4.23468712942882 6.94163795472063 22.891523938771 0 0
-182.646826986408 -14.0127644138393 -9.66005205467489 0 0
-223.152775423092 -34.2272484628984 22.9145521793656 0 0
-46.8379305270823 2.27343391405385 -4.61719576217646 0 0
-114.234865469727 3.3595806344037 -10.0741739758784 0 0
-26.2450505197432 -3.96817762299422 0.0416628264068987 0 0
-20.1107251389011 13.4996246210009 2.40484501943817 0 0
-94.7095127735708 7.46024786176257 16.4022105239599 0 0
-191.182771074396 32.8244207116147 6.43605918363798 0 0
-10.0226633945431 -11.023673475771 13.9284952939782 0 0
-1.50880592846825 12.1788760260107 2.9556866461644 0 0
-69.9560105564035 12.8867924126496 -5.84899941641078 0 0
-222.63271620697 -30.7131475364792 -21.4179483885907 0 0
-123.651097114138 6.06335044930337 -12.8410103905548 0 0
-196.680683590582 22.308715034038 14.6015540948506 0 0
-0.596445060693662 -10.4491733083245 6.68788357849342 0 0
-169.589021356198 29.4632385142883 5.10116453943053 0 0
-171.873007459439 -7.12214891784825 6.32330981039295 0 0
4.57596657415605 -4.80891633620023 1.38303732947375 0 0
-209.362594692161 23.9865905875903 -26.901049979951 0 0
-9.07495284890629 -10.5008940166585 15.5396677003161 0 0
-200.740570097217 -46.3447760290465 6.88760043292253 0 0
-101.590153735607 24.0054596054159 1.99958006784839 0 0
-17.1909232666951 12.6196861506118 19.9857789147191 0 0
-75.1139557913397 14.0984577165196 -5.71469664515584 0 0
-169.273713681775 2.64322288947321 9.24163600088616 0 0
65.2363121514753 -10.597317647822 5.07310949551239 0 0
61.7305508000536 -12.860028412641 8.34848710082572 0 0
-107.922975872946 14.660154919066 12.417438324996 0 0
-203.212076071403 21.7415157549638 12.4208603338193 0 0
-182.452488259157 31.4338828973931 9.1020211244382 0 0
-120.503696749025 -0.627001653039898 -8.67073629853713 0 0
-144.662984816459 26.5908653578751 0.168393072552851 0 0
-209.535009513862 -7.76089166522656 12.0347245375567 0 0
-49.9586159220736 7.10654344117635 20.3910819361179 0 0
-218.092787650396 -5.88925592240374 9.87171597039169 0 0
-72.3335380440238 8.03749276578513 18.6309990449293 0 0
-107.44572487406 11.5363221057004 13.8298400443977 0 0
-26.7838075104741 0.916692824312148 21.950823929632 0 0
-80.0869693933945 6.62182688575726 18.235582205749 0 0
-23.8399446132731 1.04945159869369 22.0873163287168 0 0
-104.534448260504 14.8448535861718 -9.80107174336994 0 0
-201.368206859014 -39.7142224688038 -12.0790039436991 0 0
-33.6541171902045 -10.1967760186436 10.1220542555011 0 0
-157.243457933347 29.3801727020459 -0.995699416219984 0 0
-197.181832727592 38.2548518933654 -0.36554486882717 0 0
-190.857945766703 17.1807808178878 13.6947116442833 0 0
-208.93448395251 -12.6796736187703 -15.3246742968744 0 0
-87.1536098588343 -6.20925297569913 10.8251668069166 0 0
-193.976989917405 19.7886951973718 -26.061586567171 0 0
-4.59312018844034 -11.4541053238077 13.4176475236347 0 0
71.1909093763366 11.7422978475626 4.25289503281857 0 0
-170.423580323386 35.2520017610293 -1.71439117833668 0 0
-198.492426247012 -4.80441293041391 -14.1436845010176 0 0
-57.2491289153195 12.799482222004 17.6485771670012 0 0
31.0839045386116 -11.0391719240451 18.8382485955961 0 0
-237.215518528373 -18.0294537709759 1.68883847830127 0 0
-16.8785204324873 -10.5280606824139 14.2019153172017 0 0
40.052025390762 -0.0696468356135429 -2.19133017793109 0 0
-119.812393710433 16.4714065666591 -12.1026890162493 0 0
-216.179740203407 22.8098994906131 -14.7024653460771 0 0
79.1191270936364 -15.7021720462276 11.5599997697069 0 0
-44.654935231715 -0.228335056942217 20.6496871564706 0 0
-128.658542697999 -3.32016518945968 8.36975408802617 0 0
-138.821197744946 -6.36894441728268 -15.8777697034378 0 0
-126.54435619373 4.84811111864519 -13.5102051643235 0 0
-198.205072645408 -35.351651902309 16.2569093914711 0 0
-187.526519138493 33.0891096533893 7.39033316066474 0 0
-113.510155264262 0.0428885286793953 -8.16644430362012 0 0
-47.0545816599645 19.1765814075521 7.3171653140216 0 0
15.4695172039066 10.4091313422028 2.04443506024606 0 0
-140.740809985821 18.2470291044633 -15.9241484968217 0 0
-117.747327849149 18.2384632498494 9.19374900279649 0 0
-19.1231634701416 4.84325468950546 22.4161717651176 0 0
-231.081210488265 -31.8250240075362 18.3085267317721 0 0
-205.319870039291 22.2621242583986 -26.4565818311654 0 0
28.2982317120985 14.8668036258865 15.4277875824424 0 0
-220.262381628953 -8.40925126954346 -9.39896524264385 0 0
66.1333888138754 -8.58845039455072 3.40070271294185 0 0
-231.080626696399 -44.30998006511 -6.11723511139267 0 0
16.7321940499559 -2.33776087892048 23.592248882593 0 0
-105.833860198359 -5.75952654245374 8.10900554868581 0 0
64.8667665690679 -0.128986991348589 -1.59315585969262 0 0
-100.580529675372 18.0904528542479 10.6343677487207 0 0
-206.958151245401 -42.51038080619 -16.2099018918569 0 0
-206.762732490968 -48.7374798729851 -8.08396328776241 0 0
-117.454546868034 -4.6400817193336 8.11335455064017 0 0
-70.2898913024449 -8.1894120605897 11.0177274925457 0 0
-44.374919939097 15.9026444612454 15.7524841433206 0 0
-207.381696996964 23.2197255603539 8.39773318309233 0 0
-134.482127449041 26.1921193463861 -0.376959743017818 0 0
-215.91747703989 -50.2174326904954 -0.810652549252014 0 0
-176.370536375989 19.9593696672554 -28.669566544134 0 0
-118.879621742644 -4.39741927797435 -1.10106868517895 0 0
-181.010076925674 -10.075113816407 -12.1604317559815 0 0
-209.270720188423 2.74825624889593 8.10167626573046 0 0
72.4145697190964 12.3987787952265 20.4093246552467 0 0
-204.06788809371 -7.22316463230607 -13.7832056321892 0 0
-198.374290989369 -2.15893676463568 12.289683357369 0 0
-81.49373655598 21.3093662494824 7.47705362487419 0 0
-228.135883325451 -24.2045663647555 21.4599042470782 0 0
-25.5945287917617 11.3405683540053 20.3014577567038 0 0
-74.1633788857647 21.4838777762511 0.884783428137836 0 0
-57.4316669963071 2.18526120359724 -4.90407528167117 0 0
-128.136058961587 -2.23759522438596 -8.69428360393852 0 0
-24.1384831923665 16.0155374716708 16.2057246639857 0 0
-173.601363740469 37.9896516813243 -14.6706323352543 0 0
-204.347413075656 -12.7055614851794 -14.7563903079253 0 0
-232.352619318334 -21.7543541459307 -14.6883037160675 0 0
-126.251535575901 25.2820049092359 1.31847048928544 0 0
62.7319362824218 13.9083530727169 8.52966614687402 0 0
79.9338751707665 -13.0432183302391 20.0769485898205 0 0
7.22034966814867 11.7530612082338 21.4252897370309 0 0
-200.362084290807 -36.8231045531066 17.6864208144571 0 0
31.6846394541554 -13.06150451469 12.3299778749589 0 0
68.8683034765558 -12.2050466064404 20.4453293713931 0 0
-220.739747858303 -6.30758153147971 8.78512413697191 0 0
-108.438076894358 22.9766505445901 4.45471077909987 0 0
-185.706134464482 40.1877670009555 -12.5476735714932 0 0
-192.87310279591 20.50058838021 -26.7119826549887 0 0
-216.929681165866 -48.8295761593101 11.8730293534203 0 0
-101.999734131695 16.9539240168152 -8.21104945846129 0 0
-161.632654324197 -1.40427124712188 -20.5678849467499 0 0
69.4441786161744 8.75453881744168 23.9376033597579 0 0
-182.036625330895 -11.1123038685888 6.61064655350328 0 0
-220.645580980182 -43.9787190854968 -15.6143025328626 0 0
-196.144232600088 39.6213014816364 -14.7106000204892 0 0
-204.468872492297 3.31817103019215 -8.88406813397023 0 0
-97.751796435157 7.90431003546708 -8.75306439406354 0 0
-233.589642879001 -36.5903330171277 13.0171056880845 0 0
-4.77509317321201 9.43858818045241 -0.520508705199633 0 0
72.5859144617016 -8.08673355142973 2.82583692520058 0 0
-113.657245317398 10.3811824920789 13.4650361761229 0 0
78.0385909033299 -16.0006472263305 14.2290991728296 0 0
-199.95001838109 25.394033650668 7.2882216080159 0 0
-116.081205149604 11.6194614308669 12.7418018642362 0 0
-108.398765363477 21.498884325774 6.41781748675208 0 0
-207.229039827839 -49.0016484097614 10.2534572960452 0 0
-199.679026296309 22.1901465350686 -18.8614878689004 0 0
-168.133198024668 -9.01847307123028 1.4269849728947 0 0
-162.432040398343 31.1322475815696 -0.900428845086217 0 0
-220.165417531478 -27.0297550764038 -22.236785749963 0 0
-2.18173306883055 8.36377182984075 -1.31326366814638 0 0
-195.32492838612 20.4724044041955 -20.8623542429023 0 0
-203.888793952966 0.122962332546724 -11.3018131507938 0 0
-116.172782514347 6.94243195281892 13.4529518988141 0 0
-79.7557063420513 9.81755093158042 17.3782628197265 0 0
-15.7926368858046 16.9034291429986 10.9162982796851 0 0
-105.332724593463 24.8696471905967 -0.235256719592779 0 0
-69.1919448701232 6.24299475311203 -6.52321128850036 0 0
-148.64718812181 24.149420774545 -15.6227250124307 0 0
-189.255249693717 -23.6847338231715 1.15343553719704 0 0
-166.426134531276 31.0929447500451 -18.5859582988965 0 0
-36.120145046516 17.0855720466448 4.16925648808646 0 0
-126.533965216318 7.64926066142239 -13.5474576703252 0 0
-174.603665042699 31.1526284687321 -23.2398494663281 0 0
-196.876498536615 -14.1688006661809 -13.281918068006 0 0
-159.182472739679 -6.43203471566743 -6.16759091059874 0 0
-112.431578215168 9.00975972713957 -10.6716745090256 0 0
-216.804203807684 -49.51725418849 3.23266191738511 0 0
36.6736477453531 -12.4670739059939 9.08603481048288 0 0
-114.308082785729 8.15695733242779 13.5897228766168 0 0
-137.054202121841 19.886454204051 -14.8519095569717 0 0
-76.8589903835098 22.0690119077518 2.89232128868001 0 0
-193.413572239866 -30.5839848516002 4.30680073985166 0 0
-224.033363826537 -46.5168513212486 -9.5080590589769 0 0
-136.846735189448 27.356638139377 -3.73901926704965 0 0
-213.995125160799 30.5940476037876 -4.2194360224943 0 0
-43.8509311112094 -2.93705722995203 -1.35756613673699 0 0
-90.5924684138495 23.1417083177443 -1.39157905748915 0 0
-210.319956012821 -8.56540041907317 -12.9798479379419 0 0
-194.628443835835 8.43737555013453 -13.4586708886359 0 0
-202.81446583451 -0.326681182600909 13.1271194344776 0 0
58.9122292137053 6.05656457681542 25.0316756391529 0 0
-203.184187576618 -41.6043144468233 -14.8001473637447 0 0
-184.281415064421 17.2741483387699 -27.797048970249 0 0
-232.027212644129 -40.1814007837067 11.9323821108497 0 0
84.0496865465523 14.1351435072984 16.1929340891723 0 0
21.2645215926931 -10.0022258606112 19.1194229831625 0 0
-22.4048820778598 16.8291631037013 7.54106659362497 0 0
-201.544487600021 19.1822918785324 -9.81198781607496 0 0
-101.10395817015 1.51891466115299 -7.50602416441595 0 0
39.4537528004114 14.7187328420637 12.3902511423997 0 0
-75.1597029085161 0.908318782909064 -4.95491396945067 0 0
-204.012753047983 -19.7282425466912 -16.8995543848438 0 0
-156.088473631129 27.7900581071518 0.992263413380352 0 0
-191.627835817561 -21.412949225094 -7.85153644078438 0 0
-113.997958808285 16.5285046897666 10.7222583165748 0 0
78.9338193588731 8.02325415254647 24.8969829695377 0 0
-112.54429584385 25.6602833045939 -1.45878965477574 0 0
-166.258888177058 -6.59481617054764 -14.5117975604499 0 0
52.3363635092003 -2.81781728791372 -1.18102818789796 0 0
-22.4347818022221 -8.83552341255814 4.68515921837378 0 0
-30.2056499011202 -3.84215219188357 -0.182015824492711 0 0
-213.423221393625 19.1523488244077 -17.271258686114 0 0
-155.105013773927 -9.65220626018169 -19.3346915103357 0 0
-177.448058780667 -10.0687150605215 -11.8163870020496 0 0
-230.367367584714 -10.2126886403771 8.8634156753054 0 0
-79.4633527023862 -2.72295369672345 15.5308314719451 0 0
-149.034380199449 18.0281996274298 -18.6198048447947 0 0
-140.633456138055 21.320011860693 -15.1219345215848 0 0
73.7966902076013 10.6201712522625 2.66100686013254 0 0
-225.035293537982 -16.0636630316775 19.8730793487966 0 0
-191.912404517809 -23.6414506052553 6.85523074240906 0 0
51.2005394210757 -7.49130169907701 23.0791128355282 0 0
-179.683940037265 19.8699612614324 -29.0389369675567 0 0
24.7003149648248 -7.30625152512779 3.2919599118038 0 0
15.6545282012987 -4.67617879534005 22.682902322761 0 0
-96.3183205621192 5.94834395718261 -8.47358234904595 0 0
26.3739290064952 -4.86955948041598 23.1942595633655 0 0
-0.612357404393013 15.6457753160285 16.2164468223734 0 0
44.5832619300121 -7.51133821129232 2.89521347745472 0 0
32.9567830401922 12.6934381361179 20.4919182529043 0 0
-196.468731275611 -17.1805861183373 -12.3924721900622 0 0
-222.919809166279 -9.90603971097617 -10.5003265655133 0 0
87.9871373225124 12.1310689463425 21.0300710024956 1 0
-136.662407880202 -4.90808302316891 -6.60531769247395 0 0
-204.702537778661 1.24480210435416 -10.1061073785522 0 0
51.5603770130624 0.196763632039307 25.2474694506094 0 0
-221.893258049107 -6.88885483207879 -4.19881048668254 0 0
-151.296412864349 -8.86059512753303 -23.1170282063767 0 0
14.8895156789606 -6.32417233468845 2.72790080645074 0 0
-217.948670868435 -14.6099672563017 -18.6516888121566 0 0
10.0601441574909 4.87387034972267 23.6844971059441 0 0
-177.277942324799 27.6849409710079 -26.547828365029 0 0
-209.98366370946 -51.1428523952993 6.59944374883215 0 0
-214.096873249922 -6.92304482709935 -9.50544953079402 0 0
-44.5660934575317 8.92484289828184 -4.73120483203723 0 0
-98.722079077841 18.6448675417758 10.1066841881027 0 0
-16.6681970501418 7.83984685278901 22.070332305876 0 0
26.2985276964879 -12.8939486329347 11.6597595010531 0 0
-158.428768980704 -7.67211054348945 -17.1695165077515 0 0
-146.599883543248 -10.4019603644271 -13.9481549552854 0 0
-73.8310413058228 4.67317449317945 19.1446150922009 0 0
-204.836768500738 -16.4579938978619 19.0253671647814 0 0
-43.9109745098876 8.12321909132922 20.6077843430888 0 0
-192.375475872432 -26.4402293561139 -2.62682289844646 0 0
-5.4376931164565 -8.51213614113181 18.7677686818916 0 0
54.1708278775717 3.36272332530363 -1.8179520688109 0 0
-35.2041340350008 1.5846430782121 -3.85568039597416 0 0
-184.174458694426 6.49410761149825 -16.8134913978126 0 0
-182.067436558818 37.3210386734353 5.99085053848825 0 0
-196.423014237502 40.2812839918315 -10.5099827410208 0 0
-139.082083928489 19.4150535621117 -15.233931499721 0 0
-67.107907390544 -2.42510214829076 -2.58205539487929 0 0
-168.909604636627 -10.1029385927911 -9.15449729196046 0 0
2.70824913015453 3.99854330167494 -3.80427599849237 0 0
-173.097917903117 33.771618985551 -20.6993509460017 0 0
-206.731353299784 15.0140545615694 -6.1262333891398 0 0
-6.73850836416114 -10.9837183493889 14.6981454956697 0 0
-231.454969096132 -13.4203493167058 11.8011426681312 0 0
-183.549159571934 -18.389359218085 -3.15474590663817 0 0
-50.2586753854313 6.40357751639724 -5.21972826265329 0 0
89.2758293589154 -5.71217913165362 24.977386172557 1 0
-232.744815484415 -43.0536506070835 -4.11387553823673 0 0
56.186719832889 10.4877859077471 3.10064917883768 0 0
-114.118963720477 11.6986158361399 -11.1633207114553 0 0
-197.136427266513 22.6509921387224 -19.5568193715958 0 0
-199.599806275196 27.6975917721514 -27.3204690144516 0 0
-217.555070640666 -41.1647839948047 -18.7116656477578 0 0
-153.524287586176 -4.93223864166744 -4.63679332863269 0 0
-19.3617076907314 -8.32617652242032 3.93622672370246 0 0
23.8556400213818 -3.78026213298453 23.549704725333 0 0
13.3986369960025 -8.70150785462958 4.43584399566884 0 0
3.05706656065746 -0.866732438438202 -3.01690277793589 0 0
-170.369358018831 -10.6479341304469 -3.94474324285179 0 0
-195.498762156375 20.6167462784705 -26.2557226247572 0 0
-238.515977512987 -30.5633111900674 -3.32179516390314 0 0
22.5136968092727 5.55607281447949 24.217915549455 0 0
69.5254828631526 14.1335766903746 9.35814625337021 0 0
-207.470886105768 -1.28506343239079 10.9058700164231 0 0
-13.9714754533712 1.87021528123518 22.5061143572608 0 0
-214.994849171149 -14.3414744911648 21.0552721469078 0 0
-215.219407986299 -2.96886161632077 1.65987234854858 0 0
-163.43892615977 -7.37471189337319 -14.0697906727421 0 0
-187.352603366239 9.3918358962213 12.4663337259553 0 0
-192.989584420205 -29.3677502126156 2.52846030483361 0 0
-133.816465960663 16.6625980232949 8.68515649999035 0 0
-227.484521636734 -8.26846312190396 -1.56087401919031 0 0
-13.9112138864729 -11.0649766047339 9.60821484857241 0 0
-22.1158272761432 17.3681744107934 10.2627987642934 0 0
-208.121454027269 -9.5592979562835 12.7810468998052 0 0
-108.55061341181 -4.77478917187308 -0.704888469780239 0 0
-197.534285730635 -25.1564889649545 15.9360457692379 0 0
-106.977899616676 20.3766624218828 7.89690129692256 0 0
-71.055562177254 9.28714933731777 -6.85030463613588 0 0
-170.58646733262 36.1240394753142 -6.97560299559122 0 0
-226.051950434259 -43.583558451777 14.4464114781304 0 0
-201.19523906882 -34.0302583661205 -15.9477923112467 0 0
-138.847400651976 -6.79745071363622 -13.715145645288 0 0
-82.6866224475205 -2.97893292366712 14.8596268698495 0 0
-77.418571471721 11.0582757470509 -7.28364840997037 0 0
-197.351615641816 15.559661848669 16.8929262067554 0 0
-206.186882106505 -11.4032052050385 14.3494569887136 0 0
30.7888489486472 14.1603804982912 18.0532337396548 0 0
-211.06234883598 -32.4829836592163 -21.8052459768306 0 0
-159.701556543362 0.852100387944232 -22.7177342337432 0 0
-218.266886719303 -47.949524397806 6.11245092786133 0 0
85.3987925061143 6.16551616986776 25.8265374500189 0 0
47.6021899206731 -13.7766800651191 15.3042611852359 0 0
-86.8627504115532 22.2720567970053 5.90561583214887 0 0
-221.836085637613 -25.8948408683985 -21.7597904606255 0 0
-113.797725545804 -3.80974191457018 9.94720530020998 0 0
-187.575777751593 40.143094349199 1.60609694749624 0 0
-114.012186321994 -1.5996029973929 11.5206121311148 0 0
84.3072354026656 -1.92696341889949 25.9316231240178 0 0
-30.3385601848513 12.4315114753172 0.0525516686227948 0 0
57.2193528098494 -4.12291862997018 24.5194545608083 0 0
-77.5450846643289 -1.67973699279523 -3.4959545784103 0 0
-102.363752221236 17.6998820935014 10.8540119410092 0 0
-174.220635212988 -2.51384643132708 -15.8039320986202 0 0
-208.968717922128 -50.5324874956682 -5.44569228096742 0 0
-52.309304401289 7.14518434030067 -5.46328770837988 0 0
24.5655819212829 14.8822544321678 16.0146622818696 0 0
2.86038093346193 2.45382371636281 23.2498358386425 0 0
-192.822598936023 -1.64671573421201 11.3951392886784 0 0
-50.0991551636636 -6.70584229544171 2.01552872199158 0 0
-211.46887449771 21.979212263667 2.29864607882447 0 0
-212.108521473735 34.409046894204 -11.319008363736 0 0
37.8116850147882 5.95360150187083 -1.54001011129583 0 0
-168.932513794628 35.5548227705759 -8.97435261351892 0 0
-69.6433365794623 -6.84967102389096 13.0757120624676 0 0
-187.727320109763 42.0049741141772 -1.69962164055826 0 0
-57.8127406005351 16.0339580991769 15.140890425568 0 0
-229.085725678199 -20.2315542144593 19.5249214355273 0 0
-201.761137138961 26.0969904077469 8.08848772531522 0 0
-215.707301274499 23.3952803000124 -3.74066787875289 0 0
-41.5347509134813 -3.3859451606564 -0.926489583046042 0 0
62.4576578742333 -14.8727977534531 14.1745843057848 0 0
-216.551200907744 -34.7814399284937 -21.7384032754089 0 0
-196.572678673214 -25.4110941160843 -9.60300771588716 0 0
2.33488402372066 -1.93819963279602 -1.15586131604571 0 0
-206.359011396721 2.74453404387672 -7.17486172477502 0 0
-25.6029109741738 11.0302511661319 -0.572199885788523 0 0
-190.812659367151 2.39913945798389 12.2500915518132 0 0
23.0438337934642 -11.5784515941213 7.70860818455498 0 0
-219.589392317982 -21.9680712031092 -21.5700699745566 0 0
-211.929533507226 -38.9895435417491 -19.8945525017412 0 0
-229.585823058232 -34.520292221382 -16.6577660961272 0 0
-135.636932156917 17.5927543391232 8.01627103211132 0 0
-204.603769620499 37.695638370408 -9.49232470100561 0 0
-57.0668060398966 -2.44983193196975 -2.18175787765781 0 0
-199.730146866262 -23.8790428301962 17.9614730445571 0 0
-116.615569427908 5.27485229526444 13.2565251074434 0 0
-197.400513549097 -40.4056909513512 10.9284056875103 0 0
-169.91518367364 18.7639356108375 8.11448523679326 0 0
-210.15195916181 6.38420346840229 2.15436277833367 0 0
-189.360835216842 34.5293305685551 -23.2430327367514 0 0
29.3201489328933 -1.59208694562569 -2.483532757874 0 0
-210.608151134385 32.3373990797689 -4.73139266270591 0 0
57.1472462477334 -7.42304404480476 2.58760301200516 0 0
-155.955760272448 -8.44867359013655 -15.6111469457127 0 0
-68.805008086751 -6.26396548262218 1.6318617790334 0 0
-202.488523711208 38.1844763123669 -9.94838667154673 0 0
-125.926920166392 25.910776359852 -0.329972113485049 0 0
-197.450601357173 39.870451374582 -9.22217768949641 0 0
-211.289230451195 17.9854195482546 -19.7083062221696 0 0
-226.496390030295 -40.6745307906188 17.1696596173551 0 0
-218.425601513307 -7.20159517963594 -8.44123953236525 0 0
-144.786463017713 21.0347355663465 -16.138105305965 0 0
36.7822691536014 14.7538547937256 14.4567377711629 0 0
41.3051973092631 13.8948181917051 18.1778056190824 0 0
-220.350968254397 -32.1029893410228 -21.8122477692522 0 0
-109.136835334589 0.616858539016644 -8.00661334315382 0 0
-137.577037095867 0.719737949221785 -18.6882896671129 0 0
85.0509786621501 11.5533998671929 21.9510530542649 0 0
-200.213531368401 -25.6886888957218 18.9174190253077 0 0
-126.388552527244 -4.07007537119048 -1.25415252727209 0 0
-78.8033238969178 17.6501322491511 -4.10584357410604 0 0
-130.769584400362 1.27718239749205 10.8796409744616 0 0
85.2871470732257 -0.43293185226802 -1.81357479801451 0 0
-23.6297942376336 0.625145762586542 -3.12244229280011 0 0
9.69746811818401 -1.36965480837025 -2.68627192123871 0 0
-225.069463447122 -47.0694366869313 -1.40828737023528 0 0
-145.2340945701 -4.61196482743627 -7.29983860629862 0 0
-141.230058097589 2.18396981530677 10.2660950818912 0 0
-229.646547409709 -41.5690521681629 -12.3109904829193 0 0
-218.598782791666 -10.0968611331908 17.3166705073584 0 0
15.7006021512532 -11.3507294016673 16.8015905707301 0 0
-175.58750929392 21.6451843007839 8.23768690184228 0 0
-206.288134725431 20.0602024258512 -12.6059065436915 0 0
-215.185976977085 -2.50833515530317 6.46575225855795 0 0
-123.497751776703 8.42015127881883 12.4976981421083 0 0
-204.550754656278 -5.03383619559858 11.8850116850351 0 0
-198.874638928673 -20.8370731529928 -13.144097024895 0 0
-218.574869249486 -22.5241342948392 24.3570636607132 0 0
-109.865159422979 2.33367165547714 13.5700474543992 0 0
-74.1411102093807 21.5216373726509 5.42607261084652 0 0
-37.1756582748985 5.17493289995077 21.451066877749 0 0
8.53353768880795 -9.40919372474615 18.8627816829116 0 0
-157.546830394764 6.81934740829194 9.09750780239769 0 0
-216.212616484349 -10.9193035348151 -15.1673534361653 0 0
-109.163225529099 -5.74664216279577 6.97916588115262 0 0
-136.002802367856 0.488523217932837 10.218811481238 0 0
-203.074487481178 5.7166054207481 12.1608925679004 0 0
-219.396234210152 -34.5627387163393 -21.4201452598012 0 0
10.0384228574183 -11.428174647228 7.81736798241824 0 0
32.300786280313 8.32961056073081 0.532614683118859 0 0
-8.74901232566036 7.4764003900691 -2.9631550261271 0 0
-235.429722915206 -24.4366202074903 13.5694330844464 0 0
22.7238630451119 13.8250875020132 7.63410718044459 0 0
-184.961240687137 2.69961951782264 11.4040757881714 0 0
-139.316683583715 19.0604524099495 6.99282230456553 0 0
31.3226958148671 0.963736634801457 24.6347780396756 0 0
-177.163235727844 34.4739064969045 -21.4437062006669 0 0
-140.527749926917 8.55770225087071 9.95902244293151 0 0
-90.7143104911241 12.367182561285 15.3403479999637 0 0
-29.4878940715473 17.3084385317245 13.3554835449981 0 0
-127.875561106602 23.8257391420602 3.42489235161409 0 0
-139.382683528843 27.7050623108441 -4.22062118935684 0 0
-140.495252975909 25.1806572531083 -13.3005321593423 0 0
-141.493917789202 19.7437146293564 6.52663435718543 0 0
-52.3912051064942 -0.481656302049172 -3.05610867491884 0 0
-170.887082832781 -10.9111863971265 -5.84783598331833 0 0
-45.9300426004302 -1.46400596538069 -2.2680548505754 0 0
-233.692133035157 -13.5551926939025 7.28885332857129 0 0
-147.67886001944 -1.51573952495927 -23.5836826928411 0 0
18.5950597325942 2.10280605586719 -3.36824057417814 0 0
-206.922783508271 28.15223014091 -25.4710255393065 0 0
-204.581771821507 -3.18773173370204 -12.1973373534203 0 0
-116.307283976334 -5.21087878888773 2.01768962736044 0 0
22.8091898628669 4.29862046117088 -2.91664348501394 0 0
-65.9481498437076 13.1893077810402 16.7166318692122 0 0
29.364099556955 13.4275366972668 7.19473261181358 0 0
-208.768918731106 -10.5471382447226 14.574475524341 0 0
-59.3526329368032 -2.04316484094878 -2.57240576878446 0 0
-187.866405078414 18.0971410689918 -26.678949919046 0 0
-176.852876746493 -13.8556702685404 -5.53255380928472 0 0
-16.3872295763789 -6.40936968586038 20.1121042178603 0 0
-149.43900064624 -4.21938492810524 -3.65935531375004 0 0
-230.301879712428 -22.2672244431177 -16.7464985241176 0 0
-151.058445293732 12.5580914043246 -20.7931908685184 0 0
-150.426052813294 11.1180966066784 9.35619797664993 0 0
58.8184310029294 9.1596698105487 1.65948447416847 0 0
-197.569385961304 39.6610471480742 -12.4014586969676 0 0
-102.160321122784 -2.10830423325952 12.893999065936 0 0
53.6590119367368 2.46719128286895 25.4368240047141 0 0
-112.41813173414 6.75244279353115 -10.5168692194737 0 0
-203.339895814269 -1.59798923331671 -12.1469459080015 0 0
-201.417196918101 37.2139314051885 0.384417164900443 0 0
-205.255984163377 -9.33252946520737 12.5414724095671 0 0
-208.789841475933 32.2380479072699 -18.6792439179754 0 0
-232.112710596087 -28.5255780837411 18.2405541523449 0 0
-196.546905454332 -12.1400319314873 -13.569001953919 0 0
-185.399641616342 -5.16733111710726 9.58898206647192 0 0
-159.121041958945 -7.00008815038251 0.864231556189081 0 0
-198.530987365958 13.9282508248687 -8.53256719254456 0 0
-218.766938916605 -47.3421211336793 2.270144301071 0 0
-194.297424274613 11.1759050113492 -13.6313853728941 0 0
-154.580941689956 10.8278204010741 -21.9740949991321 0 0
33.6908359579866 13.45677155876 7.42002682187698 0 0
45.2995365373216 -13.7515921956375 13.9761923643988 0 0
-205.023605745485 -14.2164332199616 17.0173553200319 0 0
-178.904360169708 6.84102961013716 10.1952251401288 0 0
-234.840199532157 -14.0824205649397 -1.34841808039197 0 0
-227.108100774875 -46.7796504955691 8.20608157123039 0 0
-191.94180827544 -13.7555593155034 -11.9793369161175 0 0
-116.666884070176 9.41711365939056 -11.4250000162051 0 0
49.0318328645247 14.4118385591698 10.7126566275954 0 0
-122.153035456364 14.6180195546095 -12.3182594216682 0 0
-194.394370172725 40.3405695806557 -1.94052167130782 0 0
-112.027664313431 15.9560626824353 11.303128483938 0 0
-210.04164181905 -23.0743110903834 23.9863825669735 0 0
-195.108605319236 -23.4525631169015 11.1655983154119 0 0
-162.852479221407 13.26339249463 8.49957978813796 0 0
-168.087336069494 21.1807534754146 -25.8727497387176 0 0
-167.241050674637 34.6199355775417 -7.42345381015951 0 0
-37.4033464303158 9.42458045715874 -3.49010441636379 0 0
44.8617736202287 -13.3983081912201 11.2720586031753 0 0
44.4584200358572 -12.2369481562767 18.6117739873737 0 0
-110.567588208514 16.6620887509314 -10.3114630090175 0 0
-161.296876860861 29.9493249215543 -15.9151905872139 0 0
-77.6402775408082 21.7304353541553 5.91388371115065 0 0
-195.466271299675 18.7451341115998 -22.3785206882973 0 0
-238.463698296658 -26.6362173561838 5.71388285687445 0 0
-208.311059020962 -36.6132250933779 22.5057183693874 0 0
-156.688289033378 -5.28465077970226 5.10019751971787 0 0
-217.209712549157 -7.09008605248876 12.8699627364427 0 0
-207.578578921544 14.4677176415548 5.9974182243956 0 0
19.3602140802731 -1.7611835678316 23.8771781056587 0 0
-237.832946768919 -25.1088988393766 7.47600201223401 0 0
-172.56891702912 12.3138113530479 -24.8279765867855 0 0
-28.9175819016987 14.2307263720621 18.2396769956715 0 0
-171.472679050685 34.8559640105677 0.800017102578096 0 0
-211.103168683932 18.9738154449041 -17.5115452862441 0 0
-133.152916138698 20.0775917930717 6.65940402355903 0 0
-174.45844154415 1.46966861550384 9.51800482075867 0 0
-55.6340755216361 14.8311116711949 16.1971519533488 0 0
-78.8700227445216 14.2460556855065 -6.56726210709914 0 0
-150.883209408418 24.3548154338097 -16.2662121673394 0 0
-140.891906337232 6.08343767761297 10.3852602033151 0 0
-14.8624006616445 14.4639880292017 4.40550356875744 0 0
63.7390527212286 -10.4126741605641 21.6699696898444 0 0
-163.051812446319 26.7166339023235 4.1332797556107 0 0
-58.5416266370659 0.33734100393016 -3.76989758327298 0 0
-100.47760273665 0.00904819383713421 13.9615389129057 0 0
-136.684354153106 16.0963217240605 8.64609934101709 0 0
-208.608580298214 -4.3622510119342 -10.1440093813398 0 0
-82.2728623881654 7.21271465509968 17.8622989667717 0 0
-112.807179334887 14.4791747837529 -11.0542097986696 0 0
-180.567490253289 -12.9054461143541 4.64488089483801 0 0
39.5496468895609 -5.74510742764893 23.438771122259 0 0
-127.765274269247 19.7107949563301 7.31920953451744 0 0
-197.132684298493 19.0688270742072 -23.8641705079822 0 0
-237.002952674834 -26.4291727660644 10.3169301792947 0 0
-164.587073338549 -2.96358301557963 -18.1286261534975 0 0
-196.041592556452 -21.3228115066516 12.3958058056006 0 0
-75.7557168779577 3.42128909361854 18.8797034495915 0 0
-198.432656835159 -44.851689606087 -1.71077308364878 0 0
-27.4170095583328 -10.2424781792293 7.95105375711554 0 0
-215.731837906209 -28.8370671564592 -22.6234677551779 0 0
-189.761994913404 27.7599466371306 11.2963099601879 0 0
-201.418413530481 20.870370891752 -11.7211982372659 0 0
-83.4663341088691 14.0947024900709 -6.80928924205875 0 0
-112.387457542531 24.9855406069198 1.05893639097481 0 0
-110.972982382899 -4.38080136775189 -1.53070237391379 0 0
-104.833398806783 -3.2214023389514 11.7972649867884 0 0
-63.1895404471309 16.6896181670675 -2.47098726657771 0 0
-194.088499072157 -28.8732543651153 -4.32817152072408 0 0
-198.051987664898 21.6339259188521 -15.5890150951741 0 0
-15.3435715467736 6.45102154265056 -3.96737800270557 0 0
44.0046524283846 14.128754889539 17.3667702470365 0 0
-166.327547152759 32.6425246663491 -16.7933329993792 0 0
-203.010877410826 -11.7102905190621 -14.3590429315713 0 0
-190.682796665422 41.654116427051 -3.51703748967218 0 0
37.7732186015494 -1.03267497927125 -2.23610695682587 0 0
-189.611151233372 13.4626761334545 -18.5267546271595 0 0
-102.009137468436 23.209273514769 3.98000595205997 0 0
-208.422738090258 26.1637080830927 -26.1047959772143 0 0
78.9378649285313 -6.22338187378603 24.3423502098825 0 0
-8.45997602496587 15.7461998948165 8.06298172454047 0 0
-188.101152615535 1.59658283481076 11.8871989026447 0 0
-178.649243313895 13.0038226823963 10.1667862320719 0 0
-83.0973397373437 13.2665644717911 15.6752697575772 0 0
-100.25199166876 22.1220217436272 6.15938477383686 0 0
-84.7210411929409 10.5285568383419 16.7071800094945 0 0
45.1507715300402 -13.3288447932204 16.6924404648895 0 0
-36.1142379598617 -10.1469383807618 9.67140828647872 0 0
-231.37530296034 -13.8962979944211 -9.92038305165581 0 0
-196.423440098692 17.7672710403256 -11.5977027757547 0 0
-192.727471637274 0.0805481417794329 11.666354263702 0 0
-222.173255072682 -31.908221266469 23.9257396135458 0 0
-213.169528404224 26.0526344844867 2.08583011770187 0 0
-205.74634142049 -18.5219482205211 -17.5759761546869 0 0
-46.9408024659041 9.76420684966755 -4.72763593440105 0 0
-131.213742328553 22.8722661997094 -12.4497098194056 0 0
-173.947837388008 6.17625181074467 9.36763046666265 0 0
-171.596061259976 22.5741364458383 7.51522914526279 0 0
91.1119780375378 10.9411541667871 2.3202238726109 1 0
-13.4967553729856 11.7582361007774 1.30854719919899 0 0
-215.961914832512 24.9322001775634 -2.40969310045027 0 0
-214.716044669902 -50.2654874657755 -5.84000045083441 0 0
-156.701902703136 26.2170613820802 2.85244167065758 0 0
-214.159883417671 -2.35584678409092 4.79371142445815 0 0
-136.267392690512 20.9368546322161 5.84976453169971 0 0
33.5683415030695 14.5342939095839 16.6257879495823 0 0
74.886960124179 10.1436722860522 23.1507374658456 0 0
-94.4020491438303 -6.86520124274441 7.9532282809931 0 0
-232.475014180901 -40.1639193883119 -9.94395320194539 0 0
-77.9005033057583 13.3992628292814 15.7660775812812 0 0
-103.257028940168 -5.66950404879758 1.26528584210699 0 0
-171.679174245795 34.5551912055764 -18.834076573781 0 0
-188.897959094434 10.5193978197239 -17.0974479710623 0 0
-155.393289320863 -8.91812893516984 -21.4719619627287 0 0
-210.414725481993 -50.1220431178715 9.83100630378597 0 0
-8.12797365576561 -0.342357161384114 -2.96899176463244 0 0
-129.423031778587 20.5006866014178 -13.4313890522014 0 0
-203.013358263445 -18.8238076182749 -15.3241630077866 0 0
-172.220013069121 14.4219018806229 -26.0834552654141 0 0
-218.756010938199 -46.5997185942996 0.405978466815685 0 0
-72.1039236030464 19.2333144140615 10.7156387475271 0 0
-218.859853986516 -37.0518175423776 -20.6678515559582 0 0
-185.554223557897 -19.0598326805384 2.06686815312528 0 0
-159.088316944164 3.87760013842637 9.09829262016426 0 0
82.2499647395424 -15.8592012584794 11.3887690697187 0 0
-210.881899367651 23.8985697687054 -25.8847084275047 0 0
-161.26336088014 -7.29574146460742 -7.05750436658067 0 0
-235.930064586738 -38.3211671862408 -4.07001768383016 0 0
54.6471659963906 -8.22122671391887 22.8120389589216 0 0
-211.47130556091 22.1439979056326 0.0610225595321214 0 0
-213.478251662627 -50.6142198820531 -7.18573285094415 0 0
-195.554332641006 -13.5563657233322 11.3695989899982 0 0
54.6031176303495 -2.16023113563238 -1.39109260120396 0 0
-178.459189544237 17.7653911480644 9.65340788239258 0 0
-32.9387770052195 1.20582052155665 21.6405139374664 0 0
-204.312004703366 36.153725454441 -0.704603518593594 0 0
58.4234851546525 -1.92553155306595 25.146476156324 0 0
-170.372739254846 30.0345859459999 -21.9040884570342 0 0
-233.832121613127 -41.9488147748482 2.75626499877062 0 0
-180.250649634525 3.81576695729258 -17.3520536126372 0 0
-5.40286958009814 7.47742029257571 -2.67341380928307 0 0
-234.666958158761 -18.2965134662901 -9.53861633702473 0 0
-230.941010941949 -22.4500929681722 18.9417667572147 0 0
-100.445181485161 24.156935377622 -2.19236529008877 0 0
-137.707779306927 22.2144469264797 -14.6332332682991 0 0
-235.140027896019 -40.4513857152617 1.54101458330045 0 0
-187.998158611806 36.743185313064 -20.8323508000786 0 0
-51.8328351917163 9.43734987671934 -5.34069240572867 0 0
-194.80670417464 13.9811071905655 -13.4486828936343 0 0
74.0091557240136 -13.3548706075341 8.04040619752094 0 0
68.3265239209527 -11.1509838687878 5.53563771126321 0 0
-207.628570408553 3.1298034023876 9.32400796918781 0 0
-11.1334608929649 14.5369492731043 5.05075218701498 0 0
-232.864869911064 -18.0860409820232 -12.023140219007 0 0
-153.820509231918 29.4925102279435 -2.90926388040798 0 0
10.0623337617364 14.2261055523959 18.8762715671846 0 0
-97.5911291052021 -5.70819155336142 0.929926885677435 0 0
-17.8318778713513 14.6452004249307 4.20757704280446 0 0
-191.550968799774 -11.3561167680186 10.0286502617801 0 0
-214.246825129502 -40.976573222186 -18.9981168693507 0 0
-160.479391402236 31.6715928206489 -4.65741313869065 0 0
28.4308207699557 -4.72569878536438 23.3642848995884 0 0
-132.951856543852 14.8248998494139 9.55775142846717 0 0
6.05537505728742 15.8981535462433 13.1980343163903 0 3
-71.2720269057945 19.7488543938712 -1.95958184954217 0 0
-224.985921001859 -49.743805686267 0.879394042404468 0 0
-53.272998733524 -6.10762780777814 1.27227658320597 0 0
-194.040415192941 -32.8860819240609 7.78949929409084 0 0
-98.5678660861972 21.0598589156852 7.55083889313642 0 0
-199.789900863173 -27.3044483285507 18.5908720821081 0 0
-224.502247704862 -18.6116752572542 21.4959613372712 0 0
-190.095500087982 34.3601256576933 5.7544370946255 0 0
-53.1580687117842 9.22459607206803 19.6501376912634 0 0
-45.5530230089165 -2.33694210240325 19.8319370379157 0 0
-177.638951929861 17.9116688974154 -28.6941645683117 0 0
-171.712817274002 17.697269009149 8.5769247761484 0 0
-135.527916235164 0.396649735987126 -17.2758244663125 0 0
-187.625097074251 41.0966847569181 -10.2833892308944 0 0
-204.838178208481 5.09390920883478 10.7856645223488 0 0
-196.336725998166 31.5500766205928 6.79623076180435 0 0
-200.134564084177 13.0944177263735 -7.85689666621661 0 0
-194.927570100606 -37.8655686643313 2.93581914521485 0 0
-201.913095364354 12.703000792394 -7.41906917917129 0 0
-212.79485074457 -2.98653996379315 -4.25658439302285 0 0
-108.386144542212 3.76415259725301 -9.21239873304212 0 0
-121.035448628996 17.7840785806767 9.26135360386413 0 0
-138.432328078106 -1.24676111522764 -19.8069677895079 0 0
-203.497136504934 18.9261377497225 -9.32782605776897 0 0
-173.005610040998 23.4719185758324 -27.1936814848649 0 0
-54.4947534990042 2.45156375962124 -4.96664003950885 0 0
-225.167564390761 -48.9111445386721 5.51733485260448 0 0
-144.670606511494 1.96652747317333 -21.7179460945385 0 0
-195.835345885287 -40.2945292915537 8.21247984343798 0 0
-214.701014238332 -37.5688547180209 23.33783421256 0 0
-197.800299224379 -43.8144141364993 -3.37511844947079 0 0
-122.277455312699 -2.22450437831763 10.1546790746509 0 0
-233.545454660246 -29.5679694078131 -14.0850168666828 0 0
-205.565619034641 2.84861462776064 11.3425776845639 0 0
66.4648036477246 11.791102410828 21.1023206997557 0 0
-43.5590067876111 -4.17482061576678 19.2314011312354 0 0
-48.1330327561185 -5.24136468510183 0.355714282295865 0 0
-209.32739299678 -29.6304817107154 24.3235514920047 0 0
-186.561018750563 -7.32374473839506 9.512904736182 0 0
-157.765227265663 -0.377640092774778 -23.18849133029 0 0
-201.94632083765 -10.3930141016782 -14.6264167314551 0 0
-194.635665909487 17.0752492748132 -14.1285391508604 0 0
-211.604190974866 -45.0232612655851 17.7430595414104 0 0
55.3483152412725 -12.961217699126 18.7716289006536 0 0
-179.435688524005 -15.2199661890033 -5.13498768406045 0 0
-196.366729505821 -42.0836575829431 -3.82096720385898 0 0
-203.900180193428 4.91629076078086 -8.56589565577297 0 0
61.8713209857317 -8.74457381054478 22.5585005109153 0 0
-143.87183767427 27.5583421310902 -9.16284164706536 0 0
-214.751767061686 -8.1016653218565 -11.2894894942612 0 0
80.9409338838619 -14.3819465090798 8.96535187929913 0 0
-198.689441854692 37.5259075274495 -19.5548207357755 0 0
-230.433379209358 -20.7473668736181 18.7963988774665 0 0
-135.661018123106 9.38787683140978 -15.8790070454792 0 0
-180.335605373904 2.20824437215729 10.4586122974533 0 0
-193.667805399536 40.9827510440953 -6.38375637422745 0 0
39.5789392961762 7.64088783741661 0.104981630954872 0 0
72.7950267664065 13.1780624765614 6.55632348426039 0 0
0.52645175383275 10.1211029036578 22.1495556942381 0 0
-204.482024850347 -40.3966232550815 -16.459072528235 0 0
-28.7125608632769 -9.20433018373847 15.3884593204491 0 0
45.7102750065023 9.97900328707179 2.53236905559477 0 0
-15.9664718342915 2.11328251169517 -4.2798470587961 0 0
-130.25484927461 9.84178567320218 11.4313922638241 0 0
-213.895160647852 25.6298167070037 -21.4725859040147 0 0
-235.216258062584 -40.1247630507562 -2.38686979897227 0 0
-151.564143035902 4.26702832687749 9.57021371947764 0 0
46.4022539372938 8.12548841167179 0.646932222836863 0 0
-99.7876093971084 -5.38784526752385 9.9486630526449 0 0
-195.906149926003 2.76840514284976 -13.6925590382821 0 0
-146.452041549529 -6.37655066142774 -23.608465496649 0 0
-173.111399800652 4.48476915299274 -19.2741026011131 0 0
-195.545901512717 -40.1173802877257 -1.74570013787526 0 0
-226.393238685897 -42.2889380378745 -14.4725560691721 0 0
-7.41358485994263 -9.31507818091205 5.1468781329082 0 0
-211.57171296492 18.8517683439854 -24.9883212651308 0 0
-223.872324673789 -14.2028361495191 19.2869196176959 0 0
-194.171913623065 19.370715450381 -20.6321791231147 0 0
-58.4575144581584 8.03188553552055 19.654862889778 0 0
-186.22393114826 41.675338723549 -8.38652539057982 0 0
-195.630439900583 -10.0632786065581 -13.8346675403158 0 0
-213.001205454459 -52.1032321806365 -2.78924433514784 0 0
-189.0943170554 8.94664156104567 -16.2954808495852 0 0
-125.873193116361 20.5275117520927 6.7637913189964 0 0
-206.706007407328 36.4046782175633 -13.2149041405797 0 0
39.513574621695 -2.76900044608717 24.3620998875151 0 0
-121.132437171077 11.9586387636949 -12.0693794946262 0 0
-111.999075567033 -5.65063731217248 3.21124690776407 0 0
-66.2379386075735 20.8055941700359 7.19917356431698 0 0
-163.979793791458 32.4590080242476 -2.97626413446324 0 0
19.0021758867139 -9.08863079454121 19.8618250062263 0 0
36.9016563018079 -2.82248101652708 -1.67067174987766 0 0
-218.857573757351 -47.7386906186614 3.98012518047958 0 0
-197.315403866692 0.0124667616842556 12.4599731797163 0 0
63.9711560110481 5.91939747511314 25.2020885063172 0 0
-103.447029020815 20.3221116621318 8.2171808683221 0 0
-238.192376482029 -21.1705633763845 -0.287399615638571 0 0
-195.307154252486 -38.1094336801215 9.39538582311557 0 0
-216.535874909776 -48.2237568508085 -0.0981218926033215 0 0
-167.927656205651 28.6500966941281 -21.1994088284177 0 0
-169.694678536729 26.9627706379263 -23.7135943041492 0 0
-132.431182604316 0.087490556099726 -15.1570835754551 0 0
59.4997496842742 -5.35820184313281 24.0100416058048 0 0
-215.211488159489 22.0027404344659 -10.9096238429475 0 0
15.170923140227 1.28252927717748 -3.50427564944312 0 0
-168.686804644716 1.22742800173488 -19.0432551868101 0 0
-113.439181104004 19.6086225826391 8.43049690749361 0 0
-155.949459965529 -3.51484289581567 -23.4486274615453 0 0
-123.011411921587 -1.04994148294303 -8.83237338248385 0 0
-215.769551432805 -39.7696778633061 22.2194486045931 0 0
-182.820013702876 -13.5080396624638 5.64734796625195 0 0
-99.1839950371988 22.9855220113011 4.5380670312952 0 0
-5.37082291982111 -0.264427022135772 -3.3027965656308 0 0
-132.040209288347 18.2434750985847 7.96701675520636 0 0
-24.3610205475762 4.07487071054887 -4.60146864473529 0 0
-207.63813141439 20.6642809342397 8.51948064456329 0 0
-201.871333264331 38.3179458557999 -6.47058854949427 0 0
-218.195951870424 -17.1224259053152 22.4358905654767 0 0
-174.604091221385 26.1139041280754 -26.5224178342799 0 0
-11.8686150010999 -3.34694488450813 21.808981010731 0 0
-200.630573729851 -9.36434862342318 -14.1702013039884 0 0
-202.905865457633 22.0448163198673 -26.053552416821 0 0
-204.035462204681 8.74159080281292 -7.61103827380964 0 0
-201.241306695599 6.26398802295575 13.2032382321575 0 0
76.8143873882411 -8.66389418920202 23.113558843525 0 0
-145.150318846782 -10.9199636395968 -15.9747533234429 0 0
-220.460021860788 -44.3168773227648 -6.13511397213102 0 0
-205.075681522794 -21.8066431875889 21.4811446293112 0 0
-16.9741877881075 11.0206900713013 0.172700300145492 0 0
-216.221621537951 -34.0253542060195 24.5410640495233 0 0
-206.3586167935 37.0883730636363 -9.6512157762137 0 0
-206.311718659625 16.7749253627954 8.07474824326295 0 0
-175.657505076961 -9.7608435055491 5.31937141826202 0 0
21.5130004494487 0.238054446375481 24.1885644014567 0 0
-224.464625133953 -21.0193975524703 22.4212201110868 0 0
-194.365174577122 -32.0474765640221 10.8465174999709 0 0
-94.0129667272292 -2.21201029332143 -4.24337695916662 0 0
-188.668115469742 -19.0585495390734 -7.82743262710353 0 0
-129.016476672178 26.7447729207965 -4.02530826398934 0 0
-124.138700698662 25.0794268702504 -7.38833995605996 0 0
-198.671314206377 -15.475032687473 -13.5017994855198 0 0
-192.225428733134 32.1949829136925 7.53491885991803 0 0
-123.923863720018 10.7560732014865 -12.7924330536741 0 0
-184.896817541995 -14.7376814843059 -9.82433820172363 0 0
42.7357895642781 -6.44826338420286 23.3118167899332 0 0
-112.174853821676 -1.16135147408565 -6.88818596637508 0 0
-154.198422241533 4.77328567307086 9.36936413618711 0 0
-235.527926498454 -19.7998309102558 -9.03204257256932 0 0
-202.866226268023 31.1272563775275 -25.112117223704 0 0
-42.527254724539 18.8297509487965 7.78134500714026 0 0
-25.6813124081997 2.28543848717955 -4.33743816661033 0 0
78.024227155 10.8704748059311 2.79639936389793 0 0
15.5313355125417 8.4305468067512 0.180637165805734 0 0
-71.0461544004995 4.35124467350919 -6.28915851407999 0 0
55.7244220726567 9.41163782889937 23.3261192120244 0 0
86.6350821431611 -2.43933009052794 -1.47000463286622 1 0
-142.761861383062 -9.63751288333553 -15.4521035250641 0 0
-145.267625327011 5.26480468543975 -20.4294201566894 0 0
-78.9813826343067 -3.24178751768503 -2.21059377782382 0 0
-177.248105071618 -8.12308301385473 7.26842126286699 0 0
83.2052974149623 6.44539110096147 -1.0557381959931 0 0
-106.148114437916 16.0409515852589 11.7409454582005 0 0
-136.95333044608 26.5551535327884 -8.46527737823333 0 0
-94.4763815185188 0.825985840267902 -6.3817877223415 0 0
-201.843376869436 -38.0821822293422 -16.0370735752706 0 0
