"x" "y" "z" "f" "a"
33.3682294207536 -4.44490393842362 5.97411876017151 0 0
196.513198582111 26.8568036808131 18.6475561314369 0 0
167.163954387278 11.7786773424968 23.4442043360629 0 0
178.842422838867 -33.7738359946087 6.09492627552303 0 0
155.614586373884 22.1870774663498 -11.6497006350614 0 0
176.939666853976 -28.3810456311677 31.2191230667014 0 0
173.773822353682 -14.5638253151948 28.7799292179933 0 0
-31.7094874815983 -12.7346717509179 -11.7501097899555 0 0
-92.4498721166822 1.5616274675386 -15.6617213375129 0 0
38.6455087810993 6.95331721768541 -1.16740762289469 0 0
-69.7760566464787 8.93557848646033 -8.66368685165536 0 0
17.4793758722667 -11.0308404332663 -14.966270825938 0 0
52.1534285243706 -13.5565444462063 -12.6897293623219 0 0
149.15982845384 -4.64083308050204 12.0348677828639 0 0
50.2054328705575 5.1333903597719 1.74417794570485 0 0
-118.931183583668 8.25435759599988 -2.6832536922924 0 0
136.136862711889 -22.2611852552775 -1.78538467136112 0 0
19.6637200251971 -2.91194842960065 -19.5773606689171 0 0
109.994352072214 10.0151643771522 3.74018777533463 0 0
167.557600291613 34.3360985220696 23.005289657403 0 0
180.40848279449 22.8409752954655 -12.5065927598754 0 0
182.058211412069 -2.34736340820024 5.26761688319323 0 0
184.277317680282 -26.328807677007 26.4919568440391 0 0
172.821652726375 37.4168107368139 9.16841703833169 0 0
180.206191690388 13.2617743760616 31.567435190495 0 0
-101.886184507503 -12.1431698437809 6.22325261237514 0 0
146.735737760088 -10.4865658296376 12.1328969157407 0 0
-129.765010291652 -7.04468219671184 13.568257596656 1 0
192.32855047973 29.3626998322346 5.74888259703746 0 0
62.2717201413106 -15.9656220376013 -4.02156181265749 0 0
-113.981630001693 -14.4071980204358 -2.59440151071619 0 0
2.98845091313404 -12.0849571211397 -13.2121368196449 0 0
-95.9912710549028 -3.58373228185777 9.08178352296876 0 0
-6.55805799121902 -4.62789674200639 5.59224936278853 0 0
180.065289826443 -10.8590442491357 22.9793240217585 0 0
-74.0956311315899 -6.89147836792514 -16.7487166426633 0 0
-63.4828439579176 -13.19146208099 -4.36527207607709 0 0
189.742225762873 -22.1616030258541 7.8338249586363 0 0
18.459813210694 4.64812639404573 0.477255498477391 0 0
138.003637138388 -17.1344341152739 10.1253130733502 0 0
170.066245700909 8.48566271016368 17.7712496608328 0 0
-84.6047800710134 5.54554107483036 2.02969479725526 0 0
173.201825200921 35.7813153926124 22.6293272800211 0 0
151.927261578323 24.9701273149962 10.4576477858956 0 0
188.040170573884 32.5684997555051 20.7923129390934 0 0
74.9308441327462 -8.10865051146134 6.70212480576126 0 0
17.3206955661896 5.70530956942734 -18.6640418635098 0 0
-79.3064125548382 -7.55997686634952 7.15918708502794 0 0
62.4031100723544 -7.02299037088938 6.37502236199476 0 0
140.38275745479 7.47537854383241 -17.5983500263365 0 0
132.851647288318 -21.4252096905896 -3.11244775038495 0 0
171.400318166329 -34.8243157787245 2.85790558748528 0 0
179.641375492735 33.8506990837134 2.0912908017358 0 0
123.318913081565 -3.99275365243634 8.13891808722873 0 0
155.268938213468 31.9023222689945 12.1166668911205 0 0
-110.929064806168 -13.4592594058219 5.47760130680173 0 0
117.994337696827 -7.21332346001814 7.77063602145808 0 0
131.443873751084 19.7110774008515 -3.24508118426804 0 0
-43.2364192622799 -12.0059044206041 -13.4557878124048 0 0
90.4174200055354 -1.57086885751278 -19.9705776310267 0 0
160.493311359314 29.0531666446595 17.3876676182138 0 0
-59.2362560223002 -0.671052462771348 -18.3551107981927 0 0
167.090725572883 -21.1656768294814 31.2301650867613 0 0
-1.63502964148996 -12.0069540218845 -2.77315824327246 0 0
28.403994914471 -9.08781451751755 -17.1394629293701 0 0
160.952505842866 17.8064876036094 23.4500040833415 0 0
99.2668625825693 -18.3546848981392 -6.17528969872173 0 0
-53.9799691009974 -12.2154458990074 -12.6728502770792 0 0
54.8174274948193 -2.05097537099637 6.59140116177939 0 0
186.907117808171 9.88825226895827 -15.011308529802 0 0
173.265993875886 23.2922545287775 -14.2932710602661 0 0
156.000492280262 -26.1876104250508 23.2673934616495 0 0
179.46356731459 -34.8485317113649 18.0018301094127 0 0
154.73622264502 -20.5235008374083 22.9818762694456 0 0
188.364227921729 32.3762269359244 18.0287714043344 0 0
135.510462753111 20.6506027879839 -0.557456080863108 0 0
181.117968863393 5.72526797902683 10.6663483095048 0 0
-5.14680824105783 9.73933531553079 -15.0024822025465 0 0
173.469145544422 -6.86295646521666 -21.1448457824743 0 0
-88.7363358180447 7.80731095192058 -3.57722687812236 0 0
183.539939990802 -9.28513631032703 -11.1534960946338 0 0
180.022197749153 -22.3632130777508 -19.8909402118357 0 0
144.487119244593 -24.4968409810678 -2.1081474751183 0 0
184.799074435389 -5.79810122185909 1.99694256844364 0 0
82.5794834545562 7.25668135961419 1.99907964303261 0 0
102.65262550287 -10.3838683418958 -18.6537731706495 0 0
-57.0752529728719 0.0230180490247813 -18.3727965193867 0 0
178.603207201353 25.623201645913 -10.6995068240343 0 0
121.427508764148 -3.89884887614873 8.02137647927469 0 0
-79.3522982793007 -12.3636874630209 0.82052444839995 0 0
131.852041600105 5.64106699798715 -17.7310461262685 0 0
-43.3482407577172 -2.07201648260263 -18.8337788959239 0 0
18.6672729840446 -7.98524470228478 -17.8264693269499 0 0
161.491934004407 2.99969520990036 -18.5096000549104 0 0
33.8156502764214 -12.8840596617073 -0.637896995195936 0 0
172.04518988198 26.5558685016411 -11.138360949893 0 0
-20.6452665767152 1.97570714512909 4.86194054048087 0 0
-11.3749366392872 9.97071586638656 -8.36373619180823 0 0
169.49938493256 -10.4596862480195 19.7665223807193 0 0
168.089689941059 36.5789102318684 3.79805619309499 0 0
49.0480980913755 -9.39411716932014 4.13138273305856 0 0
-49.5853028113378 -1.00770057346825 6.32197201314457 0 0
-126.027037437525 -4.62054383811433 -12.7779440192589 0 0
143.361760116165 -25.0599974234681 2.38377892007333 0 0
174.277920964089 -16.5971888615296 29.9644174963495 0 0
94.6973724493662 -10.2666761959639 -18.514774342785 0 0
180.426150827455 20.9148755328629 -14.3406130546681 0 0
126.686994507192 -10.3974941427625 8.4542614071444 0 0
53.539393517283 -4.97966393560719 -19.7711572850914 0 0
177.506611045824 -31.3079505910062 -0.351565117400358 0 0
171.56374164958 22.1080135693862 -15.3399223708008 0 0
186.977278411443 15.8998953438877 30.6289079791398 0 0
189.034224093846 -31.4783130974538 15.9686876827008 0 0
148.717187647204 -21.8665469156027 -15.5389195802155 0 0
162.981086848845 13.9282818305534 -19.4829912708893 0 0
169.049023312252 34.385773211732 -0.964135596950192 0 0
76.6290824050726 -10.1118659336621 5.87792159185672 0 0
168.371581893483 13.8962552908805 30.0297006692235 0 0
9.25755532824367 -12.9600710650199 -10.5706979948236 0 0
85.5270963904113 -10.9315088348304 -17.7515273491292 0 0
165.642763301759 33.8780031234409 20.7671325039416 0 0
111.424826090206 14.8336046207843 0.233661333365506 0 0
139.424014544815 -0.656832762865063 9.66999288683465 0 0
186.522902860701 33.0793064388372 10.40063463748 0 0
30.2937727160128 3.48281924399718 2.71325727830757 0 0
192.239403219268 9.80532098024039 15.2333312721334 0 0
-114.473609919093 8.07917186983533 -4.35287805618149 0 0
58.2533305611203 -13.5097699132596 -13.3722259524167 0 0
41.3363942981663 10.0956067133469 -4.71949734431184 0 0
158.223700919718 -24.2985712116555 -17.9558345789771 0 0
83.332933027915 8.12215682470058 -18.1639469508658 0 0
-78.6186729159192 -0.469814833400906 -17.2628861099019 0 0
174.604669087655 37.6524621747903 7.11728208743321 0 0
25.7558104632563 -10.5888578296511 -15.6453242999915 0 0
147.296255342736 16.0727722077428 11.7388865702847 0 0
31.076763297329 -2.60833303078731 6.46687513746089 0 0
161.628454700097 35.900977962119 8.5184198515929 0 0
100.236166332132 16.0335144843339 -8.1061013789949 0 0
122.215993379547 13.936878605725 4.33429780528588 0 0
162.331164143523 -8.32835743935448 20.2839770682271 0 0
185.346078956937 30.166933170204 31.502762773896 0 0
141.09235519618 -23.1721334218577 -2.90945364740899 0 0
52.2471805870492 -6.7630265569592 -19.189040278338 0 0
-29.9067246742329 8.99863355917394 -14.3356314271311 0 0
104.497702082354 -1.69511554694657 -19.7064431732875 0 0
75.6630806502299 -14.0058693883446 3.00048183500592 0 0
171.571615466609 -26.1335011824565 -15.7464445491961 0 0
22.6865948910607 -13.6460801103611 -7.10380443021291 0 0
104.863032606768 -18.6762799962154 -6.17935557674398 0 0
74.7952697321718 9.77394772842005 -17.3264326361225 0 0
16.1071621016014 -10.1943507198186 1.71834653581123 0 0
-81.3257011377775 8.175609432654 -9.80890509869455 0 0
-32.1803408668748 5.80234020818714 -1.4083200655514 0 0
171.367215726363 6.05046514848912 -21.5679305759288 0 0
144.928349944338 -22.1423746639122 -10.8267504373775 0 0
-60.8550603627753 5.80669802940143 -0.302403849744521 0 0
-97.0015760821209 -10.2303638090367 -13.1558509934708 0 0
-93.4388315457005 2.89927951433722 6.06199901758398 0 0
49.7671683110766 5.46726880466658 -19.3596540234577 0 0
-88.7917074715704 -8.76443618681616 -14.9367028610131 0 0
168.285258352015 -1.13774215854944 13.499359736001 0 0
47.9663060957129 9.77164944686142 -3.60686219576435 0 0
134.665846768135 -14.0482263307241 9.55081850356517 0 0
-47.5086850070389 3.5689222826571 -18.0718964817778 0 0
43.0721747459906 10.754634988997 -5.40942621433515 0 0
160.974498091687 1.24135000577004 15.9139049335088 0 0
120.498988988155 -11.9873941781666 7.83777927356977 0 0
-20.3895187023962 3.27357944977821 2.95140636629179 0 0
128.677103065992 -10.2581958866148 -19.9609704764757 0 0
165.701550541481 3.92771970972033 -20.3619001578198 0 0
98.81048266791 10.9098865862595 1.13399908255248 0 0
55.186229529284 -11.5451230560462 3.22616657437448 0 0
181.881738670749 -21.856019791601 -18.7610334589119 0 0
28.4366345723584 10.0120307528487 -5.91220174895565 0 0
-57.8271551884423 -13.2990530554041 -5.46706882645053 0 0
60.6134963603093 8.38296053195102 -18.1348129361579 0 0
29.6183926762248 -4.2192829576011 -19.4671145789768 0 0
16.1527227854389 3.28114534848864 -19.2931753474165 0 0
193.944600227329 24.7707606758339 -2.72245999886915 0 0
135.197351756936 8.14905725980189 8.66838410370221 0 0
185.022563516624 -26.8722983781769 -2.84957240248663 0 0
106.657645301526 -8.85505869793721 -19.5220440990289 0 0
94.3960258345998 -4.18497341915584 6.8566709355161 0 0
153.966108278544 8.29533275677019 12.9065741001736 0 0
160.566511335684 -20.1599156404689 -24.2004724879424 0 0
180.608422489182 -18.0220701982467 -21.3061389565172 0 0
176.974721277088 18.711466772468 -16.9319114605695 0 0
-54.3003856072231 -11.3584344161551 -0.86796699906813 0 0
116.746470250937 -14.7749605370676 -16.1506378704 0 0
-56.8970458093886 6.63013997708285 -1.92857279972766 0 0
-111.484409719713 -8.0119599739323 -13.2903361755084 0 0
169.345109751452 7.45758563440246 16.7993451292223 0 0
133.348703215694 4.73362789850316 8.55421316006527 0 0
184.236435455863 19.5298089186752 33.1796274704887 0 0
159.349610334472 0.00895098375292376 -19.3709194215185 0 0
-22.0505279236548 9.8052819860427 -8.53531108765999 0 0
179.974538825897 9.51365125613475 -20.6047480582303 0 0
36.4982856803014 10.0268414938814 -5.09770379912449 0 0
136.821352054797 6.73157460115676 8.95706696628211 0 0
183.729440563677 -6.07057035763596 5.24877044164739 0 0
163.207851079489 -36.0562833634489 5.63815532182819 0 0
173.146243602708 -25.5350139590507 -16.7904376199407 0 0
44.119798218949 0.104142739952242 5.89151951142015 0 0
175.459036372229 -34.3114129052135 22.6828717856486 0 0
112.008622741611 5.83703020831218 -17.97901061786 0 0
171.581003556319 -18.498038236845 -27.0477619279438 0 0
-71.1396449522877 -5.62112440317698 7.5893500940865 0 0
181.105255981525 -4.36495893989049 -12.4239456565208 0 0
187.150613508535 9.86289909626914 23.7361672216075 0 0
-11.4900755233523 10.6216627805115 -10.817910118567 0 0
170.494580472645 28.4495786609524 32.6562021757496 0 0
146.982312031871 -21.5571233417759 13.1056094737461 0 0
-6.56937271615497 -7.61749625369561 -17.9679691696909 0 0
154.446789593049 -14.9195558165542 19.5432397273577 0 0
170.234640276214 2.98722234487803 13.2215841798966 0 0
161.028272424845 5.43338538421468 16.70851558704 0 0
-120.6359229458 -7.41404437060618 -12.7134735741282 0 0
-70.0976390817568 2.14151244222581 5.55837620040815 0 0
176.30570449985 21.5122931717744 -15.0082087514987 0 0
187.701357748807 -33.8881102225176 9.85550388110994 0 0
152.514490413356 -11.3493228716614 -24.4922615434339 0 0
-7.47479925521006 3.80989340906554 1.70168397888043 0 0
152.55468010694 -31.3240780826603 7.82463344884212 0 0
73.1376057515775 12.1780414706472 -3.29348627944782 0 0
154.264658155256 -7.17398187902011 -22.2909333865839 0 0
135.421449308421 4.11941502607836 8.79263415009332 0 0
-13.4996693371792 -1.07090563389139 6.35883720589654 0 0
-38.053381877664 3.57535163662394 2.6295266421688 0 0
189.914723517236 22.2803768398 -9.08548284569921 0 0
62.808801841172 11.9700645281325 -15.001296877941 0 0
18.7966211756926 -10.3615049422994 1.68496899537338 0 0
167.527603157102 -18.353848441019 -27.0200918217011 0 0
-109.267115190257 -2.35310004908746 10.0734345962624 0 0
158.512434928032 -33.9034055359837 4.34560796635858 0 0
162.33122184038 16.25800947874 25.897855707116 0 0
-75.6745002914958 -6.33999168995647 7.6623973639831 0 0
188.68096318193 6.78110146937841 -8.82095550569274 0 0
-10.1886747004538 -8.59944928420694 2.34022975683934 0 0
186.584220410687 -35.0614063871607 18.0849170697127 0 0
-84.979420891914 7.31812183464568 -11.4026260727785 0 0
45.0717523350172 -14.2563115373024 -10.129337361963 0 0
55.861578777772 -4.23531929508559 -19.9036666577706 0 0
-113.542672630461 -13.8638859035379 -5.57555473609274 0 0
143.462719980546 22.8143974905369 -3.17938435628658 0 0
-73.6765120888215 4.30713584273867 3.07978341814207 0 0
116.894412433872 -1.55316790534061 -19.5336353605418 0 0
-81.1581854253041 8.05845456018636 -4.88600814420855 0 0
156.158428175569 23.6268733941153 13.7942223375513 0 0
115.139232393577 -19.1486201624455 2.31248582459991 0 0
172.144419278187 22.1892351915616 34.1799414501689 0 0
194.404155649263 30.0465095291847 20.3378254264629 0 0
-101.867612153668 -5.75282678651958 10.6731017430128 0 0
186.083591546696 31.5098116458421 28.8722600188383 0 0
-13.0269413644498 0.485709241836777 -19.3214189159024 0 0
-68.0574423589994 -1.93103387125214 6.87818526197237 0 0
-57.1229897466787 -3.01328470499151 -18.3585528932697 0 0
-59.9904451003051 -9.05757541583708 3.83061764907984 0 0
1.38569385633429 9.77449007184651 -15.268720338354 0 0
172.047538883685 9.86121530900177 20.2635419349067 0 0
111.396945666469 7.85995413471945 5.31774775272821 0 0
-44.4047794055986 -13.1920347384087 -7.83645111247537 0 0
110.970130056655 5.56073433612906 6.12941476231869 0 0
-112.906374099776 1.19709848763608 8.82202666755809 0 0
88.4981829645262 -16.7252085912448 -9.78903890788478 0 0
153.187299953803 -18.3142807415571 -24.1655735226512 0 0
-64.9846622559322 9.11445425879592 -8.90437401806271 0 0
179.724574228637 13.1559007518357 -20.9095183313654 0 0
169.833371212732 32.4951804272507 -4.16079953883095 0 0
-15.4776248434995 7.35851395004542 -16.9792395120415 0 0
173.125300922158 -0.664786939017475 9.04240363093767 0 0
122.523950351171 -0.402219601140267 8.02908635410871 0 0
79.5037365833323 12.1468653852714 -15.147428429699 0 0
186.800434319518 24.6590522594152 -7.54486133959088 0 0
8.50895274719949 3.19227536905234 2.76721759860162 0 0
-91.1392474643237 -9.5260810108849 6.99237243266953 0 0
187.341516848306 -16.8031805175806 14.4613201165287 0 0
104.935659731973 10.292951815133 2.66881847478461 0 0
10.6430958310076 -13.216264576869 -8.98197755763192 0 0
176.703936425916 28.2624906369537 -8.26037144126564 0 0
142.004683022833 -18.4644269408542 -16.808563725168 0 0
-39.3442482980734 -12.9435130966113 -6.48647186392136 0 0
187.088612980351 -14.2751982108219 -5.41570014798096 0 0
127.338219613146 14.1222989202071 -13.1966400560817 0 0
161.391848433096 -25.5707212800845 -16.6173323438388 0 0
-82.7904913260783 -13.500050288234 -7.78480167860877 0 0
175.280784726749 -26.7109617483803 -12.7476776769258 0 0
195.672201380733 12.1720007130076 8.40417284635734 0 0
-57.7840057545135 -12.8255353754224 -11.0381751147078 0 0
69.632503449678 4.77495315670025 -19.6041956079664 0 0
31.8033294702897 -7.02444563635869 4.52094358321245 0 0
7.43983277404627 3.08653026399784 -19.2667197456233 0 0
74.9652445221472 -16.5414403368203 -1.75941185351602 0 0
140.24395328588 -24.0013682646445 4.55717301737023 0 0
78.9860253236892 14.1435263103755 -12.2010133038383 0 0
-30.400346144309 -9.81086518411984 0.493585174251323 0 0
-7.44311713381835 10.6190365937139 -9.89389741558002 0 0
179.851011823882 -12.4222604695107 24.7776093337685 0 0
-13.1126741127068 10.4578764399933 -10.0923172086893 0 0
8.65505651894818 -10.2434618557161 1.23829043998395 0 0
-120.766351175487 4.60261961578014 6.90627243215078 0 0
86.9273979636354 7.83573414949792 -18.2321378548168 0 0
-62.6000585138846 3.64610449814236 3.404533592062 0 0
-90.8097927096067 3.77655916895087 -14.6709651068501 0 0
166.593235205093 11.7770008518775 -19.707740552992 0 0
171.647716795437 -35.7191823704711 15.2026753306887 0 0
159.594629393874 2.09633257991715 -18.8249392367282 0 0
120.965936611682 -19.9745004271126 -4.49272715666024 0 0
113.608315094259 8.8130361100239 -16.7463045574948 0 0
172.994676303855 -12.9904251582946 -25.0773886584279 0 0
50.6438668265291 2.68023127904127 -19.9895874652649 0 0
165.648624927563 -32.8047034847531 -0.986509934766522 0 0
84.6796818744418 10.6458689576548 -16.5225309745405 0 0
-31.2950833201256 7.8347829721915 -15.8413593381425 0 0
157.972557971856 27.6634803813301 15.0375074445221 0 0
125.406612319973 -11.9359053353281 8.27056865268509 0 0
26.0190964535072 9.07162542662905 -16.9641773816432 0 0
155.672639644424 -10.7355448819776 16.3238242946701 0 0
179.598124543563 27.4000819005147 -8.27057402823904 0 0
-8.96529677488396 -9.68736361118515 1.01389939224833 0 0
-44.3704550754899 8.44208336423402 -5.6822132499966 0 0
163.171886495263 -29.0946691318728 -8.0669844547392 0 0
-1.9948560170959 10.1804925000139 -14.5029728746911 0 0
-100.258987758899 -10.2468539710408 7.69459862586945 0 0
130.679864354766 -20.3298004356748 -7.50276120684396 0 0
143.625270929182 16.4120386829188 10.795458807088 0 0
33.608236350604 3.61030029564068 2.79910519557486 0 0
102.427583520949 -16.934810320637 3.17821503555345 0 0
158.756614852208 7.03402392048022 -19.2534187645094 0 0
-112.988275670802 -6.00786878468997 11.8284626838083 0 0
185.274790023128 -9.59269689867069 -5.9400691316881 0 0
164.610560939571 37.3506851761794 13.4076349632454 0 0
192.860434510335 15.6659149928006 24.2557774552391 0 0
3.9645558582588 2.18423636259108 4.28793942930313 0 0
-2.83439453812169 9.927743819874 -7.84309077925671 0 0
147.975616981777 -5.65972774139173 11.6558200272248 0 0
156.49467464051 -24.2914309253714 -16.5910742799657 0 0
-43.9270454058553 -8.44709111882108 3.08675385412327 0 0
-25.8653503705469 -7.16575201228614 3.73546394210761 0 0
-6.32745751686432 -13.1050162259642 -7.72698356395198 0 3
154.04034272904 5.12781953988898 12.8120413452813 0 0
196.75380080632 15.2730031471077 2.49737260202005 0 0
127.892410595615 10.494266395263 -15.7030876087247 0 0
24.5899236352814 -6.21506388425964 -18.7842965980702 0 0
62.2479757378098 13.0425549284 -6.45772710494805 0 0
10.759526484321 6.06029670281219 -1.60475192197182 0 0
180.552492325546 24.8966090845733 -10.7317446143247 0 0
-36.3785715334827 1.36030842111604 5.36017751439737 0 0
186.838184553073 2.54784526173264 5.78178842243702 0 0
99.7493049659409 8.99950104393506 2.56798454168523 0 0
45.7939604433094 11.1535864095944 -5.67161254265625 0 0
-60.0275947154014 2.7984856142553 4.33729521970029 0 0
146.027976017536 -2.32764578598068 10.9879833416737 0 0
196.692820142061 14.6504027246576 7.78370011715639 0 0
164.579348671918 -31.8393678184339 -2.62863554354279 0 0
182.150321570168 -3.84724605201839 -10.7597674016037 0 0
106.074974969834 -17.0140490122945 -11.5936332349345 0 0
120.643654803773 14.8044785726536 -12.309821874687 0 0
13.3486601714396 -9.32036076722816 2.4294917922337 0 0
90.9663488893588 -13.125186368236 -15.9149747239188 0 0
103.279186780213 -7.97154235963639 7.15731992860317 0 0
-115.014614726008 -9.28389737597578 -12.2554914546166 0 0
134.039320321902 17.5432687187069 6.64037569175115 0 0
19.3857850331299 8.62952381227645 -17.1118453923646 0 0
80.6032142860964 10.1723043663085 -0.346724081247215 0 0
173.796675246427 31.1236645520029 33.0402028452568 0 0
-81.8661764395134 -11.7691754679113 3.12619690615273 0 0
-95.3137587333773 -8.62383407057341 8.21087495645673 0 0
118.474865227452 6.38129133466352 -17.6105925693675 0 0
-30.8552902868864 0.897884788666666 -19.0813462558974 0 0
114.626031631604 -14.0846751324108 -16.59722691228 0 0
186.988896828975 -12.8423879888447 -3.39585360178549 0 0
176.94511263435 8.81796883545978 17.5045913510922 0 0
175.978535357872 33.6457730856084 30.5961519682806 0 0
77.842899797371 12.1853258978527 -15.0430604128644 0 0
168.186133309091 37.0696626949427 18.2771340269484 0 0
154.493347103829 3.06615166607486 13.1992909771567 0 0
176.568488928052 -34.1616260211308 9.07647279385835 0 0
164.627461302064 14.6584477280278 28.2752258024081 0 0
151.477499013442 22.7815990893419 -9.04164342427813 0 0
104.870678238249 16.4581276222818 -5.67024946187494 0 0
197.66881136754 23.3774813604179 13.7484656642716 0 0
117.878252299684 -13.2129908190805 -17.6545212613444 0 0
77.5259907009731 -4.92536386621426 -20.090315801793 0 0
75.1785029055026 7.63486543364621 -18.5555622782399 0 0
176.237683658517 33.5161760209857 -0.793308959739286 0 0
165.081794083806 -5.20894476328991 16.1327529910639 0 0
-11.7199943719594 -2.75432400855198 6.61662109761201 0 0
166.636241926464 -17.0353399842235 -27.4904035884243 0 0
41.8985491457704 2.1895154093193 -19.9320925761965 0 0
123.158202863637 -8.17131359649379 8.15630475522578 0 0
25.9822332371038 -4.26407374420457 -19.3952816660891 0 0
-101.813151373897 1.21857300479714 -14.8326472086392 0 0
197.987820049632 24.3138433182867 9.47582784372864 0 0
4.87464628213061 -13.1036441057448 -6.39819153125138 0 0
175.414632018732 -1.98067869060432 -17.3416103838199 0 0
-92.8264480108119 5.90131479350668 2.10160277744971 0 0
143.614825171242 -12.7896030663892 11.6072431129875 0 0
-69.0365108418583 8.75840909529493 -10.4930788775822 0 0
-26.2379712606144 6.55467745064145 -2.71835056169412 0 0
187.661766948978 -15.2627410849192 9.3888715137198 0 0
-34.3853023906284 -4.80096947052365 5.93847148673879 0 0
186.561040504907 17.4615708471403 -14.9495760824114 0 0
163.878432523041 -14.7086178366084 -27.6000370693572 0 0
82.7909182067457 -1.69545647105453 7.04486416924228 0 0
7.1997951065196 -3.49353460901829 6.29324601149622 0 0
-126.835419320508 -13.8071395138132 -5.48419161939974 0 0
-113.011414058451 5.95254597617624 4.24062989950361 0 0
184.893706109399 34.467015847103 16.7175863812198 0 0
176.394165027626 -22.7183731617268 -22.1009148039167 0 0
120.165447332816 6.3396019593517 6.8431155296856 0 0
163.452023589954 -6.91316820075639 18.2110426770833 0 0
137.000944439254 -22.5573687052303 5.65154886407288 0 0
114.012881791896 -16.7136184348732 -13.3390588355554 0 0
-59.2544371103754 4.43478195113284 1.93837661284598 0 0
62.4548503425263 -15.6088920385259 -8.66891108219026 0 0
109.945086470808 0.407873490202381 7.27260067064908 0 0
168.040483769136 35.6111950674325 1.66449185732141 0 0
-121.555937642672 6.17593773720148 5.44974107096644 0 0
144.217769191652 -7.36380054539648 11.1199511865073 0 0
7.60179466242672 0.162555531390145 5.79179635252563 0 0
174.947062498092 19.4518181260249 34.5681592268473 0 0
151.46798031953 -0.196569608353912 12.175582409336 0 0
15.6531079105651 -10.0133072933446 -16.1260697767177 0 0
3.83283209848761 -12.4596853669247 -3.58855606118649 0 0
-131.880636939246 -6.7799401106325 14.1128532731229 1 0
180.999933539385 5.51518635387466 -16.9202242400008 0 0
-103.838853783887 -12.8634348296193 -8.95856368490739 0 0
-17.4145802192156 -10.4876532910553 -0.508751584883569 0 0
113.496360400253 7.12768070752484 -17.4923032893748 0 0
55.1105083063731 -15.5092654067804 -5.49536611912414 0 0
-65.8327471401671 8.75596205797621 -6.78443305086678 0 0
-47.288410769232 -11.5878241840456 -1.95064361378274 0 0
135.432904696044 -21.5135472056197 6.54336287290685 0 0
-112.987468356668 -9.09080343081306 -12.5346725285944 0 0
140.526734228433 12.8451919957714 -15.2649337454845 0 0
-91.4567969666718 -13.4152158318098 -7.81694936693056 0 0
-104.863548281379 5.46482699405844 -11.5273102894301 0 0
182.145115682239 16.4166118032362 -17.8143978125189 0 0
-46.0383059690917 2.39604690340331 4.37944245048385 0 0
182.777811294221 -17.1674530205995 25.2562663272871 0 0
-29.9667440740589 4.71937061582725 0.365467781789354 0 0
168.054382045175 -16.5317940027214 -27.822311226517 0 0
164.906066278357 29.4821879293616 23.5397750250352 0 0
174.769280126983 22.6043735249753 -14.6346416630953 0 0
6.116414823676 10.0049300558986 -7.58824215887796 0 0
147.704702040693 -2.73244359339227 -20.2890350964671 0 0
56.5697202759872 0.472358203807246 -20.340557040539 0 0
185.540637110675 -12.7549781563114 -9.21989202955473 0 0
-87.6548840390761 -3.73303482883292 8.48694524779719 0 0
181.39732697234 -25.6690016878231 -10.9470085710425 0 0
40.1947106544301 9.8912852711265 -16.7757220855972 0 0
-112.470950328475 -0.598876422053381 -14.1534337733591 0 0
-130.637433594331 -12.4077062058058 -7.83288988962646 1 0
42.4909868022133 -6.32407531426656 5.41688638626013 0 0
179.340553940903 34.0835085954164 26.3345000621671 0 0
168.610177402696 -32.168699722868 24.0439259445394 0 0
123.360276402303 -16.9466076693038 6.92389640570432 0 0
195.364214633608 19.4644236182643 21.6582065507673 0 0
126.851896093007 -20.8799506950476 0.310569394777792 0 0
-4.687281110556 -10.0867525447691 0.677546700617466 0 0
81.1341066026454 -15.0287233586789 -12.729620886849 0 0
80.9263735913819 13.9752142172119 -4.79008020353015 0 0
-66.7114535794976 -5.92145183866259 -17.4195434210927 0 0
-123.291658168701 -11.7788167252766 9.57705400149931 0 0
150.859880610273 -29.3757281588529 4.89951723618417 0 0
23.4909586536278 -4.68527006822157 -19.3006002950845 0 0
-59.4483379883649 -11.1083190358173 -14.3499260373493 0 0
173.757434242552 -15.0935864331336 -25.7712842379163 0 0
187.033118187697 -22.8860743314305 -8.19477719523743 0 0
89.7689988181341 9.41376064199494 -17.3040257915174 0 0
-99.1943921664923 1.6167305693218 7.58967642409425 0 0
63.9094552749305 5.42948599115993 -19.4353318133466 0 0
-44.8275503324072 -12.4905873655412 -12.2744635238524 0 0
194.322849351886 28.5387894039947 23.4046825527778 0 0
7.5920170214071 6.27642916976419 -1.99387000412628 0 0
-6.52315216344776 8.73499231703448 -6.0158258742522 0 0
98.9662377233214 -5.55439389132726 7.00720763041797 0 0
67.4090910449404 11.7848983273299 -15.3306915517848 0 0
173.439332579085 -7.86247668452311 13.5971570832148 0 0
190.26386084844 10.8399797273291 -8.65284957227856 0 0
19.0521812148727 -6.4716131247586 4.34746112362764 0 0
-106.221036881095 6.22232128168269 2.815403794578 0 0
-77.0034761191738 7.47733533652872 -2.86529510391951 0 0
176.362210465611 -29.1925585531897 -5.32379923476999 0 0
79.0384610705434 -12.183507937455 4.889569243188 0 0
81.0652012831621 -16.7341750926622 -8.43639157269102 0 0
-98.7777256419154 7.12215480215733 -9.7669614782548 0 0
146.935411344407 24.7250214153717 4.77423949665777 0 0
130.834242352372 -21.499457738311 0.236492510049776 0 0
140.84728815541 21.8416409055098 -3.49681015548505 0 0
185.022724655298 33.7896012806284 9.03399634163616 0 0
130.048191124279 10.8662648634698 -15.572897409771 0 0
-110.884446775664 -12.2954390824962 7.48595031273596 0 0
-108.555168156734 5.3324399557419 -11.2699100069501 0 0
-19.1604060402125 7.31561599567712 -3.89590236792126 0 0
77.3391399646579 8.94840080846996 -17.8330588182567 0 0
138.157125026679 16.1110973366152 8.90554866179074 0 0
181.394565945343 -36.9767870628537 21.9582591856165 0 0
187.123347175569 8.41118426374693 20.1464430840671 0 0
59.2719898019364 -2.65703952148788 6.80001776371483 0 0
-113.306580801432 2.86885259939247 -12.6974765860035 0 0
164.968676968839 19.3515398982041 29.7142341047365 0 0
97.7121436763735 -16.4349952527266 -11.489115747321 0 0
123.180690893574 -6.55078381903472 -20.2944246274521 0 0
146.065522787477 11.9485690207785 -16.6879488790184 0 0
124.00992875141 -8.70656830919978 -20.0386712058663 0 0
-102.965239023 -8.27535426078489 9.68778398260936 0 0
114.710065579389 -10.2193169634544 -19.1939536760146 0 0
85.8934086351217 -15.2304559823263 2.84936555602393 0 0
140.435430844185 -23.5693307208788 -0.773728432759888 0 0
148.239684846503 -14.0230771736856 -23.7662395455368 0 0
163.385973188515 -18.2616364903077 -25.9104280757793 0 0
-116.975754727684 -14.4867163101248 -2.33478403643846 0 0
-76.1038846983604 -13.0337967189555 -1.79784593346727 0 0
162.141419435926 -23.9478192402769 -20.1729732468884 0 0
117.148627005366 -16.446018422615 -14.1490011329932 0 0
-130.665123988682 -10.7489886166163 -9.60823979433825 1 0
152.365722787023 8.42570839841159 12.4116765939686 0 0
163.110798175559 35.740578940111 6.64803025053857 0 0
140.382474209681 1.29664187069787 -19.2875715257993 0 0
177.160957783235 18.9716040797101 34.558795066317 0 0
59.0379679944322 -15.5071781969605 -8.20128973522923 0 0
178.938538372833 8.13716124115654 16.5259278993945 0 0
172.323388691015 18.847231152083 -17.6389198374762 0 0
-121.8350346006 -0.877991301586328 10.7897150220183 0 0
59.1534513222542 11.9674990725194 -14.9829435016831 0 0
33.3595445832656 12.1621137431228 -12.1335341194802 0 0
151.055070057169 -15.2598430960873 15.2221020347681 0 0
160.481956646811 7.20071411169261 -19.4480871121276 0 0
150.911217003387 26.6867161384542 -1.61731957407535 0 0
144.742337725824 -11.5580962909949 11.7495130232049 0 0
137.848044195025 12.7617438751383 -14.9344159865478 0 0
-58.3178978411506 6.79438674140081 -15.125103022238 0 0
193.415985773405 21.20758060295 25.8171677884282 0 0
143.653826776809 -15.3603513017339 -21.1595896860737 0 0
-23.6131808786519 8.30237757516927 -5.61959550679364 0 0
-86.7449512843669 -8.56369766216448 7.28649351101026 0 0
177.209166694023 20.2641086817454 -15.6748952900106 0 0
4.77008095763572 -7.53015059670497 3.43880113725346 0 0
177.272755877642 10.0972871579275 24.9165052110104 0 0
144.229577969863 -0.0156232260983411 -19.5645472992517 0 0
-89.468657155012 -8.68168800434136 7.44777994531242 0 0
74.1195289236639 -16.6086988557771 -7.12911365836416 0 0
15.6778757021374 -13.3653058277694 -8.84850352593393 0 0
166.456340825195 30.9750327040844 25.5286049759561 0 0
178.854778347645 22.3554942422727 -13.4825443998905 0 0
166.229620314892 12.9873629930384 -19.7089103754657 0 0
-33.1208046307194 -9.50409488434791 -16.5303872656271 0 0
-2.51423522284856 -2.22527923001711 6.55095212497379 0 0
-112.424631736344 7.17456794005967 1.77753403812465 0 0
116.165978866941 -8.37154800020822 7.67606639903309 0 0
182.80579695445 -27.0369017141743 -4.62631414772972 0 0
-130.964494804051 -10.4921704820413 11.8215469198597 1 0
192.506409835991 24.513402345295 27.3127819667985 0 0
-7.68183986547838 -11.1164649185886 -1.40740426372043 0 0
4.21663202788034 -1.25143222369342 6.27431277248715 0 0
107.774047608345 -18.6502862544784 0.939574845079445 0 0
69.6805431542474 -5.13680550854476 7.15232534737983 0 0
131.399495781518 -6.75085112514385 8.8947052006643 0 0
171.503579353038 -9.28554932572671 17.0374274602356 0 0
195.354812428115 21.6436763967434 22.3995535955009 0 0
144.068373720317 10.1157220358902 -16.9678460114786 0 0
57.8117548821606 -9.25552009334944 4.85009070298803 0 0
-63.5120470087558 -1.96128230305316 6.74477130596457 0 0
116.104228272438 -18.943044418579 3.42536129236281 0 0
189.984111804232 -28.0290707043772 10.0283487665843 0 0
149.393514527061 6.62191393363058 -18.8273746347025 0 0
136.120371047618 -15.8128486861529 9.77302273005787 0 0
-98.1417376781837 5.801357107921 2.88787347507086 0 0
72.7912010158043 -0.935163720900616 6.74497388098963 0 0
131.872268219322 -15.4285315048556 -17.5740983040073 0 0
-85.7909417791369 6.39904564351776 0.443918943941224 0 0
189.426645498362 -20.3117956844132 3.43092253617655 0 0
177.866411075822 32.3594415106277 31.9200031564545 0 0
132.243440694829 12.2530959518791 7.50394664626698 0 0
174.838196638758 -10.7113844123339 18.6347062507406 0 0
66.2416467310346 -1.22014826840119 -20.330500115376 0 0
13.1320929529729 -3.72112380345258 6.01326163916348 0 0
155.436911128037 -16.5564849883892 24.3006840941396 0 0
13.7017090023706 -10.8986182744534 -15.1050449873932 0 0
80.3324235810718 -1.73912184901733 -20.1269784156283 0 0
189.023514098408 14.4128435944374 -12.1610755646845 0 0
173.386296901606 33.3739258295293 -2.3029713761539 0 0
168.213924165488 13.2643403076857 -19.7957337687063 0 0
-23.2331868395077 -4.81423869520367 5.93561711142152 0 0
-52.7001104457554 1.54889688821878 5.36171620115497 0 0
4.85525469799007 -11.0869757992236 -0.24605056515313 0 0
-21.3458090579269 -9.89302305671658 0.386427737653683 0 0
175.159124886996 -21.2856913520601 -24.0332853471452 0 0
-31.0139100454518 3.70044423404323 2.3260959296459 0 0
-39.6142162067609 -13.1719745278521 -9.16453528373266 0 0
151.637240390923 -30.353119205872 6.53120889218671 0 0
159.651956376902 27.1853997266751 17.3607483751338 0 0
-13.8693616277946 1.02533987399424 5.58153642503602 0 0
-0.699740572455867 0.363400123375617 5.79230966024917 0 0
125.995784783695 -20.4903261130474 -3.89145619193164 0 0
40.2669080586888 -2.60893487035744 6.60695443404143 0 0
-23.7492034184138 -9.15846948716664 1.50707531063794 0 0
173.95523173251 17.2352555525439 -18.6792518887396 0 0
-118.510106296206 -0.773277965475713 -13.4956199803974 0 0
171.707013731176 -2.75669727176164 -20.0010368618156 0 0
46.0593603199567 -14.0448822775119 -1.17250226986697 0 0
-94.7439367260514 4.29720226507135 -13.8902488885318 0 0
183.558528993709 -16.2242993616058 23.6003646355577 0 0
183.885418206563 -5.64273151676076 -7.40379147804223 0 0
187.737988371651 32.6207296929513 11.7560140062176 0 0
46.4951846868189 -3.82054430246256 6.69566407206087 0 0
189.852525947097 -26.7330700919909 13.186239110464 0 4
61.7275426556768 0.0231643478512507 -20.3419732701595 0 0
173.570316026008 -33.4990072939525 23.4518059168157 0 0
83.5660486548605 4.23564807208567 -19.4903475625316 0 0
-17.2442878955461 4.01314545779678 -18.6677372559354 0 0
125.083452045271 17.473117969067 0.925733844859808 0 0
162.109023045526 25.9608256136517 21.4367598862753 0 0
157.541895973006 0.952731350747421 14.9294878097214 0 0
82.7095523549215 -1.50832828791151 -20.1074704376099 0 0
113.391786246029 15.0871218881487 -11.9812281945522 0 0
180.997437965274 7.59516230085803 14.4480789542599 0 0
-27.872617203859 -8.45631047178114 2.50994470200339 0 0
136.377850083917 4.0815907831028 -18.3568527963085 0 0
184.864495863254 -12.2931403760088 -10.8031026454401 0 0
156.711878555344 30.8081544213894 1.33015750522262 0 0
184.014753913239 -35.6138303297135 17.2917800632804 0 0
-27.9334260406346 7.52652075913309 -4.28568796156305 0 0
66.1878718235423 -12.9396508425144 3.03612699184602 0 0
188.317286463182 -16.2978658394906 5.67197718056013 0 0
-122.675473141908 -12.6057073436282 -8.18565593210518 0 0
185.419134610557 -8.60928831729031 -4.24092093958968 0 0
188.893392667418 -18.1403457894995 3.56044413343896 0 0
25.889741354574 -8.55473781417117 -17.52979519945 0 0
168.131654068634 -19.48940438228 -26.849610118508 0 0
164.095309819276 -33.5225695485468 0.598771837643714 0 0
155.82921242745 -13.7979160886233 -25.9211915466681 0 0
189.614242002766 31.0211248543131 8.8473338523075 0 0
154.758696369925 -15.6551920461814 -25.6574008742879 0 0
-10.1483949049068 -5.52349037560875 4.88498775221678 0 0
-69.9987327264684 -3.16188911646404 -17.8914431678983 0 0
4.56938307941761 -3.51256020162422 6.36860511224231 0 0
126.708629609842 8.46828247400509 -16.6546693620751 0 0
-123.933914208633 6.15291241854469 5.73528735352378 0 0
23.5176626663407 7.07170866681695 -2.47093384856542 0 0
-28.773672787906 -9.94659887047421 0.271852978749198 0 0
171.481632114828 -31.5084492594288 -1.98384795667503 0 0
-9.46937393900896 10.3059137915388 -9.07522091446449 0 0
184.535812727745 34.2945523283686 18.3921650378887 0 0
159.638486354916 -19.4148133137878 -24.6164095781106 0 0
21.8761114768115 9.01934367210856 -16.8579167300014 0 0
184.435417464347 30.0374125511964 -1.78743895977242 0 0
164.40359474094 -16.4849618023199 29.0450712018508 0 0
178.389961647653 9.65162225500016 22.8852641783061 0 0
-52.9491398769674 -8.82815649256431 3.42540241726613 0 0
-109.047822610409 -6.4568994349483 -14.2659605914789 0 0
192.446774837605 20.7830430635938 27.0965756518387 0 0
149.536157104693 -27.3545622227161 0.743716910379546 0 0
183.427701650436 28.7722293759696 -4.62767279460271 0 0
97.4253148068088 -6.13183791598024 -19.9363170142227 0 0
163.198870566789 0.127494744587461 -20.0829138010679 0 0
19.6857594512994 -4.54202678780941 -19.3204742929464 0 0
169.734529533745 11.1675467183877 22.9025545447656 0 0
128.495899397418 7.96234740625226 7.64904503070535 0 0
144.875624702123 10.1425867913642 10.9640217078328 0 0
83.3576351595766 -3.97304176409531 -20.2027257896952 0 0
84.2985576476746 14.4911184576568 -11.8522997451425 0 0
149.91210774015 -6.35748841158534 12.3867840577413 0 0
90.0614118325406 6.7408760684805 3.12861660788304 0 0
189.368818415491 23.9610257074752 -7.30517669742143 0 0
-3.90075484426243 1.81668595352723 -19.3029417772773 0 0
109.74395445492 0.630334721469355 -19.3147991649969 0 0
88.0839563758285 -1.19191517791692 7.05783696240019 0 0
159.428788053157 24.0990286225832 -11.3999047458041 0 0
106.522964250995 13.0618247689336 -14.1927390393315 0 0
105.882646683588 -13.8954928781601 -15.974469259467 0 0
-84.9025313657846 -7.13636288347928 -16.1052034460598 0 0
-29.5843714320193 9.88955759295756 -11.8689259395098 0 0
112.484467601897 13.9825679712582 1.23576580844205 0 0
-127.331381451037 -13.8332534263242 7.96921823500536 0 0
3.78636087536415 -9.81396886372753 1.51791998803384 0 0
164.743601964193 -2.89916350485274 -21.5147442731947 0 0
160.58940415819 21.4241834648418 20.1163894690292 0 0
-6.44712109858807 -13.0505096652153 -10.6044417827873 0 0
-22.789412371365 -13.2047836941057 -9.24151328608303 0 0
71.2155554580513 2.25219091273942 5.45306925899317 0 0
19.6898742428579 -3.31096828575241 6.21711374811515 0 0
169.205287862333 7.07844966894837 -21.8842909880616 0 0
-85.6136785316455 -3.53384830345721 8.2340895129687 0 0
100.514924030886 6.72762425928689 4.44072743994094 0 0
189.549468012627 -24.1544509444067 14.1227537515862 0 0
184.21709661663 31.6810960632903 0.969294363033048 0 0
-25.0763553313996 3.73454471756587 -18.5969577214075 0 0
29.2531318560723 -2.62985417661929 6.43974667797533 0 0
167.664728166321 11.4691491530988 26.3535540684064 0 0
74.981271891484 0.14652692988023 -20.1912351655892 0 0
26.3310072941424 10.1811764618569 -6.33211178398312 0 0
166.71687993815 -4.69476500175048 -22.4763214036495 0 0
175.633432374106 -34.0957727009451 19.7519391271315 0 0
139.172671461078 11.1244143707567 -16.0613655781971 0 0
147.218012303371 20.7715432741878 10.5500222118877 0 0
-81.8458676887447 -7.56042048511183 7.46069238722823 0 0
160.566523087523 31.9414216995182 -1.52372248878907 0 0
58.634993550897 -5.16812555591336 -19.7593605583595 0 0
167.416778656268 30.2366548419246 30.4701684735907 0 0
178.500920109476 35.8133268874284 15.5574423572284 0 0
101.93638570385 -14.2293626250795 -15.2749790864929 0 0
154.519476461884 -24.5755868031013 19.6512827028741 0 0
155.36736839669 21.5860259725999 13.5298941668932 0 0
192.18614804125 14.6200671721671 -6.8887616968395 0 0
153.261709885547 -21.8892393758882 -19.9204584949567 0 0
147.016694056458 21.9934555351831 -7.83869611769295 0 0
-14.7658372484582 10.5165107843233 -11.4468805855226 0 0
140.06626283317 -9.58290093576124 10.2815105978817 0 0
158.796086621138 -14.9175626838304 -26.4410458636063 0 0
135.609998078883 -7.96147490588787 -20.7075059235828 0 0
151.633816129552 5.87019592861058 -18.9253887867344 0 0
-59.6394234963377 -13.4553410141449 -7.46159707099584 0 0
185.542158581995 10.1101404893069 -16.8219817391948 0 0
-72.1092648791436 8.78490252317891 -8.52642971586551 0 0
-19.6740243898254 9.65083331642786 -8.04719952796013 0 0
176.597047962511 -33.9276465827542 4.01431050891536 0 0
180.956401912766 -30.5653156429229 1.07743333987423 0 0
170.173237472263 33.4200096911006 -2.83212868348816 0 0
103.095249527864 -18.3175003541674 0.330675396694493 0 0
147.305662884355 10.5313448435235 -17.6273727425815 0 0
189.232558561408 -22.8278261488774 2.34593647106902 0 0
85.9540202931195 8.00538253056285 1.74335051313863 0 0
72.3759703378595 -2.80104382625139 -20.174008239201 0 0
63.7407076048982 13.7751715363925 -10.654285661914 0 0
-38.0684810139992 -9.55434644641921 1.21627333689099 0 0
174.165683388548 34.2407545896008 28.3141882930117 0 0
45.4696559261693 10.1736154295667 -16.6741085541388 0 0
-102.670117169139 -6.85104226457289 -14.7966070553171 0 0
76.0689266871385 10.8384951680245 -16.4073793361884 0 0
173.620660980636 5.72808914460053 -20.7735042452425 0 0
-111.416126816536 4.77473060838419 5.92403709618169 0 0
62.9380335456444 3.07919180515374 -19.9936699683718 0 0
158.238800261579 -34.8190338131003 13.0525132062232 0 0
-85.3096758752128 -13.1122757730666 -9.25674758043054 0 0
19.9196145003851 -8.29538828952514 3.37485814373304 0 0
170.541040598331 24.5539733542375 33.4334799446392 0 0
-50.8355880717409 -3.59636491920414 -18.4373657307443 0 0
-57.5575202047368 -4.88363583119543 6.80259660738016 0 0
143.474631677309 -21.2742318632616 11.3673182732068 0 0
140.190080003625 -20.7666255523743 9.4789678694961 0 0
159.880609945083 -4.25720809152142 16.3268378862178 0 0
2.3236037844233 -13.1569099822659 -9.31149015742044 0 0
-64.1636352388226 -6.718142376431 -17.2045364380014 0 0
-77.855027870554 5.19335964574486 1.97307554638608 0 0
-26.1991810450111 -8.31429288196682 2.62326771803399 0 0
-72.6644811280105 5.55030145631802 0.969889284991675 0 0
28.6326950737873 -13.011456363961 -1.68916528484297 0 0
-65.0340052783321 8.96278792710282 -10.6879746966769 0 0
178.057917238226 -35.0081375667356 19.600817645842 0 0
171.03054867728 -10.3075070070443 18.4649282313819 0 0
20.2301818470284 -0.678023914949538 6.15693816911977 0 0
67.0738107339918 -13.1666542297591 -14.5911903884702 0 0
52.8528188929958 5.95572325039242 -19.2431039855337 0 0
-41.7199750554717 -13.1734952921351 -8.14182257003187 0 0
55.4792062242844 -13.4743810768191 -13.1904858533918 0 0
-117.061049814096 -5.04932750613547 -13.7518257945426 0 0
1.53746771879869 -9.67482400022676 -16.4653742382633 0 0
171.2974915569 2.51101340747052 12.6605397412552 0 0
135.370979603044 -19.6064794680458 -11.5461119028522 0 0
60.8840143239378 -15.8409175932484 -6.11931073646306 0 0
78.9902274435233 -14.764049883528 -13.079460443388 0 0
-2.58060532997464 1.25066068303377 5.38701634390993 0 0
-6.4827948306024 -12.73107870136 -5.53227543276445 0 0
191.140888915751 15.1687115160713 -8.60810499869444 0 0
106.050409229522 -15.7519657634806 -13.6240956770801 0 0
125.318196366782 -1.45538960542255 8.26731664206393 0 0
83.2164033146256 11.7995539236265 -15.5254686870582 0 0
119.478524865821 0.270425823931163 7.76194204333029 0 0
164.302838044575 21.5643120497682 29.2045361313245 0 0
153.626171256166 -23.3622195401814 17.5555614996072 0 0
145.592169271512 19.6752798082521 10.4533780610881 0 0
181.365190415349 34.8806899795875 13.2856984693647 0 0
153.037575687598 9.3161979070221 -18.8402102148633 0 0
175.846275232645 -13.4385981577857 27.3220690448076 0 0
178.629484329087 28.6706998724614 -7.00886981845384 0 0
2.99810580821811 0.504988095192927 -19.4982937613305 0 0
-57.3565026174633 2.08735729720792 -18.0586969917806 0 0
51.9402155052766 2.45562565076017 4.54032407930171 0 0
62.8902818412748 -14.9506615320041 -0.0807829133787207 0 0
159.985463618598 -8.53508026124799 19.0413381172677 0 0
90.1391491608979 -5.92510726161524 -19.8881662836323 0 0
88.4826730005465 1.12751069001037 6.56685967299578 0 0
68.576318047531 -10.3945491132529 5.04190443638605 0 0
148.171562231057 12.290626612481 11.8516248033872 0 0
121.254215470041 -13.9179598862174 7.64935268772391 0 0
-91.5998314898455 -0.800982817678157 -16.3478356306655 0 0
-62.1549737595216 9.20811625914893 -8.97355023134392 0 0
-54.6978062723304 -3.72132509199219 -18.3201571665342 0 0
143.642025476164 -5.49139607125563 -21.2056687523832 0 0
-37.7157954926368 7.94610027314015 -15.2578356128911 0 0
10.3980290723115 0.600007485721592 -19.5919913637469 0 0
177.333424511534 -11.8765029249819 24.4521679879348 0 0
160.668749242406 9.54944786288124 -19.5374468612478 0 0
182.170857947992 34.6111901438821 12.1474583122429 0 0
-95.8222901431329 -12.0514701505328 -10.9635220814452 0 0
-130.229263680972 -4.78408713188266 13.294854051445 1 0
178.156600842119 8.84485633228298 -21.0310991344354 0 0
142.616965671445 12.8088225368415 10.2110956152272 0 0
20.9726003055472 -13.1078333951079 -11.2885156880865 0 0
140.573432500413 -6.95410614590074 -21.1331139228701 0 0
148.67787791722 25.9547164232616 3.99735740117243 0 0
-95.5082159287422 4.17534817433766 4.7344625316418 0 0
183.111974322091 -8.04373199293455 13.9971527130713 0 0
15.518738289668 2.96262319655004 3.39224175926695 0 0
181.231659413174 -32.9377482361283 6.10286115171285 0 0
170.700184500299 -17.0927155201348 -27.5470230529556 0 0
189.363950381322 13.2051317848443 26.4580195045397 0 0
-40.6732235976466 -10.0866282649851 0.36171891594112 0 0
155.511726357231 8.18182367840758 -18.9444747362701 0 0
111.917951966881 -14.8764021765819 6.99795103283902 0 0
-87.0783656206253 -13.6718611982513 -2.01094727096203 0 0
115.870345813237 -5.0072708573508 -20.0180376801558 0 0
179.678919655587 19.5437666277012 34.4660306548237 0 0
171.145874624707 35.8997588169569 2.24883510621756 0 0
1.02185489986372 -12.4957571944196 -12.2774642331081 0 0
101.998046989676 2.44005096134401 6.55468977992944 0 0
7.810127835448 9.14063198694857 -16.3041570720464 0 0
98.2706555766371 5.98224601988164 4.64605617478062 0 0
-1.7056336128494 10.9704701036231 -12.3427601730581 0 0
165.026469762903 31.3824586595142 21.2255324339154 0 0
184.654886474042 -28.7511067690166 0.198398425415348 0 0
189.149722962093 19.1285661729871 30.089960091909 0 0
45.9986293008974 4.69384738362051 2.33435148878508 0 0
22.2411858727499 10.9337281104459 -8.10973957285181 0 0
106.532718886063 -13.8827951367312 7.03528302387659 0 0
-118.963922643619 -10.7634594014707 -10.7461780252613 0 0
-33.7696094080132 -8.99173688083414 1.82300741252619 0 0
-28.0199085247292 7.18446225379018 -16.5876278358674 0 0
41.8918564705828 6.97848747300081 -18.6821660923074 0 0
196.623353714026 19.8420409522438 17.8258408488253 0 0
158.264136714589 11.4546139488835 -19.3004442217807 0 0
186.162977138151 -13.1328087373405 -7.44793721187869 0 0
138.187410642243 20.4162247228856 6.14462489771085 0 0
131.114406511145 -21.3705214820402 -2.03160493897095 0 0
142.217574007149 -21.1529903631248 10.5216667282336 0 0
181.227075392038 13.4130207697109 -20.1530538749689 0 0
145.775641829057 -8.14741021853614 -22.2502556652614 0 0
-103.087894239818 -13.3771853712438 3.87397518479339 0 0
