"x" "y" "z" "f" "a"
187.795006745504 -14.3695933148068 -22.3233740438818 0 0
20.0738838399294 -10.0718691297272 -21.3391811789936 0 0
190.561919141102 14.4688493768396 -18.2625300872142 0 0
160.129319065926 17.3062234153304 -17.7083129987183 0 0
196.767649184934 10.2174917881741 19.7411926034601 0 0
65.5199824395983 -2.60934116860343 1.81572790010749 0 0
-74.1336514506841 0.635746898428252 -16.9647834729109 0 0
-66.6447668892045 -11.3433976097996 -17.3969089029096 0 0
38.4421368389073 -8.78288290915146 -22.6199223946339 0 0
136.543916759159 -4.72626183844785 5.96689560628654 0 0
128.459526289699 10.9362711071773 -21.7847149090608 0 0
70.0582357164222 -4.09366403455272 1.81800372851954 0 0
180.877851682308 34.3167962593521 33.1006257506658 0 0
-76.674540201169 -15.6119830506299 -11.7121414092876 0 0
148.915725358989 23.7799519607711 -6.40356052076678 0 0
41.8551560356885 11.8403324727324 -17.9789320099338 0 0
194.595588524587 -8.07442802280961 4.75815403229968 0 0
170.432942014495 29.8572492572171 21.9706062933523 0 0
160.767656775044 -4.29926339695341 -23.3164607837471 0 0
188.879175155925 13.2478839028333 -19.8195435143442 0 0
121.342327680905 -15.3772447589976 -14.0697231213669 0 0
172.005689459411 36.4449936993454 1.68883984330973 0 0
123.906289991817 -1.95632823268316 4.11971674343371 0 0
13.0166045555046 -12.2065417093986 -17.6434705973356 0 0
153.578588681951 17.9949087004312 10.8970134420638 0 0
-32.9832334671567 -11.3189108089937 -4.03161379847534 0 0
163.186000817485 19.5388917250641 -17.0562808325504 0 0
163.843989466523 -11.9951461231943 18.7041700432822 0 0
29.0596405160468 4.09488799556723 -23.9450735003918 0 0
163.100127857435 -10.7480134511941 15.3780879958277 0 0
201.435112462738 8.91387407961355 0.474795768495987 0 0
51.793075683482 10.9895804152608 -10.2080497550944 0 0
195.156820040475 -14.3505578915047 13.8819612842418 0 0
-47.4415156902182 -15.5251545117433 -11.2007417041382 0 0
146.254237694949 -22.2057755742039 -3.81278062642577 0 0
144.199418042645 22.3252646864459 -1.29899960252207 0 0
182.824027360109 -6.64420960644999 14.5030577763035 0 0
129.242498944239 -3.07328118364102 -25.1269497370586 0 0
100.929283819482 13.4765385883553 -5.35697571984992 0 0
22.4928268422641 7.47745533891705 -21.9751866664771 0 0
44.6035177971739 -11.4377827737433 -18.1896656860045 0 0
-34.0227531912528 -0.000234560785959004 -21.8616899744143 0 0
89.6183725406542 -9.54325168874846 -21.6332358765532 0 0
-12.6273719336415 2.14584325632532 -2.57266841877495 0 0
-18.4477035604114 -14.2328083585723 -16.5911415784618 0 0
155.303321030776 -0.317531674276314 9.32777074422223 0 0
183.115012273248 37.8626116304082 22.3222850413661 0 0
146.042071786747 6.08547865676897 -21.9236018534633 0 0
144.988105513742 21.0529648630269 -11.972872338138 0 0
-51.8748350230437 -14.8763220905423 -7.00028433996552 0 0
172.631681092303 14.6316803603421 -20.3466270504793 0 0
75.6926923621857 6.20182806947639 -2.28125731979819 0 0
190.89059852679 -7.24028907959074 -12.5678968425959 0 0
197.71835780942 -15.5701952224774 1.60107547181673 0 0
-45.2577812306108 -12.7738194789658 -18.4300466727351 0 0
59.4417571882826 9.73670308306975 -21.491255155951 0 0
83.1152096729472 -11.7452976809149 -17.4072515707034 0 0
-60.5949346283754 1.35327043375832 -18.7216124590088 0 0
45.1321934021457 6.64393358685464 -23.1167887607101 0 0
193.20899857065 -34.150465638321 23.8170267577784 0 0
-24.6708721156073 2.65467611197968 -22.0147444150435 0 0
107.796392076787 -3.27202886533719 -25.5807266938005 0 0
128.352752970766 -6.80895429538889 4.6773025968845 0 0
-3.10391237449749 -0.38408961901434 -23.797356130129 0 0
68.2544671690536 11.5186533534652 -20.2458543107047 0 0
69.2112616163894 -12.1235780986249 -8.25077230440123 0 0
203.066815555402 25.4927582471842 23.5016694087335 0 0
145.891540805352 -9.89097907205175 8.31181082611642 0 0
171.811947266922 31.5055668912694 26.1582964754004 0 0
189.871843358238 -14.0216253287864 -19.7710939167226 0 0
-75.7308948518894 -7.26313304236167 8.56476038064813 0 0
136.718205845477 -13.4167056104278 -20.394747806019 0 0
204.527784200981 28.1822431897794 13.5656780755683 0 0
195.036003867697 34.8501404041418 20.7749539298967 0 0
159.249210099637 -9.92044433179163 -24.8855319113927 0 0
-45.3017867311253 5.17447458683752 -18.4508455814459 0 0
85.4801146260157 11.3121370868598 -5.85286651688591 0 0
70.8845369555866 1.42179993432921 0.469151432930414 0 0
99.6311961228069 11.7915602471161 -3.85619627276953 0 0
161.496377602504 -28.4382904746708 -3.85180401853646 0 0
34.7535757592359 -11.4529992902941 -9.40089236822974 0 0
196.510730899013 17.1681137787042 31.7222564756508 0 0
-10.254410566338 3.32243046695349 -22.7485557342363 0 0
197.553790307588 7.32975595165717 -8.95872280639677 0 0
8.47022432382114 -6.01761482062736 -23.98581260158 0 0
-55.1767094268837 -14.9501005758226 -15.4654987207399 0 0
108.170992755396 -1.51278824696704 2.85383265992799 0 0
55.1166808282469 -11.122085488165 -18.8047166618945 0 0
-44.681972686374 3.02646608872448 -2.97610001290006 0 0
175.003075004684 -31.1674739075435 31.2454246164302 0 0
-37.2171477914681 -9.02836730478514 0.576965046321401 0 0
85.9855957098964 7.16953413343908 -23.5191850812953 0 0
160.450556317935 5.43303975655706 -20.0822887422373 0 0
-80.676987058818 -16.8557164575748 -3.61291409162144 0 0
188.44703593781 -18.5480902896079 29.4694820231201 0 0
184.24479870625 4.33198481872911 12.0786905499481 0 0
-27.6880636318993 -14.7230798698213 -15.9429263430764 0 0
161.282605351758 9.54057596333964 10.8635503246795 0 0
29.2011786953257 -10.5984079716295 -7.41905508851326 0 0
182.957427511328 -0.0224142908991865 11.0471910842423 0 0
190.289430881765 7.51446408383301 13.7219611618868 0 0
26.5727796895213 8.0096553444239 -21.779550914634 0 0
46.3871999421791 -0.586887562669295 1.75045619422782 0 0
34.0306786509509 -6.73095177443205 -2.35742797913686 0 0
55.7052653421892 7.58497887612741 -5.93067741246367 0 0
-86.2670023744674 -4.86112317066472 -16.3825069352482 1 0
37.1157749592306 2.68923623389608 -1.34060047265067 0 0
62.841542448817 9.84417896924317 -21.5461850262584 0 0
136.92069601989 -4.58320950453809 -24.715542705262 0 0
191.96077763964 18.9713275565617 -14.5297380868633 0 0
168.308384535287 15.3830226509052 17.4524040933417 0 0
163.502793433155 10.7740239439233 -19.9279376777318 0 0
174.554202536748 -10.1281526277506 23.1321350452272 0 0
17.5934268324013 10.8376806061 -15.0830408986032 0 0
146.690430694332 13.9647281977882 -18.8313985139309 0 0
192.665975780975 -33.7574971742569 6.6358924123384 0 0
166.303050536105 -9.57168248273729 17.4167090601963 0 0
201.587766213835 20.2253010034238 26.3595871188082 0 0
154.434990326808 5.39903248782138 -21.0397006639688 0 0
186.68953306899 -30.3707323805478 30.9543271628334 0 0
-0.963358278196894 -13.2375084306865 -15.1047675733319 0 3
203.17623337886 11.9636596284033 2.00273459838266 0 0
180.468331689556 -22.839916790455 -20.4476607954935 0 0
-50.6687199916093 -0.622614536639949 3.57249920284251 0 0
199.240489538639 29.3747642176066 2.7197533809458 0 0
-12.2224958153282 -3.90382105009791 -23.4363193331526 0 0
-59.0670472454959 -11.8229546191229 -17.932794891185 0 0
168.50025579999 36.8582855462143 18.1970691850266 0 0
-84.2179150013704 -12.694289249116 -14.5157878998884 1 0
60.167819295614 12.9257465165199 -17.6436176098314 0 0
201.22868371593 31.7253746020406 22.2006404810441 0 0
149.659031074362 -7.53375892276619 -23.9601114295087 0 0
122.022261707083 9.87526731721387 1.56760285868885 0 0
-14.6804546493618 1.34751490089802 -1.07846959669461 0 0
-0.465649676816056 -2.73512294900639 3.38359483166009 0 0
-66.5513185813747 -9.25041727626259 -18.3541291162797 0 0
64.4452889579545 8.92101633459482 -6.23768495374578 0 0
173.489465841247 13.4244575117478 23.124205480201 0 0
116.675715764664 -5.51156972898483 -25.1172077659012 0 0
170.439964522502 22.4380080707616 29.7435990278712 0 0
188.213773789469 -36.9853810735844 23.5862004044023 0 0
103.051506182095 -13.3715847206352 -3.01756461356722 0 0
104.199776720473 2.88202934585598 1.99304173728938 0 0
202.271185580047 11.4463385187629 -0.478016232607023 0 0
131.379455010648 19.8960318794337 -6.58732218841616 0 0
129.233840816417 16.5889719018728 -17.4662020940972 0 0
205.324607701044 19.6572893198637 3.89102647329056 0 0
126.345096647108 4.38553533515913 -24.1303350273684 0 0
52.0961223243513 1.21905559189124 0.51981953286581 0 0
127.413607615323 -15.8509905577867 1.92497306861863 0 0
-11.2679164332875 4.86488967151824 -6.35369738118352 0 0
-84.5148864243505 -17.1013492902292 -6.33032459313933 1 0
142.356386703321 -13.7653221552826 -20.5411542842081 0 0
139.701803699794 7.58081452960146 -22.1520117165958 0 0
143.716922214092 13.8366363243721 7.73210395177628 0 0
156.224070168537 18.1159841676481 -16.5531090118599 0 0
146.703127559949 12.7819086230922 -19.515079825395 0 0
126.138984923606 6.63996726286843 3.36523506280257 0 0
141.644501744614 -19.2000399850123 -10.673623375084 0 0
-37.7830251598752 7.06938280892207 -16.8289095653727 0 0
156.081893006674 15.4427043360439 -18.2000746738617 0 0
49.8698511769351 2.01018965802768 -25.0134185583518 0 0
83.1589334226106 13.8292367690522 -18.000695678103 0 0
37.8070878883875 -1.21059612841189 -25.2397681579545 0 0
111.294104818719 -1.56452267949146 -25.6720735210577 0 0
153.187269710695 1.10998668192315 -21.9343250265978 0 0
155.347928348413 -0.00833564239653892 -21.986181157656 0 0
195.076668866833 20.3742801770804 -11.603891330514 0 0
204.531783267355 16.5522768555066 16.2653163063532 0 0
197.950442181709 17.0431877938876 30.1460025598066 0 0
-66.9198924431573 -6.22469462563306 -18.9056488017467 0 0
197.270171097456 -25.2293008296031 17.6960350798258 0 0
141.973924918058 3.76561450696137 -22.8115060707775 0 0
193.861349708186 26.16494706782 -5.37030759687002 0 0
-73.7921940826599 -16.4422189942139 -8.35846109691352 0 0
200.378433144502 23.7481192200174 28.8902608325364 0 0
200.216178216016 31.3435352265628 25.0826682862307 0 0
181.422469756225 -11.7627587450261 21.822227953531 0 0
190.690855913625 -34.7927633035025 9.89330769818048 0 0
50.0223711406114 2.3520270808247 -0.497587888003065 0 0
-10.8590921539559 -13.0236325148347 -18.5773159193922 0 0
55.492823217365 -0.154408894517289 -25.5051202755555 0 0
152.491370822339 -10.3961897461753 -23.7852629828075 0 0
155.259304602351 -17.3982297082118 13.610473732858 0 0
191.973455438324 15.4640346553563 -17.089889236221 0 0
188.590093995113 -8.14071639453531 -16.6505414603426 0 0
25.6017678588304 1.79044839383215 0.0820848465705072 0 0
74.0741044174846 -7.98951684492829 -1.60791459112605 0 0
139.559878975172 3.07576858619385 -23.1953933770595 0 0
167.840856786896 21.5957992150484 -16.7400720119787 0 0
-78.0464875011717 -16.268607940784 -0.543194253996117 0 0
8.63049764811633 5.13205472496521 -6.35613222626881 0 0
112.828225056166 16.0774711976146 -5.93532947023548 0 0
179.151277733886 4.86750137813267 -20.7977851595184 0 0
181.49452267399 20.417065021459 37.3348192441053 0 0
149.985393610246 -23.8317789497325 -2.54120721639956 0 0
-24.2376660287643 6.87435774616396 -19.4056148295543 0 0
6.84535291627869 -12.3613468472729 -17.7285603831674 0 0
-83.3523277880462 1.00618116526195 3.89069002572993 1 0
185.265819141934 33.8123145255602 33.1925396518849 0 0
-46.7913463486674 0.687708061808369 1.23424432514337 0 0
39.1221911110043 0.561549878133319 1.20906921806949 0 0
196.292830015581 -24.5517075949774 20.2480603205899 0 0
-7.88975231003456 8.05270872113443 -10.9158635904914 0 0
-36.7785800641015 7.63230027552459 -15.2781642091875 0 0
187.535631929939 27.0259737807227 -8.39481143272682 0 0
190.603359655211 23.1852369427513 37.1318585940543 0 0
191.688964207941 -20.6611918324439 -17.2994840729905 0 0
182.658640710353 -36.1169959464644 22.3310946225134 0 0
154.679391965183 -6.91315412702095 10.4011130319159 0 0
73.3259560144674 12.2621338639533 -19.6438830065051 0 0
159.736736024254 -17.0788705689897 17.7951320053289 0 0
132.668706745366 6.82579352286328 4.48623686323348 0 0
90.5958505607761 3.77708104361918 0.509268653465374 0 0
-15.9355201710923 -12.1257836762422 -19.8902815572086 0 0
143.382538649968 20.5659978600185 3.44575300546807 0 0
-0.33557802328515 -13.0242846516283 -12.7589297421891 0 0
78.006987422871 -5.93656425298864 -24.6169329745566 0 0
-19.9424698733559 -13.8640786822172 -11.8774740212698 0 0
133.916403238699 -0.705553545730514 5.31885180314615 0 0
187.355754531973 31.8098050358412 -3.1421053171576 0 0
175.268815688395 -36.7535329758325 4.89850693447738 0 0
194.262428500315 -7.41404203519343 -3.36824889405981 0 0
17.5229806820266 -12.2563743899792 -11.9619963525687 0 0
132.828690083215 -18.5924087430329 -5.74437467414174 0 0
163.183135932978 33.4744771327306 6.30259463308112 0 0
144.358692561287 -14.8956800302296 -19.5672500650409 0 0
171.444860011713 -35.8629665360494 3.74479383435524 0 0
93.7870114458663 15.0460830273405 -9.38749645664464 0 0
-67.9745385066773 -13.0999070458278 3.94067352191913 0 0
-4.45180641020302 9.39767776748038 -17.8033214644402 0 0
204.607160125937 25.3965475510077 3.95456207947956 0 0
3.43842756223444 -4.10846607499341 -24.1667153245935 0 0
76.6011831798168 -3.89081654497303 -25.367838747935 0 0
197.248668151169 19.4928563015582 -11.6984147630402 0 0
181.589667726193 -30.5107446429853 32.5823450464117 0 0
179.569363165864 39.438321346636 7.8477058377988 0 0
27.1025447978518 -12.2558083642582 -12.7430605871569 0 0
160.393971088345 10.2370718839509 -19.9093356643253 0 0
-80.5299541671677 -6.6256862994535 8.80764448023472 0 0
-85.7109176050146 -3.91785487672436 8.62055742121875 1 0
138.048204902353 -15.3202192653361 -17.8882308659313 0 0
-67.7241001005504 -8.8203401536097 7.615831243834 0 0
185.440360326211 -8.09621558831905 14.1564232729697 0 0
-49.8278695321607 0.76265904026977 1.34244035813243 0 0
167.140914054322 -32.2986723432833 -0.8473933920693 0 0
-60.3243313939 -3.691044464089 6.24177993333006 0 0
180.903391600741 0.816219944950778 12.3577378923804 0 0
177.475624440172 36.7219436524479 0.642402121607709 0 0
197.386331618144 33.9497876787818 19.9859761469479 0 0
-76.4107522318917 -16.2676349898816 -9.65885168248749 0 0
67.8330951621795 13.0830614829597 -18.0380046007978 0 0
181.533610016517 32.9554090133757 -3.80044790265619 0 0
122.782161186413 -9.44265400121771 -23.3424882407681 0 0
151.35894814442 -23.9516420412456 7.23315194604138 0 0
162.489690858609 -31.3584583825861 16.5803937297735 0 0
174.728610932221 8.19582341832547 17.0980933650596 0 0
0.446094036372539 3.80655491159342 -4.74511364176435 0 0
-21.0397346440742 8.33944191802865 -17.1819471149923 0 0
107.672022091737 -5.10807902105468 2.93224484131278 0 0
203.807370934141 26.0645482428355 21.13852064419 0 0
160.357867185294 21.9754906220289 -14.7827026018594 0 0
44.8835589810154 -12.1446434767872 -14.9468432370468 0 0
57.2648966226388 13.1642080465891 -15.7277492209958 0 0
184.37498211199 -25.732615850969 32.3244871527916 0 0
68.5201339595693 4.46093949317874 -1.66584635437743 0 0
65.1956137387985 -7.52401384854445 -2.00350575799475 0 0
-84.3647354100526 -17.1474839910082 -0.779147980000609 1 0
-49.2648919097617 -10.6994335972856 -19.3980155221143 0 0
-24.8646002030229 -14.1449190895156 -11.1927472651653 0 0
157.93144541965 12.1482262825073 10.2286034016555 0 0
-26.3676026376578 -13.3437704983922 -18.77529035477 0 0
162.158706470918 32.0192372047061 14.8826670517047 0 0
173.601894505029 -31.9534399380219 29.4115542425068 0 0
-62.3302987261863 -12.8945281305955 1.7557967455639 0 0
164.727183896381 -18.6251756653432 -23.7828316876059 0 0
152.217439484564 -13.3430167174448 11.3789342777969 0 0
-24.003378997744 6.21243055360682 -8.5484804454019 0 0
188.92027376387 15.0583726274196 -18.5897862420759 0 0
153.287616669206 23.9042646021268 -9.72485642964866 0 0
154.15350976388 12.7198720430939 10.3201972613479 0 0
-42.6613793111718 0.825376171356808 0.622197534556741 0 0
-66.2112874008004 -16.0106293147128 -6.98975111493267 0 0
-37.6470268193179 1.91469233395025 -1.63484375289185 0 0
179.909649744503 19.6034415610749 36.6352976385849 0 0
164.004195383829 32.7876516566302 1.57121754041147 0 0
92.3817116618792 5.85179830709126 -0.296080146284142 0 0
188.155466752507 35.1006734399457 30.1917931046171 0 0
87.4398156167481 -5.93260705737043 1.66190413416918 0 0
175.434198015366 -32.9524384686579 29.1234626367615 0 0
-4.87403325564685 -10.4660069634099 -21.1664494735588 0 0
6.20798005558144 7.92238043860723 -9.99775417077233 0 0
155.665815329017 7.56975815292368 10.0130444733866 0 0
24.0475116513122 0.892518055913204 1.61250249315621 0 0
139.619496998489 -5.30929152114432 6.51914637338384 0 0
144.660924273612 -6.96266238077146 -24.160557422282 0 0
173.422841666305 38.3313304012591 5.63824036513406 0 0
24.5273505779137 4.08460975414936 -23.8352995786561 0 0
-67.1459307954269 5.41146827620071 -6.39585118381273 0 0
146.838283350113 -13.6463272302622 8.98711373061793 0 0
-60.3562687337641 4.16925820274567 -3.95349222299209 0 0
152.53846047328 -6.8941117587018 9.75438537806998 0 0
-8.44350630291928 9.37207143570329 -15.1349320250133 0 0
2.41351188776089 -0.101434685603302 2.17423731525622 0 0
204.050193024463 17.0565885791104 18.7763511386009 0 0
154.299161404562 7.77183491313313 -20.5744708222126 0 0
115.666718727752 10.6144228328999 -22.1004226356243 0 0
196.468066572951 30.8991396501106 4.21335283633553 0 0
107.871408999417 6.29951816489529 1.09128581186763 0 0
-60.434889904433 3.53674347882789 -17.5194384241833 0 0
-76.3572871154168 4.53820472248974 -3.48101171825405 0 0
138.182306145695 -19.6791608699476 -5.46234659533359 0 0
192.54768653177 1.64845670566934 8.63211924055689 0 0
155.452934952852 16.1445119902866 10.664724155013 0 0
105.106921262321 13.5027332313144 -19.7000512138879 0 0
108.134143715505 13.3529910884526 -3.89975085768633 0 0
-54.4990755853935 2.20529622782854 -19.1597622132736 0 0
167.540803361087 29.5571978611942 -7.87658379389636 0 0
167.787869691356 16.6844041794037 -19.1218562195673 0 0
179.213708178707 32.2079306917794 -5.51086650552337 0 0
-43.371235710725 -13.9120799090327 -17.457441725982 0 0
-23.3760081353818 -14.5355058073683 -13.8741513451452 0 0
176.928939882411 39.6307474170496 18.9348265836706 0 0
176.649443249022 -37.4118537432902 7.98669932531836 0 0
83.1644465647993 14.9876565462747 -13.6040620986112 0 0
192.063624521048 -35.3097281734977 11.2987833086909 0 0
35.2932241373756 -8.75083027789247 -4.57028995622711 0 0
101.558404060598 -6.24814662792356 2.2866070112472 0 0
18.0859916491293 -4.49372817184068 1.18381523820968 0 0
67.242793916983 -12.2595214091697 -14.733164416587 0 0
154.604573510795 25.3378906374097 -7.2602398337305 0 0
119.884437992527 6.6108610298361 -23.8480964644304 0 0
76.5380194680952 -12.7133042961291 -12.9886543716363 0 0
170.359868266319 24.8983695318376 25.2742532114453 0 0
137.27887313085 -2.10550255098446 -24.4370230072333 0 0
150.776277729145 6.77403279051155 8.32688177307332 0 0
42.8877125900426 -5.83994879449441 -1.13118750945735 0 0
160.768610524405 -3.34681094427954 11.6335711059236 0 0
179.244653162059 30.1271458448995 36.1296990157757 0 0
198.688769067376 10.9596105502151 19.6460612243797 0 0
2.66296079896216 7.64821836148591 -20.9486489663892 0 0
-72.7145115377443 -11.8191423903437 6.83048442447721 0 0
-84.2875015993248 -1.94558743175508 -16.1638840913397 1 0
-31.9312165243732 1.46474405997692 -21.7751508976898 0 0
-32.9691679696521 7.50576485003944 -11.9903238368595 0 0
35.5023152949501 -1.81616024223829 2.5244751784526 0 0
145.476452770852 11.7198124528068 8.16076266873618 0 0
-76.7475304308946 5.39255432085089 -10.9271053596853 0 0
181.036395883358 10.3759645012018 19.0861552071269 0 0
157.245762736701 26.657820268384 -6.42302118318606 0 0
123.386255985037 -13.916215984781 -17.9283307857554 0 0
105.840859519452 -14.424707193251 -12.5950862044975 0 0
-39.3141264920534 -8.46888649296083 1.73062560906261 0 0
49.8413163162938 9.92793058770561 -21.0124722702463 0 0
177.32951069533 -37.4594118029372 16.1149858169047 0 0
173.155730780688 12.7402640913298 21.8385317705093 0 0
-17.7478829834519 6.04862465512585 -20.8605942113873 0 0
174.559390311889 16.3606685743254 -20.3715088773836 0 0
104.753940887092 -9.83799793331165 1.04252489756179 0 0
170.217822531918 12.1896636384237 18.0496432341247 0 0
170.841080245396 28.1623804105256 28.765343563 0 0
178.620121232413 -6.31758013168174 16.1999484677243 0 0
86.0200560376853 -11.0165171748373 -19.204102480685 0 0
-72.4260325103297 -14.2985548526314 3.26600391171176 0 0
2.69824119733666 -6.52173736677869 -0.318705206617298 0 0
177.39196398077 29.4300682557367 -8.9767614381168 0 0
180.429494747829 -26.1857968127194 33.1263298812712 0 0
181.3031495635 -35.7303724303592 20.0263992016816 0 0
41.9458617150835 2.46798068720036 -24.7227489364784 0 0
176.717415413746 0.545319889805777 -20.4295924294685 0 0
155.238312403634 -2.54536496610404 9.87459017117469 0 0
175.41640809966 18.3326285398824 -19.4978261933303 0 0
160.309163766885 20.6994858179503 12.3427599871985 0 0
160.505089865464 25.013417236238 11.9217630356315 0 0
184.932235328011 -34.9057573383445 5.30860298363769 0 0
0.140132232184631 -6.62242438076893 -0.295313142846756 0 0
13.8661741374507 -8.53294196470307 -22.843662112543 0 0
71.3606278654094 -1.6591399081977 -25.7031827991652 0 0
79.8254292500996 -9.84402208261154 -21.0952595866024 0 0
177.892044171883 11.4810288339701 -21.0711692137317 0 0
-41.2983279850162 -8.98751931769288 1.49615894184668 0 0
5.55112652935517 -2.90306090424238 3.28977075076276 0 0
195.280628100319 12.0724991916704 25.9227516343716 0 0
148.489620199607 22.6960302652413 5.12517449119687 0 0
5.02339444883437 3.29035527168498 -3.84790420976674 0 0
15.3427802350381 -6.66220403059534 -1.50742923735153 0 0
90.685497145942 -0.17708164262526 -25.7336183059561 0 0
65.7081655129984 5.22619580221957 -24.1832286232153 0 0
143.755625401765 -17.6460668315202 6.82863843021608 0 0
97.8146292427382 9.78163978829284 -22.2953709842705 0 0
-39.8047366440999 -15.4471429712961 -13.2885129905729 0 0
-13.1930708010563 2.97436702036312 -22.7085786080486 0 0
89.0248447927901 8.60899811177066 -2.5126298448186 0 0
-32.7951982330977 -10.0249203035813 -1.84863287888527 0 0
172.93610214952 -33.1320660962209 25.3678256759139 0 0
156.014346820517 11.5728352203049 9.28511953813403 0 0
168.33714353638 -37.3045462899585 9.87229420074888 0 0
-47.2959552765553 3.08936306984623 -19.6758236793112 0 0
72.8527015781284 4.94526097634441 -1.6641515039855 0 0
18.7645896055194 -2.74506412269875 2.75115584519901 0 0
164.88349708423 -29.9834015991222 23.8506964178237 0 0
-14.8862577846225 8.4642653453501 -18.1591336277854 0 0
151.433210991737 10.3652737158296 -20.1230209402147 0 0
184.361442124109 38.5001853251563 15.8801361428437 0 0
31.8322037498234 -5.55728977345778 -0.417433629246684 0 0
84.3617727080566 -13.228914611609 -10.4307853528511 0 0
167.995731365414 37.5367729367086 10.3321291492063 0 0
164.002185702807 -0.0984525448208761 13.3985184615973 0 0
169.278668346792 -18.0537185115967 30.3977934327422 0 0
15.7083284740422 -10.9252257687818 -8.03265839099528 0 0
194.677250855304 -10.735140553639 9.38026136141158 0 0
29.9753490228198 -12.2404481415316 -13.0165147970762 0 0
-6.47654162358814 -9.23455897699064 -4.13519140302673 0 0
-2.28965690618082 -10.8804594430254 -7.27719207515074 0 0
25.4844763594742 -8.41028246317958 -22.9693896909781 0 0
196.398967779602 2.75442433771946 -1.4424336486587 0 0
147.805693309976 0.445447660054271 7.73588256935038 0 0
198.100023664972 18.7025553518894 30.8822295152652 0 0
167.711936339106 34.967348239209 1.8123194158901 0 0
-0.780137586268748 7.66534159072272 -20.6859021749393 0 0
-26.8213872269142 5.02549626222491 -6.6700853808594 0 0
192.217938359401 -16.1220491032587 -17.4625753829129 0 0
58.7712084137407 2.80083478203549 -0.791652531173169 0 0
27.5576403954556 -5.5897426128912 -0.416137558005338 0 0
59.9425813609317 4.80034108378652 -2.69601629089999 0 0
-84.6960538323124 -14.8613687887353 7.06136670662081 1 0
158.642872098976 -9.09812515758629 12.2004826402955 0 0
4.47651682439331 -9.77059109792456 -21.7880678850004 0 0
123.574078939941 12.0811327351181 0.533506176827399 0 0
120.229499688732 -12.8971993119161 2.32573891376698 0 0
203.331633874298 24.9336774374975 -0.764041446406715 0 0
139.813127869377 -19.4075373853834 3.34105592917987 0 0
-71.2853696401292 -1.56340061200233 5.47986585296214 0 0
167.570359345769 -36.1028783058769 12.0096120877307 0 0
-77.2346359323594 -10.4420200058299 8.22007252948429 0 0
-26.0252373381811 -14.7205567111122 -15.6415917146089 0 0
-20.4146285225657 -14.3435033668596 -16.1083158580632 0 0
204.46560438188 26.4778663406005 18.303604347551 0 0
151.41425356106 8.15284604969543 9.0925432722657 0 0
180.8879584192 20.3611623654148 -17.3900030288466 0 0
11.4069486292996 10.5070105377963 -17.0137418996142 0 0
87.2587545956867 -9.32336914115777 -21.8418338886225 0 0
-29.7858571564033 -14.9543747549874 -14.5988843917312 0 0
173.451016227237 -35.3441960954243 1.72447587815009 0 0
-28.2186240448038 -12.9569378621811 -19.2614133024169 0 0
159.135490869736 26.7687504085154 -8.00866676413977 0 0
203.419450406771 11.3341380350122 8.24240407083132 0 0
159.696111741948 -25.8427098448509 -9.45439052756424 0 0
190.785019688827 -0.676065153424044 8.66704270065894 0 0
166.244182927935 -35.2228267039906 5.80334541994923 0 0
193.522298479422 -36.0012110210728 16.8340439845141 0 0
193.590892605974 -25.2665071397311 25.5050182977031 0 0
186.383495088353 13.6232751975255 33.7169193554623 0 0
94.5763035745298 11.1187903350922 -21.2908474341324 0 0
132.166647161907 -1.6748318973401 5.11785990765227 0 0
151.877241969003 -4.92195943784437 9.26458171767342 0 0
19.2232072382199 -12.038771655325 -17.7383570792506 0 0
35.7119163021239 -8.9295946527352 -22.4733426749177 0 0
29.4416736087569 -1.25759379018152 2.69232503806345 0 0
199.240458473269 24.5071664961611 -5.80806594297662 0 0
169.82878525509 17.2738446345648 25.1644796273708 0 0
194.259486076846 -33.8079586994501 7.58794634151043 0 0
-13.6862244989717 -0.882424342682513 3.09558562495592 0 0
157.86266323979 -13.8473404810714 14.1604667559926 0 0
203.505824104457 28.4305861109594 20.3123661402949 0 0
151.835435697462 -25.8453138439754 3.00580047673858 0 0
-43.1007538732789 -12.4861649637815 -3.97840011795458 0 0
-30.4503015276402 7.9263550318444 -13.5794230813666 0 0
-80.5528431731649 0.085247094819943 4.66089549821019 0 0
44.1076022757715 -4.32433943410022 1.40881354113228 0 0
205.754966726876 23.0930649107159 8.50591095627683 0 0
72.3937548361993 -4.8482237295272 -25.1012688979437 0 0
-41.7498537630489 -5.54900082169495 -21.3245402493082 0 0
-32.7722131296081 -4.4504919304495 -22.0988642359043 0 0
-58.3391513957636 -0.066405247250864 3.14147883553789 0 0
21.8803013736966 4.85373529096429 -23.4256839620873 0 0
180.605639155728 -5.9455772139066 14.9235789389532 0 0
37.727537903652 -12.1433459406728 -12.2262269009509 0 0
132.136540697608 19.8893210478992 -11.1618881623362 0 0
-31.0028750492123 -5.75942735100931 -22.0870082315349 0 0
174.738274399911 30.0215608686896 -8.56221921982933 0 0
150.868455088681 -19.558276617672 -15.2793597625329 0 0
110.280173681949 16.6677312530339 -15.7745384514022 0 0
168.87187664894 4.36574199815713 -19.628235170136 0 0
169.371220750272 -21.8694448613166 -20.6448491244484 0 0
150.821578523439 16.3893982451964 10.7763516726634 0 0
173.068936247129 28.8835166604747 -9.68632935834505 0 0
161.248280910585 -28.2603934641582 18.4618837490572 0 0
94.6298149257715 8.68145305456185 -22.8772120269374 0 0
184.293006463275 -31.4855557197883 -2.66057983665973 0 0
148.237860023154 5.53612333067497 -21.7773886077617 0 0
36.4877146968344 11.5687151242704 -13.5212914256049 0 0
0.153631900508443 -10.484310534864 -6.67977009480749 0 0
202.63274422517 24.133011273559 -3.19602967383289 0 0
154.729549129939 9.6936138735438 -20.2462209421439 0 0
1.51118926294835 -1.53216894465766 -24.1272667328705 0 0
-77.1147519243345 -16.680664393847 -5.6494784952709 0 0
47.9511904835922 -11.3894211401227 -18.2632681416329 0 0
181.188068383752 -35.4830873029751 2.95814118470088 0 0
184.183893281217 28.9456370389043 -7.27027684607284 0 0
192.161784871373 -11.9935479253461 17.7694350616335 0 0
194.806615343434 19.6587771683515 34.199940680602 0 0
171.795660935992 9.64413024079716 -20.5934491974584 0 0
-50.9144528115799 5.71742643048759 -16.763229989529 0 0
-47.7006138830019 -15.5828089802319 -14.0982584579672 0 0
167.683361716461 9.94289454391357 -20.0780770454865 0 0
18.3722352459683 -12.4240534294648 -15.8452908038552 0 0
78.2312075505382 11.2497675476863 -6.91093082213202 0 0
151.405108279033 -21.7271979899648 -11.3604781644877 0 0
12.5924841689489 1.37124601159905 0.237158343018901 0 0
-73.6407983580734 -15.4168084168396 0.272293149170052 0 0
174.906487104353 28.1015682343639 -10.6561580670013 0 0
23.5427372051002 9.67736621484566 -20.0822568622682 0 0
194.676904816083 -11.5861759094549 -7.50233290509887 0 0
180.470502299569 12.9282727281733 28.2087187478903 0 0
177.47276311311 38.0308773549331 3.3241495276475 0 0
-75.8708502223348 -5.13112991334806 8.19484317897232 0 0
90.1437335981057 -10.060514600612 -1.52589388635027 0 0
55.9890886806896 -2.83053907247043 -25.5044314468889 0 0
185.156622793242 27.7859199021934 -8.2909079513333 0 0
99.8217389350525 -7.30925792312383 1.84178341136459 0 0
195.161796591954 18.9896087525107 -12.8225828339554 0 0
0.953314049482338 7.93431107221846 -20.5577061467964 0 0
13.1583639976029 5.24439570090278 -6.29938598824775 0 0
176.159855310024 4.70711621326081 15.8553520108599 0 0
-26.0114824994468 -13.1412232238614 -8.40861681473695 0 0
162.250974945257 -3.64073229439732 12.6463806264841 0 0
163.971840779922 -33.8918745941232 14.4367754715682 0 0
191.981819191445 -18.5394175907741 -17.8355030763374 0 0
155.146656378236 -24.5267049609003 -7.63845231003736 0 0
160.679184985397 0.164918231230778 10.7740549364674 0 0
178.405482801544 13.2138299928668 28.5169747091162 0 0
48.2997365239172 -4.56369966876418 1.16556712233943 0 0
169.722430274643 22.1834330727747 27.3933776533959 0 0
171.04541455181 12.741430183158 -20.4994059146625 0 0
182.621973000217 -36.2362037547571 27.6674009435103 0 0
170.114330693161 10.1858293114769 17.3654517086692 0 0
130.206268964836 5.27623353787679 -23.6049651727457 0 0
163.316027259292 29.7405562352591 -5.2600963616224 0 0
184.151810430846 11.6887551752363 30.7585004042 0 0
-68.3343442727995 -15.8033002676877 -4.34331819918097 0 0
160.094421883541 -23.540571072734 -14.3173089661533 0 0
188.245836686493 36.8548542286685 22.6847267735448 0 0
75.2783604306937 -3.44103860596445 1.91564957336296 0 0
-2.87572207995914 9.48920990158441 -14.0814509509645 0 0
125.40500676862 -3.69498949315827 4.33554863724168 0 0
-19.0501321678793 4.80861481401153 -6.39862048868633 0 0
61.2079257737486 11.6327781887615 -19.8360420262083 0 0
-49.7812972059379 3.92794616394422 -4.16788506743894 0 0
5.66653815526536 6.09498674808087 -22.2694353575116 0 0
139.775880891884 -2.59931873589885 6.33405956355782 0 0
145.189616912811 -20.6372981274897 -8.97364284674534 0 0
172.883462618048 14.7146690420352 28.9095242376053 0 0
172.578458131161 3.17934213452986 15.8811524976957 0 0
122.079269887884 9.00367464892288 -22.8512340819638 0 0
175.648516129357 -37.3861923074005 6.47797262274899 0 0
149.06695573638 -20.9516986763401 7.99300657773327 0 0
204.695372348559 18.5902389452361 1.427687780406 0 0
157.364755631146 -28.0178288278183 0.461592963549719 0 0
45.6685909600117 0.017561907175682 -25.2909697428953 0 0
192.561590254926 -8.74352481726966 -10.51277228053 0 0
173.57200330913 39.2385095179999 10.7518756585384 0 0
176.557254930326 -32.4463949090982 30.7947228064035 0 0
-6.30210740607626 -13.4794504701726 -16.1990596183543 0 0
141.634643920509 -17.1961523288919 6.02811276989081 0 0
182.566280404562 -12.0972281875304 22.9508868230693 0 0
120.974025183053 -5.23551444303698 -25.2186007553909 0 0
100.258643062199 5.97933736117079 -24.2781984984841 0 0
115.141235905604 1.47490231267962 -25.3028942456543 0 0
-0.348343442397953 9.86295253019888 -15.6658600546601 0 0
33.1203130210444 3.76715685330131 -24.1304220234434 0 0
150.526172222294 -20.500627313223 -13.3699560161578 0 0
203.467433311689 29.1864710103163 8.9637576795407 0 0
179.522935746785 23.7107929066228 37.3244709474577 0 0
164.436230862443 -30.7139202936308 -1.85856028768194 0 0
169.814777481487 -19.9700845516647 -23.5039520261255 0 0
139.52505401326 21.5598659069288 -6.3675962530675 0 0
189.514615780149 34.2362842059054 2.13444542686614 0 0
196.697070591513 -20.6863232616256 -7.29979112827665 0 0
161.934966654517 -32.2913705200195 14.209953750995 0 0
174.789679841163 25.0613229333334 34.818299873774 0 0
2.66986796445554 8.35265659340139 -10.8068963823466 0 0
178.789300306116 -37.2315816136916 7.78572142609651 0 0
132.010088636578 -14.8864771625391 -17.6036976013723 0 0
93.2270957011436 -2.41613543635961 -25.678612683032 0 0
3.13790565547808 -2.50616938069685 -24.2384465993484 0 0
137.702427994913 -16.9770652134675 4.49206647745004 0 0
-0.712417804839863 9.10088924091709 -12.6835008183258 0 0
74.6148488604265 -11.1554014659817 -5.22349735451545 0 0
190.499673685165 11.1766226364753 21.0798807750573 0 0
139.357483645086 13.5451354599282 5.40433422690733 0 0
197.977894282418 -21.0917353276971 12.2848653562187 0 0
175.755369397696 -7.81844117049487 18.9271404830852 0 0
172.49118869487 -25.7466131981094 32.2487006614648 0 0
182.136397360339 -5.22436823082607 13.6996105119781 0 0
45.1226614412727 -8.70608910910394 -4.40267939491428 0 0
-46.8152879821537 -3.06065038509821 -20.9260320005735 0 0
-79.7115918059235 -16.2976454201045 0.777994267347211 0 0
13.4643392741282 -5.03916343347747 0.147130782959346 0 0
174.363508777813 -27.7029100062505 32.5756699597999 0 0
152.807873012 16.721525152393 9.89214569896478 0 0
168.862370217627 -3.13204565790822 -22.2579637855979 0 0
189.334647750823 4.65323892641061 11.3017023203945 0 0
187.719629443875 -36.151744722058 18.8472493370061 0 0
180.032023142682 -35.4909989177965 22.8926785219487 0 0
91.0989926521664 3.46611105174431 -25.0731969490124 0 0
198.358080237783 -18.1124855689118 2.55818337984531 0 0
56.3242038365131 -5.46353692824126 -24.7307500618532 0 0
200.103041822723 12.2264415638818 20.8603671944336 0 0
143.82745202944 11.8473850310313 7.10528661883004 0 0
187.523156509788 9.20589366322378 16.8839102990255 0 0
182.945257943361 -36.2978997916709 7.28330638362316 0 0
192.430720739564 32.2649591368405 31.3593169623586 0 0
178.758804372124 -17.0265751005031 31.9619240083719 0 0
100.663548574845 -14.371446495686 -6.82054644385545 0 0
185.119554293093 33.0054179200775 -2.57017630117483 0 0
150.424867279865 -22.1630997344626 -9.32435704356139 0 0
181.087651360813 18.6237517327395 -18.5399493556944 0 0
180.55089040707 39.3778638200129 17.7056043031733 0 0
193.751820012225 -18.7880314203545 -14.815035613948 0 0
153.034782301853 23.8887665808398 7.72112515601694 0 0
-22.7589635760652 8.17798670906093 -13.0030157358948 0 0
152.775055788648 8.37589531763835 -20.6763429056885 0 0
196.911210796009 -31.0431791998449 8.77475446194109 0 0
87.1666967608488 7.05434095639395 -1.45914136113913 0 0
154.233389211655 -21.5800704187255 12.082013469669 0 0
-61.6974765843469 -11.5745017591621 4.00226226410946 0 0
-19.4928630046218 -11.5472340791784 -6.4827456575582 0 0
133.803442529902 19.1054781021184 -13.9103408669847 0 0
132.854024133565 8.90294666123247 4.18444473457074 0 0
-32.9443752982977 0.403606238671934 1.03898756418357 0 0
-6.38401363724914 9.44234911185282 -14.8648354101627 0 0
98.451009554795 -12.1962431296974 -2.31910036896134 0 0
166.250443924029 -6.45261405438227 15.4222902109286 0 0
176.301765440314 34.2575207927533 -3.22928944375338 0 0
52.586760830832 12.005840231662 -18.7761539769234 0 0
137.585076721794 12.8194109774736 4.82400917517613 0 0
71.7706176833404 -7.2053378319094 -1.07054391662463 0 0
153.629277072586 -1.5073511510481 -22.5447089601538 0 0
-23.9421123528008 1.57769222070882 -1.47430268253426 0 0
199.330047738848 14.7240564095152 26.2298256321846 0 0
152.361427213635 -22.8690126341666 9.22176060475247 0 0
157.277194182166 -15.2866462327432 -22.8937076697536 0 0
177.836010253423 12.4299282287675 23.3196803419594 0 0
-6.35611223615014 8.76380623553406 -12.4359285357382 0 0
191.696057017583 -11.7928677351529 -15.3366104738505 0 0
-56.4291570092071 2.12287672267539 -18.9283220705384 0 0
158.315061377068 15.3147287706897 -18.4090963394453 0 0
92.6371270851123 3.72406682765 0.680766201290769 0 0
16.7518987453054 1.06136436450847 1.26522093296358 0 0
197.121620255094 10.9301977793448 21.1898685101453 0 0
158.726364878444 -6.60200878833637 11.7392519737612 0 0
161.707927762255 -25.1941025338991 22.8481802410518 0 0
74.0574037140346 -3.18745006211424 -25.5382787670064 0 0
160.039017577968 23.2571403975658 11.9520144634994 0 0
133.847318165165 1.63302943899361 5.16339489552501 0 0
174.473346071829 -32.8088189103164 27.2526870665597 0 0
-44.8804674727718 7.23214009019632 -13.569614855339 0 0
153.389415011834 -17.7364989083634 12.5070973028259 0 0
117.530810027478 -9.56723831255667 -22.9977505574655 0 0
87.7139006551565 0.617976428526971 -25.6515046334687 0 0
145.343238063714 17.560919350455 7.86412584433956 0 0
187.567792490881 34.126276704779 0.201767348259589 0 0
23.8968164704036 2.14986666480162 -0.78434417122987 0 0
-71.7953751313166 -16.1607698151724 -9.87093506804841 0 0
82.2886619749817 -8.29952316522184 -0.932760859724422 0 0
147.971493741623 14.3470104124297 9.94819714388952 0 0
-77.6379040102868 -4.97633557300343 8.23661130164029 0 0
-43.7262432103619 3.9483618389508 -4.49172649080334 0 0
-78.7221517558422 -1.25317686112485 5.91181842186809 0 0
188.347371099766 29.101911851624 37.0690964712837 0 0
49.4819063182918 -12.309069309632 -12.440087324548 0 0
189.577334968716 18.4429630089505 -16.1757600762178 0 0
179.314369976133 -7.32418409580498 -23.6195138752608 0 0
183.745873710688 30.561550878421 -5.95214572153163 0 0
159.570243338389 -30.1419236431162 12.0123339913839 0 0
83.4467905226198 10.676866079932 -5.45865361679279 0 0
11.9114224160212 -5.97417014407066 0.12166406760063 0 0
101.461099449332 8.48871558208959 -0.886872846182499 0 0
39.7702628131365 9.08968870606534 -21.3683991024937 0 0
29.9881705140028 8.69512863632999 -9.3908176421171 0 0
20.7395632959482 10.3963842135832 -12.9211741210115 0 0
-31.2314143333081 -0.496736417459827 -22.1367986003484 0 0
-64.9642675229362 6.12851859741633 -11.2067999231865 0 0
-20.4910774988089 -0.587797417726367 -22.8977513536682 0 0
76.6556429834661 3.62834180889272 -0.418289572461991 0 0
-62.8485499380639 6.26226236602438 -11.6441139442503 0 0
153.918830820861 7.65978967451598 8.1108221921585 0 0
169.132727437553 13.3094806355927 16.8295202624468 0 0
99.1154987177584 -11.8796730493801 -18.4052000710311 0 0
205.550330191338 20.9588086071832 14.8396897482988 0 0
176.680551489025 -35.4944998564491 1.71076762336671 0 0
-24.5733176134477 -5.18639433906919 -22.5870072931842 0 0
204.740682006619 15.0328417105236 11.4302720291202 0 0
152.283856713689 -0.234661295086037 8.86967684028094 0 0
-48.1055410563905 -9.62722698702353 2.36731172890046 0 0
184.790012595366 -9.07040721920178 15.7467978993524 0 0
121.120761513909 1.68077016152884 3.74970332057978 0 0
16.0724238784008 -11.8761031356543 -10.5069908620635 0 0
149.58445797996 20.1383000302192 8.57950149692337 0 0
-25.4928841171123 -10.7333057996342 -4.27350297607673 0 0
27.2990596698263 9.43027918922132 -20.6102163015061 0 0
165.301096422458 23.5262169035461 -14.5312373965508 0 0
15.4253214363495 -7.53517898931592 -23.4824613263339 0 0
-19.1105735476293 8.56218932121816 -16.9505536003517 0 0
137.38985219764 -8.86100547954285 -23.8968200672967 0 0
143.073460902174 -20.9369028674134 -5.17246827488628 0 0
105.877536847662 -6.89048237282425 -24.3360625467323 0 0
149.129257631226 -13.376001265233 -21.7698484164969 0 0
153.080612000712 -20.3444753070568 -15.3343339084758 0 0
70.560331195958 -5.67183954774604 0.463216650423486 0 0
179.440121434537 4.79863555595744 14.9039973114349 0 0
-56.3873841110098 -13.0683406405871 -17.3279166877679 0 0
75.3787013633434 -9.52910163094524 -21.5267087782926 0 0
-84.8577852132912 -16.1248126455319 4.93760278648084 1 0
87.5426301970826 15.1221930562599 -11.6248301969472 0 0
12.887790729453 8.88052439869504 -20.3738277645117 0 0
169.922040344499 -32.938274629157 -1.39378478048604 0 0
-25.9646064089426 -3.09287337689469 -22.6162183855641 0 0
87.9334792928987 -1.92470673800945 -25.7164368580228 0 0
128.589185736595 -14.3726283101745 -17.9514740415194 0 0
79.0774216093568 6.2935234190289 -1.8852934746453 0 0
159.606420484699 1.24729894186198 -21.1653715073274 0 0
45.6753674240808 12.4227244246129 -16.6151363801396 0 0
178.036687465874 -37.3401817081051 9.64414432237915 0 0
-82.3688185897964 -13.7000065047959 -13.8598578166019 1 0
36.6891833576021 8.20498101654118 -8.33818308155471 0 0
179.153960902606 16.2155366823172 34.7576706214718 0 0
172.410802168354 19.3448487923039 31.5284483388372 0 0
178.512463433951 -37.3622092031281 11.9194016961298 0 0
169.709780245705 -29.6955673282443 -6.97954253233372 0 0
-80.0126471582538 -14.8130385133049 -12.8034285390187 0 0
185.944179349312 22.7014065196684 38.0140845044897 0 0
139.458280209202 -20.2196024371558 1.37545507972048 0 0
-59.290963444771 -14.6608394888831 -4.0520918384611 0 0
174.603732587191 10.1933789355492 18.3040348927426 0 0
155.759159703085 19.1983377619804 11.0572739083807 0 0
166.431952615381 2.10727514159741 14.7414234430023 0 0
-66.2896507841808 -15.3299852687635 -13.7111748100409 0 0
-61.6917357775508 1.79584758101559 0.48355856127933 0 0
98.0634966011578 2.81373615378143 1.42508322762835 0 0
189.998959597912 9.91939414407834 17.6353721293215 0 0
162.003066515009 -11.4776871962146 -25.6652452115961 0 0
-79.2685693378835 2.51293721180478 1.09684609875346 0 0
194.232956505193 24.318840991862 -8.21178726354515 0 0
157.697554006316 27.6962677107254 -3.74333016045359 0 0
116.668390321866 -15.902019276271 -3.91444636114983 0 0
-28.3830261393835 7.69220415862219 -12.2002782725779 0 0
188.118307834026 -0.973954455847808 -14.0420541278356 0 0
80.3545832516685 -12.0111668946749 -16.5383951654458 0 0
31.5100402566613 5.56896547722149 -23.3208113381797 0 0
158.352507862449 -6.25239022978241 -24.0262028744696 0 0
173.104874061084 -20.4248864738971 32.2603153131497 0 0
186.052204013364 -18.0715343055639 30.6801467255927 0 0
190.452879553507 37.2771677531933 19.5705409667041 0 0
154.17994935634 -9.86280329556876 10.9474401053236 0 0
93.5983825434151 14.9863172059486 -16.8421009050134 0 0
131.936397245354 10.0129940483377 -21.9526878566594 0 0
204.809426038521 21.0996324338394 1.21422262397257 0 0
-44.3353724186983 6.28721756308018 -8.971658290578 0 0
-13.8941306125824 -2.90912202823459 3.62562021884601 0 0
175.063629656593 22.4450499252545 34.70777044442 0 0
100.540246038693 15.6633737026598 -16.3677103683309 0 0
-48.5453694414352 -1.26231048294291 4.20245059141988 0 0
174.292357148813 -33.5535351425271 -1.5669462356998 0 0
181.747822802195 -2.92952262753759 12.7095814237002 0 0
-32.5548940623991 -15.1576733245451 -13.9224253300046 0 0
145.991735537383 -19.6034575628548 -12.4194488590429 0 0
169.17350975355 -20.4304564016626 30.808050500951 0 0
77.1356223910866 13.9722657867046 -11.2780579401306 0 0
167.663255564464 -13.429350289571 -27.6137342802256 0 0
-75.8907910560551 -9.11805194254981 8.37386128649294 0 0
166.296535330313 -10.4587713722557 19.5627089729417 0 0
-42.3941809211762 -15.2032216154984 -9.643522176799 0 0
26.1829662567263 -2.00707725889285 2.91774480534521 0 0
161.241240264376 30.602563055306 -0.4521163063342 0 0
156.16421658326 27.467336758857 6.66421773497425 0 0
159.211851745276 -21.560589436456 -17.1532577898954 0 0
-38.3476300005534 0.903200206742373 0.203410293628336 0 0
185.801836748039 -33.1345527349603 1.70105749982618 0 0
-16.9898490449906 -4.22611449842189 3.68608721191791 0 0
-34.6630832794255 7.17243236041366 -17.2267437142967 0 0
9.81618030992513 10.4581583140072 -15.8060786733922 0 0
193.501210318445 -29.5514625059875 0.89181134112604 0 0
-39.7717853395223 -4.42407171364428 -21.5641246794829 0 0
135.485270789442 4.4657931486624 5.01542304881272 0 0
164.477448772516 -12.3289001908893 24.3708340594941 0 0
-21.158499845703 -14.4161985735281 -14.4499328366331 0 0
145.054365989044 13.50439169649 -19.286217194857 0 0
176.219060411258 -0.371047499445858 14.9419113244193 0 0
15.1265074135017 10.8201681871654 -16.2109750650232 0 0
-8.96665757575923 1.15580247050616 -23.3805258195579 0 0
54.4474747926811 -11.9092128637056 -16.1392090496655 0 0
-44.5560800874637 -6.54456796381809 5.00265189415961 0 0
192.547238432581 24.6262866837459 36.3683385020549 0 0
199.545083588685 24.8938877686512 30.1035354682355 0 0
199.037190693207 20.7380275798581 -9.6733483658742 0 0
168.023836157164 -27.3683559097468 30.2831559354834 0 0
184.312623569681 -11.2457104788845 22.2187356429097 0 0
-48.562908330767 -14.3271023766011 -6.27939500835007 0 0
177.603831521931 8.36061333953673 -21.2648782262704 0 0
170.713878254414 8.14061363804009 -20.3940415976209 0 0
-60.1857617494054 6.18143115300136 -13.4797247405835 0 0
174.654994600446 -22.0940266181198 32.7742589712768 0 0
103.671132728842 14.948136783421 -17.9703315104074 0 0
112.407964072726 0.48569435397447 3.02605118998996 0 0
191.18137002314 3.81578076186342 10.3618969402111 0 0
167.850441480733 -18.5737136183255 -24.5386127055796 0 0
181.199174110779 -16.0361025652964 -27.4606714057437 0 0
179.77768418396 -37.0207344135061 15.0731617542424 0 0
151.192468936791 -23.5649937187008 -5.59390607499381 0 0
177.459854048732 18.0701137564914 34.8358815424142 0 0
193.772139260566 -25.0275422789037 -7.54122013446818 0 0
148.50880502231 -5.7317758781295 8.33968379340049 0 0
166.499439399957 -10.6243807127146 20.9287104264248 0 0
172.944084513894 11.8262000534352 -20.840622013141 0 0
-69.4202767612012 3.45474915321639 -1.70565169806962 0 0
5.56307477918538 -12.9231582665874 -13.6960029704979 0 0
-45.905146745446 -10.0488524220765 1.15850167559315 0 0
-13.7956497673147 5.27838576210734 -21.6588852048 0 0
192.052540316305 27.6254471845734 -4.9597749853715 0 0
35.3351261508653 2.2723132225251 -24.625403867671 0 0
54.2476592360268 -5.34722588799103 -0.00873994005386531 0 0
192.74485320569 -32.8606590835063 5.04531538583788 0 0
179.475841818802 39.5344124552392 14.5016905596314 0 0
190.356758626629 -20.1730857898213 -19.3661606986833 0 0
88.2513359428694 -12.9746895553459 -13.9100632621326 0 0
-70.0295380322935 -2.8493397202172 -18.4035729250357 0 0
-79.4480963438078 1.94881079346308 -15.4935661723696 0 0
188.718870638109 -9.60345179576674 18.0609591484566 0 0
191.000935442014 34.5709958663623 4.01843928777105 0 0
17.1440834916221 -6.74196495792664 -23.8734272442315 0 0
171.042765251338 -26.6975454401844 31.7635967430131 0 0
182.170408915516 4.67423595935465 12.9549924193453 0 0
162.805934817593 -14.3641537049536 21.637584136084 0 0
67.8250650998405 -11.3717827334905 -17.9707029728102 0 0
164.91718929215 26.5908954772061 15.9318416629515 0 0
-69.3476180246613 -10.7866264075228 -17.4373864287693 0 0
193.752575676508 23.2786707822447 35.6660483549301 0 0
-54.2477221261257 -5.26788886084901 6.15143708073943 0 0
