"x" "y" "z" "f" "a"
-169.999770869094 -9.07745549701312 -24.8083959459531 0 0
-213.21524580141 -57.7114008950944 -4.99368786232467 0 0
-119.70552459614 8.08896223123034 -12.2800813241615 0 0
-154.543856754616 -4.65722246422472 2.03026618367912 0 0
-201.564458094642 -50.7749786209857 10.9934361507548 0 0
-200.254555970285 -22.6985492668463 -7.53457291525763 0 0
-220.82491095838 -56.6107589590736 5.9896558808491 0 0
-111.004472163771 5.5196585895832 -10.2653864690638 0 0
57.4955275008891 22.0523347677686 12.7204252104599 0 0
-219.580867512122 -47.1800534862532 -16.6052042086033 0 0
-197.981260064764 -23.0206143372173 10.9191027805684 0 0
-231.70555641553 -19.8095618992129 -4.5124222517788 0 0
-215.924157126749 -7.82824555216077 -6.66115768797612 0 0
-223.999064902303 25.9985723302197 -19.0987165914822 0 0
60.7679655140183 -6.64119831164856 11.3813670558377 0 0
-190.011607220208 16.4515778755781 -27.6823045554366 0 0
-109.739054828878 -1.40761115954622 -2.223473383742 0 0
-160.608078334985 21.2629459707779 4.02870181618684 0 0
-139.942286692312 22.5781730121379 4.91740546748902 0 0
-218.110226792711 30.8786167641664 -12.3144300163901 0 0
-75.8515247307641 -1.50401322988066 1.1543789409457 0 0
-194.379730902595 -6.05163248004827 9.92286988014186 0 0
-172.059506705717 21.1183426485434 4.10242271927956 0 0
-201.394487940855 -30.4107799390133 -5.71795844769997 0 0
-103.967586383205 9.02819480474551 -10.6667786156846 0 0
142.731208429914 1.55991427397592 -8.24067096955801 1 0
-212.331414146217 30.7597213470742 -20.7693471252508 0 0
-143.929229956438 -0.736778110115315 7.34014795150423 0 0
112.283598788149 6.96932360696347 22.8676749990217 0 0
-6.74303728484773 -3.14135242278788 10.0578369551222 0 0
-191.50747834018 7.0565264753565 -28.7223583694982 0 0
69.1804257312232 -5.82815591522407 7.35544513143875 0 0
-209.7494702777 19.1447081940524 8.81264588903425 0 0
104.676506500855 -3.17860932282102 -2.87858178865527 0 0
-177.698337838711 9.74864484399021 5.79555594815224 0 0
43.1090819310464 20.5885648476631 4.25276604408946 0 0
-160.725556310069 26.950999455725 -10.8635343653188 0 0
1.06110275482541 -0.95921819959409 17.2761725683774 0 0
15.4444728515982 10.3001193683629 -3.91046603396491 0 0
-55.7794643545287 13.4088051301004 -7.12471232082804 0 0
93.5715804822292 17.9843744071011 19.0431976224023 0 0
-181.24719659163 -6.45360655742462 8.22531919556142 0 0
-206.150965374028 -21.7949448172221 17.4980186591725 0 0
-142.676887991157 12.5270944372509 8.2183195601937 0 0
-2.39980222763634 23.4996778480345 6.31585728758983 0 0
-194.049191393871 -6.18840827057409 -13.7628235300947 0 0
-158.97468355147 28.2965434151725 -5.97326280549518 0 0
-226.985782062572 18.068225835557 -3.6664519887941 0 0
-223.36327700851 -15.0718410427404 16.9590422108478 0 0
139.679692430241 18.1811395078247 12.6226013320555 0 0
-99.8626625374592 4.83605316784929 -8.9027471572067 0 0
-196.38329690531 18.2644465422111 6.80042273441733 0 0
-145.293457233559 -2.58055217637999 5.80555422833459 0 0
-203.430052149846 -33.6915054736737 20.2598801615049 0 0
-217.467382954358 6.14307103937856 4.75440432580898 0 0
-72.2519820770535 -0.325490219968641 -0.976170337565329 0 0
103.359569395966 -8.46932094126272 4.32835195649858 0 0
-64.5384096146246 26.6791468398579 5.90980740605462 0 0
-210.167365398608 -7.52104896148309 -10.4023664340739 0 0
139.097438499416 -12.9877349298849 14.2074000001455 0 0
-115.087533016335 -2.16592894935939 -0.14322278174152 0 0
-45.8175679168271 16.3120957850641 19.6990528110325 0 0
-231.223823543189 -48.3492410657392 21.8234966407351 0 0
18.1095428622237 9.14810966951066 -4.79653863439239 0 0
-172.037647500252 -6.42567198378548 6.17028253473289 0 0
-36.3457062723286 0.0779486650825546 -0.358433634379436 0 0
-208.55040672176 12.5056160486035 -17.8148680694648 0 0
-208.462944781164 -11.9348074790728 15.7220742281628 0 0
-166.753060874685 4.43685526669873 -22.0245720734628 0 0
-206.983424817983 22.7389791493379 -27.0161088197099 0 0
-227.540814754404 -51.6443421521119 -12.0721981712251 0 0
-195.646829552948 -27.9450409595609 3.70869638314876 0 0
64.8935975621285 -2.82226056788271 19.1906874308605 0 0
-219.335366050629 -10.1595082525789 -4.54021023634336 0 0
-8.69241614389326 6.51016789277896 20.7816487310882 0 0
118.065257996455 19.1432210762788 9.29431481390545 0 0
112.274700776238 14.7234179342578 20.5103220735148 0 0
-153.737609711599 23.3654539635434 -14.7657205890095 0 0
-158.964888315524 -4.74703458120257 5.44946731407 0 0
-224.501237227826 -18.3055998606039 -5.71415545951584 0 0
-224.359803662978 -9.97830213833382 5.92168940937856 0 0
-177.971485624677 -16.2156471861171 -5.38493316720838 0 0
-117.886163645178 -1.4984990314924 -3.50117507086326 0 0
118.92229982607 18.4543754716766 3.56653024820788 0 0
-129.179743603873 -1.93690299506124 4.0241100907375 0 0
-61.5164822604783 15.8853864383882 -6.45211745599818 0 0
90.0827115058282 7.17932872265163 22.8427043495096 0 0
-49.0871936709345 3.26792438738615 -5.05388818340835 0 0
117.187409655109 13.8900730423827 20.9074094457971 0 0
76.6077819995816 -4.30012057555944 3.22281109218443 0 0
-155.964145010464 -1.3331768360815 8.13180916346949 0 0
-98.0221496780353 9.37155752458476 -10.1460822332319 0 0
-71.9551025730566 21.3873413399057 -4.995588883557 0 0
67.3001717591426 -7.30473861452092 12.2374619962634 0 0
64.0029287178823 11.1872479910604 22.8968106821526 0 0
-203.936780752553 -54.4445947838118 6.42563040651919 0 0
-80.8179426597219 1.60142408772975 -4.70275309213366 0 0
33.3198559469396 2.03434826804678 -5.08367749735713 0 0
141.49415271904 -14.6734479888791 1.76935679152456 1 0
-220.468716490629 -57.494096881658 -7.37397756359151 0 0
-209.019038667584 -36.7268266036445 26.0750803633807 0 0
-215.754597862952 -5.69298898927774 -6.40057415998107 0 0
-231.54568382519 -40.2941192517165 25.2794093175137 0 0
70.7990125792405 -7.39090865914619 10.7364984732712 0 0
-195.121623810476 30.0358523928149 -21.9359257336741 0 0
-84.8310399208647 7.96872104736863 14.9038178426985 0 0
-206.305400488696 -32.3751999507729 -14.8023920889274 0 0
-106.439451817515 6.13805136198738 11.8868264338476 0 0
-219.993299858924 -15.2881668655033 17.7101346572412 0 0
7.74700885244781 23.5559183995696 15.9251967672908 0 0
70.1902816570026 0.227927392981454 20.4597850346747 0 0
135.701710493302 -8.92278447683521 16.9355673647437 0 0
64.5550537074735 3.73832022040354 21.7586337281607 0 0
120.486341260544 6.2444422519248 -7.93989799705792 0 0
-214.993367949385 -37.4853110010067 -18.6828109328685 0 0
45.0639367748666 -2.25500302439635 19.1771165543153 0 0
84.5131480098376 6.65307817387966 22.7619650900581 0 0
78.0936298323054 21.0769509062679 12.6936288836106 0 0
41.2176478914411 5.9677233174789 -6.36374741018538 0 0
54.7394629472174 17.8373060799094 1.10937734017648 0 0
-227.361451502112 16.5746627862442 -25.7294685611031 0 0
-222.226070102316 -23.1601376783018 -11.1510234110627 0 0
-217.208369182984 20.1885805121439 -28.0405070186631 0 0
19.4900955717634 -3.81587885070907 9.32855615399706 0 0
-226.996987695224 -21.0700284964083 -6.6510677152656 0 0
-112.703527721055 12.1809564343451 12.3914235125953 0 0
-63.1940119254253 26.2638576270258 2.71213914952868 0 0
-196.947516395844 -1.6372859274462 -15.9153225529755 0 0
96.7730691405088 7.07800215472837 -6.03308927137508 0 0
-154.111686751312 9.30093976468262 7.13758451252834 0 0
133.905816182694 17.7499019571408 1.81037571419843 0 0
-214.049570400099 -24.8478848011958 24.8753852087923 0 0
-187.214288859663 0.760678687629843 -25.7010963792677 0 0
10.4003897937725 1.05671174207979 -3.05497013795624 0 0
-237.055474405487 -40.5439446102687 -11.2896641334666 0 0
-198.39255548032 -32.0820763320162 3.98916881801727 0 0
-127.554743521357 27.9658009123928 -5.59737760616078 0 0
-108.927567772313 7.58058934306599 12.1497972073913 0 0
-177.050453209292 -5.57261303444074 -24.2875505287986 0 0
-0.0424557824357447 -0.942682247052944 3.91419806775349 0 0
82.7186336066398 20.1132311548843 6.35242567194992 0 0
-81.8469447847876 15.9883664988381 -9.27823240628114 0 0
-187.03201580123 1.32811442052375 8.25664742155963 0 0
-67.8178292449005 0.892065642822133 12.7657998337418 0 0
-31.5793315879311 1.23834316240421 -2.74079883487114 0 0
-124.168568777559 22.2849731949875 -12.4404489052641 0 0
-153.48751843138 27.9869106584715 -1.45254621777106 0 0
81.8221308496344 -3.67093846610039 18.744889558767 0 0
-193.348222829156 -2.2663534204102 9.14066350644274 0 0
-26.9389817492128 -1.69887375792102 4.615653389205 0 0
116.878952605899 -7.87674192259056 0.317438289998999 0 0
-53.7013094460678 0.461965124796605 -1.55370560338929 0 0
-25.5891993987526 -2.86642805785733 10.9276286567881 0 0
-215.832462642752 8.98772360303579 -26.1486829996916 0 0
-82.9834866753296 27.2089390847375 0.260538589174041 0 0
-193.600725307146 0.443772216179807 -19.5075979554041 0 0
-35.4073909302228 6.17361146480003 19.0757950295738 0 0
-210.24898601587 14.3191083626846 -17.0704930876885 0 0
90.2800163244535 19.8512616595854 6.62345983857101 0 0
-55.2189680980979 22.8714329423463 -0.832924586789951 0 0
-153.718389453119 25.1320904494145 2.43909713299027 0 0
-18.429214295026 -1.07847132107909 15.6365981339336 0 0
120.970883264085 18.8010857791598 12.6408265871139 0 0
-73.178796746863 23.0401049700481 13.2199518216186 0 0
-136.494935233111 16.5053799089704 -17.1450552336034 0 0
48.3114004537082 -6.00046409024437 14.2126961473088 0 0
-231.609829643827 -52.8732174742636 17.6091195184116 0 0
-199.363319849911 -21.6696443764373 12.1742367811758 0 0
122.688688230604 -4.7722456116983 -3.98645068943913 0 0
-123.098969668643 1.91407378972602 -9.80742053034585 0 0
-169.190621949595 -15.6690498667653 -10.1804290474184 0 0
19.4833484218825 23.9099837160758 13.7693185963103 0 0
-229.580425486263 -55.7297035068388 15.1960493246238 0 0
-63.9013544402335 0.254749888846764 12.5808451469108 0 0
-9.49654890348382 23.2312232921283 5.19657325892837 0 0
-139.396230196417 24.8538964378271 3.49826719942285 0 0
-157.351205926994 13.5104843041333 5.97286870929705 0 0
76.2679471463048 -3.8388666299116 18.6812253565538 0 0
1.15106205276509 -3.52242304389019 12.8598775479328 0 0
-235.383358422711 -52.3360798516657 -4.3036046561223 0 0
-234.466117414204 -19.6199853829109 -4.53168587083691 0 0
-144.040725048445 24.0171675600697 3.69014720349579 0 0
17.2119958048973 20.8517298771066 3.71175123286512 0 0
-235.357399217938 -54.7418830324394 1.19251843655258 0 0
-240.044913739686 -49.2084640551957 2.63811863682017 0 0
-170.195671174651 -18.6051614925808 -21.5479955573977 0 0
-204.835618629769 -0.77264052772348 -13.2554875586715 0 0
-240.098349210289 -49.2099515317151 6.5381343438174 0 0
-207.521735601879 -19.290699889166 16.8804332834275 0 0
82.4222274016226 17.7793339905067 19.7592872905977 0 0
-207.824479472699 35.4319461734887 -12.947983807381 0 0
-82.1931223356281 9.65838672581922 15.7919915070468 0 0
-201.335671707811 -11.5362161561348 12.6351007062965 0 0
86.3192246028934 14.5050020532631 21.8274411962708 0 0
39.4708220502389 -4.96162234588418 9.54980830664847 0 0
111.50089256811 -6.68365603452555 0.0840989789645465 0 0
-206.097845494932 -7.43800810407304 13.5444673516053 0 0
-230.017821940028 8.98770153972368 -25.7761921509469 0 0
-206.398334805656 -24.0498811607805 18.9065709665134 0 0
-19.3581425780641 8.31450304697172 -6.13531533836874 0 0
16.6438266796223 11.5826578822209 22.1571780659414 0 0
-212.814055579915 20.9547492264852 -28.2179582845376 0 0
-51.1184645678026 16.6739350510918 -4.42674910471766 0 0
-224.608112952324 11.9831716027127 -13.5132054515413 0 0
16.0224564118559 13.4954108008808 -1.71111111394444 0 0
97.8248362586752 18.4832538685778 2.51226612187342 0 0
-165.978313912152 27.1111917332754 -11.8458913472966 0 0
-227.998374254364 -29.2820262811221 -17.0821597730321 0 0
-220.762819146234 -25.5563536391092 26.1370375316452 0 0
-130.228353364036 27.6278828146555 -6.52693444860021 0 0
135.460914830619 18.4335913056096 5.77541773936909 0 0
-164.478651902484 24.1224504257394 2.79478338770681 0 0
-91.4294395932612 -1.426553430033 6.40826655902778 0 0
-187.819447488012 8.92426865901962 7.5920134940348 0 0
-124.211940825171 7.07531551414343 10.166143328869 0 0
-79.1142802459471 14.620468487331 16.937754067956 0 0
34.2100214151247 20.549038955588 4.02019503921675 0 0
-153.534585157458 -4.23658380768466 -16.0793052625056 0 0
47.4540100733774 3.34080915696734 -5.56025376285242 0 0
-104.761523255107 27.795327552003 -2.1982269791648 0 0
-228.714161241419 -12.9366317323854 9.44837108157418 0 0
-109.654017045052 21.2505156194739 10.2834733744048 0 0
-236.152770075826 -20.0445885443318 10.961475240099 0 0
20.9656694654801 7.5871619878219 22.1572564137873 0 0
-216.084208934797 -59.4385254446203 1.11373757682475 0 0
51.2578775908767 -5.68330672518533 10.0855147578001 0 0
17.6622488519005 2.63474339689616 20.5432041403802 0 0
-207.011928776457 -47.1480582315682 -12.5996397099764 0 0
-145.49318715182 5.89826373733697 8.09660920186994 0 0
74.3253547807533 16.2294984105199 -0.564883697918119 0 0
-173.032563714426 15.6572953770566 4.90213579014045 0 0
39.3269232731742 18.0443847436072 1.28503038436423 0 0
-206.58795175974 18.148287121906 -29.4652710745262 0 0
-212.408625947559 12.1690437760176 -12.9268698146092 0 0
-225.676132495728 -19.080363868926 20.8226623861653 0 0
-170.771075424946 16.9419551269623 4.6713701362416 0 0
94.0059331643462 -5.3624269588456 17.8927515031435 0 0
-132.502746403022 13.0384007572499 9.63981220692076 0 0
97.550781231536 -10.1551385417593 10.8479606530541 0 0
72.4653680648159 10.780122046323 -3.55240524546928 0 0
103.737643409351 19.5812744212934 7.23964421012874 0 0
-207.5116251667 15.4477864385498 -30.0376357996338 0 0
-138.058664219914 -2.50728268818369 4.03239315855143 0 0
-148.616643478913 11.3598185517705 -18.5687890837319 0 0
120.695296121435 -2.6630981766445 -4.76120118150607 0 0
77.1173886916002 16.9374355511016 -0.00965767160393178 0 0
-111.349326781037 3.09917315815151 -9.26272586297514 0 0
104.029898796469 -9.85822599894442 6.53358087741048 0 0
-174.6722022758 19.7783933952216 -22.7879799002204 0 0
90.024138037545 5.2437938408354 22.4241732365693 0 0
-210.87719778658 11.2008059311257 12.2156004936957 0 0
-212.51517727944 -38.9056543790011 -17.8616592405469 0 0
-229.602710974644 -58.5239945406076 0.654188060226538 0 0
-198.557514342822 -1.29126831146785 9.6078751998874 0 0
137.240150280439 10.5370026495256 22.1158357853617 0 0
-39.113860215277 0.967090939430068 -2.23882564322911 0 0
-199.158155131375 -44.2911785618546 -2.66390113239554 0 0
12.6256201299579 1.51112305906318 -3.86871381722303 0 0
-14.477316594895 -2.97124614290915 9.04537533564593 0 0
-211.251832725733 14.1765360638356 -18.9653111393285 0 0
56.6720720550328 1.18692387159544 -4.01404869276542 0 0
100.395184927243 -4.79185895526548 -0.0368492270284472 0 0
-210.740153939324 22.3007640990421 -27.4330844862585 0 0
-31.7585738179305 3.19705675468263 -5.03561545472899 0 0
-156.791162289195 28.3150354887493 -5.36292199515361 0 0
50.2079589731412 7.53899938743362 22.5134134008166 0 0
67.400797127615 -0.410280868112813 -1.94409121929483 0 0
120.480429316479 2.16186161735213 -6.65759172624442 0 0
82.0946176983397 -1.97877098466096 -0.580226067833996 0 0
95.704628991538 20.0371106827207 14.0212202698423 0 0
-157.382100420496 25.3942814552833 -12.8666808179818 0 0
-167.01858949729 -10.3719174499686 -3.38552057617911 0 0
-144.649318665933 16.8865246268301 6.92310525819521 0 0
-183.214722003703 1.21691757531111 -25.6367792870812 0 0
-77.1477028722247 13.6757699343949 -9.50759330384464 0 0
-115.879835522702 10.8827096958506 -12.9537142804664 0 0
42.8431357961129 19.5944481799654 19.3446655828599 0 0
-220.321913015716 -10.8885744102165 -3.59396413260774 0 0
-195.423395909839 22.1550151007373 -27.0890743015643 0 0
-225.802134419125 15.399791773104 -5.99345587619555 0 0
144.058723985823 -3.52937944780008 -7.09883394558536 1 0
-179.136277234364 -9.72859657545268 -21.0134514429093 0 0
-84.8018994293643 19.4553249419553 -8.33654955369773 0 0
10.9908077979829 2.1840402646612 -4.78142119263385 0 0
-159.090530237881 25.0262826935845 2.33853291106817 0 0
-7.84294078096907 19.58374779246 1.44874905557154 0 0
-207.474204533626 -39.9661799184945 -15.4299537166591 0 0
64.550459378023 14.9998729850718 -1.12269719982684 0 0
69.2560407266511 21.5350551385174 10.3741807120151 0 0
-175.836352989207 -7.51608394147971 6.56450196635537 0 0
-193.78066199731 4.8978221491359 -28.3120111443456 0 0
30.8913420513047 19.1738300420863 20.1266554424062 0 0
-195.500216570244 -7.82721698611325 -12.7385386697118 0 0
-224.832314798951 13.1658063288234 -10.402722505473 0 0
-196.052446888348 -26.7442030231142 6.46552095231386 0 0
-46.1390654963557 -2.24165095136675 5.8254262359131 0 0
-97.8973985339891 22.1138099608765 11.1244954989658 0 0
-189.230238638121 -20.5502080150623 -5.48385483886941 0 0
-241.022889521648 -37.1890999287412 -6.29528592796845 0 0
-65.8755599535408 3.72379513902647 14.9158793557077 0 0
-209.943598142763 35.0600749539342 -11.8071219306117 0 0
-179.549891797917 -16.7841115066993 -4.76360282201629 0 0
-229.680588607132 -52.1086940536128 -10.4186115635346 0 0
-202.981692382811 -37.2573950351178 -12.1629584527793 0 0
-209.037672884001 24.6432328060793 -25.9862125190844 0 0
-204.753889687728 -33.0690550621677 -12.9189921592437 0 0
-187.870034800443 -17.8730439685774 5.45393040558738 0 0
-218.162395412911 3.6955316148804 2.70822598935477 0 0
-205.376155885918 -53.0910384526447 -5.48817842035902 0 0
9.64152944024743 24.3571520298903 10.4073926920233 0 0
-168.328028763641 28.4025028190987 -9.18105906346721 0 0
-170.603621223657 13.2997097660352 5.2122003751867 0 0
124.296858964818 18.8274539017345 7.61006498371075 0 0
-173.277076776881 -12.5430473166527 -24.5196906037001 0 0
-200.011568230731 -29.1681559398717 13.5119260757566 0 0
-176.394642696973 29.814100188917 -8.61113462422123 0 0
-183.786547379018 21.2154277078493 -24.1062646918199 0 0
18.3063765367058 -3.84630508598456 15.0424896763022 0 0
-42.3842607645299 19.6546834928556 -1.40550465433354 0 0
44.2260841234698 0.0240900657378059 -0.482894854206016 0 0
39.7410566752922 4.98110656429122 -6.32659436728239 0 0
-165.722034323124 15.5553870839718 4.92512437204686 0 0
48.0810453061553 10.4653631829218 -3.0659936194526 0 0
96.5743358090255 -6.85764602628562 3.38473511518834 0 0
-91.371502227912 15.0033270344441 -11.0598810412286 0 0
43.3801693878535 -1.66457301935897 19.4531433552289 0 0
97.5009929714548 4.26776606404653 22.2000761485346 0 0
-91.9569930620275 -2.03064055012241 4.66879148123243 0 0
-161.978688154574 17.2509182579062 -22.0156625719762 0 0
-98.2717796833167 26.2729936788928 6.65986939456474 0 0
-221.774432833076 -51.7721483825756 -13.5656824207502 0 0
-242.255616804063 -29.7497608153664 8.4330365487098 0 0
-235.259704890793 -18.2681593853703 3.9039614771531 0 0
-79.0719096629466 -2.11025607153082 4.3821673006499 0 0
-222.549841521991 -23.276720300697 24.6162241236506 0 0
-196.492198855264 2.46576283579223 -22.547745559861 0 0
98.8834852733621 16.9141136312523 19.7306448375709 0 0
-82.8490135199082 23.3648051555337 11.8254454270508 0 0
-40.1278069681179 11.3858817849589 -5.92819718331835 0 0
-5.45884579120263 19.7998854182942 1.77958950999521 0 0
50.9755282469187 9.46946750696184 -3.7400889626562 0 0
-175.223388478066 -1.14887079361687 8.79094510594838 0 0
144.442567793682 11.8608905463937 -9.15835257057764 1 0
-208.321114912923 -23.7563172068662 -12.6573863805453 0 0
-8.50975377860907 24.8726919174025 9.12449116770144 0 0
-80.2422384835112 -1.121048060588 8.42360896161376 0 0
-201.223903999256 -24.1259834946092 14.695822129122 0 0
-181.418028423813 19.5385563544827 4.88265462692978 0 0
-35.3761121727749 24.5982509098167 13.5925748701667 0 0
-70.8926268933589 2.51428894870282 13.629723180663 0 0
-95.1927905847268 12.8968653249003 -11.468126066997 0 0
11.430703829879 19.0851755371561 1.80650354106033 0 0
104.165864404167 12.0978792173861 -4.55665631779209 0 0
61.6391876648957 7.22253927738807 22.6333453964748 0 0
-24.8200474835151 23.2294894424964 3.58327348171189 0 0
-63.0304603726502 -1.60884335542983 2.38571691627758 0 0
-66.2225027457128 12.9118310402075 18.2789060940819 0 0
-161.436948032219 -15.1979522716094 -17.2874798695407 0 0
-169.894550288339 -6.73719111451896 -24.401763083601 0 0
-214.710629383119 7.06310520828689 -6.9020644563545 0 0
-81.2990190200369 6.73981551511352 14.7263738280033 0 0
105.376546230872 19.6811771119643 9.00899517750418 0 0
-55.1728198461331 13.7417700202553 19.4200656741364 0 0
15.5516264508519 4.52538279721913 -5.82896348994048 0 0
-94.6734389505174 15.5148954176886 -11.2547115750495 0 0
43.8333645922913 4.4506463619314 21.8068237802977 0 0
-43.4403830590668 25.410059237022 4.42558932815213 0 0
-207.495839115307 11.020122215423 -10.7933500260238 0 0
51.5757670842222 5.56289448711667 22.1568602664675 0 0
-220.506064041005 9.33600046140349 -29.6265855463523 0 0
141.456672941462 -8.20811037914315 17.5270172155165 1 0
-202.096086987956 -20.2227335096799 14.7699606984233 0 0
-194.696480818846 6.79263423455615 8.64838306076002 0 0
-205.639801520234 -9.10890819553039 -11.3829974647691 0 0
-130.056222737556 22.9799975937687 5.83113155581199 0 0
-229.027256617251 -46.668564802187 24.0678545846209 0 0
-180.777496463535 -8.66772772212731 7.31117891670137 0 0
137.358254990403 2.81496118991017 22.0651411471988 0 0
-217.769612640189 -37.0105832884354 -19.0789601340488 0 0
-206.723328535264 25.2832148434738 6.90029381027705 0 0
-201.872370669982 27.8672141480853 6.55532785038171 0 0
-103.172972468244 2.45538323741557 -7.88718893223544 0 0
-18.9886434517916 -2.85367546268436 8.67290127273235 0 0
14.7947097702875 19.3626311666076 20.132424783988 0 0
107.796223413034 10.1373052515958 22.6884745357929 0 0
-194.114966975098 29.9888396152108 5.42045361165126 0 0
-221.388794623124 -8.91460460022154 3.58181846107524 0 0
-39.9107022534337 14.7947258948698 20.3116365754095 0 0
-23.5376993000188 21.6145249776521 1.97093937929304 0 0
-222.903190259233 28.3592796744994 -5.15125507020745 0 0
-122.570919453832 23.4166432244131 6.69820499135107 0 0
81.7934654090793 -8.6835950561862 12.2368660578537 0 0
-195.559507868243 -22.3829575764006 -6.01017345195935 0 0
63.5160345952801 -0.945333386602745 0.818544408798142 0 0
-168.439431632114 -4.86006171520995 -23.6702894828774 0 0
-125.521073030199 1.91576757999108 -10.2103298166346 0 0
-201.077225400725 23.5431642960257 -26.5472974035044 0 0
58.3511438954006 18.8657146650904 19.4363802887676 0 0
-162.096882457854 -12.6836752437864 -12.7669877788764 0 0
-199.806755568206 -45.3624550333998 -5.44104775736585 0 0
-170.012128060474 21.0474338402983 -21.5614734177319 0 0
-224.269220493909 -23.9551793584443 -9.72074953768819 0 0
-95.9193568853035 -1.12593698007405 -1.2430367584718 0 0
78.8764016199503 6.68621033396761 -5.33700354903981 0 0
126.285165520859 18.4342218726044 13.1957966955841 0 0
-178.11312129589 22.3819761819703 -21.8087825104769 0 0
24.5478561185031 12.5703919668361 22.2402797885477 0 0
82.6525322866836 8.15218648603382 22.9474017631329 0 0
2.26211440020091 -2.45778149721149 7.58946836185859 0 0
91.3113189735222 -5.41264423522912 17.8314179852016 0 0
-68.7531855153912 2.39415016314091 13.8184722446157 0 0
-200.732132552363 -50.8239971121094 7.58773957027838 0 0
5.79823354699553 2.41468637391386 -5.05495272465642 0 0
-124.375604560819 -0.485407689925282 6.44364323846207 0 0
60.2014073701414 20.8379523428234 6.27868293633258 0 0
-178.175177664459 30.4161712177006 -7.43012037956372 0 0
8.81673360577981 1.83515306020386 -4.73962200113824 0 0
47.8640232502847 20.4908607085155 4.60434475276275 0 0
-191.245029894046 1.78443502015958 -24.9335665910469 0 0
-179.811981711299 0.424897278434737 8.63661842164308 0 0
-150.314934076584 7.62885238561449 7.68030218979374 0 0
142.946195319221 16.6945166583334 16.6792922189839 1 0
63.4173642189825 0.924448584673515 -3.8099091117261 0 0
-115.930991870645 1.43727477615776 -8.31154512448761 0 0
-236.903247687241 -45.1780483412737 19.1481245457342 0 0
-163.088737337596 26.3449176579201 -12.5037781058581 0 0
-8.54831492003778 21.3327965898717 3.06041411813615 0 0
23.0886365226754 23.6620739060034 9.60981534004596 0 0
49.3829020676959 -2.11844346214643 3.44607628006924 0 0
135.916286671067 12.8000958742191 21.0908932270828 0 0
114.170052491261 -7.65823842152979 0.687365053458021 0 0
-45.508115897202 1.70309304864149 15.784724411796 0 0
-175.302202609678 -11.6794087191106 0.234792915382422 0 0
-162.525042224815 -2.89479890099896 -20.7182956797676 0 0
-169.30826183528 15.2919451600865 5.02947753659531 0 0
22.522611798665 -4.30991061274022 13.9482328864007 0 0
-213.002348971564 24.0421615258315 3.70509222106014 0 0
-35.1873820721223 25.5820054283356 11.3929353746338 0 0
-225.305773266313 25.9317578064545 -2.63501269059951 0 0
-37.3756641978359 -1.66063969260278 4.04629780514049 0 0
94.2287691708483 -0.3529720192049 20.3018164987336 0 0
4.56243638494434 8.7651953295998 21.9677649666562 0 0
48.3838256862339 20.5001509480883 18.1755093606465 0 0
-153.364088595713 -6.49457357079095 -12.7788376339198 0 0
-218.618468614131 21.9853327167047 -26.5655966782975 0 0
-222.540291723312 13.6269818619194 -3.56275610716572 0 0
98.552837036987 19.831390799812 7.59386697789314 0 0
-66.7397646999668 1.25695868222775 -2.89723550510006 0 0
-185.559809215719 22.3200627405747 4.58854787537157 0 0
-135.415304600589 18.602996548889 7.56995294206863 0 0
-237.417270382893 -53.0221312545792 4.49355480382244 0 0
-180.496022130223 -13.4263331807884 3.36341791028311 0 0
-96.7801924991992 -1.51753665154525 5.7003103450187 0 0
-221.223198233361 -9.44168916733785 -1.39834966047479 0 0
-90.7700724553299 7.46433598485343 14.1097959286867 0 0
-180.247005814001 -15.7739725178221 -0.531777139129184 0 0
-53.2351274779635 -1.84219344074942 10.7604647116297 0 0
96.172570654566 1.76604706985716 21.2081242025636 0 0
-230.908539158096 12.585030654878 -19.5094614763556 0 0
126.874255345449 0.370632087989144 21.1078129030976 0 0
71.7297545942879 20.9398070183421 8.21557308978761 0 0
-214.16701517977 -55.1891527382061 -9.62251457359636 0 0
-201.475896269372 28.0551149883642 -23.8192560480889 0 0
-109.353124744257 3.40089378025384 -9.14176050030561 0 0
19.3054046168838 24.0651036678639 11.1836941084864 0 0
-150.278268144644 21.8826335782945 4.42679228241543 0 0
24.3041155996286 6.65880243737253 22.0766228667027 0 0
-202.264570820593 -46.4957248694212 -8.34867020281057 0 0
-216.659685900261 -55.003009632805 9.8271924795464 0 0
-242.824102251095 -31.4611851471916 6.57949185596632 0 0
-13.994522330066 -0.880577276650017 2.96591726135419 0 0
-208.207292771567 -42.6502992147516 -15.275228747397 0 0
-176.347041052103 21.1889131284295 -22.2177778044832 0 0
-98.8145117738602 -1.75357023739873 4.7770545551179 0 0
-223.659928926787 -31.883826102968 -18.8667514868637 0 0
-46.2845182155366 0.297899559276319 -1.02651267763973 0 0
-219.529330987581 12.1668316664715 3.87204957866256 0 0
-230.429034485748 -25.044644732577 -12.4445940209949 0 0
-226.052588774975 24.4445596400471 -1.36862246949118 0 0
-76.9223210360178 8.92394422554508 -8.64049169829104 0 0
-154.142125244248 -0.703736357381945 7.98315006807431 0 0
-228.602449040473 22.1418751692007 -7.82355683037121 0 0
34.713758872676 -0.662342795404423 1.81280522776867 0 0
-196.316422965779 38.2591387529481 -7.25280216987398 0 0
-84.4114335240801 24.5204726893058 -4.63502793003036 0 0
-119.066787304173 27.3946915043915 -6.22329546879023 0 0
119.194835500387 0.221759144336987 -5.87819825453283 0 0
115.311774848975 8.40182305609856 22.7928329228699 0 0
8.40722653880414 20.6668268361587 19.2523345339753 0 0
54.5740754536169 -1.32679195117106 1.96667486519051 0 0
-127.024998523139 15.3791495745875 9.99522802353623 0 0
-55.2560830637214 20.670041250808 -2.55925714238396 0 0
81.4602060210095 18.5570650067567 2.40273296728116 0 0
116.433088658237 16.3963593024685 18.9237651490647 0 0
129.823159567117 18.1268997504401 3.27024480809345 0 0
-153.48074647437 24.9732378767962 -12.835055446454 0 0
-190.919159108471 20.05893316094 -27.0441252392495 0 0
-193.638880296324 37.2037749019691 -7.19775820081446 0 0
19.3942260327093 -2.01685217328864 17.8966142346876 0 0
20.9678130235832 1.2844819005073 -2.51582843820859 0 0
-169.61876663376 -3.57087132598782 8.0247080501736 0 0
-13.004051813005 1.05956855761506 17.6961600759613 0 0
-56.1637707388779 -2.37150637044538 7.68504039665312 0 0
-233.702828071651 -55.9275731095288 8.58440787264038 0 0
67.8465547465306 17.237373817595 0.457519648076108 0 0
-129.342860231742 0.00109249535298176 -9.11204096402737 0 0
-223.872639703059 -57.7824760122141 13.7229605061975 0 0
75.2932193095804 1.5224417204419 20.9970332737335 0 0
-36.2952618038162 1.52376119361119 -3.15967146592539 0 0
51.922356295473 9.80758966612755 22.7359388173737 0 0
-122.208412794458 -0.738401768524374 -6.28077336484786 0 0
36.8315546707563 -5.38755195574213 13.2396540727712 0 0
-164.110683199047 -0.213744940529833 -21.213972937879 0 0
27.8659175855729 9.10403884190611 -4.45097040802256 0 0
133.270924818442 14.6680773149198 19.6802458069031 0 0
-2.63155319437677 7.6926760106624 -6.52996356367394 0 0
-201.906308532719 -14.9005192074792 -10.5405527980424 0 0
-200.13500419062 -25.4973303880784 -6.53986052161023 0 0
-241.519520968646 -46.6181857456345 3.28997800096855 0 0
-79.118495329143 9.09247441286397 -8.76850798383822 0 0
-112.152335382284 1.558556391801 -8.01816398317483 0 0
-134.000198606829 22.2076209264957 -13.5521857500807 0 0
-173.783794508948 -7.2922287517268 6.18286689167593 0 0
106.384142746461 -7.81749912862523 2.68468282854885 0 0
73.6313798289022 -0.151003307387327 -2.74992102378089 0 0
130.873076108963 9.65722075313544 -8.06221642123321 0 0
-27.5694528723299 25.2922105750532 12.4115598130261 0 0
-31.7796012032735 17.1723222148848 20.0355093025657 0 0
48.2517191921 0.0891390205444478 -1.84297322718648 0 0
-228.137173595452 -58.605867535375 9.71037536882455 0 0
145.348608016833 -0.538895177202096 -7.98815552955139 1 0
109.985821294867 14.4195709024996 -3.41974519536657 0 0
49.8972699230701 22.4010199106032 13.3443576702444 0 0
126.574317157319 -13.9041845275583 9.99836879373243 0 0
-197.768459024092 -8.37461863486609 11.1442853042142 0 0
-164.999621204406 26.5746201854967 1.32572575653741 0 0
-201.310397955326 4.02216176895275 -22.9700159340206 0 0
-224.293726239552 -10.7406534502786 11.9507414481496 0 0
-222.433484089249 -8.18582819798918 4.60881323717764 0 0
-89.5417149937161 1.53048145918668 -5.57629329129843 0 0
-217.596122522319 28.9670826623195 -19.6046975741469 0 0
125.967486905572 -7.80063913097873 -1.82188834172863 0 0
-180.273062010408 -4.6061797783936 8.4313297807801 0 0
-174.550695686028 -12.2626076385372 -1.22853816425786 0 0
-214.604606056635 -0.296467007731993 -6.32652631236503 0 0
-88.7795663597171 20.9112638486433 13.4255105320422 0 0
-225.85824406639 21.3637843880575 -21.7902246175652 0 0
18.0237393442844 6.81060015807169 21.9237096900337 0 0
-131.334270361361 -1.37182618198131 5.68698789793912 0 0
-146.901715097423 15.805947338017 -19.1046922030418 0 0
-166.907972749969 0.486521063318303 8.77586339201116 0 0
112.022769243956 17.5748703269273 0.567002710904488 0 0
-93.9299008155211 24.6069679547367 -6.20974494003606 0 0
-238.342375055618 -21.5407979646297 6.20431536351237 0 0
-53.3542942224051 13.6267514528485 -6.66685841369278 0 0
-82.5805141425166 -2.09086269643111 4.76545160082506 0 0
-23.7822640941964 23.7098665874474 15.5437169596206 0 0
80.9341973909665 15.7862236308297 21.3165021237851 0 0
-112.466843955001 27.993307551634 2.02120095555007 0 0
116.600008588912 18.2538225944974 2.48536239708738 0 0
-54.4029263198691 16.6976093117851 19.0862772619498 0 0
-184.504103164785 -18.9796547498329 -1.37324573234522 0 0
-155.189837942729 -3.19335834721963 7.30828052506392 0 0
-227.753482057918 17.8440322263791 -23.8837591905454 0 0
-79.2480573559441 9.41889456820769 16.0468779986642 0 0
-233.810446427447 -29.2937410441274 22.7560637413958 0 0
-221.514971041709 -7.77275105861029 3.69928412574887 0 0
-182.75583293662 15.5044251344206 5.28746245190717 0 0
-47.8416112802429 23.3540841253302 14.8164915719124 0 0
-86.9397525061608 15.1388060454381 -10.3008288048131 0 0
-195.194419882926 -23.6865551378926 7.46978169203434 0 0
3.98797615683684 19.0033996925648 20.1966654867746 0 0
-112.335251347896 -1.82153336921829 -1.59179492142052 0 0
37.3177546556704 12.8903340259811 -1.68573915779262 0 0
-165.730733631279 -3.46730811033458 8.42361972294926 0 0
123.276758598432 18.3570596512861 3.76651916579367 0 0
-70.2253273037833 -2.18890876632575 6.69872366577036 0 0
69.0880207447304 2.61642862072723 -5.06599026951656 0 0
-2.47714021025809 -0.861788976444226 17.0289198738768 0 0
-195.712090063717 33.1878381695534 -18.5601363984993 0 0
7.86768018437018 12.8787987541964 21.9425010786751 0 0
143.78841050054 16.5178541513011 -2.08254627231316 1 0
-101.583329360372 9.00431692275557 -10.3925933965729 0 0
-217.189841649592 4.05490205078915 -4.36948847066571 0 0
-81.7832015004385 3.5356322589193 -6.84956596356298 0 0
-19.3591730824264 25.2793828626844 8.37546546163438 0 0
-65.8195037501343 -2.24926643854304 5.49692268504201 0 0
23.8983991370203 -0.147100252445656 19.5789763391495 0 0
-197.470270121548 -26.0918631547046 8.97292551320055 0 0
-230.540194714513 -21.3529053870419 -5.54500796993882 0 0
36.5195871400784 13.4188362622806 22.2315279290043 0 0
-111.69197641211 15.4821756353293 12.2876977447547 0 0
-222.624361779985 -59.0094930991318 1.70663628334409 0 0
92.7331016453892 4.1669416273189 22.1167337220758 0 0
-15.7723809456797 15.5552411263079 21.0702260800385 0 0
53.9197683207502 -6.25192049448293 14.5393149924765 0 0
118.508499728323 -11.6611616551678 5.45849449026645 0 0
-183.628964046532 -17.3002023589395 1.85568250809929 0 0
-206.925193993522 -29.5401587834242 -13.7513484411323 0 0
-221.187548989204 25.5296807013203 2.40412449361996 0 0
-191.832612013731 35.2423421618099 -10.284454306563 0 0
-74.5599549776911 24.8259776556978 10.7956527011273 0 0
-137.526027634123 -3.82638669205756 -2.9824541816533 0 0
-62.2400444104907 0.559131974442963 -1.85165801141584 0 0
107.613328508776 1.00761295428401 20.9919085103672 0 0
-33.5408597710702 -2.27821190499084 6.45379297258064 0 0
35.2504373101838 -3.55333087733882 17.5317657371611 0 0
30.7586267975105 11.0149406313697 22.3785774443418 0 0
77.0148205979491 20.8015052100826 8.2500961290638 0 0
-147.347688930749 5.4667111429649 7.97980890345218 0 0
-51.9589518744667 18.0561328096223 -3.61359575181485 0 0
24.9639411086964 15.2743422282889 21.7795217225896 0 0
-185.725742007212 30.0501460468777 -16.0498196518577 0 0
-177.852126330511 -1.90661604922558 8.73707303194531 0 0
123.492074226579 -6.8850696670343 -2.18934591244704 0 0
25.4097961386001 9.10378228066376 -4.51804718315592 0 0
13.9782918072167 -0.667827981695678 3.18882257899531 0 0
-242.211203671198 -31.9909621375109 -2.23949593684813 0 0
-158.032259910938 17.0612526475484 5.19748806272913 0 0
-201.237436144068 -15.3561419321205 13.4634133316879 0 0
-113.208052172369 27.6346457256774 -4.62178288366975 0 0
97.183675509407 -8.12176925684269 16.1274930629019 0 0
-152.007663830803 -4.96534449900314 -14.2357025794996 0 0
-19.1041312808976 10.4266160468163 -4.94879301580297 0 0
-184.873702296812 -8.74104890773913 8.31062922632597 0 0
-226.917348207396 -20.551397670323 -5.11497200554922 0 0
-97.844910805546 4.58581930076656 11.95707457926 0 0
-227.116973066572 -41.7186758867551 26.872026072021 0 0
-130.883329256454 28.5501019816454 -3.3787940453366 0 0
-121.31566078841 -1.49649058505936 -4.64545442825221 0 0
-239.263934136003 -47.879606828668 12.9765839883891 0 0
-214.174402090718 -58.7523596255295 -2.54937822178516 0 0
-235.408111922082 -20.4552834164953 13.583339468519 0 0
61.4911012477058 -2.46349709226 2.81256477277942 0 0
-206.747166490181 10.1590548329156 -29.2532824249922 0 0
-62.2291730138703 16.247824124169 18.4754867081498 0 0
-164.341378972956 -15.5883869728365 -12.9257892808613 0 0
91.8491057307516 19.7180468408352 16.1196571274176 0 0
-228.840671078554 18.6995543326733 -19.0804263296781 0 0
-85.0785105284764 16.8981419167782 -9.35849009168491 0 0
109.40719451955 18.7651803821668 4.01478034660385 0 0
-203.205166403404 -33.1730047148813 -9.28120996457284 0 0
-68.4588422500185 -2.24477645506403 5.57102337134115 0 0
-212.711118343086 -10.261354674974 15.7643900668841 0 0
-120.154951343229 -0.0388062610490932 -6.82785911116007 0 0
123.183387587369 -13.3917711594898 10.4022272686616 0 0
-230.455265517865 -58.2228638641229 6.80882783365674 0 0
36.9632936326728 -0.0883690173598894 0.397764528291649 0 0
-122.35912727544 5.33802031230377 9.89624670223013 0 0
-90.4065507769901 -0.496714685826116 8.21946543476798 0 0
-219.161449624975 -0.978140956645771 -0.0750591123118697 0 0
73.1517084409736 13.9978210898077 22.2306308243129 0 0
-37.6661250551747 17.0275938904833 19.8734398620464 0 0
-93.3791307622891 1.95638699429829 -6.48645061662241 0 0
-199.926423367924 36.4097598974237 -0.0647140400132449 0 0
-221.545513318876 6.60850984536544 -24.9259762281624 0 0
98.437609595893 12.0658454834233 -4.27678968651098 0 0
-149.568957635249 5.45080800500021 7.87295006207758 0 0
-37.7455172481604 24.047547491896 3.13677693150416 0 0
-129.221033689725 -2.38720007684993 -3.81834285195249 0 0
16.0355307718181 2.31503310734889 -4.47770019777757 0 0
-5.35981492768455 9.67984298371417 -5.28751771600336 0 0
-222.661103492905 19.7137914580898 3.16638237099041 0 0
-175.927150794871 -15.7499056507904 -15.6308070277274 0 0
-234.244616738879 -26.5452810214052 -11.5546652942804 0 0
-159.739736823822 18.8308509047888 4.75853206059436 0 0
12.5715184969347 -3.55824841284993 9.51782687832431 0 0
16.0497095107992 15.1252056071381 -0.807383654482428 0 0
-143.296600796075 3.89350130995693 -15.506602552459 0 0
-179.480601609121 -6.77083459353145 -22.3745044446427 0 0
-51.1671879566499 23.278061647968 14.6396599929956 0 0
-218.890995810167 -14.4473481642795 -7.20119098387645 0 0
-38.2987081689357 -0.754279066584719 1.55432208947269 0 0
-240.024064721039 -23.8440668101069 6.42800135948304 0 0
-46.8767715167355 21.6497655501571 -0.554340107171685 0 0
71.7518136621723 1.77520438826809 21.0606894038268 0 0
-128.248631967641 -1.18512684702501 -7.06932574829537 0 0
98.7620604677275 -9.07607467670204 6.65108820577243 0 0
-116.856953838403 11.9446978097868 11.7751633632921 0 0
21.8158675292603 7.04353574206416 -6.32287217242361 0 0
-53.8201448489095 11.1396469824691 19.2217753493477 0 0
-214.081177761685 28.3247768604808 -22.8397060218213 0 0
23.4235962650181 6.67236597599435 -6.41446997673622 0 0
106.443877186125 -10.6477947278703 7.43163564256098 0 0
-225.428601810175 -58.9863842016742 2.25811978145042 0 0
107.418366490635 -8.83567209671117 15.8272453446694 0 0
3.46837307154563 2.26099750018367 19.5420588276174 0 0
-2.2367416032844 13.1064158461652 -2.3282552523973 0 0
4.69311101382064 -3.30125879421287 9.89732588546859 0 0
-228.726229815424 19.7650158246055 -6.96707808589585 0 0
-63.791030656311 -1.97357780068782 8.83251443659568 0 0
-141.075500560549 -3.6473270090171 1.55067612497323 0 0
-218.773759488639 10.8528869709804 -5.44369116311943 0 0
110.826664899765 -5.31957005848688 -1.67661334632583 0 0
-203.825889993906 27.3386364042044 -24.3043760188133 0 0
-58.6997668046515 5.54137757605753 -6.63253371474659 0 0
-192.812413037237 11.9897841202444 7.37637244677359 0 0
-45.6808625952678 9.47758235281238 -7.31960981731185 0 0
-162.755703086254 -6.01334570505931 -21.4970866490288 0 0
85.6609827145754 19.7305804611465 5.41431421105868 0 0
-176.657054089198 7.75722303850438 6.40505920461369 0 0
13.693214315236 -4.11762062578876 11.7871552185908 0 0
-43.6609509301259 17.7251617871491 19.3293589127682 0 0
-41.3121746251526 -2.0988213004336 11.8865935701834 0 0
-145.754597366395 25.211485220634 2.74981359980317 0 0
-227.702928325901 -14.6667772601295 14.5287100463656 0 0
-35.5876030174445 7.81525419293534 -6.47038690615112 0 0
-142.746090119805 28.4488267793533 -3.31351197696567 0 0
-220.449729684818 -14.3961387262427 -5.38339401829321 0 0
-207.800036787982 -53.4445569768886 -7.83196462789044 0 0
-70.142126439817 22.6899440278845 -3.76611471526977 0 0
-80.2505831698038 22.4097714600714 13.1261147245367 0 0
-129.437061121012 9.28694652879304 10.1269780062216 0 0
107.711651557876 16.1413646311239 -1.59523102061791 0 0
-202.449596498363 4.75509851132222 -25.3035635359055 0 0
29.2141401880807 10.5330160192945 -3.18936868431598 0 0
126.004519167225 6.99800292638416 -8.44255401281571 0 0
-205.352713555962 -54.6916655452387 11.0823160850467 0 0
-120.391568207388 28.4711588126648 -0.330583394995828 0 0
-180.472046228914 17.9852555177676 -24.4233440314052 0 0
-237.412780273297 -42.05444185095 19.995711814585 0 0
-188.74575042013 -3.14669384666913 8.56716498135917 0 0
123.70836104401 5.12695291242086 -7.89727173300468 0 0
-229.665519417974 -36.4566120941508 -17.0342441524254 0 0
84.7441245216466 7.03393634463789 -5.33322248510213 0 0
-201.436067762022 22.879712174275 7.5185632882654 0 0
33.4986912785507 13.9376178703884 -1.19495634767068 0 0
-207.657926541375 -56.8885872738094 1.01080821439024 0 0
-123.462931327468 24.8607007737879 5.40279931136434 0 0
-104.562660974835 22.2809925778285 -10.1864667769091 0 0
-198.241290458213 -3.7529972920767 -14.3308030714085 0 0
-215.616806681253 30.4336676598271 -18.3595173957423 0 0
-234.042169288561 -36.9300347689344 -14.4737092266366 0 0
-139.765471443168 23.6358052677876 -12.8461588578175 0 0
-38.2612782404539 17.8630557019529 -2.08966418094106 0 0
137.985714983994 -6.10453636676351 -5.40903462917188 0 0
-89.0667139038345 27.5217894128007 0.274747050662334 0 0
59.2309814367544 -5.12071397942654 7.71327892278378 0 0
68.180780747218 -3.8183239266473 18.7500300298422 0 0
-179.985761601365 -13.5308510738392 -12.4218570437868 0 0
-215.592218930955 5.21558396746516 -5.8826120806682 0 0
115.637108259633 18.8590905575746 14.0537050362213 0 0
-7.95213321776594 -3.18799720148316 11.1717700898843 0 0
-160.941967758971 24.6007888010594 -14.617217991701 0 0
-234.517332862572 -52.6291628740397 14.7393716344436 0 0
25.0873128012002 -0.180964237136405 1.76137452012725 0 0
-223.407361369683 27.0010060347831 -6.64374059152719 0 0
-203.838308037802 7.6025989066839 10.7845719346696 0 0
-69.3974918958868 -0.78027814852308 0.0567800438870412 0 0
63.6808643426992 7.06252228583363 22.6297737924079 0 0
110.523562194856 0.653483266139542 -5.26130850257063 0 0
140.974262319505 -16.1315013061188 8.97442478741114 0 0
26.6142927658011 7.36306860471506 -6.02461242777836 0 0
-40.1885897242902 21.4132868261129 0.0875669262754092 0 0
38.410930958161 6.62407224052185 -6.29816990720402 0 0
39.9350107660492 3.06702951457516 -5.53791702841132 0 0
-146.183883408943 -4.50962824573036 -0.636757865123641 0 0
-87.1102662039631 26.4826128730608 -2.38355801973615 0 0
-234.916684799066 -22.4275422974006 -8.41915530754059 0 0
-150.538675388152 27.4887237331765 -0.0867586575799173 0 0
143.507781450581 -1.79084889428092 20.6029729416329 1 0
123.050969376962 18.7272863732983 5.88213430307806 0 0
-123.121293337072 -2.31486038101918 1.9174413734324 0 0
-136.856670836794 27.6994905927699 -6.6686808432084 0 0
-151.396496818711 9.29467222585634 7.5511761337526 0 0
-190.538718523924 -2.92361067722316 8.91288253192432 0 0
-240.09884922692 -38.6319183368905 16.8581498561094 0 0
-183.071468282571 31.9058360365907 -2.37241317555202 0 0
-230.090236214385 -16.5949838950286 0.821932005261781 0 0
-223.284880764851 5.7139352915243 -26.8069615183947 0 0
-222.304226103545 -56.5744285470799 11.5512133697453 0 0
-198.35529477102 -16.5713136112341 12.2122384851007 0 0
-137.241935693538 26.5557419946444 -8.80037135481105 0 0
-185.12499683204 30.8481926090491 1.73276929672353 0 0
-45.9211346291391 19.4191817155515 -1.98361581630819 0 0
-181.612236069453 -15.6284152806524 1.81942224080579 0 0
-178.094029608282 -13.0907561820654 -19.0852365544354 0 0
-202.616788630465 -37.6828138271766 20.8297864631063 0 0
76.3710142777459 14.28428307611 22.0959951657133 0 0
107.395801079857 -4.41644308270745 18.5729371367609 0 0
126.228652204981 18.6663186950149 6.23364277461335 0 0
-199.890889915574 -23.5392770394135 12.757125838038 0 0
24.3891676868017 15.9258419128114 -0.302759777208034 0 0
45.4028064513086 6.23353170441348 22.2515017814833 0 0
-142.231643517381 7.41691341456406 -16.1767011168499 0 0
112.424393773466 -0.612956865283646 -4.83405794576595 0 0
-221.715817854122 12.4951397654902 -1.20629789028026 0 0
-39.7397334448199 4.08090882454109 -5.50530972334841 0 0
-178.148145853153 0.979807065430992 -24.7715994161323 0 0
-192.461734073532 36.1343505008593 0.0729947685751663 0 0
-225.754548469253 -30.2073235097836 -18.051930791365 0 0
-190.506880408904 34.8392671766665 -6.895008937253 0 0
-202.615790895884 -27.0975309149058 17.5653908298831 0 0
-188.077797989893 -21.4000073295384 -3.5609176283034 0 0
41.7578153832085 -5.46027961909514 14.9990210987939 0 0
-175.206558251121 1.49648428922986 8.55143914002901 0 0
-150.044735876678 15.0713421363331 6.49530383527429 0 0
-224.883640182608 -26.1787521211208 -12.3462031788806 0 0
-195.733409090073 -19.4831750962782 9.86401378786313 0 0
-102.0211851044 22.8562762878693 -9.37789365115888 0 0
108.281795986466 14.4573979449814 20.8430591980033 0 0
-176.902012589881 27.3006265776772 2.02183142763372 0 0
-237.54248392891 -24.3295685253173 -5.4256609745858 0 0
-190.883018872351 -8.26576622965898 9.47234102512661 0 0
41.9158511341594 0.676097551603741 -3.55394785554199 0 0
-202.463641600767 -48.1648657820107 16.5360298775315 0 0
-70.0666421996959 17.1983639022376 17.4334684812707 0 0
122.284506974387 15.540989867372 -2.91082982256538 0 0
-147.556194831224 -4.01591484480874 -11.6630687743404 0 0
-10.7853356778755 20.4068544876797 19.1702739090227 0 0
68.6258437961678 -2.79757078653068 2.53911104233933 0 0
103.765161580575 -10.9086508447731 10.767144367374 0 0
-11.9344300531894 24.5957918472335 14.0043487757738 0 0
-232.36394115889 -56.2140323008986 10.9707961287534 0 0
28.1524506102551 22.7656196731046 7.591425877285 0 0
-207.116100172722 22.6490265954438 7.10615019143964 0 0
1.23503554931979 17.6512468367131 0.419969113762981 0 0
130.189993435225 15.3679357853651 19.0903735499389 0 0
10.1766465257373 23.8542503539937 15.1246764124456 0 0
-219.323481278161 27.3165272907898 -21.085143497382 0 0
-43.6564863184755 25.5844326878511 11.2264706558576 0 0
-149.666887757122 -5.50656073242823 -7.66132577564183 0 0
60.9952724205263 20.0238585890517 18.0950844821436 0 0
-234.782112574906 -24.3902281147885 -9.85717401408125 0 0
43.9021362645655 6.10513794883425 -6.22337835582947 0 0
-165.963920415127 -19.1557376872353 -16.0396268151224 0 0
-196.996892966471 17.0741816339043 -29.4399649301365 0 0
34.6725926053853 17.8344176759897 20.7376613162569 0 0
23.1982324207737 19.2004869443692 2.01134512790559 0 0
-225.02879269213 27.1404765222645 -12.7297528431008 0 0
-224.837642916196 17.3660446482228 -1.95400329468923 0 0
135.00059219019 10.0512656553102 -8.40104712193748 0 0
84.472467973218 0.763890130237534 -4.01261179153021 0 0
-233.352417387163 -56.1695975906861 0.257421949540494 0 0
-118.762597870318 25.7920987475243 5.22864023951592 0 0
-136.771100205632 2.55482719811734 8.24848762448384 0 0
