"x" "y" "z" "f" "a"
-0.745153254668243 -5.47692998555145 -4.15129705791293 0 0
-168.627050350449 -18.6093989257624 5.02342516456908 0 0
-66.1182916469755 -23.8966030327877 16.3999396424391 0 0
-62.8490097851025 5.02906467947818 6.95151855605671 0 0
-240.823064656518 37.5189724415251 -18.2296931515528 0 0
-230.277653898642 -7.89811432347337 -13.0622560582239 0 0
-235.013651769808 -19.7480583951682 5.43111547620554 0 0
-182.396986157918 -0.435872642488788 -24.8748748759288 0 0
-20.1497880336632 -12.1073419631463 0.852085900870612 0 0
-130.232661092522 -4.93997544465149 14.297329887407 0 0
-115.558914662259 -12.7122620925223 19.0019770930435 0 0
0.992798705996073 -7.44443608653801 -2.81445367142516 0 0
-56.6531805593181 4.37807563648232 5.81845368112659 0 0
-228.857596145604 -37.1522646850369 -10.4956973625703 0 0
77.264977035727 -12.9459353155421 -0.0932033168824758 0 0
-249.814003514692 46.9794274168621 -5.27842048090517 0 0
-169.184513904884 10.3199388793455 -16.019290101583 0 0
-167.491817805597 -23.582203278664 -1.0237259914082 0 0
-130.296041874197 -21.9371627239964 9.11854232944698 0 0
-212.053313450389 8.75197458725321 -14.0195870210619 0 0
60.2885936924823 -4.44217469535719 -4.28571574964361 0 0
85.6857839831292 12.2524391795267 21.4761022696248 0 0
-56.1204668525219 -17.1059476491678 0.121071527650605 0 0
63.5550711588555 -18.1468194793827 19.8409703703719 0 0
1.54958330044532 2.9112311431155 3.59200790689082 0 0
27.8294560649162 -19.9744095965025 20.0583549285577 0 0
61.1762340598922 -6.40236781370398 -3.81211311197873 0 0
-123.408192617076 -6.13172461300655 -11.004980480699 0 0
-22.4991398590666 -6.58571986837396 27.6575279990666 0 0
-182.57962067367 14.5993586113157 -21.2020023449731 0 0
-220.22566662989 51.0020557108159 2.25417288077892 0 0
-237.880805920024 18.1762309951116 -14.1216745656019 0 0
-155.772092132761 -0.891569114531337 9.74582165577496 0 0
-190.36350165869 -7.56793596665653 7.06230076971557 0 0
9.20940368893341 -10.8172854785879 27.287354741652 0 0
-59.9086316013822 5.13488409678542 8.081215943328 0 0
-234.744992987455 51.9175371397195 -0.579976075723517 0 0
-251.572300802233 25.4642103399195 16.6287669540498 0 0
-189.001230010137 -1.27428701361228 11.9203321742671 0 0
-95.8400675942782 -23.9167292725462 11.8043068883906 0 0
-212.916213851934 17.8932805453902 11.0578796952736 0 0
-222.162977352051 49.4593349534328 13.2582381609364 0 0
-16.0925026115397 -15.2910775206027 26.1466443401534 0 0
-164.00704757383 8.56584019095083 -11.2048789866158 0 0
-229.491277991043 6.7520711100503 10.9950247841368 0 0
52.3521945220175 11.6733083384167 17.4487740773248 0 0
-235.951862440946 13.7537368433832 19.0466710070012 0 0
-128.859946156094 -14.9529736268719 16.011484783839 0 0
0.902391451050764 -5.11878966635659 -4.22006400843126 0 0
-77.0769075073532 4.96320758658936 10.5999064234721 0 0
-118.530275315194 5.76404643983649 6.34127163018576 0 0
-252.857825836737 17.2574478163328 4.29728021752686 0 0
29.7849010726614 -6.17827377232658 -4.12740982519587 0 0
58.003650798176 -19.3928315394424 15.7184686029087 0 0
-131.827992419541 -1.7024027777955 12.7174860268885 0 0
-107.266671052822 -12.3749119060708 -9.4379286469241 0 0
-158.245389907016 5.81868046117858 6.31080952963145 0 0
-212.722068375209 3.86508681202646 -16.8112303124162 0 0
45.4700684078056 -14.6918345601131 4.11487304444321 0 0
-93.065189028373 -1.44102274635367 -5.36985624519193 0 0
-204.980595330525 -26.782921555891 -1.26532181218333 0 0
74.1042789630492 -17.5616000844978 6.93909658068091 0 0
-156.342964468624 -25.3807755851396 -7.3473551965164 0 0
-185.677149610439 -3.09167671955793 9.30682279083869 0 0
-118.809035384031 4.75860041394939 8.47029582716145 0 0
14.7358899210519 2.17770097633345 1.93477154997873 0 0
-194.578675780478 11.1867109673786 7.07497524598186 0 0
-68.0628535419225 5.26288711073819 7.37543915515744 0 0
-216.007590258873 18.2752321626234 12.6534407336905 0 0
-223.208433698913 -17.9098410188442 -34.710082067827 0 0
-238.23628982558 -29.4588640801657 -12.0364545354059 0 0
-21.3833716711378 4.50690788908426 18.4381988561446 0 0
78.1853977270228 8.88988529974409 23.8827186706915 0 0
87.0457115904063 12.6436233288101 6.75104628575337 0 0
61.7317150761562 -9.91173221209888 26.8471269332432 0 0
68.2583438661803 4.92035827110144 25.8573889859717 0 0
-78.5282497707401 -0.00173792742169143 17.2574295981979 0 0
-61.7718550307694 -23.5828698639871 8.63567862527847 0 0
-245.972770393401 -10.7330656137644 -17.6693913137399 0 0
-205.431449273565 -15.9848713747172 4.98930253787886 0 0
-197.004785526356 -21.4910187684607 -28.7458503023153 0 0
-127.192913926604 3.59016302457378 9.47722758922152 0 0
14.4008322569957 7.37338704520571 18.9105201563336 0 0
21.4562759626616 -6.96833355689325 -3.31695177962973 0 0
-133.920724132249 5.06495897033781 -4.69450281593824 0 0
-243.911649995249 10.268286894668 0.813719621443784 0 0
-174.678213949056 8.99394496555623 -22.438777423588 0 0
-123.166181979497 -15.1534318777171 -12.0152944509501 0 0
-12.1921476842762 -2.45083844517178 -2.90201309157783 0 0
-255.331044021149 25.2422833821081 -3.61472299847271 0 0
-218.296124587448 19.4234791227688 14.5437048281721 0 0
36.6621570142936 8.09373346602793 9.76347118273325 0 0
-225.12989311074 30.7706258083353 25.0578585739232 0 0
-114.416145430789 -4.07453709112702 16.1740321621539 0 0
47.6401128984817 -9.01137862312551 -1.79507706322303 0 0
-239.482193247614 -19.013812182615 3.31891890206022 0 0
-197.188447152949 0.847038249807658 9.7707110724029 0 0
-159.383415236853 -23.1090294447173 0.804305246490681 0 0
-68.413270445478 -24.1474225155393 14.3820410078764 0 0
84.9172711413298 4.07747282014654 -1.54637312219002 0 0
-212.238059646904 15.2553461551904 10.9310888588018 0 0
-233.895258925011 53.6029755653947 -1.76386583989783 0 0
-251.732137687025 45.5228821459919 9.16311559599973 0 0
-16.9500913523865 1.99510918018791 22.8407102352182 0 0
-149.097317112284 7.42900913264582 -3.44084435319871 0 0
-118.36307654657 -14.2523150931835 18.3068394169771 0 0
-119.956266655071 -24.6208426440535 -1.77727535961098 0 0
-216.954065609253 -24.376779793312 1.56461099804068 0 0
-13.7618183706469 -11.4872121315797 27.343057672161 0 0
-153.214780283511 1.5669183066062 9.09163274294554 0 0
-137.726362481606 4.42297347904098 7.83476267812205 0 0
-217.058465548442 -17.943804610948 5.32013732024705 0 0
37.4512835473785 -18.4406117437728 21.4858194472036 0 0
-203.373245579471 -0.922648216857043 8.87962327769448 0 0
-195.3005027706 -1.43332186110447 9.8608107868295 0 0
-206.919723905194 23.2485353434193 -3.94160511450035 0 0
-223.685233979149 -29.7892673948163 -1.86589745580914 0 0
-119.456618344938 -19.5232261093527 15.4835063050891 0 0
-155.826281508216 -23.4212786131034 -14.4837989867685 0 0
86.6044774849317 -14.2107786435499 23.7162049591381 0 0
-123.77142755723 -2.09449472078257 13.8143217049749 0 0
95.330020831289 8.05904967799451 -0.0633266291714321 1 0
-107.729561621635 -24.262175458962 1.55928473624152 0 0
-6.96686064111085 5.92055246225831 12.4526807762604 0 0
-203.563106695444 -23.1881000791182 0.436281186790405 0 0
-251.347558632915 29.2793930160521 18.0180573031542 0 0
-208.121735097063 -34.1282597737886 -7.86022494758667 0 0
-202.924084533598 -9.46899329405121 8.74654389400965 0 0
29.8042779436018 -16.1864268036899 5.96075183404976 0 0
-204.082454481333 -5.22287943438497 -31.1436807530888 0 0
8.9716455964016 6.60959491011472 11.7275600735537 0 0
-254.128882438378 19.3224616643942 3.36715624791579 0 0
-194.802915616934 -30.36960582725 -8.86101459797702 0 0
-213.092937528505 31.1877842204524 -1.1719776771012 0 0
-203.952182366414 6.22523590077518 9.03078497716755 0 0
43.4977719210852 -19.73682068262 13.0612501565628 0 0
-67.095300554406 -2.19089734666337 21.0741205762034 0 0
-76.0271684978833 -20.4180518062801 21.48208292948 0 0
-221.608775188012 -0.112316174198149 8.99321033912354 0 0
-182.956263369017 16.0978601193844 -9.11917070219702 0 0
-57.0198740853624 -1.56501797552913 -2.79132747360482 0 0
50.2627862347873 0.113788730659414 27.3228060671114 0 0
-240.208532004425 -24.1573256317223 -28.9818238010315 0 0
-119.864574301069 -2.0396187601731 14.2697190943196 0 0
-109.737636787965 -1.40183149456674 14.9403989899566 0 0
68.6387809029119 4.39270364150623 0.274459486267697 0 0
42.3768301846177 -19.6065138838141 18.6586965476555 0 0
-11.1052851677124 -18.1559133482906 6.62540716369511 0 0
-214.607975859825 -24.077373014317 1.16686446243556 0 0
-220.742836503683 -2.60219380550431 8.9139258108541 0 0
-63.2330938358446 -8.8984195027501 -4.82685606805865 0 0
-63.1452576883845 3.08069896234508 2.33921475141097 0 0
-213.976643928601 39.6742124157467 7.28698191187171 0 0
-148.383319967445 -22.557051910306 -14.2294040911659 0 0
-103.737645537585 -14.6042628551942 20.7729966270016 0 0
53.0763000833023 -15.1767256060675 4.35773025381994 0 0
-223.381713238833 -21.3057233526902 3.9797939861392 0 0
27.5535826998581 0.321471373240096 -2.14498283286995 0 0
81.1409472318931 -2.74360382301527 27.1268169070449 0 0
-216.808767469286 26.7434024595879 -9.6164497678692 0 0
-76.3119791207551 -14.5498627763466 24.2995220603838 0 0
-97.3710691722884 -22.8201042478188 15.6344880657704 0 0
-178.375776476403 16.7097340090473 -11.4810227231387 0 0
-252.839355831238 34.4096721472609 15.9387252767114 0 0
-202.008053027062 5.25779232263084 9.17025809545133 0 0
-233.326969749887 43.0530844573186 -16.898778652864 0 0
-74.2019939625012 -24.1112296091077 14.313920992747 0 0
-247.991111910933 12.472712219254 7.14467147558428 0 0
-99.1979620695959 -12.4761926573631 21.711503891458 0 0
-220.783705908932 -6.16781794989757 -24.1003583374406 0 0
-131.133400067825 0.521661446046827 11.5988341736062 0 0
27.0441853694865 -18.843548334467 21.8576526224771 0 0
-22.6818581527799 -2.1884045894453 -2.44752911857226 0 0
-232.950082379986 50.7588399373288 -10.4716430640635 0 0
-219.107248906369 -27.1591881020051 -30.3502168762355 0 0
51.0188881153092 8.33676586417296 23.2189561826164 0 0
-166.08768004826 7.70919461771155 -15.4282746102763 0 0
-221.188089024748 6.01016961744963 10.3178182749486 0 0
61.5938997253203 -17.4236191969909 7.33668275166299 0 0
-187.593536581035 -26.7452881760604 -5.603970390406 0 0
-213.7479632135 -31.2114229944059 -4.7179419236027 0 0
-208.099856270295 -35.6392716904022 -9.33025275836346 0 0
-191.362641827462 -22.9414717620733 -25.6900417208156 0 0
-251.673390877547 22.1341874481002 14.9458691295296 0 0
-60.8191549307367 -22.0332687304018 20.7962097755963 0 0
-83.0070731436265 -21.9801378765978 19.1443289642471 0 0
-234.658128301248 15.9628722080452 20.9437673434871 0 0
25.8908627466645 6.32996307159994 8.09726166260454 0 0
52.4837608436971 -10.4526356149489 26.8760997293246 0 0
-57.6102613460991 -0.0193248668054298 20.1074582059794 0 0
-254.48179499872 42.0566560254132 -1.46452705064475 0 0
-207.067930141039 5.28196060980124 -16.9315090777605 0 0
-180.524568611017 6.55915061304027 11.9808893279291 0 0
71.3796512494902 -4.28294984008045 -4.75018407174897 0 0
-17.8743849329438 -1.16001762260367 25.8702615267481 0 0
-54.3813331016632 -23.9153309343477 16.7453414680083 0 0
86.8874639673212 -18.0062350450453 6.81161122401087 0 0
-246.83039092111 35.7846922345349 21.9022776126478 0 0
-33.8849875473492 1.75569757820951 21.0390203483685 0 0
-192.889535384588 -29.2723370353808 -8.26955173474425 0 0
-25.8620193210025 -0.113443968727523 -0.0402169249911813 0 0
-232.595015072059 2.31254894361447 7.59578377695834 0 0
-241.293686338517 -17.2611362921541 -1.51830581738829 0 0
-222.602652032675 -13.290863477723 -34.9375464604378 0 0
-46.8129922512992 -17.2537894882423 1.66996419708927 0 0
-90.2458926607111 -17.9089385927303 -6.22895756147718 0 0
-249.708465634856 44.8185154443837 -8.15187099496801 0 0
-96.4139556707591 -12.8812383616961 22.1181789743247 0 0
-193.455643265315 -1.78348443772125 -27.2966113937151 0 0
-246.308818419314 15.1104169369458 -9.24737533220979 0 0
18.1500944808912 -8.87690483194382 27.596522172803 0 0
-34.8763672650547 -7.36627562730493 27.1639827911245 0 0
-217.941324294326 30.3528712463246 17.8004625791354 0 0
-148.100330155184 -18.645120126228 -16.3338208970859 0 0
-170.12420130909 -15.1921468768326 6.6441103267654 0 0
-203.750415990968 -1.18633888810704 -24.5946291211788 0 0
-38.7361305687656 -21.3507093355926 7.02529338223084 0 0
-173.061085121539 3.533263975606 9.12462059548391 0 0
26.609347742869 -10.6826546752344 0.317750334281793 0 0
-247.780818090628 -22.8691371398931 -15.2516002674339 0 0
91.5912417724446 7.78095237166459 0.396861204988777 0 0
-223.324019524386 -7.69846584639648 -24.9888115266924 0 0
-231.204523917447 13.5730876412154 18.234038855319 0 0
-88.432889599768 1.53920139124212 14.9490293875271 0 0
-195.357090553434 8.67575205271567 9.46080657550305 0 0
-52.1576830456664 4.95352353234322 8.13154404331809 0 0
-199.814644516703 -2.43217572594931 9.53609753004913 0 0
-216.417048226034 43.6439231873227 -7.21232182519957 0 0
-222.139750703175 -28.4222304035987 -0.123964178267598 0 0
90.5991131320568 -2.69214600455839 -5.3789829884914 0 0
93.2466722681425 -1.65441045277977 -5.17771298974076 0 0
-219.218993475644 -5.33785308002852 -27.8687864280247 0 0
-145.289346913964 7.3980909402716 -1.52118813766552 0 0
-225.05033219616 -16.5670166004318 -34.7025332849125 0 0
-7.60956336423843 0.506146855976509 0.578999580211305 0 0
-225.84623750359 24.1427417902862 -16.6165177655037 0 0
-46.600941933463 -23.9642765027036 14.2043036580088 0 0
-137.067095682996 6.77828281549055 3.71780488778395 0 0
-92.3229165570808 -23.3881257521159 1.041794504998 0 0
-79.7115394582137 -6.56074534622873 22.9341658227124 0 0
-162.25747459192 9.35619106958683 -1.22815947665375 0 0
82.3474950036758 15.195547241417 15.2906964340075 0 0
43.0077227287076 10.5171995734242 15.6186306936056 0 0
-217.686133405293 14.7479986400785 -13.5270541888545 0 0
-219.725020255607 -9.80996755468064 9.57532990226479 0 0
-92.1618159722955 -8.48883462872625 22.2285061761954 0 0
-236.105876597886 1.47851841617878 4.00191035546824 0 0
66.2166393958593 -3.17829317814203 27.3405706247322 0 0
-222.731148651399 -8.7890289876852 9.46420997208245 0 0
-233.051903031298 45.7671802872406 -15.1861163696122 0 0
88.7419819899044 7.93888211868133 1.02483424445434 0 0
-239.213590394633 53.908781948474 4.07156929386729 0 0
-247.92420107625 25.1038914297991 20.7953296043367 0 0
-218.929858563368 13.0979651056677 -14.0708194107598 0 0
-222.541701005013 -7.0003966075075 -27.9138893334493 0 0
79.5447249533319 -0.168684019913187 -3.95323138955366 0 0
-146.11449499409 7.6260020917903 0.30656485291827 0 0
-155.507523017836 8.06361563638283 2.69755874333772 0 0
-237.502973607721 -19.7003820508153 4.35808825181587 0 0
-45.2680861751933 -5.97309739512433 26.1476515151748 0 0
18.2703842636372 -3.57027938600001 -4.63107375748069 0 0
69.5987359043116 -16.5771611212564 5.38919183011116 0 0
-54.4113771935089 1.5168160329764 0.347931483170335 0 0
-41.5470555762199 4.96918061867957 8.85524393668536 0 0
-181.025888882585 11.9500496854564 5.04301777973829 0 0
-83.0870766146962 5.31699663778766 5.04791524542769 0 0
-93.6047642041348 2.20137763660807 -1.76408735241219 0 0
-219.261732987581 46.259769375458 -8.09090972599857 0 0
-256.247234469616 26.6490523026314 -1.20517174242739 0 0
-72.4310418008286 -12.0815368116867 -4.70162121942226 0 0
-110.740079637651 -7.71933253358081 18.9032947631425 0 0
-158.397133734006 -21.5765449448612 3.68927672767801 0 0
10.4362652487899 -21.5390675550961 17.9990657767547 0 0
-171.130941991946 13.3715004964186 -16.7555728827108 0 0
86.3719250606892 11.0471479612022 4.94051803157569 0 0
-239.325331000288 -13.4451365781025 -32.1261727877605 0 0
-208.54375130812 25.1603123309069 -2.38638127978641 0 0
-198.062711528009 11.0335723451159 -14.1806546479563 0 0
-67.4746325707092 2.2002646764309 0.593193281062281 0 0
-40.7947060143914 3.58684836817276 17.8266389872452 0 0
-7.04342525867253 -2.48701671291003 27.2591023995228 0 0
-51.3446618921721 -11.8018817506484 -2.19319450231909 0 0
73.4241709196804 12.3286410996105 20.7011215662085 0 0
38.717148778571 4.14615232455872 25.8703271170303 0 0
-243.760396729595 -25.8087183184704 -11.2014515194247 0 0
44.1776844145049 -1.45735623200922 27.5597782054658 0 0
72.4269837262544 10.0198806152144 6.09668763217161 0 0
-243.297500855922 20.9488409134685 22.186714964627 0 0
-184.818679176887 -4.33048738643537 8.42592928266102 0 0
-241.683972531195 -16.7165500725059 1.03278936609699 0 0
40.3935680206076 8.21910317594777 9.21631805131296 0 0
-235.143314005491 52.8214275749348 12.9055124614128 0 0
-174.008267886435 -0.785451879088568 -22.1517546306633 0 0
-2.51818846994705 -19.8652287883385 22.7496430962972 0 0
89.866607101762 -17.9107540785013 18.2647652291624 0 0
-253.130669227045 17.5992485360982 2.31285699608728 0 0
-245.632503085617 -16.8572386091681 -10.0762282810135 0 0
-143.550372489677 6.4060319769174 -4.87907066392673 0 0
-173.850786690498 -24.1053968718028 -2.26947586620407 0 0
24.2349175559802 -2.92812420811891 -4.54424135706635 0 0
-224.430731541077 18.6648345970491 -13.9730793926804 0 0
-80.8033363828438 -23.9837021966196 7.14924549083294 0 0
-240.483676106321 34.9726040453108 -18.95980034612 0 0
-137.911685481843 7.07004463605137 1.49346468035256 0 0
65.4078742283905 -8.45511614080335 -2.7002890791371 0 0
-211.678534258377 -30.955924975632 -4.32832286139019 0 0
24.9324453004707 -6.18817383860101 -4.02560947364501 0 0
-90.972015524184 3.81849083073941 11.8681736395707 0 0
6.35515925684082 -19.2189158078175 22.9285612873555 0 0
-181.332459195378 -27.2254415096988 -11.9432751811115 0 0
-234.06444225256 -11.3249691629057 4.93552791662038 0 0
-220.252578703484 -2.07132554778141 -17.256473903143 0 0
-217.472194343679 -31.530818062321 -4.71950258773471 0 0
45.7151060140904 -3.12746800977261 -4.48374423704249 0 0
-222.656824347945 -8.87596477287639 -16.9818430590569 0 0
-237.841007552259 -29.2490484187031 -5.16605214989695 0 0
-216.489324484225 -33.7328854771658 -6.84911970870165 0 0
-57.3056200873729 5.2775219350948 9.86316813474101 0 0
-5.74138078508464 4.67586885483776 20.6124412115112 0 0
87.3336367362359 -0.90971790273205 -4.553781646466 0 0
7.46352106435967 1.3583521468508 0.813462697364358 0 0
81.5502686616341 -17.5522374267585 19.8211015433653 0 0
-150.708037976994 -20.0951181364404 7.12102209357829 0 0
46.8347030574952 -19.7854746768449 16.832928326047 0 0
-54.6589566683882 -20.2628623373916 3.53229265312865 0 0
-4.01610115317436 -8.72567187156708 -1.43101417271461 0 0
-98.1149030104618 0.649950653817022 -3.82258986183374 0 0
-212.408726607522 4.63127936355644 9.38303068943794 0 0
-101.179521725676 -1.95648802644905 -6.68675494233391 0 0
-172.923424934308 -4.18842173340751 -22.1627641945863 0 0
37.0907603500187 8.33229777883072 22.0878944882648 0 0
-241.985667137896 55.4239316061295 1.87707527163812 0 0
-54.8274423462931 -9.39753165451564 26.1737968127751 0 0
-237.963292388044 -29.3588091259054 -22.827086211863 0 0
-74.0080071670272 -9.75044554127976 24.6154082383109 0 0
-225.678817616442 -4.23792057982722 8.22454848007439 0 0
-184.011414719517 4.26927369512159 12.4968533367844 0 0
-248.949662365431 37.6528177535242 19.5332886008104 0 0
-67.8401575247081 -22.1891873583348 3.71982699483169 0 0
77.5741111500942 -4.83296782858055 -5.11875654103251 0 0
-120.571635790585 -15.4781136383875 17.600556327533 0 0
-193.045004559737 0.797413741667279 -25.8251957123114 0 0
-86.4901089804147 5.19952391737686 9.20504737666521 0 0
-209.681160384036 -15.9650099703756 -34.5513704746256 0 0
83.4159818301727 15.1159732070387 12.8716551674849 0 0
-224.294172409179 -13.8506658385032 -19.1613963854802 0 0
-248.871556364291 -20.0123425951671 -22.7409642969693 0 0
55.7003272876506 -16.035284568313 5.36396433918925 0 0
-214.262934097173 12.5696558004569 11.1322879963976 0 0
-201.27629043761 -4.26059547743824 9.79063204318277 0 0
-226.569009462245 -33.3887928022812 -21.7532131190776 0 0
70.4195906047168 6.20993474353707 25.3102373639778 0 0
-178.846066098803 13.2852792327902 -6.87417183040789 0 0
-210.349620386198 -20.1013243407201 2.97782293751565 0 0
-227.267283751065 8.32038778413749 -13.208661400683 0 0
6.05930705993189 -20.6796195604068 11.5354804307936 0 0
-203.539294949802 -34.7594144847263 -12.9676720665334 0 0
-219.832433813402 -5.32266895123956 9.31934084419636 0 0
-116.672694613745 3.13046357647669 -4.40203588932817 0 0
91.1816010589061 -3.67745549775189 26.9864514067911 0 0
-207.258356034009 5.2592706326293 8.68702040357584 0 0
-55.1083790394859 -8.63781178838054 -3.95548684478645 0 0
-201.569734232478 -12.5053471530636 -32.6335379301476 0 0
-237.932669944567 -13.9928591586748 4.69818000303577 0 0
-216.22266804113 47.182111900915 8.24261422917415 0 0
-241.300056194381 9.41700141821282 7.80696538037756 0 0
-226.466191732102 4.36820066433928 -13.3472706266247 0 0
11.5286710399858 3.57737844660427 24.6282594577066 0 0
22.4599448948418 3.21949364291251 25.7227658166844 0 0
-192.849410823017 11.6740587882266 -15.8987281818543 0 0
21.3537727523684 -8.3100112690689 27.6788320683133 0 0
-24.7597085533648 2.54234163313205 21.2364756953669 0 0
-108.689476956865 -23.6328951563574 9.48825849267449 0 0
46.8206693480691 -17.3384118068299 22.2609504752152 0 0
-248.935710778146 44.9691468252347 14.9961242515049 0 0
-144.353392790432 -3.70772011113403 11.8237703256298 0 0
-165.590134946527 -19.1357203591627 -20.3067961253113 0 0
-55.7971552359558 -12.905091964397 -2.2743480051228 0 0
-182.534504872 -12.7832137775131 5.70302456897446 0 0
-211.502771554589 5.53906234150205 -15.9463488291795 0 0
-197.816464504726 -7.90212165159219 8.1727926643455 0 0
-111.772855770017 -16.7321583528995 -10.5541226416771 0 0
-228.514307771708 -7.29739914946251 7.3237716985381 0 0
-216.244569743737 32.2000345176947 16.4652107600332 0 0
-208.478943450804 -32.6456238241673 -22.4512803344244 0 0
-137.72201140159 -5.3425719932503 13.4079613788524 0 0
-241.55484897087 -14.3693023469339 -32.2904415081944 0 0
-227.637283554563 2.72735307308181 -12.4988066314492 0 0
-52.8134608654771 -22.1030849746675 21.0673718528531 0 0
-230.221783104623 2.96828792161327 8.72183318743974 0 0
-235.710281688016 -13.5325197557336 -20.8383169620897 0 0
59.0947503063522 -18.9336732171913 11.0535625371598 0 0
-255.279208597434 41.1554977782181 4.3366976723869 0 0
-45.8408371610127 -11.6231031950773 26.5677402555984 0 0
-233.390400674166 -9.84757173119491 -26.4780132918467 0 0
77.773392029308 -18.3292929976113 8.93228053821654 0 0
-208.923572161112 2.5196062287865 8.60309866196263 0 0
-96.836767886923 4.64864711105198 10.1991223537106 0 0
-237.574054733964 27.1008219191626 26.3578481034387 0 0
-236.722008815426 0.20539590883441 -0.166564579278837 0 0
-211.546825869201 25.3991620880692 9.0251728064309 0 0
-11.4658471710583 3.10120418664242 4.67867733530643 0 0
-185.267927720068 -15.7701152695774 -27.0046336788034 0 0
77.9276921260067 -16.0427230148776 22.3665514620881 0 0
-186.121054347038 15.1145894046206 -5.1223180634902 0 0
-20.7633065698754 4.61308858475754 8.21589396816181 0 0
-61.4719931089493 -7.71374530096994 -5.00273917190267 0 0
94.0997804426394 -15.2038515046169 22.4192846363877 1 0
-218.243030282253 -21.8122276334341 2.7268272807732 0 0
-182.872002439612 -13.9458797509136 -26.4193601145904 0 0
-250.382559475364 -17.6260506895102 -23.8045169895074 0 0
-137.793533245199 -17.6111223934574 -14.5400974984963 0 0
-150.697743769593 -12.3933575988182 -18.2488399609582 0 0
41.023170227424 -11.1770767334925 0.39949055124928 0 0
-244.953693169579 -19.1085857109384 -30.4756478337774 0 0
-174.799808715681 -10.0125359600023 7.80502768226591 0 0
-112.1967351254 5.65608540145509 1.45588918748181 0 0
-5.7145566715651 -7.82549368310319 -2.36867436027642 0 0
13.1700646770872 -14.5570795480745 4.22448001780145 0 0
-209.420412102343 -31.6564663278376 -24.0024166146958 0 0
44.5490894784927 1.46442303821231 27.1483068900689 0 0
-216.378649909255 -29.8611500095838 -27.758132878149 0 0
-241.121841911989 -14.1085380656576 -11.1330486803607 0 0
0.121238904549607 0.414975615946078 0.0486349513986577 0 0
-229.570131012138 -10.6115546172439 -14.7014273638008 0 0
-208.420726086373 -4.29195703101889 -29.8674172654051 0 0
76.188789453887 -18.8963805613461 14.8509451342847 0 0
-239.31956622072 15.4254761696414 -8.39763961509855 0 0
-255.037393543113 31.0550967183157 12.3691824841751 0 0
-53.4850015654612 -3.70365043876225 24.0549702979326 0 0
81.6093080354268 10.3701654260189 5.12605102563541 0 0
28.141051818896 8.74049939262176 18.7358053065618 0 0
6.61851169754741 4.50245025821893 6.401524316001 0 0
-184.205975142581 -1.95935076114199 10.7523770897329 0 0
-102.218299340219 4.28327256246607 10.3901852273464 0 0
-48.783521234205 4.6080563441548 7.02354581884626 0 0
92.1221078543147 16.0779873403697 11.5894798299038 0 0
44.0094454858569 -1.76042540627162 -4.12888683559234 0 0
77.6928793656831 -10.5240698213261 -2.2700097368083 0 0
-157.387355972031 -7.95327159380086 -18.0256177861633 0 0
-198.694268356275 -30.5716707680075 -5.84630850016515 0 0
-226.093322243138 -6.73353228103883 8.30559753592992 0 0
72.268190410564 6.64793418821511 2.23986125855312 0 0
-242.489552880007 47.6678898069374 17.8638282019206 0 0
-20.135389374246 -20.8638743471335 8.70504916322774 0 0
-248.055005733157 48.5452866421719 -5.39439427283239 0 0
-233.454149320121 19.9098745461763 23.6700537485936 0 0
1.62102895377089 2.78786521360992 24.2703013560776 0 0
-16.0482039868478 1.61442875965316 2.17066175664934 0 0
-239.196862521754 -16.3078436634774 -32.4932421879145 0 0
-182.804694845846 14.0254674303841 -4.27424501741537 0 0
-188.81191148715 13.1664086873447 4.54596686326341 0 0
94.1319308259661 16.5784174618542 14.4012270214645 1 0
92.5733611272066 -11.4608168014412 -2.95031324681284 0 0
-201.796933991646 -17.8178514824227 3.65898777791808 0 0
-65.0186225323353 -12.0052833823495 25.4920487177683 0 0
-230.008290657831 49.5879686184688 -11.4314780371494 0 0
-71.9451579941043 -2.04349535469063 -4.12932994096577 0 0
-228.92021133542 11.1854388000463 14.7930232422152 0 0
16.6771337513761 -20.6741048375325 20.1082476065121 0 0
-57.2590026732946 4.09423070284438 15.3104879767876 0 0
-7.78474220313837 -13.4546889301063 26.7581086012931 0 0
-207.940440348567 0.550643501356284 -21.5348944653816 0 0
18.2716658957617 -21.0855991818983 18.6612483226298 0 0
-233.356533628195 -32.2520378748768 -22.5227044299547 0 0
-101.189986410208 -13.8440195355993 21.3016783628805 0 0
-89.9743468929857 1.86261734098217 -1.76043259989883 0 0
-219.781561399107 -19.2226330178245 4.65999059360094 0 0
-49.5166675963696 1.54473450073452 19.3702366871535 0 0
49.2087454418543 -16.8200598714209 22.7418290448372 0 0
-30.0145617847146 -3.26886651421494 26.2825464437787 0 0
-252.978209686852 23.8276816276051 13.6177160675221 0 0
-245.402070641519 48.2003969771794 -8.80948859912113 0 0
-217.051536787755 7.40358886223444 -14.6990257765477 0 0
-46.5393266332738 1.9044493206202 19.2114983329064 0 0
-224.662959708498 -11.1196582771938 -33.7172724323638 0 0
-12.9973784522961 -16.8393395506887 5.32917073208334 0 0
-188.602545407798 1.40048350016504 -25.4258542401236 0 0
-231.325837584751 35.2821359167342 -19.6824220291368 0 0
-110.779001454497 4.21994171728621 9.80823363160768 0 0
-52.6114462143324 -6.64049056775908 25.7962098581126 0 0
28.1777787606552 3.62505217260946 3.59144678347713 0 0
-78.2575577337979 -8.61663792740647 -6.61347725465532 0 0
-141.501950634339 2.28324761203891 9.5582757574922 0 0
-150.436200697377 -24.8646150175688 -3.02772807700978 0 0
-249.834940658087 15.1784502671352 -3.51094934242115 0 0
-48.0559682951114 -0.271455404278136 -1.36286326709899 0 0
-146.029646358519 -23.9896196671155 0.46951862158279 0 0
-207.838031174035 24.9772244320512 2.39326977285022 0 0
-178.336048397884 -22.536640856213 -21.3439671748983 0 0
-204.874525843669 -34.0387897610751 -8.20666129178078 0 0
37.612987224089 6.71523168290223 6.79919360140238 0 0
-25.1692131335743 -2.33710306857073 -2.2906460636696 0 0
-79.2178669120896 -5.96964068012339 -6.36234519967431 0 0
-195.889360259359 17.6852453874149 -2.0391535928557 0 0
75.6037564795561 -13.3070298568156 0.441847187437349 0 0
-46.9767926272494 -19.0231780150501 24.1155573319004 0 0
-50.3318221130864 -4.2221714553247 24.8386995999673 0 0
-190.21363721763 -5.31521019080774 7.75148196102597 0 0
-211.459227052878 -39.0987775785811 -15.0294621842879 0 2
-141.743725664258 -8.21286218112651 -14.8851107335514 0 0
98.0925151431006 14.5683452308622 6.43225471041066 1 0
72.9260454757812 -18.7920976903942 16.6391247712854 0 0
-25.6751925872806 -15.6685091044612 3.18760633342898 0 0
-17.1330357957427 -21.719047175455 21.2638326085719 0 0
-216.350140097384 47.8736926923873 3.23155191997311 0 0
-133.764708719762 6.77068260241908 3.31463134993696 0 0
16.3582493899288 5.26612770035979 7.0568117459275 0 0
-234.331292119253 33.2004744440687 26.9844143864578 0 0
-247.457081793182 51.4682199229679 3.01876490107121 0 0
-238.985835302092 50.2326201904899 -10.1990804198214 0 0
-200.564959850703 -0.557280447489027 9.11423893636836 0 0
-155.058499935239 -13.1721826323208 10.6044896968715 0 0
90.774733379806 15.4572773182017 10.350158732315 0 0
-182.139395695376 9.00211541443547 10.4483346665861 0 0
-54.9352691052636 -5.82246875325461 25.2642275324517 0 0
-239.106488975088 53.9968792178878 1.7678760877349 0 0
-48.4255119370012 -11.5569740071512 -1.87633784480635 0 0
-182.780824506506 8.60203751278594 -23.3678700141109 0 0
-56.8853057454639 -4.17472478422297 23.991175165726 0 0
-213.634321693263 43.2231673867945 4.52182881894059 0 0
-245.043252322657 28.2151232886276 23.5661181053914 0 0
-19.5788118240717 -18.807136755801 24.3516695083265 0 0
83.4631758239491 -12.5358092163387 -1.11043760324049 0 0
26.2196472634383 -1.26897182654341 -3.83783263715564 0 0
29.0274487363541 5.28678516571013 5.97286623438112 0 0
-185.612693226092 -10.8965798871659 5.89143177477511 0 0
-148.170704475778 7.12926146517444 3.73169371038235 0 0
-176.208532878279 11.3765806985005 2.77784069670186 0 0
-93.5846767055996 -19.8529999008119 19.9224443964892 0 0
-218.034640676636 23.2224224602035 15.7532889459192 0 0
-170.399049401894 12.1409591019805 -13.9451174652341 0 0
47.168096257113 2.52291024912815 26.8101080843419 0 0
62.7228795980171 -4.91815972330431 27.4317464246714 0 0
-221.036324504352 11.8263854087388 12.7750208660966 0 0
-216.49042392601 36.5815590832 18.7890069931593 0 0
-238.299472336479 42.7258826335706 -16.6390858858099 0 0
-186.962860081574 15.9398001740326 -7.29200381222501 0 0
93.4303285315898 2.18962407116007 26.2168412910549 0 0
-213.255669571677 39.6217230418413 9.49972061405812 0 0
-222.840233109134 -10.2004075105279 -17.2836230824992 0 0
-224.291211040755 53.432404576633 0.14133799390171 0 0
-39.3749949237396 4.90721743882616 15.5094184726391 0 0
2.3925467645916 -20.433685360305 10.6688930011905 0 0
-88.7073007046294 -6.90246466477456 -7.45429185206276 0 0
-182.718039349475 10.0518719455359 5.42962288496304 0 0
-206.493860924429 -20.8182493525838 -32.4009719502939 0 0
-250.52266775399 -11.9918700956963 -17.6339795469569 0 0
59.711565428629 0.7617360535186 -2.58477448142423 0 0
5.88041498902005 1.99153202398313 25.4760708200133 0 0
30.8803271195064 9.18299520930014 17.2990647136155 0 0
42.0574672929481 -5.16896538737068 -4.55636025041827 0 0
-12.1790125616396 -22.4683469752691 18.9923279688935 0 0
-255.852905544464 33.3787269127539 -5.09730426905179 0 0
-204.958558733614 -0.133029426800424 -22.8555297728207 0 0
-78.6093920438729 -2.20587493724154 -4.8489013540847 0 0
4.35810613344103 -0.817982440955413 27.0590809628711 0 0
-35.1700891956819 -23.2541891565708 12.4045724719411 0 0
20.267209016291 -12.8330360628289 2.67044299235984 0 0
-214.50121700122 44.7904917346847 -0.232346054036353 0 0
-213.485640886352 -6.12179178965124 -32.5991259981371 0 0
-203.330338435702 6.07635423517382 -17.2580131262343 0 0
96.6207826698277 -17.9902525813129 5.39386829330735 1 0
-157.576890172811 -5.75968313229371 -17.7534478624162 0 0
52.4914992423733 -8.23473196120529 -2.52279292495013 0 0
-19.8928651835434 -15.6587555873338 26.0624832313035 0 0
-50.1850088890819 -12.5919629878359 26.224326902844 0 0
56.8640846004052 0.258023074526369 -2.79013231325744 0 0
-233.407796180261 26.3236498993652 26.4570681307358 0 0
-216.587493853961 -28.1707131876269 -29.6542178448962 0 0
-18.9659441615185 -16.3164200490237 4.4348018944241 0 0
17.9113742876689 -0.0113006982080253 -2.57670014187519 0 0
-13.4275151513618 -20.8905341342565 22.2309950491152 0 0
-222.951274581218 25.5425126169956 -15.7745923497429 0 0
-216.252182614941 27.7814163680892 14.9060506489516 0 0
60.7881222276801 -16.7450790682936 22.2445947541031 0 0
83.7783632836762 -2.12995142979937 27.0160771581756 0 0
-182.807816489049 1.01497103474225 12.2793623320978 0 0
1.55452826145941 6.13200106986357 19.1498555148101 0 0
79.8483906324685 -18.6878008406823 10.4252268915237 0 0
-61.5683225571515 -2.87562991515702 -3.7986414401167 0 0
-169.330272822515 5.94502469942073 7.58383120431409 0 0
-248.088178488908 50.6315900300733 5.6330850769164 0 0
79.7875770328 14.5276050100605 17.8453197228618 0 0
34.7557553749632 8.76003773481972 12.2203167435848 0 0
-220.332298369774 -28.7533026781502 -0.613294903199641 0 0
-61.0654215666663 3.6825846975435 15.4722855180454 0 0
-105.330241094348 -5.44621315297365 -8.57616911608843 0 0
-30.8412074998849 -10.7493444647006 -0.787211947867755 0 0
-185.965281120178 1.53909371724684 -24.902643828633 0 0
-220.5216309086 41.5417154355416 20.3264175066301 0 0
86.490720175326 15.4733588719168 12.815609830521 0 0
21.9924171577263 3.31163148000411 3.49820301877258 0 0
-181.622972268851 2.26148822656862 -24.1990787038355 0 0
-1.42770395521866 4.59817816418323 7.40616537311054 0 0
-15.0899972538797 -20.1751861077696 8.36256867139379 0 0
-120.693279766079 -4.23185586971916 15.4184153335165 0 0
-102.035742324155 4.53844401433889 0.491129774368143 0 0
-61.4660756294614 -24.1905590835292 13.6501937124624 0 0
-72.8782923575801 3.46030658441773 2.04775457636525 0 0
40.749114539023 -9.19711714338907 27.3812157797318 0 0
-6.21750783164752 -9.95169384949191 27.5965252091069 0 0
-242.35459409215 -19.0164325741008 -2.48793423749588 0 0
-242.315821994292 16.4487079051353 -11.6323151456279 0 0
-208.145118057145 -27.6341441823511 -28.2163792711543 0 0
69.587031888662 -4.85339456171796 27.3719943876964 0 0
-238.7163578795 7.34836071821606 0.346334903299688 0 0
9.39640825343358 -0.200288601753588 -1.79725929544792 0 0
-117.247298797726 -4.06791999246924 15.7989979132142 0 0
-187.870983682716 -8.04923622057412 6.81813788778378 0 0
-256.286422681406 32.9714196330713 8.95962960734939 0 0
-251.738126510946 -13.3741212890877 -26.7881839011251 0 0
-235.376219741086 -2.82903442684398 -4.68050039498367 0 0
-34.2354635418197 -0.422306530827237 23.4920824916175 0 0
-211.212787903355 -37.4647296233285 -17.8766022168538 0 0
-167.192034720853 0.370234267432683 -19.2848445991395 0 0
84.3288887292906 -17.6830732868952 6.2372840483437 0 0
-226.629132251957 -1.05439465436313 -13.03280446902 0 0
-32.3273857623378 5.11867884998602 9.85497258226463 0 0
88.5693670579605 12.0169041957594 5.56365803473505 0 0
-225.378787858505 -14.5169239575677 -20.9346418051349 0 0
-31.8062296938368 -18.9039036299519 5.29675810011951 0 0
-229.556647493953 25.0701731758275 -19.1042838920509 0 0
-225.735800027782 20.114629711238 -14.5781542295615 0 0
-152.974008510938 8.19246240890364 1.22496933445498 0 0
8.34143130448992 -1.23793342578714 -2.98025813746487 0 0
2.86763976378308 5.00654673737614 21.3821976648454 0 0
69.6157014523741 -18.6118977890846 17.8999335969843 0 0
-95.2290867669821 -6.55910748072375 20.9735273417764 0 0
-234.608944550538 -6.86132164214343 3.44489670668626 0 0
-76.3948628029938 -23.619627766632 6.09128619541495 0 0
-240.776239766307 -28.8659956691571 -18.4565464902822 0 0
-150.349128223335 3.85878403838753 7.98561318483505 0 0
-49.7372963677123 -6.96157433629369 26.1348063768288 0 0
-35.132804845728 -12.5864241080765 0.0877556071904928 0 0
-27.8541580231892 -7.02041535321318 -3.35775479184987 0 0
79.3353228425496 14.8420913902277 15.6197487610519 0 0
95.6852300701483 0.298646289419924 26.479272421194 1 0
23.8688435208889 -10.5742790973221 27.2587833419134 0 0
-252.695047586254 -8.24741676077762 -24.6337763156378 0 0
-77.3566230982551 -21.2344160819653 -0.0973096127246856 0 0
-237.115372878862 2.20803700555063 -0.11616642820507 0 0
-56.4540969577496 2.16003472030022 1.25552418862531 0 0
-19.5455327902644 2.85971622263655 21.501420043923 0 0
-251.419820091785 -10.1629731188753 -28.8631309830539 0 0
35.9253395510837 -19.659670508596 11.589004932923 0 0
-229.459434813796 32.8783532633383 -19.6807861259858 0 0
-243.587486387643 -26.8768621321048 -18.5937929789471 0 0
-172.48762757419 14.3919731672135 -13.1015042322302 0 0
-247.167841284715 -23.3185211255317 -11.5680778655582 0 0
-218.042577773251 49.1815870651831 6.80319853608337 0 0
56.6922764585437 9.81329243632047 22.2114885839389 0 0
26.4932528516211 -19.6419434592947 10.7566824850761 0 0
-178.59704878474 2.21093339732882 11.3176138863379 0 0
88.9687865828624 -14.8093602418718 23.0714659183583 0 0
44.1980080989995 -16.6745503115588 23.1747751211375 0 0
3.41014866683759 -19.9098624608062 22.3510038407039 0 0
-16.4673881615524 -22.702021500568 13.6777277249012 0 0
-214.410325679975 29.838304732347 11.8774480072821 0 0
-152.191508012358 -21.2826444581041 5.36575000610528 0 0
-31.5819678923333 1.01330041203383 22.2199064855761 0 0
-190.754420230233 -0.356014478084661 11.3298948156672 0 0
-201.726693361021 3.49582637931176 8.95859724952167 0 0
-213.552913086611 -39.0527080863068 -15.4676107521072 0 0
-116.797963883368 3.44328477651635 10.3222442079277 0 0
-234.062411251288 -7.47886054707701 -10.1387101496925 0 0
-247.359798081438 -7.25792783683617 -22.124701706359 0 0
-186.449366275224 13.5234813877938 4.08370041956694 0 0
-85.794906247715 5.10948845071356 3.75349562376273 0 0
83.3682428875608 6.63242720258568 24.9670910697668 0 0
-112.833635244915 -5.00435571902518 -9.33771420807109 0 0
65.8197244071974 9.09352707001276 6.03871569296444 0 0
-211.5571898544 29.3811444447783 0.321182262078932 0 0
15.4028634923539 -4.51500366768059 -4.5422642173122 0 0
73.9686504909135 3.83455425665961 -0.74361328023692 0 0
-237.264142300514 -15.4194412278355 5.7464672488002 0 0
-78.3707336799556 -15.4017439118482 23.8856228734328 0 0
-29.8073272604977 -10.8278010051155 27.2954070671113 0 0
-239.241048893165 -27.6917568834519 -9.54076515687676 0 0
-94.0187574619697 4.36102444891465 1.25513965352942 0 0
-179.906963593841 -12.7116794059445 -25.4704847580668 0 0
71.0037743776871 3.04138226351729 -1.31698178121207 0 0
-95.1446109868382 -22.3694639586906 -2.7913664905067 0 0
45.1252527551131 -8.90560634222469 -1.81036542083679 0 0
-31.3492293156463 -3.97912065146446 -3.63872183805686 0 0
-227.863440947739 30.5775518535481 -19.4003183235603 0 0
-194.076494223456 -28.2949966187886 -19.3777688646767 0 0
74.0938393398966 11.9465084702082 8.50738430408636 0 0
-230.96150777491 -9.4446520280883 -27.443424846109 0 0
31.3535769319106 -9.1861758580036 27.4744269152043 0 0
-250.614231139743 19.5040192187806 14.5531425577936 0 0
-233.654151433799 34.677150897966 -19.9094357160691 0 0
-234.274975063882 13.1988883176094 18.4044079379092 0 0
3.23729181378203 6.79196337550791 14.6246352521013 0 0
-69.8359237464607 -16.8327371224636 -2.45203431688279 0 0
-226.758370048727 5.91110469385562 10.6283332566195 0 0
-127.062401901473 -11.1896460588291 16.6744711429271 0 0
-120.142020860882 -1.55269448515328 -8.53556204777897 0 0
-238.196556184804 -25.3025777535657 -1.33306940181545 0 0
-85.6837873340095 -24.1418312276953 12.110341069303 0 0
86.462194810005 1.95473822781512 -3.23403381268199 0 0
-212.517766591074 14.4750297852294 -12.115763745631 0 0
55.7040446959586 -12.0097301481704 0.465996909738919 0 0
88.1680701571585 3.86312276797519 -2.08230247251881 0 0
-214.864771238685 46.0141174380693 3.87398698312872 0 0
-215.32160031976 35.6853693045489 -8.771625596932 0 0
-44.0026431082479 -21.2806880209108 6.31701568082457 0 0
-200.258451962057 -27.0016296141574 -2.35418538455435 0 0
-80.4486610986095 -7.60581477669718 -6.94317137247667 0 0
-248.472632024991 43.8461986925512 16.6684559936327 0 0
-237.965387075048 12.3980010770436 -7.43386854861373 0 0
-86.1669586773886 -8.923435048706 -7.5554784159096 0 0
3.96593637422754 -21.6210365753995 13.5806357913933 0 0
-238.990845111155 15.6658190159179 19.8267743375442 0 0
-215.678654631767 47.1085613781097 5.78125312181721 0 0
-76.2582511726715 4.16681114076658 2.88948292113852 0 0
-247.959825233834 24.6309981949705 -14.5799873818235 0 0
-71.1594472636733 -23.7874366087564 8.16977377564149 0 0
-240.050542347802 -13.9537547573951 2.46576780411894 0 0
-22.4577816277469 -22.1398305669164 10.658351238571 0 0
-247.47821937421 -20.0647599463997 -7.88841753923826 0 0
-198.677583143004 16.5601756839899 -9.45085394793091 0 0
-231.032925453016 3.35990334221174 -9.21319166358957 0 0
-187.103196620249 6.77388717669587 11.2546706983642 0 0
-193.95343422755 -25.4527253072579 -2.42920150337858 0 0
-237.373145797921 50.4661980268822 3.55274990182808 0 0
-155.239600823464 8.50021749605859 0.195084846597522 0 0
74.3226062989546 -14.1136916497161 1.51297550707339 0 0
71.9096613906571 -8.87967517878141 -2.82566204498273 0 0
-122.687286976535 -23.4538762862151 6.89689100894802 0 0
76.2931889492791 6.73902994995305 24.9425502572296 0 0
-205.315552102949 21.9718389047636 3.21172547896815 0 0
-218.714716628564 -29.3544609771491 -27.8791773654356 0 0
-241.160012490352 54.987518187204 8.27071164550529 0 0
-29.8128379585407 4.68265754766103 8.43284057681613 0 0
-233.803386823874 13.9671546544028 -10.819659368129 0 0
-205.314600204949 -21.8623737419904 1.42386353897288 0 0
-186.71258218164 9.25975565133665 9.06470689820668 0 0
-142.939340515158 -24.786802397507 -2.73932321227523 0 0
98.4146986510371 16.6980587064118 10.1954594178099 1 0
-249.543616271675 14.1242250057718 -1.72363153435684 0 0
-236.973598124978 1.09396427915915 -2.69920638695778 0 0
-151.163343439203 -18.2018048095062 -17.1478381780877 0 0
-245.848980608033 25.7556483547777 22.5845175871337 0 0
-244.521390991756 52.0121938090773 10.1293775421052 0 0
-179.471906107116 11.7376265198154 2.78376417580512 0 0
81.0527783449781 9.15494171479437 23.7247389277361 0 0
-225.171671007239 43.6904127762291 21.4423740712165 0 0
-218.805732396113 -17.2814341108614 6.42176878231169 0 0
-64.6953004108345 -7.0423161045837 24.7672628914685 0 0
-164.261818049725 -14.0117430965165 -21.1185174605815 0 0
-186.251011492565 -25.7178970976175 -4.07421626754736 0 0
-80.7770948091996 -1.2156970877323 18.0577992262738 0 0
7.3946512925404 -4.9679991580465 27.9502493853361 0 0
-101.617756799577 -21.0330576592253 17.6193718921989 0 0
72.0370199928633 -18.0627981799384 19.3776717994402 0 0
-243.841382335815 13.4643172161174 -7.4045022996088 0 0
-228.704608541251 -8.79969469261852 -13.3870231678422 0 0
83.2831742018882 -18.8813883073007 13.8325838580817 0 0
-153.027814021921 5.52658915268583 -9.922523477465 0 0
-222.200545326461 -10.6492659260575 -34.0469180262154 0 0
-218.768401730239 48.3664546602331 -4.06933716793864 0 0
-155.936955241217 3.06061089608044 -13.8986916740973 0 0
-220.757469765148 -5.78057345496743 -25.7583957401695 0 0
-218.879648448011 37.2734836814119 -13.8880686554445 0 0
60.1209780170475 -14.1277720609053 2.58194901823888 0 0
-226.355032830194 24.5751509585808 24.007976128563 0 0
-221.908553981112 -33.9635214490341 -22.0992470004798 0 0
83.2378427572545 0.671183721515641 26.6280769310511 0 0
-170.247058877744 3.32708533757222 8.24634225340754 0 0
-177.063698913348 11.8611530952215 4.7998235180281 0 0
-48.7101773362267 -21.1123940431056 5.47881765007085 0 0
-232.98120432066 0.0901141661530293 6.17034422063083 0 0
-168.852962167281 -20.8182138097168 -20.2806280208989 0 0
-224.589941285775 -5.4389279427295 -14.9713467796332 0 0
-161.675978150415 -19.9344885476861 5.09715678331206 0 0
-237.988986277412 44.3061032888093 22.1604970316448 0 0
1.52372924141453 1.85119388699868 1.8018053462391 0 0
-145.80906672442 -22.5532126964171 4.49090990089623 0 0
-140.738793852964 -23.0296794447594 -12.5626669288687 0 0
-251.917212840632 33.1683732486641 -11.9823428738318 0 0
-234.463454129438 -9.36566673850424 -11.5050117038456 0 0
-47.885115026457 -0.0123650250104186 21.1553459198078 0 0
-118.411879210761 0.585985772557477 12.7498820029408 0 0
-194.632191852828 -4.09984308918895 -28.5503849038463 0 0
-207.636264263232 -0.821018178321705 -23.3171781568001 0 0
-197.326098097001 -31.1918743613701 -16.082273926132 0 0
-176.039646236627 14.6520681680996 -20.9985950323574 0 0
-23.1180027152684 -20.8293797736376 8.30309628220192 0 0
-242.197762599478 23.0225274241288 23.7275875234874 0 0
-240.674356521974 -11.2734550076304 -17.2802876713002 0 0
-202.678263648182 0.115000987827303 -23.6274858387268 0 0
43.3692263539113 -17.0722894404693 6.98904011999428 0 0
-144.274093923033 -8.19891123777769 -15.2500772110444 0 0
-220.723962757698 46.1797752683732 16.3671125081331 0 0
-191.832536754665 -20.2946245447608 -27.5233405875083 0 0
-217.399140204842 29.74886433658 -10.2411773916371 0 0
-213.785062250992 35.0657481341104 2.97547864858637 0 0
-174.160091001517 10.8796380127988 4.12710489014355 0 0
-153.127027683953 -15.8342179638101 9.94064617569221 0 0
18.2163331618181 -21.3370194015098 16.0823211174847 0 0
-255.267800686116 38.729415247517 -3.43071090272748 0 0
91.0475049869392 1.78147511663474 26.3551976519242 0 0
85.5778039958112 -18.7829112516597 14.644888353316 0 0
-137.245662441443 -20.3132817367617 9.86719296662484 0 0
-217.378255948408 47.9885071185028 -2.10234768830811 0 0
-198.293171959329 -0.967738735634264 -26.8028709262619 0 0
-164.389323363589 9.86312817996766 -6.83641257193425 0 0
67.7800379648092 -18.1191920637322 8.66809710062812 0 0
-242.256348147968 -27.2311712885314 -22.3785762106267 0 0
-86.9552410664221 -22.3334915874476 -0.243227528644454 0 0
-222.006914954363 -36.3498662895702 -9.58110143588243 0 0
-12.8571683467043 -6.38547521537211 -3.7185507733435 0 0
27.6867973746303 -20.8101550134158 15.1999650254334 0 0
40.2871792448293 -13.3338955892862 2.82411297262745 0 0
64.796680926867 -3.63013499670654 -4.50931521720885 0 0
64.0079484142938 2.34181147740706 -1.62304535327499 0 0
-9.04071843426711 -3.00033469676495 -3.34200583777922 0 0
-236.028031143279 -9.31264114014786 2.25298722412785 0 0
-193.886418594057 -2.74470620837653 9.62672124048039 0 0
-173.44855268213 9.96459849425115 5.72251975585689 0 0
46.1524940366287 -19.1997342434307 11.3358363225776 0 0
-182.513677646359 5.82836937203179 12.3503553582976 0 0
-240.300556746602 8.72215643740289 3.56987681561952 0 0
-220.319526763951 17.9509091444835 15.2129575336749 0 0
-16.9003511958606 3.75538104279299 5.74219325668676 0 0
-103.533115139736 -14.4206113220692 -8.92195008285728 0 0
-238.026868174869 -11.9803064250847 -2.99467467922404 0 0
-204.69775473802 8.05617564732255 -15.592023133108 0 0
-77.7863503504811 -1.94217510037416 19.1857123446057 0 0
-220.893874759145 -22.0460200701205 -33.3679714471497 0 0
-73.8327259522466 -3.52146578076512 21.3967937954746 0 0
-154.061018526426 -24.6003326029077 -2.24956245762786 0 0
-209.840180036175 -28.6117064400616 -27.4639807327175 0 0
