"x" "y" "z" "f" "a"
-67.2794395305331 1.87575162856086 13.3611701157387 0 0
218.11874935963 30.0276192264163 12.0546260298826 0 0
-34.7325695923084 2.94801990931177 5.9706682235211 0 0
159.779019347916 -9.96639483387885 20.6146290886448 0 0
-41.84718918335 -1.8632331674001 19.9033910334546 0 0
228.410599067263 15.4859949350668 -2.59604299880455 0 0
-40.6391545639453 -14.5762283710389 -2.69103551846146 0 0
-67.4066135214489 -21.4135837809855 -0.525026524094659 0 0
225.451692293395 34.7517518527257 -26.0588153720976 0 0
-72.4434952221006 1.04442454161563 14.2927329241609 0 0
-90.174853058355 -4.08963653391752 17.0155109743464 0 0
165.908706402229 7.60208798535602 18.9238051120582 0 0
-61.632989399602 -10.8650533634112 -6.62031080182209 0 0
210.492686750844 37.4618726088761 5.307622847243 0 0
171.160193026243 -1.08174994207544 -9.86776596992601 0 0
100.648105764826 -0.924026649128847 -5.77170187576022 0 0
194.681738672398 11.9237337829446 -16.1186545131246 0 0
204.124670434292 -23.4245058159976 -35.9851226457971 0 0
19.7081368088011 -16.0616956549104 21.5566538965052 0 0
196.645937656187 -32.9048733656928 -1.16090563598727 0 0
100.693656384299 -3.30087584591905 -6.39616641434238 0 0
218.259956362454 -5.12157400675113 10.8125348213594 0 0
99.8457989444923 -18.9540304798671 11.7935088311907 0 0
213.550276649164 -32.0219335936086 -13.4543929616774 0 0
76.3994403943852 -2.10702092400581 -5.51526515363721 0 0
162.979216381486 2.77116530971997 20.1259729403465 0 0
190.113622506504 -31.4553922208314 -7.21256253867462 0 0
-71.7864220730993 -21.7179496889939 17.9908354074522 0 0
80.6343920765634 -14.8242681030943 -1.53437875772858 0 0
187.257901671222 37.1173698811845 -6.39846261376998 0 0
-4.27999966299939 -8.52227015385164 24.8972156629966 0 0
174.021012721529 20.7421624605747 10.9624243964762 0 0
210.279889516858 25.2012268998258 17.0758404377811 0 0
152.081770393777 16.4955616026041 -3.50007383306268 0 0
162.550659490617 -1.2211836817489 -8.78696822835263 0 0
192.106901052993 39.1291103356912 -0.892978021515528 0 0
189.037995817869 27.2880293648454 11.2324339896728 0 0
163.579482193534 22.7705363917629 -3.18563090451921 0 0
199.572773938563 -24.6070466565059 24.5010036110879 0 0
218.815055049774 40.6125867435476 -19.0656065405517 0 0
222.777898160701 17.5711138988684 16.3129160415595 0 0
220.133522697094 12.826781510244 -10.4300339178332 0 0
-17.0803145346014 -3.5163963369124 -5.00488210705262 0 0
186.718964663981 25.591422413716 -11.9366561615558 0 0
-35.5615686784754 -0.228657474715185 -0.964470283350595 0 0
161.783738800876 0.541774439542674 -8.43975393170613 0 0
213.177106898859 -7.4024078375787 -25.8961748701054 0 0
205.632243692422 -4.33871799088876 22.2551655189656 0 0
34.0785810393913 -20.3184123045161 13.1026859046702 0 0
191.747492269672 25.2124802219108 -17.9564997944077 0 0
-21.3434843488848 -12.0555686030269 24.2727273122827 0 0
23.2877797279931 3.42005583255558 2.18353261760789 0 0
151.655569477422 -0.605626307847431 21.3769730390221 0 0
30.7762339027945 2.97448550225789 -0.729803884641777 0 0
187.16420427078 -29.9503537298336 -12.545446541435 0 0
212.178138311076 34.4648563982251 8.86418947650219 0 0
174.260519614243 26.8216481347766 -2.24596749667365 0 0
-58.5593616327409 -12.6685124870097 23.1249732771933 0 0
48.5631405649777 -18.4257964186719 16.2931366761004 0 0
162.529504803271 0.0754188946025471 20.6025049169579 0 0
226.3870004575 17.3060274822346 9.83848479110363 0 0
-38.1859256120026 -24.598411732052 10.2597347742159 0 0
0.646419987282094 -9.67017950424716 -2.75221193748187 0 0
196.883087775332 41.7111020081771 -3.41445200608004 0 0
98.7399092323353 10.5175199024826 17.7084098551941 0 0
-12.7901073295968 3.66167836590471 14.882621449958 0 0
200.211811924569 15.8340183821432 -25.238133821915 0 0
207.86694722764 -31.3106858467551 -15.9696975371176 0 0
-26.365271311308 3.41070490731789 13.6669471436122 0 0
198.525867819178 30.0229874298429 -30.0930746382282 0 0
195.484273966439 31.0325556916108 -19.0411742546711 0 0
23.9374735658991 -3.99360470183087 24.8795363523138 0 0
227.103398005258 37.6305588097213 -23.0441001271394 0 0
186.044842528963 -26.3644648409274 2.40778308308208 0 0
188.304118659694 -27.5919481115528 1.814100601929 0 0
222.407884373833 8.8467121207564 -2.23599111104368 0 0
36.4387770989642 6.86138348203854 13.399675939301 0 0
224.048359130234 -18.5150122771914 -8.3817256389149 0 0
189.164819809701 -20.903007304661 21.5953408849414 0 0
213.067666377616 30.7565407917623 11.9722858150771 0 0
-75.5111307581664 -16.5039529116225 21.0023209204576 0 0
-20.3425790948527 3.7620837572876 8.82429924342295 0 0
156.923029817832 -13.009242988643 19.3005397661146 0 0
218.627921487476 -24.4333987744069 -29.8174752945837 0 0
-42.0136244248696 -0.390580396742339 -1.3535611974555 0 0
132.113150852299 -5.94142127917034 22.5806508714184 0 0
169.463517777237 -18.7114306638536 -13.3579476803675 0 0
161.54103864244 17.84548812582 -5.45157522368761 0 0
-26.0670285028832 -23.1561269775412 7.01126318266091 0 0
-92.5725307814108 -8.80643721393347 -9.09949376401848 1 0
176.347502829994 -21.9760348540418 -13.797903024648 0 0
25.3041857221828 4.38340166670601 19.2381023643884 0 0
177.804937157147 -21.2256665361119 -15.2183763528945 0 0
27.4935308128652 -17.9420410584713 2.84954331134604 0 0
148.962407620125 12.3994582443153 -4.19667924100167 0 0
134.817095024386 2.47355976123121 -6.02223845425493 0 0
141.145775701907 -17.8082824233513 -5.1857784584711 0 0
119.599974776639 -16.7450878282006 -3.86162465417794 0 0
228.125967247765 16.8257411776143 -8.62523525033848 0 0
117.454851027706 -15.9592483922588 -4.30253277136111 0 0
225.576761715145 38.9299985373463 -23.7012645583827 0 0
198.549416591177 30.764892105758 12.1530349628926 0 0
221.148705295252 8.25986206570505 8.77041641594126 0 0
16.7087670866289 3.90594030573935 18.6900222805184 0 0
-53.8623257225415 -20.4276443232821 19.9720762457296 0 0
-63.2728989179788 -19.3302877751416 20.4179506611553 0 0
64.5715102750142 8.49753088986087 6.55517138997667 0 0
180.843086704454 -4.48314683480243 -12.3623347952569 0 0
202.950412882425 12.8360238297107 23.29940728943 0 0
79.5024047084289 8.353520121627 3.55891583001475 0 0
204.552009834174 4.64127481360106 -14.801052395709 0 0
189.961680362706 -8.24302939445813 -23.2039454146318 0 0
89.931237690515 10.8979110031255 16.5681457301132 0 0
220.349942193728 -10.9419830954295 -16.0150931443041 0 0
223.281325374273 16.2144323276514 -18.4526619478346 0 0
-1.55732788248671 -7.10570265454805 24.95031813087 0 0
207.901329346631 5.59290688224256 21.3244504591189 0 0
-95.0106707084755 -7.00156865519053 -8.93316227659198 1 0
133.238167592187 16.818170622414 7.21769630094626 0 0
205.200809840058 -7.82141089210058 -30.6600376497552 0 0
46.9987454421611 5.42668737694983 20.5332080807285 0 0
203.940570393775 41.0595334658221 -20.2815221624166 0 0
-5.30397181523869 -3.93159407054768 -5.36823049459374 0 0
-72.7817333366525 -22.923875405601 0.969304503821031 0 0
116.409169979724 6.7715872096976 20.4449607926517 0 0
178.593553123119 8.33104804468915 -9.82084715152503 0 0
-44.7879906666096 -13.2028810270929 -3.77041053202446 0 0
-42.6155728387652 2.6991750616045 4.97079100975899 0 0
216.56991586219 15.0863240368654 -22.6944851233548 0 0
216.46110761219 7.86783784592339 16.6353120051672 0 0
202.323307974005 30.3865920504558 -32.6573281534346 0 0
205.652721452205 -15.4643828304301 -35.0275941630285 0 0
215.874065142617 -28.9379876884874 6.66730366534152 0 0
202.037164797934 34.1825870925947 9.95152207878625 0 0
-66.4555857325969 -9.10455062896511 -7.52614652307903 0 0
-19.6699122532362 2.0281529703833 2.9996942329059 0 0
0.285240426949041 -22.272351042591 9.65465243090728 0 0
215.595728241113 -31.1627885741855 -3.75995691872213 0 0
154.157659296356 -4.24544982899659 21.6286528215075 0 0
165.510549469525 10.6659032887313 17.5779489081136 0 0
201.939786086162 42.655127447886 -15.1675159572605 0 0
199.544664774649 23.937619670788 18.0721325174772 0 0
219.598191762453 -32.9606156019812 -21.55998435662 0 0
103.81645679723 5.78058325270633 -2.13432728053449 0 0
197.696266950665 7.59948747717872 -15.641324066208 0 0
218.794270792429 -8.8828525937246 13.2935973157107 0 0
-12.3233453178591 0.0231050756169713 -2.06059613894094 0 0
223.216942352257 -22.0933947930315 1.97863501055667 0 0
-75.2437814511074 1.66867398884329 0.634176189306654 0 0
163.692725471857 10.9984728802488 -6.69745424279477 0 0
53.1726492501426 -16.8745514037869 18.2819542295792 0 0
211.561217811543 10.5146357842516 22.0779075251117 0 0
213.468248835716 -16.451438535533 -32.8233249223604 0 0
217.765151923493 9.48361045907964 16.6580545223879 0 0
7.97354651329293 3.4909337298384 18.242597646761 0 0
232.383601651635 30.2863547778795 -5.82619695171145 0 0
209.238507673138 28.1744046537973 14.6044111029453 0 0
-64.1186025819716 -23.3583021458443 16.4525323382272 0 0
195.391083456934 41.3349970749337 -7.11577213780481 0 0
193.103799695229 20.9068021811241 -20.4021703610193 0 0
167.713208444732 8.29143690690958 -7.77724496891308 0 0
63.6136185236884 -15.6834372719331 0.0689385672006961 0 0
219.999256357994 -28.7570175122266 -26.8891765992157 0 0
204.681849223465 25.9427146818606 -33.1224255819541 0 0
193.536213495354 22.0795416650999 17.3005110179567 0 0
175.395618638816 -22.3440973289408 -11.9412612644996 0 0
39.1342773802315 -17.5543162512061 2.50345100424717 0 0
205.684072449794 0.859586321620093 21.0107835602126 0 0
199.190837072266 26.147104758853 16.1996615884866 0 0
92.3958873064425 -1.74074499754499 23.626390710158 0 0
161.519801413932 14.0281692541977 -5.89240631082769 0 0
197.898322972641 -29.1366661781778 9.23789237403057 0 0
226.345408707431 20.7037205737114 11.586696870314 0 0
73.4840099786056 -17.345168714691 1.33431554959781 0 0
183.571943622251 -25.5087218553596 1.31109484130786 0 0
222.797987657832 39.8262844908693 -15.6588475385874 0 0
131.409949258798 14.4832361954869 1.34686564325607 0 0
178.146895536087 19.2735190132741 13.4355865287054 0 0
195.947827946817 13.2153569252063 -16.8318882876877 0 0
217.652532223303 -0.653720582065284 3.81201903662486 0 0
138.717409782174 -19.6363837956005 8.062251845863 0 0
161.625517509663 -18.1564986858527 -11.0332280647897 0 0
132.719631082272 -13.1703547939828 -7.28941398238648 0 0
167.315342746231 -8.80146428650916 20.6128990611444 0 0
171.320827316172 -21.9586393820358 -8.29773565047732 0 0
225.782733162263 11.8944998647003 2.76679962431354 0 0
229.637396516812 37.8201530168275 -8.93723625531986 0 0
62.0458270145826 -1.11438693411037 24.0455900303368 0 0
195.762094983074 41.0646341367394 -11.0483907737315 0 0
132.521160083594 16.1027556267265 4.07253449601891 0 0
45.6462618432344 -10.3257273521233 23.6569782454939 0 0
97.2192587167664 -14.7634687045202 18.8098152228672 0 0
146.588509652467 -12.6206435346164 19.630622453959 0 0
181.454775023903 28.601871438783 3.57223060792244 0 0
-58.7259915459984 -15.9850853691234 22.2754984480384 0 0
106.210131840326 -16.0827796860645 17.1500145387661 0 0
109.968682511645 -6.76737932965839 -6.40446320308719 0 0
218.620320716285 -2.73562590034231 6.24455682855955 0 0
141.802869836541 6.74509434730801 -5.3233650566094 0 0
-44.0604314980708 -15.0452541300195 -2.74979477395986 0 0
60.0677814428529 -7.65848987336625 -3.39601242893325 0 0
90.0168451218437 5.73424933549654 21.530827717193 0 0
86.2090311019612 5.30809402102758 -0.584998335610507 0 0
44.7936616899634 -0.784806970324163 -5.45499818353521 0 0
-0.409367529601623 3.05537521364426 17.7478665884006 0 0
129.111668332067 -17.1626989464825 14.9860713599234 0 0
212.856339356132 -4.28503086792725 18.0144781398717 0 0
-23.6478758070583 3.72638504851398 13.038564587128 0 0
228.879286859206 21.549283142985 -12.7920096015716 0 0
180.082091984283 -12.0500132336641 21.0497764637368 0 0
99.2283001839802 -10.1407841797318 -5.03245481930608 0 0
160.249915598449 -7.39212576633483 21.1666785508273 0 0
209.659427153147 18.6086964373293 -30.2329733540822 0 0
183.04476140994 -5.8396161164895 -14.0314241103518 0 0
197.396339599032 18.3358434737821 -25.7275786386636 0 0
217.574189660518 -33.3032509694214 -19.3950629745897 0 0
74.5103182336041 10.5507964437856 12.6561384822958 0 0
212.307135420975 -30.8920551609224 -15.3390576972229 0 0
132.900353527481 -12.2488515065049 20.1666003270547 0 0
24.9243165143152 5.92963637013269 10.8041954522352 0 0
-79.4337986475723 -7.42304121637327 20.2185622687343 0 0
-50.4444617019969 -7.96637056628222 -6.75762278853322 0 0
219.665938405748 -33.1675172991278 -19.6449783144764 0 0
217.769067558415 -8.71376355776743 -20.2799226605247 0 0
112.327399232045 1.74024083901236 -4.94718568338773 0 0
210.29958025819 -28.8962505703636 -18.6096129465713 0 0
209.713243707169 39.6765299309267 2.26404726073999 0 0
127.570863056896 -12.2248778953258 -7.17587756629365 0 0
210.34277760372 -25.8888064579138 -35.2022116753496 0 0
193.006930644006 23.8127041080498 15.8444683917429 0 0
136.912324235039 2.92321191792321 21.4084909393763 0 0
198.766666488642 14.9220661296005 20.4128906176823 0 0
173.976717993019 24.0056293362208 -7.21840050608218 0 0
205.261326149022 0.244213963598345 -16.5977996963219 0 0
144.044141079412 13.9279360872644 14.5837143064088 0 0
99.8429049419106 2.184501114347 22.6797731517313 0 0
203.221744916165 13.2386686455816 -16.353979570765 0 0
173.411658089931 -4.96383056500829 -11.2460993754627 0 0
44.0376363403082 -13.7449246491394 21.907123425138 0 0
-52.1698081630429 -8.72787382078014 -6.81143933226203 0 0
215.477374226278 -32.3447480972728 -8.34731548571269 0 0
202.430553910601 -4.95559220236151 -28.2995958722116 0 0
225.284611300199 24.3729838709293 -24.713749944648 0 0
145.084388840894 11.195206702554 -4.10440123049526 0 0
198.374069770246 0.0440715658244974 23.2769321876619 0 0
218.622061406678 -7.1570420824149 12.1217284884326 0 0
188.028499518048 36.1719953757528 -3.48039458203766 0 0
101.600523958217 -14.8420755241691 -3.48631044480069 0 0
105.737746541867 2.15098403610566 22.4884983426132 0 0
206.739369867059 -34.6193136054042 -4.4860154057291 0 0
232.311904332689 31.1315939380099 -8.16601220699133 0 0
182.315431645911 -10.8452049123773 21.6142422888653 0 0
179.652536514575 29.3613590225417 -1.58151696206395 0 0
-35.8205147495514 3.40543047340753 8.55340923124382 0 0
142.466922474552 12.4506335564082 16.0783354953237 0 0
59.7400698434064 6.79011388050839 4.34473055485971 0 0
225.032347526262 38.4629158426794 -9.81838331754652 0 0
188.538949448083 10.9895610211854 19.3106067368183 0 0
230.784051185943 36.0938445455593 -15.0113823687832 0 0
-89.4752032974061 -20.2342639800448 17.8328295212294 0 0
-21.3644039095677 1.41420251883972 18.0719482877444 0 0
30.7827765769746 3.82720842209023 2.35387267653596 0 0
215.93475997456 -1.16834091363365 12.6125308933762 0 0
7.17946772783715 -6.88296199260461 25.003368430308 0 0
143.969840976215 -19.2846006666711 10.0248951284406 0 0
149.466948711504 17.6853003469621 -0.459128494710026 0 0
209.995738144987 -0.709713463119671 -6.88119327690215 0 0
213.90962133471 9.08467700266362 19.889126013359 0 0
191.478907959937 -6.17424611013318 -24.3228287193723 0 0
183.865388794121 10.0538138253872 19.0771831788398 0 0
12.2908619304922 -21.3076382979779 8.36962352699324 0 0
142.671517536231 16.7048661773803 10.4984556382219 0 0
84.8210184202001 -19.4364476195317 7.07658786308652 0 0
190.072680711215 -8.85777555317346 -24.7821901254598 0 0
-38.4627574909173 -17.813101712517 -0.337804132776999 0 0
107.054686577614 -3.29773649562726 23.450276938539 0 0
80.0648857336102 -18.3728190526821 3.05692157235582 0 0
-86.5644614991732 -18.9584353099316 18.9115963264099 0 0
85.3479208017957 -2.76148384825104 -5.61717215915564 0 0
86.3336508321499 -9.18225154901093 22.8042072122368 0 0
186.186457032273 -28.8847716453439 -10.1086907000153 0 0
145.589071027106 -19.6176508459026 -1.25042030212394 0 0
152.190785645487 14.840736419571 13.8400316763807 0 0
14.8788651886502 5.08897085471199 14.9460688568512 0 0
217.052967141501 -28.8536914877887 4.48005797454488 0 0
20.5798236729723 5.62462064559906 12.9446129489173 0 0
220.049748401755 9.90933848242163 -6.29558503392168 0 0
216.408547230615 -6.36535684172774 -19.5123497779308 0 0
170.111155907868 -14.6284480940861 -14.6051771131189 0 0
188.375921111168 -12.520698917154 -22.867014456653 0 0
212.125610292929 -31.7539051248695 -1.78495543141067 0 0
-45.7714142893033 -1.38516145385784 -2.57050725259172 0 0
204.622155139418 -25.0050163991105 24.7345941509155 0 0
185.007622325962 32.5738445155341 -1.05255743207262 0 0
115.516496854066 -18.6881047901497 0.0961055567643784 0 0
139.346714212577 10.8506194444155 -3.51214982566125 0 0
186.235287949513 32.2609538786285 -8.09933657772191 0 0
176.117503088623 -1.83045462334835 -10.8788619690604 0 0
220.351383956373 -24.2236783649633 -27.2364587948628 0 0
224.113847281517 -28.7452622473137 -11.3418113024166 0 0
174.603073389344 -18.6561877870664 -15.6166824309401 0 0
211.699194878679 -33.8651339399414 -9.65801746119707 0 0
177.92343108829 -24.3110353852121 -9.91057190257228 0 0
183.379575994424 25.3503035344578 -9.80343810408505 0 0
210.071482579059 -28.7205924505181 12.0821110626909 0 0
221.929786918136 -25.8788401321817 -23.6827543721431 0 0
217.196164433354 40.6227215166194 -18.9105553539944 0 0
187.59778872595 8.62999910919249 -12.5602343732449 0 0
203.501843152701 -23.6734232799238 26.315456291535 0 0
0.176935927737575 -21.7593244245204 15.8522727565004 0 0
35.4854695030387 1.80872836164684 -3.23530714803065 0 0
211.889853397585 -33.3052349720289 -4.60981709419788 0 0
110.671003059586 11.4726676202473 16.8944926812773 0 0
20.1126392960861 -1.67788491876779 -5.30964748864607 0 0
217.909914620601 -6.51640128815753 -15.3065321505486 0 0
202.375274517272 -25.5166240033476 -34.9239708240357 0 0
152.529057533875 -13.9195960679187 -10.9566345044655 0 0
204.009751608123 34.376583147852 9.64060748467584 0 0
202.323703973651 35.4587849571001 8.53759422830649 0 0
204.684449796392 20.9366981393589 -30.9407230914803 0 0
174.379102302399 11.849526989335 -8.71788361410801 0 0
196.942228789675 -1.08858866955697 -19.7669693144111 0 0
184.925643345938 12.5529595244455 18.6201946300147 0 0
196.413147618186 30.3605809875859 -26.2162341873465 0 0
154.606897409876 -9.74271479623505 20.888370433219 0 0
223.9631662228 -17.9014860139395 -10.2644707247631 0 0
-5.74581573998213 -19.6130156629575 3.554511317986 0 0
67.3720762828614 7.10347408144943 3.65803165995471 0 0
205.854461516049 -26.2359001255161 22.2280246990274 0 0
219.313809112441 10.5381738284981 15.8575341021689 0 0
194.56764698128 -6.63973040505315 -27.0821463440403 0 0
223.412704674926 18.5305167869329 -23.043093360687 0 0
8.23050336480618 3.25838531668514 3.78389500825848 0 0
176.385505147087 7.6542228643312 -9.38345923383886 0 0
211.575583405424 -15.8650305182202 -33.7577385247284 0 0
140.937177477197 4.20445601947148 -6.00052365218349 0 0
89.5877428027174 -4.04499064186721 -5.52618770716417 0 0
193.71726734828 -24.964677898446 -28.6075493693218 0 0
205.516214981923 11.7910213037621 -14.685831697382 0 0
169.811246971864 -7.18746239140998 20.774313664379 0 0
-49.9337110883547 -4.96793388317039 -5.8597857803962 0 0
201.25080965565 40.8408431031081 -19.5679560881238 0 0
-22.8243115781214 -13.3580884816619 -2.01568851822926 0 0
179.497059722274 -11.7854149718353 -15.5865132278749 0 0
224.182940027062 17.0739913840394 13.5592753220571 0 0
112.653701673183 8.05862461522187 19.7795221978337 0 0
181.511104242673 -25.6172711478792 -8.34196070597724 0 0
-43.1985901266584 2.40577668920249 14.1062658978578 0 0
205.071189991631 28.0676731751456 15.2301610759458 0 0
-65.1053916910547 3.09106461699222 5.51343661890754 0 0
-28.1609637748113 -7.5360693869469 24.4253737127821 0 0
198.190614137723 -15.7853368002791 -33.9117839705783 0 0
126.374038017395 -16.8124376553644 -4.54327656912975 0 0
-4.41644954810174 -0.0169697946648272 -3.09743493058301 0 0
10.2262145146247 -17.5251503925659 20.8667265830098 0 0
226.899007175948 39.0756927861512 -12.4621444210919 0 0
186.542096700622 -13.6647827164533 22.6503698063281 0 0
145.887945551484 4.95931424328859 -6.14524508050456 0 0
-94.4155784384183 -4.83531905765465 17.0250901731409 1 0
193.802384639167 30.1809463562234 -18.107964608016 0 0
200.428102175122 10.0848636650692 23.4290199270385 0 0
135.985983012407 -4.05694285798099 -7.76214177065381 0 0
214.778419722895 -32.0680322355 -29.3525811734806 0 0
70.467938774037 10.0806945956626 11.2461382832902 0 0
126.955578174767 15.8858995031538 5.36488728804108 0 0
140.875023300504 2.27301445288254 21.4025364162696 0 0
178.027499008309 -18.5510036895708 17.1821490325737 0 0
42.5977995354798 7.3705780940593 13.5359814791779 0 0
206.068310388089 15.4051179060749 -26.9255061960709 0 0
158.603336943577 -15.4114228762588 17.4403905098782 0 0
-49.1637554519795 3.08705274131019 6.414045101578 0 0
22.6269383987783 -8.53438730391692 -2.71769565393425 0 0
179.638308086342 -24.8312498127316 -8.7991332002354 0 0
114.583743386737 -18.1445086839914 13.4230486117369 0 0
190.836449399052 13.5716408176862 -13.5888735359418 0 0
228.448513714627 38.6686512363971 -11.1504683543804 0 0
212.09706605903 37.9739348057341 4.57770190914992 0 0
216.656711161262 -14.7329978846544 19.5777572540278 0 0
228.963665201322 17.9314631032603 -6.45648016911834 0 0
204.257610334335 40.2897699943101 -23.7692467074372 0 0
-77.9998534370423 -17.2204261073624 -5.58393897229621 0 0
17.4812994192377 -2.20060713087286 24.3858555532782 0 0
-71.3282368936713 -12.3879506207869 22.2710596535185 0 0
205.204905386251 -22.1012959547373 26.3951778117073 0 0
191.585019986798 -27.4056341443521 6.66525303972403 0 0
232.061746888797 28.3045206969246 -7.43049350449171 0 0
25.333150030949 -9.25902662244248 -2.39319436178339 0 0
152.985719206667 1.67002347547216 -7.40389954238112 0 0
-46.4959465003993 -11.0348936366572 23.8232493036783 0 0
196.063719825442 -31.8505496504864 -15.5275298368655 0 0
117.07679614192 15.1999720468054 9.31609424304307 0 0
138.62323733847 -19.9177271538454 5.72468772426597 0 0
128.586003302244 -18.9778615681076 -0.418401475921934 0 0
185.975422761694 18.6400724847618 16.3277066292166 0 0
-59.1510799952211 -21.8568959847702 18.4886831515046 0 0
-5.33763426421823 1.8192447038201 19.3874118778361 0 0
31.4410838774953 -19.5663954835776 15.80341049736 0 0
222.417559210511 -31.3246546401147 -7.21945650202271 0 0
125.141649814235 4.8717173836784 21.0303263516321 0 0
-67.3839070750518 -23.9463758371018 15.3769393645922 0 0
201.939926013894 43.2115777916256 -11.0734993683042 0 0
145.554137581047 9.07773812680532 18.6725862441681 0 0
94.5334990039045 2.73340829316047 22.6513656884551 0 0
27.2261944545408 5.53603047656774 16.8532047149544 0 0
176.688527078527 -16.7523124437692 18.6481020363545 0 0
27.8269572686421 -8.03029741799618 24.7077959272567 0 0
-70.0232337719547 -21.1693390591014 -1.13740003923878 0 0
45.688009643552 7.45232284964671 15.3029993400637 0 0
188.903039044292 33.6694041642015 4.44676322769291 0 0
6.39940811088366 2.0817239207412 0.620756541040908 0 0
36.1511296862522 -1.63263385835502 -5.49015660650588 0 0
173.040467099887 -6.69093649057502 -11.819985274158 0 0
136.844847210075 -17.5322463589449 -4.92792517413096 0 0
134.08535332917 -19.1241564360292 -0.824243570609696 0 0
195.492777396792 18.002169733438 -20.81017158397 0 0
222.614797483374 -27.5344519652057 -1.90062555897753 0 0
72.2780072956546 -8.12746097598607 23.4947324253072 0 0
197.724883590264 37.9316014923945 -17.7078127608707 0 0
182.312423115959 -26.3725898677506 -7.05151455182512 0 0
221.419765167977 -13.9927665476735 -18.3812920468086 0 0
34.7403533999551 -12.7495422206572 22.9778958953576 0 0
164.55385795445 -9.6817456802758 20.4780876164235 0 0
144.768493797323 -13.2931066984064 -9.28772591538764 0 0
196.160464287426 -28.9023093731602 8.31851394277018 0 0
224.229852897251 -27.1112977385756 -12.77872362921 0 0
217.614356300365 18.7589242298125 20.3366051334586 0 0
219.552206599983 -14.7703955187593 15.8054359346909 0 0
-37.5204315828817 3.36705037920099 11.258603330415 0 0
216.194867981257 -2.0187745649461 -5.74177176543203 0 0
193.132432511052 39.3412422705361 -8.5947374338359 0 0
-25.0479875706935 2.78330554112327 5.14067601746851 0 0
107.12802786427 12.8513874966094 4.69694286502584 0 0
-57.9128527199732 -1.39167261540979 -2.86454882704329 0 0
227.116529308094 13.6739492027747 -2.56326124665952 0 0
175.317701858534 23.6817914580643 -8.21248418568321 0 0
197.249233012464 42.2730467622824 -7.99381850799317 0 0
193.368059335169 32.0029830464272 -15.3843379388305 0 0
215.721391819125 40.369950910047 -2.29541098804713 0 0
46.2036007339947 0.468216544515977 23.8576127305447 0 0
99.9009579611666 8.54643894891624 19.5425098100919 0 0
95.9969384070135 -9.17282870368508 -5.00715094218436 0 0
181.356521728178 -25.421324579992 -11.5306158122682 0 0
172.75696263829 24.3288963214293 -6.07779478919241 0 0
66.9598339261266 -10.1950857943049 -2.85935836390014 0 0
217.118819369568 -25.4368899887334 17.0492718455179 0 0
215.946778412413 -27.1967088572444 15.6635803840893 0 0
111.860335203354 -16.4110270766767 16.5793277141075 0 0
199.767376412957 2.02322193238247 23.0883176464786 0 0
224.558419406309 37.7282184711765 -4.43229926657012 0 0
153.205782137281 4.53533581984232 -6.76565158282681 0 0
195.215547496739 -33.1755620095002 -14.1139391637329 0 0
168.245183930562 22.5483119566454 -6.12933956734213 0 0
130.413031774625 12.4003729666838 16.0412010894933 0 0
135.109814387185 -0.762911862482385 22.2738964049033 0 0
198.822171204032 -1.19760694790736 -20.3939807821364 0 0
81.6338580741993 -18.3591672714721 14.333311723795 0 0
-14.7756018396464 -19.1806326410177 20.7905027534951 0 0
29.1224877553774 6.17426134098361 14.1938521412948 0 0
-20.6567791614155 -21.8049299596775 17.8863154558847 0 0
156.963332410523 20.446519312401 0.635436529935565 0 0
120.362730426721 -10.8857694281352 -6.82667197614698 0 0
149.545640940007 -0.6000598396548 21.4773644252666 0 0
-33.5778607436285 -24.1740308780017 8.74663942906538 0 0
146.729697451916 -2.32817446307276 21.9264783457669 0 0
184.801660889217 18.7125712981098 -12.151790649698 0 0
223.533888533221 -14.7268180477358 1.4540078653651 0 0
189.043953197769 -17.8286817237148 22.8502715777903 0 0
221.283677317576 -12.090428132843 -14.5778427488388 0 0
204.405123133297 42.7106485743794 -14.0305634984537 0 0
227.070087903471 23.8436196178767 11.0828096665941 0 0
130.394772267752 16.4008140935259 6.02836545519118 0 0
185.91023110243 35.2557498074096 -5.28970402519352 0 0
171.524643349295 -12.6052633141591 -13.6603309623825 0 0
-1.63937173617074 -21.1160952322891 6.09509629563371 0 0
189.89395282987 -13.0636554814462 -27.1248475003493 0 0
-95.8499696578636 -6.5142117248225 17.6724493926742 1 0
168.69706022348 -7.59830648893229 -11.4292888480109 0 0
6.89000008222678 4.01612624543663 6.01619580803602 0 0
218.13630926451 -18.7687638962334 -28.8034212135214 0 0
-40.0813914732878 2.97031421796765 5.94982392331755 0 0
151.159427510217 -15.6123640176903 17.1652346291732 0 0
93.2437794203128 -3.10522374871255 -5.88511977429585 0 0
215.281762868975 -32.500779072202 -26.4254188094593 0 0
69.8312142103171 7.89437395880948 19.2562720417346 0 0
-56.2383556193532 0.35656438107255 -0.355750408181798 0 0
207.619635700893 -30.8632441145888 5.90594767787856 0 0
143.437405626655 -6.48238235249802 22.0513886303476 0 0
181.722407833641 14.8688487218599 -10.9354491027413 0 0
205.78004419525 -26.8048637603186 20.2922775305197 0 0
137.580458535134 -14.4481271349939 -7.43730397106098 0 0
-90.5155001186671 -10.6749770548056 20.2327994974078 0 0
128.621960748317 -3.6972220778647 -7.58982356534208 0 0
174.20121144704 -10.3079175940826 20.5019933757577 0 0
169.691218471921 7.4541679745766 -8.27553271505273 0 0
113.741338047315 -10.6569660035664 -6.24314560283158 0 0
222.931977930242 -13.5397251513252 6.03272729253869 0 0
-47.0519949451269 0.555018666894039 16.9290361705207 0 0
207.715647940791 43.029331489286 -7.77658328224697 0 0
215.477248253926 41.5755651707696 -9.24643953843276 0 0
44.0632378458599 -2.72483336290345 -5.25596430607075 0 0
220.993421866986 -26.6096018175132 -25.6516448886887 0 0
196.996810274852 5.64916419941236 -15.6734853014177 0 0
-15.5982596229674 -1.81259200119727 22.3963539471256 0 0
218.497493582228 15.1350387752602 -20.5972345475926 0 0
28.2653288544597 -20.7643048297603 12.2379060228376 0 0
191.968730878203 -7.49831814154279 -26.0329295670046 0 0
-69.3386550013825 1.79787354266017 1.41367519833756 0 0
173.949555540993 -22.8603317567387 -4.65660772044899 0 0
62.431251799417 8.20076035703568 6.46716373305623 0 0
163.905886972226 21.9612373473361 4.89406920998333 0 0
139.641237702247 2.12104311196623 -6.41652299526546 0 0
194.73244019667 41.2045460359561 -2.7125559053636 0 0
180.29650308562 28.9459161990305 -5.60967078373096 0 0
-7.89507456613805 2.2954656762497 18.1776736457696 0 0
15.1730502371277 -4.95836661675146 24.9551908899599 0 0
106.977912095589 -15.216261366736 -3.85102000567992 0 0
23.6725022640602 1.00931729441742 23.0872620800665 0 0
180.861446136093 -19.1837225578404 17.8951216476402 0 0
213.468650252871 -25.4088000483667 20.4428862974016 0 0
221.100015014398 -10.5906897499902 9.43049828899402 0 0
90.1848983522075 0.525123094635458 23.3101162086835 0 0
205.214694750616 -4.42993637629635 -22.4105216668791 0 0
185.734535869405 -20.2804577441123 19.6916438505364 0 0
200.507892768902 30.9649976016673 12.3581171099131 0 0
129.437914872851 1.03781790183324 22.1419772947951 0 0
171.315313759057 24.9820745962299 0.34391835417667 0 0
27.6276778717506 -8.64356884280994 -2.5871282401447 0 0
194.79134462952 -25.8396465559394 18.8016572384712 0 0
47.6750859314545 3.37694426685338 22.4780936395252 0 0
-20.8826808263373 -11.4423653200531 -2.76416999147945 0 0
184.131689735743 11.5807345217853 -11.1047458253779 0 0
151.427072071064 6.62417956462437 19.6256735607653 0 0
199.68051140239 -29.7005570727252 8.76839607796086 0 0
11.7809245440961 -9.58195753299053 24.6651273048703 0 0
177.339570086477 12.978449543641 17.2032576205436 0 0
219.580019328574 8.54582503555517 12.9382070312502 0 0
57.3819952249633 -13.7085139391266 21.2295788928462 0 0
220.889664079668 14.4138675811841 17.1209090876098 0 0
157.836561280023 20.4842753459071 -1.46191589268648 0 0
-53.1041105160846 -2.79483843965751 19.6800121451114 0 0
1.21149523310074 -6.96179600249344 -3.92358931119208 0 0
188.443415896523 25.890981187122 -13.3523174558825 0 0
60.8207479652065 -18.7047731771143 4.23671523233501 0 0
-35.5397463035741 2.97777656435326 13.6402793883068 0 0
175.371992716129 -5.34759612540316 -11.7131714075171 0 0
171.570445789787 -18.7916707910495 -14.3207269573557 0 0
10.6467749442699 -7.4721202793662 -3.3400985589818 0 0
118.463176933207 -18.0001436086385 13.565417514804 0 0
207.853628127259 -29.7395603912814 9.25808091721718 0 0
-25.1345097078088 -23.5454623868796 14.8375972471188 0 0
184.704681831282 30.747828656433 -7.55297946330463 0 0
17.3027385930928 -21.2578934349881 13.4532860747697 0 0
201.199350971595 32.7964774913665 10.9598972923964 0 0
-10.3288103263468 2.98601543598533 16.6802354687018 0 0
98.7074966377975 -15.87384479147 -2.50219611628831 0 0
155.171456063016 -17.4400347456243 -9.68743037839311 0 0
197.990371102348 11.1309192842068 20.7731491132255 0 0
216.797011227786 -23.8507578723649 18.8690974092711 0 0
175.385372572664 20.9470592790166 -9.09376721424559 0 0
-67.3885364527724 -14.4131612983955 22.2723577597836 0 0
169.828690577307 -2.18804409962616 -9.91884742158382 0 0
-15.2707836041979 0.341631948001938 -1.17335861072249 0 0
188.86708534649 -15.2493582890992 -25.8482932923386 0 0
185.737458681083 -15.9858920083301 21.9475479584314 0 0
104.994439925849 13.4947588055153 12.74298045222 0 0
138.032618640592 -19.7311892920573 0.947353742231699 0 0
222.676811510761 40.3014465282032 -18.2060732768336 0 0
222.870289252183 27.8182308673587 -28.621651018513 0 0
146.784523264531 10.8143763670642 17.50473241331 0 0
120.997082500858 -2.49175457916875 -6.96033654240097 0 0
218.134004958212 17.4803240261419 -27.0694127608396 0 0
161.521377241781 -2.98552628208609 -9.09811465959117 0 0
231.218631490435 36.5826409143027 -11.3797048947093 0 0
2.80048765678745 -22.3047022182322 12.6863403886722 0 0
196.029188437744 25.0000022037398 -24.9477155597974 0 0
220.048783823 18.5650992813516 18.821011681698 0 0
26.9976600025641 -15.3797610567891 21.6921198011868 0 0
188.871536748233 13.7038069909853 -12.4997703414717 0 0
-65.1531619648639 -7.08822926693775 -7.42937388701651 0 0
214.394008128682 2.57923548099975 -4.15156608065685 0 0
-58.9885919492788 -5.87402456690267 -6.66249209447837 0 0
34.1565670288865 0.990197275580984 23.4938479603259 0 0
213.875566406502 41.0238765229162 -22.6511253745874 0 0
206.385989361218 -2.41510609034016 20.9992877701199 0 0
-77.8557569744442 -0.727034659204866 -3.17402275854485 0 0
181.65648767465 -14.7556813989085 20.9460428592843 0 0
-75.2102318852889 -4.60659565981367 -6.41552863309115 0 0
186.417430101852 20.087828106917 -12.7881264594344 0 0
-91.0345430204727 -2.55264473650047 -6.05309131934323 0 0
109.198036588402 -19.3566122259417 5.0049669597414 0 0
187.170070481244 -9.46476709985508 22.6717257849182 0 0
221.028398715503 -10.366016409221 -5.07982491482586 0 0
223.997533490271 -27.4623852134169 -14.9674049834499 0 0
212.819517606901 -21.5772363397591 -34.4109045674948 0 0
43.7322102162917 4.42190376815422 2.49328593496687 0 0
193.257305505813 24.7623136009823 -20.5753759176501 0 0
175.824457966003 27.406013104413 -1.95715600168248 0 0
96.0624557509009 1.95980056170399 -4.22607865616768 0 0
225.048325383677 40.0290998650317 -17.6918589166683 0 0
153.531149992555 9.7657815868013 18.1769624203104 0 0
228.227711321189 19.2349356922126 -12.7560400862177 0 0
202.483545681946 42.9064709024757 -2.04397215583145 0 0
178.910373106249 18.5015279116338 -10.2072080822217 0 0
232.074643492725 27.3836895355609 -5.98571357967355 0 0
-12.902935589608 2.41832291657338 3.65395997074038 0 0
-55.7392217960557 -13.7863592651588 23.0794934648944 0 0
190.40339924677 32.8804972475683 6.65922759185833 0 0
55.1553111764657 -12.8003971781352 21.9741600513162 0 0
29.4610664736761 -3.44215968904577 -5.05668784330625 0 0
-38.3991118206879 -20.3879094631911 20.1646204456559 0 0
222.669716494565 21.3267962483159 -26.729833849505 0 0
224.098173079508 -21.2609047494078 -15.4601907121768 0 0
15.9467332489643 -10.7319933014195 -1.88917467285968 0 0
60.0020744755642 6.90236268071079 19.7543304653225 0 0
-12.1232358411972 1.4441817656814 19.0907281431904 0 0
19.8291208204952 5.54766791574051 10.184685775447 0 0
199.475520720037 21.0580156048885 19.5784632409113 0 0
110.75200475187 -19.4347926212957 8.02682824860325 0 0
193.137301867845 30.6531710204286 9.93063791405664 0 0
-80.2034809842081 -24.0946256612629 14.6491969979979 0 0
218.293806797163 24.1634621630873 17.2313328105273 0 0
111.21278411448 -12.7887291339584 -5.47239314632808 0 0
-73.8632176792728 -8.22750086468413 21.2698612365117 0 0
-15.8738271225536 -5.12040824591313 -5.33882923092154 0 0
95.919838876737 -17.9548072387522 14.594362382635 0 0
214.641722062966 -28.3994672969984 -32.8908351322688 0 0
218.780898182122 -5.82935992919393 -6.59956371607579 0 0
-93.0698495684132 -6.37477111286206 17.9677651534694 1 0
221.42417174196 34.4751508897565 6.28704337301636 0 0
99.8831643146872 4.39650579449729 22.0033172100521 0 0
82.1473891804461 8.59753716404465 19.2140059656139 0 0
17.8218380745017 -19.5962464425253 5.02389759357876 0 0
65.0576416109018 -7.27496377187201 -3.65582582150171 0 0
-1.93163923233554 -10.4152939051713 -2.50787304539075 0 0
218.658678036827 -33.6421535540668 -14.6526690837147 0 0
224.747603971042 18.8043988179862 -21.3155410114174 0 0
185.086951085867 11.7179038339688 -11.8511401921109 0 0
223.75952245641 10.4888003672177 -3.55623922312434 0 0
182.101711285431 3.23628398988176 -11.0235041256348 0 0
121.147316905996 -2.56660681293888 22.9944724132205 0 0
199.914403533123 42.7407037417307 -12.5816392833753 0 0
193.259909140896 2.29034376084934 20.7055473504865 0 0
180.500596826954 -7.2312576224081 -13.9305879872413 0 0
24.1509065465287 5.34954095184031 16.566231701192 0 0
191.961989653241 -27.921874579256 -20.9057943028808 0 0
-23.2157917029955 -14.8438549716868 23.4697692571248 0 0
208.109822219714 15.8936657919407 -18.0747191695166 0 0
162.497798059884 -13.8142614383122 18.8170246586994 0 0
173.565921994978 1.67256254990539 -9.79097780053192 0 0
201.900731402787 -3.12938883524154 22.9570497142451 0 0
-12.6987399565352 -22.0164070165869 17.0440754568877 0 0
-93.6229920576838 -22.1533296814595 15.8911883821223 1 0
200.157879300805 -26.0153161996947 21.1155620024985 0 0
166.699925942065 9.64261435434234 -7.44710356570563 0 0
-2.33840191103581 -7.76042585668954 -3.77924700758098 0 0
104.895071074904 -7.37300870932422 -5.89745630576945 0 0
171.829133707284 -10.1862409168783 -13.1990075141378 0 0
126.61378293612 -18.8381001904865 11.2995827136631 0 0
155.486097054055 1.33173596672328 20.8622168079986 0 0
0.706778456995015 -2.52748794888632 -5.19551159440959 0 0
205.476908973563 9.11953110475924 -14.031920632416 0 0
227.83770794051 35.1487071762005 -22.550362804988 0 0
211.679974045944 18.7188651648473 22.514993415194 0 0
219.785182716193 28.6024669053818 13.580387372688 0 0
190.594017208738 -24.3537093244867 -25.8188105374711 0 0
22.4726049049352 -19.5971272234058 16.9466659979168 0 0
169.737691847539 20.0714236173163 -8.29490913259992 0 0
189.058502529522 -24.5905836308954 13.2657524871103 0 0
184.145645096399 -1.52243104673613 -12.7512217077807 0 0
65.9777367645791 -12.1019556602286 -2.11678727531602 0 0
120.132085801669 14.6263415517408 4.36438063121208 0 0
-75.5489063701215 -11.8629613671368 -7.01044554413074 0 0
199.838349250022 11.8075805444838 21.675370102933 0 0
195.621632261819 -33.3984676464749 -3.80255956929259 0 0
182.491935487783 -6.34505716544542 21.2763324146903 0 0
211.326823272052 15.2653145203119 -25.027602178206 0 0
-82.9889442355248 -13.738745234711 -7.17060343399935 0 0
-58.6111723221778 -23.4498634866414 3.64739537215844 0 0
88.1681352941878 -13.6455910152809 20.0433777813483 0 0
160.767303192421 -4.94211921658369 -9.536989058493 0 0
138.361584897099 16.2862727495706 2.53541243275816 0 0
79.8896614276594 -19.3589661917265 11.3988592506208 0 0
194.00251903413 -33.463509084756 -5.64754397414775 0 0
191.357144189304 3.53452898442123 -14.6477934645738 0 0
223.749726424296 -16.9177307111842 -2.71389425640588 0 0
205.875888310821 17.4046640526035 -28.7340601236374 0 0
-22.9421940967543 -3.69723019360584 -5.23457185854859 0 0
-38.318608443152 -22.2105077001213 18.0826653038873 0 0
212.483499442152 -29.2356749852447 -33.3890394472986 0 0
204.061085939496 -35.6736307195531 -7.91391014702359 0 0
191.885820028536 18.0166553565431 18.6895990449653 0 0
190.747443615754 -19.1986792288944 -29.7909615109812 0 0
151.232020511278 -9.16022282539029 -9.88547945058251 0 0
182.644943985968 -17.4832382158101 20.2362627280425 0 0
178.025181781529 -23.2732883897715 2.9357534749259 0 0
150.883670932116 3.76174211134537 20.5711017924145 0 0
197.959873412537 -12.8228002136788 25.2587117807105 0 0
55.3438980215773 -2.15886499977527 24.296032333612 0 0
-71.2034959828102 -24.0863005336815 14.9991886233824 0 0
-16.7616308567133 2.81912060898265 4.99002320961186 0 0
196.316028270037 -28.1350052202654 10.5825038201629 0 0
-89.6760196599406 0.298059458464357 13.8900676918453 0 0
194.969769291319 6.29523885388348 20.6089506778036 0 0
169.667468562583 24.1506790967141 1.57127387801727 0 0
171.453900186833 -3.47936829400498 -10.5471601975478 0 0
211.366172404731 -5.27476511357094 19.8081934484272 0 0
-31.1516142524582 -14.1372503836831 -2.215344844042 0 0
100.756206922951 -19.0786409175065 3.68624259787813 0 0
147.28056156369 -8.1438807829535 -9.44795896678622 0 0
223.693585630657 36.859820014204 0.365729137052323 0 0
-62.8190273189627 -16.9748718895615 -3.77037566572181 0 0
203.543733305137 16.2153534862102 -20.481245269007 0 0
30.2423303309927 -17.7941796223402 2.72230414701271 0 0
226.280890661584 29.2084976932428 10.9869309078427 0 0
5.17233143065962 -16.5161873586372 1.02658815711282 0 0
216.714760151978 -0.676176324827103 10.8815630295776 0 0
178.703242001199 -13.1393261583506 20.5914602535413 0 0
220.308096455869 39.3241923022877 -4.21853602254379 0 0
147.440874765402 11.5622032994653 -4.21573217036457 0 0
33.141264036555 -19.2386982202342 5.14386338369476 0 0
90.5649953971464 -17.1186524479465 16.1416860263896 0 0
218.74091592965 29.5778587814283 -31.970434546845 0 0
102.163218374702 11.0898848031776 3.11251601478631 0 0
200.605135134047 -25.732994053423 -33.2163831676292 0 0
221.272430921869 -25.2743874828303 6.36400133141935 0 0
192.991737760073 26.3860361320674 -19.7826748583199 0 0
104.330445918036 -15.2574665924655 -3.49594325680247 0 0
116.422976276368 -19.0538078699913 1.69272519157935 0 0
182.715881491084 5.83211700093808 19.3610902557366 0 0
174.632330348279 -16.2236862383287 -15.7408435333287 0 0
81.301605177146 6.83674543222115 1.44421353771532 0 0
126.957362637588 11.1278688036195 17.3326164190784 0 0
180.016584910984 17.4758404993619 15.2321612877693 0 0
106.962664272828 -12.9929709373035 -4.96894649097213 0 0
51.9421230273694 1.4363503997495 -4.06210714054498 0 0
-63.0735099643959 -6.82737719607397 21.7055939833505 0 0
-38.5709476478488 0.26025885318096 18.0360718992575 0 0
216.414087461222 35.3356612571795 -32.6696102118608 0 0
166.548347220812 -2.08373066033724 -9.49797768665985 0 0
225.079590986867 37.9467117068987 -25.5073052366289 0 0
-29.1622896114977 -11.8795254962843 -3.2025915947669 0 0
169.708699880031 -12.8702630736094 -13.3567957573632 0 0
208.444063231454 -23.7813267094247 24.8705749185827 0 0
146.083311291747 15.1948401485976 -2.48633366962495 0 0
180.701760490682 11.0839769502386 -10.5694741237736 0 0
152.115514482196 -16.0779169817258 -9.98734543911773 0 0
49.7807199686321 4.53077074933279 21.6479381903337 0 0
32.5083464970635 -16.4802141540161 1.39664296129548 0 0
25.0579022555108 1.58863363331743 -2.53810266501947 0 0
166.314777902609 -19.1446702539159 -11.7470860075073 0 0
-1.16665048814182 4.03468033039832 15.34513294401 0 0
204.713876385907 -19.9711373575073 26.5656298974212 0 0
12.2668690539285 -19.270595802142 18.6642163469956 0 0
125.159875296455 -12.1058154483014 -6.99827286055082 0 0
135.665949038649 -8.91235599436593 -8.60898099557491 0 0
185.678596725297 -28.3485549511073 -8.11097544326984 0 0
190.624382735351 -26.5421937384101 8.45761663251598 0 0
168.530676987693 12.8975998380045 -7.57671228246871 0 0
208.78071877647 -15.4250364547352 -34.5846136403091 0 0
151.127800776178 10.8541792507139 -4.8908203724731 0 0
27.5834923474525 4.78791240956673 4.66139504265937 0 0
150.750036642781 -4.46987828969598 -8.51074590616768 0 0
-29.2937113553722 3.55829284092463 11.9774626923995 0 0
192.323234763529 32.7555677140082 -13.3204547366463 0 0
-85.0702330974991 -17.1555031780299 19.8857869111299 0 0
106.751362079584 -19.2123421407275 3.9516301766726 0 0
158.374562536993 -19.9640482404014 6.93917442620471 0 0
117.923945124186 -16.3291922132839 16.4727680659991 0 0
229.235148350126 34.3649468443741 3.24892415694273 0 0
-74.4799262449378 -2.40627858739312 -4.57482046643974 0 0
154.112314027106 -10.4892739035396 -10.4141383501968 0 0
-29.524325703604 -2.3731110830467 21.6615070341085 0 0
198.680948173279 22.4471512078134 18.831239359923 0 0
206.983960532035 26.8486895512403 15.9967287907466 0 0
-4.05746606095489 3.93771328866916 15.1342335055066 0 0
135.909438553809 -10.2504493813547 21.2447836956023 0 0
100.309282467137 -7.8013737695722 -5.4731043992514 0 0
49.702424015463 6.61578875135244 18.9734213027736 0 0
218.140641242424 7.33730746708307 13.7257699751367 0 0
74.8543859838539 7.40984496151845 3.12963308910678 0 0
159.247143739218 17.9642604099706 -4.77032337637166 0 0
181.673739691346 -5.40148813131772 -13.3397087029406 0 0
173.288080961644 25.8257993383341 -0.222392812260575 0 0
175.959574396615 9.49475549249821 -9.18116826129135 0 0
-89.704826846575 -8.53975616897858 -8.62176928544185 0 0
124.32818749875 -16.7817716449644 15.7193803353779 0 0
188.89354597376 -9.54784868067179 -21.1908506855471 0 0
207.889200602912 17.903895329794 -29.5558030283359 0 0
168.060961291211 -13.3069774766851 19.288850639452 0 0
174.556168839801 25.1529699628363 -6.11621911736732 0 0
206.081922009243 42.9989152287836 -2.30451106791842 0 0
-46.4653966460594 -21.9372621527045 18.5614861774203 0 0
188.48397560511 -25.5882553796465 9.02727145552137 0 0
201.841462270286 -14.2087437594143 26.084206192907 0 0
122.754410822908 -19.5236361395554 4.40134994204242 0 0
60.7893838385453 -10.9580941955232 -2.31996237885668 0 0
175.441573803269 -20.9940024814892 10.3733982624009 0 0
10.0397860057229 -5.30172507138026 24.9601767926755 0 0
-68.3966009424135 2.6405870301315 11.4676464822788 0 0
-21.1489079628697 2.86886486346157 5.28674356397749 0 0
-7.17922632832055 4.41619381117545 11.2479993102725 0 0
178.24889126101 10.3559256085976 -9.76212874785226 0 0
168.54019254034 -21.3848676406094 -1.91331330797087 0 0
208.038414922592 -29.495140056251 -29.4978416219922 0 0
156.355633093312 -2.28444635236107 -8.42421346155941 0 0
223.333852757579 36.2683395221059 2.17816323787397 0 0
101.824916678552 -18.09130800212 0.0192499895335321 0 0
210.79259927871 -22.2363572730102 24.3349875474864 0 0
197.000286136014 14.560421782599 -17.6669842108828 0 0
115.024541309542 -15.8894084030042 -4.08890905947686 0 0
216.43852143879 41.0364027470929 -13.090234379372 0 0
155.77722244991 -19.767277713326 7.85288782690584 0 0
210.204788893166 -32.3232071635386 -0.536691919804819 0 0
140.186903141069 -8.87914757935586 -9.17427874376644 0 0
42.621675045731 6.5222332351295 17.817349363634 0 0
75.1222297031702 5.5196832264863 0.552066504464394 0 0
12.8400626093989 5.19035503664408 10.293162395575 0 0
188.332664424885 -27.1043890931085 -18.5497867852899 0 0
-47.9860251758813 -2.05411272928823 -3.40344750214095 0 0
65.9627030546277 5.31692062906643 1.41349297795415 0 0
169.892789278839 -21.7109445532191 -3.88948387836264 0 0
146.753439907172 -19.230745126341 10.2959730963982 0 0
185.443138058391 0.330568899538057 20.1591885501989 0 0
205.039386810886 32.2844402020557 11.4470234225719 0 0
153.356563182066 6.5982527257102 -6.30823435564016 0 0
25.5723030307184 -19.0141271282497 17.5636958984694 0 0
156.813336936523 -1.31606056219541 21.2036392603152 0 0
224.553180578425 10.1722069582489 1.50765780209893 0 0
167.95601557885 24.0028233642838 -3.81820471444519 0 0
197.573330973813 35.7521016591916 -26.0429694193498 0 0
182.036344847663 1.73146585985204 -11.3653237479614 0 0
201.253214391596 25.9419943770431 -31.4063904613392 0 0
80.0945183053501 5.3684133969169 -0.123522162088191 0 0
211.93144197429 -2.61974979812802 -10.1175149238284 0 0
-39.4355810742535 -16.6838958121575 22.6132895687795 0 0
162.840564254347 -20.4479595968898 -7.10142673695372 0 0
32.1249382149647 -8.44409948657738 -2.65374751708016 0 0
-15.194738962914 0.737718213703431 19.7224738644501 0 0
227.393155020794 20.6204680527617 9.70508254469744 0 0
122.4237492797 -16.2021928715296 -4.72394746356347 0 0
-67.911851741771 -25.3599211069437 10.4340597441857 0 0
230.197180543854 26.456618119693 4.75605387856434 0 0
18.2261380307012 5.01092618488602 6.97218066616378 0 0
