"x" "y" "z" "f" "a"
-20.9016968215293 9.46855608936477 -4.35287992626972 0 0
179.143951328051 15.1262835996415 -22.4152054529858 0 0
214.697127282605 20.5053521873186 4.81160673771157 0 0
213.744610994524 -10.4918291650666 -16.8646011205421 0 0
89.1445475603157 10.0497937097193 -5.41212431139063 0 0
3.01486650715686 -3.36769728566342 20.6350124607098 0 0
193.443653744964 -37.9937600752113 0.239997836888487 0 0
134.143122404336 -3.92335302112008 -6.8520426271992 0 0
-76.4849981407284 -4.75239042860927 9.9912808721882 0 0
-142.05191273124 13.6588237062811 9.78195287077776 1 0
210.471904795793 -23.2289540821528 17.0505339519716 0 0
-48.1910498366491 17.7616464356051 15.4934582757989 0 0
185.147761635397 38.4060173482497 -16.7354839557139 0 0
209.861973540961 6.98495997469234 0.592479884738963 0 0
197.216596484052 40.2821353442349 -20.799743978662 0 0
211.684886891763 12.7111952289858 10.3199951024515 0 0
126.4804450272 18.4941994982199 15.2695650493409 0 0
92.2836625293661 -16.5905348177085 8.68766200836762 0 0
27.3736998452343 -0.401116592912509 -5.60459785610185 0 0
196.722227626651 -36.264915271441 2.98219259284978 0 0
62.5619335583926 -8.14919676463315 0.192569881395886 0 0
28.5547438889274 -7.11852434841389 19.663441091535 0 0
185.983379400786 21.0384303168767 33.392962423095 0 0
174.895146600178 -37.0141476494882 -12.6969382631064 0 0
181.756854352293 -9.55797430306414 22.2246526291639 0 0
206.268521106279 -19.3777895861143 21.9393720666676 0 0
43.0063616962924 5.73837762441208 -5.30254323448691 0 0
208.929301961047 -37.4976940317059 -15.8531008516148 0 0
78.3850833736449 9.09660807532596 22.9607642829076 0 0
-43.9914789715305 17.6715448261754 15.6098404929108 0 0
146.315164121662 21.3628277582425 14.3341260005898 0 0
174.3604446087 -27.7322787836954 13.0856105728825 0 0
192.887338775887 22.1512695036935 33.3890545234297 0 0
-81.0905422521033 12.4821696655941 17.4289607484197 0 0
-139.156040644157 15.2885313722373 9.83100201549853 1 0
148.553960148601 24.6175723319763 3.80745855706506 0 0
-130.392561965732 10.008277178361 11.8679704660988 0 0
-58.1858883129268 1.50570451094512 -6.58783264730398 0 0
193.355032726652 -24.1346172209654 -40.0792412105183 0 0
217.449864061221 -34.3417548172962 -2.67576064630797 0 0
174.800430839316 10.5778761664557 30.5851114612301 0 0
164.957222677855 29.4697127590206 -1.86399605091339 0 0
31.4167788569289 7.9335209387086 -3.60152700313144 0 0
187.235448815062 -2.15022556277614 -16.2565412730662 0 0
127.907006526069 20.8144553933561 8.85984503624585 0 0
84.1380053325863 10.4260114699612 22.1137727961615 0 0
-124.241248677133 -1.94016805061406 -7.46355455652991 0 0
72.9041927499306 -12.7635830208801 17.6339292571536 0 0
206.446975432073 41.5250491575813 -9.99824841952839 0 0
192.102091042795 16.0260573771366 35.465909858661 0 0
-127.336087197803 -2.39348346737235 -7.2581043909015 0 0
218.223636431006 -13.7741874221099 -15.0536541791313 0 0
207.370886887981 18.5504615406274 25.880036399404 0 0
-69.0865559466716 17.6777515575883 15.0007313191832 0 0
155.123100447934 -16.7442326540222 -9.37670043252255 0 0
71.0041209156251 -4.35499530437362 23.593334324254 0 0
209.189224145569 5.91014834911128 6.98886875125864 0 0
177.364900373069 35.2324671213363 -12.6559984872482 0 0
200.469926082539 -25.8841473165781 18.9161345126255 0 0
174.390299027263 1.5731295059599 -12.1376057305892 0 0
45.373044756059 10.9292289763632 -1.6237407863218 0 0
206.10254233059 -36.7463674290344 -28.7383351444802 0 0
78.8852151278583 -15.400847725493 10.799184830201 0 0
-98.7578721528213 22.8008404941592 1.57838300746113 0 0
79.2710002633531 11.3678463070149 21.3244212341515 0 0
45.3389892756205 -9.8770640821511 4.94429930405367 0 0
42.8544389086903 -11.3852068058094 9.34161759095339 0 0
193.884653236778 -22.0443240962216 -40.0885775778772 0 0
1.96000238451625 4.41483275337927 -6.74714280493033 0 0
17.2589106871716 -9.661913649695 11.7982215757169 0 0
-89.092468433092 16.6241074943324 -9.02053213713996 0 0
-15.633188959508 17.9453807499514 7.57222877643887 0 0
168.993123345275 29.8049612420562 -7.44368243228126 0 0
37.1269395823541 5.26936835863726 -5.57239740016922 0 0
196.976797837278 -0.943927592156095 -8.09243619638813 0 0
143.972590934594 2.32006820941436 25.4374866562583 0 0
174.745363844013 37.0117366805395 -6.27351552048369 0 0
6.31098661053069 9.47341426266027 -3.08731569396038 0 0
-11.1181544577395 16.7379168784003 5.25005749353288 0 0
214.402052104503 -35.1874938344889 -28.4882565504316 0 0
214.941414089586 26.3775008197052 -0.24736566499525 0 0
65.82845669079 16.669895043961 14.0820223502927 0 0
184.130511309715 -25.0082216297821 -34.7795585141186 0 0
-109.2687984555 21.7666193760355 7.1588018214842 0 0
152.197073685235 25.0573326603665 6.17188597189108 0 0
133.382731107293 -7.71167296995699 -6.28813100591306 0 0
164.814128500377 -22.6032267088726 -12.5289587322774 0 0
91.3482447164272 -9.95721949679604 21.1303475767907 0 0
184.331053041935 22.9418273420534 -27.6730093462544 0 0
156.587398829623 19.0474800773093 -8.12629445240715 0 0
50.1673564901302 10.3462704850146 -2.28397991527223 0 0
104.308174172855 -14.042622708188 18.7214575977969 0 0
-32.9197720900782 7.37961415542 -7.4320909611643 0 0
123.701852129251 -19.3483397365091 13.8114097673715 0 0
149.744021109749 -8.73562597398836 -8.14121903833155 0 0
-126.639024060689 -3.75561074078098 -3.50554487231427 0 0
-57.3131466516701 17.1793241256361 15.8876777834382 0 0
96.8513328360799 -15.0796584112868 3.88860383054501 0 0
133.254624733977 -15.6124153177885 18.3882771745513 0 0
54.3566550299847 16.1183253576951 3.43900828778574 0 0
213.389165477646 16.2817919314513 8.70792944028209 0 0
202.580167535811 -30.0939245925832 13.2620237927493 0 0
173.753314725813 -35.7172395392229 -14.0405762589788 0 0
152.34043931821 -8.23816864793207 -8.54747764412674 0 0
-32.0901841294705 13.7050682208692 -1.1038918618131 0 0
180.077984559941 4.76490638728996 28.7291239805611 0 0
221.094693653983 -30.4012090054698 -3.96736464748891 0 0
192.099483289202 -39.2950946216187 -2.93627573044329 0 0
9.45995215086638 0.901798729487297 -6.3100686302215 0 0
199.586990725368 38.3577826127927 -10.1734186256689 0 0
-64.0272487806258 18.4688965900171 14.2367356339735 0 0
77.6216379220159 16.2261984018113 15.3749774985197 0 0
191.839426212586 14.699401057792 -21.5645507009473 0 0
157.869121991446 -12.80888900532 20.5522625208273 0 0
-78.9162074114496 0.716380189585407 15.6571682303135 0 0
214.460345495244 -8.09451208674859 -3.20350956748728 0 0
-56.5183063522336 -4.88751114368462 0.833274109551621 0 0
220.771929513429 -19.3301262652109 -14.8603938778757 0 0
89.0608266212625 3.93747862787861 -6.23061972159863 0 0
2.25778939224778 2.05373805641223 -6.57344572385148 0 0
212.928963979655 24.5718523027575 14.3996088856499 0 0
202.071252315391 -34.0638765102129 6.78569372970052 0 0
56.6026546055487 -3.57710309771123 -3.4621052484815 0 0
213.90531114842 -19.6001203886514 -32.1747204165953 0 0
143.542842823825 -9.40524264106405 21.9337496799076 0 0
-3.93778250166075 14.212899836324 1.87440744519102 0 0
41.2211344302553 16.6346592679376 5.68693458682353 0 0
205.788631983773 -6.94839331683572 17.4136082095519 0 0
68.9158760130961 -14.1442894942819 10.0767706793112 0 0
195.606885156177 -21.6157721016247 23.5753689098874 0 0
211.804892760406 13.3716457576501 -5.10187395893829 0 0
197.148691621035 38.9513337586786 -9.28764039545483 0 0
155.517106641811 24.9894926722976 -2.41276163391765 0 0
207.684867931795 10.5295982717485 20.3333687975949 0 0
36.5838017459556 -8.31901566845929 3.09951568051746 0 0
29.6111367595547 7.79231702099376 23.0820742399524 0 0
-118.908674135607 -3.35761374506344 7.60420444589378 0 0
199.380412393261 10.191412541381 30.1646579709932 0 0
140.887113974754 -18.1217221157106 -4.74370696424628 0 0
-56.9756269900095 7.03577279095122 20.3606973622648 0 0
171.90636300847 24.4421808185331 -15.2931892718452 0 0
186.582073018176 -40.5263509757494 -5.45781835205282 0 0
-14.4407198284731 16.9024287264254 16.5968311036197 0 0
207.496905508074 14.4819330690581 -18.9350641646619 0 0
172.197698768318 -9.34360824625715 -12.6383589511068 0 0
52.3070333599828 11.5101114914413 -1.46081597134278 0 0
36.1962535949706 -1.8653522185876 -4.09628591648454 0 0
-26.9169623352827 -1.91233396639955 -4.06550140878248 0 0
196.762490314821 -8.49578030882623 22.0462624252607 0 0
211.00708467748 14.3108648883989 -10.5975708281749 0 0
201.436098497854 -39.6147191618943 -9.31214308895408 0 0
60.2834790682983 -13.2098073490967 13.969626876187 0 0
190.885050995643 -26.2196146947343 19.9172568606043 0 0
213.582442604513 38.2990776802759 -12.9664275186052 0 0
165.574413439093 28.1721626176406 -5.25973790114062 0 0
134.277214519325 20.3671017308321 12.892726268343 0 0
-67.4006710377956 9.80177375229085 -9.56223174888404 0 0
-60.0723379510399 7.10545260455322 -9.0642087913754 0 0
174.959270804567 28.6259330182157 -22.5994280837288 0 0
171.887133271978 15.1598435558463 -12.8908407738761 0 0
-92.2990213578146 3.26796704840204 -8.82156804732608 0 0
-82.9060080959315 -5.71947515157956 3.44474893815107 0 0
190.411206055195 22.4866477008122 32.7559870504188 0 0
-72.8778176033758 0.448808025607843 16.3021383393211 0 0
205.073202678145 -7.97285789611405 -26.4914967461666 0 0
216.645827930447 -18.5163427654171 7.47213387130477 0 0
184.89336076183 -16.2914056466827 -34.0903037951653 0 0
-14.160315935849 -0.511317885960722 -5.5682887417109 0 0
186.159092658933 -32.7603786507686 10.5900478255703 0 0
170.09343739323 6.31534217101465 27.1155481486339 0 0
154.986838750139 21.7729323379431 16.1792157705902 0 0
206.783083569886 16.0381119087856 25.8483841305448 0 0
190.434157904465 40.4784406261251 -12.1942664474275 0 0
115.961083999343 18.1337411932532 14.2874033011383 0 0
221.327337871668 -22.6162709687428 -17.8843911903815 0 0
215.923662390424 -10.1977549136246 -7.55670143577202 0 0
139.152813779588 13.2382602618748 23.0670378918188 0 0
19.5653949728489 -6.59462290167681 1.37687779479647 0 0
220.873741134979 -20.5897552068057 -16.9399082238974 0 0
-104.235346041463 7.7114114744802 -11.705513205715 0 0
74.9114807410301 3.89242877647908 -6.34173083662764 0 0
48.6612636498709 1.12805012830566 24.3542621598685 0 0
-70.6582491379142 0.39606242155512 16.5820160416984 0 0
188.401567802791 14.2407155382458 35.3136101575417 0 0
-10.4791446950424 -5.90335525059544 1.43619912278639 0 0
-106.594193550642 23.3567458672342 -0.115685883832733 0 0
161.474111524746 21.8268369450102 -8.67320208705314 0 0
80.6244822950719 13.0359413005078 -2.24197295493824 0 0
128.281248945055 20.0524557358554 -1.40624429595261 0 0
-13.9603058683579 -8.13848877110506 10.6671168480596 0 0
177.260875778823 13.9447582751428 -15.9792494700591 0 0
56.0639207189374 7.79091680209516 23.4435340699109 0 0
213.750731166446 -10.9042093188699 8.46121592110167 0 0
194.153466281805 -23.8148134194022 21.5999869783294 0 0
122.466253322378 -18.6468583742274 2.35586330538222 0 0
-63.2294671172286 -6.35873248710631 7.50315045961875 0 0
133.76951178722 -0.513690959903438 25.0690214380364 0 0
110.267929686415 11.1092553503655 22.5916890926424 0 0
191.866115461344 -9.37436282506916 -20.2019034343126 0 0
198.096530260146 -37.5323628925024 -0.326422554036657 0 0
114.763396278004 4.52575212865517 25.2034713003697 0 0
-60.6354481699822 17.5885445010823 -1.02776937355236 0 0
-78.6495238120308 7.58146022883602 18.4328478201975 0 0
166.957082519318 11.9355405358596 28.0377916651458 0 0
198.060661137081 -23.5660829148856 21.2772749638446 0 0
190.670613222224 24.0344093180694 30.6441519961918 0 0
-129.378517027677 16.3699373998977 10.6793106079234 0 0
211.627482043247 -5.13871430897973 -5.03441347369336 0 0
177.77535548994 -37.7699973322467 -18.0107090183261 0 0
214.981945922151 25.6980928950264 -10.7993014815773 0 0
71.8411770527904 -4.98941770808819 -3.17521832479939 0 0
-66.8774347933426 -5.13399559501868 10.9142065968554 0 0
30.5999239056095 -0.965550145328741 23.2425023664199 0 0
102.144706747741 12.1461222192712 21.4121788795798 0 0
144.662699034522 -18.4925897068952 16.5887237178639 0 0
210.846843798081 -34.8374814507507 -32.7924093001294 0 0
180.963083778461 -19.4405052249414 -30.580573067353 0 0
181.442141432782 -11.1976198793039 -21.9744665520137 0 0
191.119856213797 31.390532955604 17.6883532109275 0 0
154.778024723164 8.90776166036146 25.7678806988972 0 0
-16.1395882850637 -1.99282557409682 -4.11346490013622 0 0
-70.2106771650198 20.9449430334948 8.18296323006961 0 0
194.438958828328 28.0958734037062 23.0948649232734 0 0
-128.096319488474 -4.18149322812577 -2.48723127180324 0 0
210.750307787804 32.0266473236328 7.60004822228287 0 0
204.873337899737 24.0997118798205 26.3380705614372 0 0
217.426336920158 -35.9599945717087 -17.9361764537325 0 0
-12.3538003643931 18.007467027796 8.29164296127617 0 0
55.3612974680628 4.90185882643191 -6.13516031804177 0 0
107.53906233091 -15.0119002741681 1.36321645850768 0 0
160.335263649153 8.9813717628292 -9.35806247328373 0 0
149.141088368838 18.5946237965489 19.5488013060424 0 0
200.452880188775 5.51275926492389 25.8083090200324 0 0
213.985791294925 -7.90254764857962 -5.12627773715445 0 0
106.873774914459 5.35087298315192 -6.74524007682966 0 0
215.391152143302 27.574884755956 -3.66664883046112 0 0
189.855937847083 -41.1546816112737 -16.8097152684648 0 0
210.320335391101 -25.7505753716359 -37.1464600331558 0 0
131.814340627901 2.04219452080424 -7.40419261604407 0 0
68.1551572351431 -5.15454397112985 23.1405763305466 0 0
188.273998954544 12.1624293740637 34.3480000309473 0 0
199.354167219965 35.4316075164483 9.15864979240459 0 0
89.5814876447389 -13.4452270282808 18.4682169189346 0 0
183.977608909768 35.1356022457173 8.61909923075039 0 0
31.7172469967388 -4.04032414749731 22.0190119787913 0 0
215.283882243246 25.6067211926041 -9.01237879188971 0 0
199.240946570377 -27.3361133685187 17.4590453731445 0 0
199.35451945241 33.2710584277268 -29.2290163687821 0 0
187.725293563196 -40.8210423138415 -7.36205601651336 0 0
197.687259746427 -29.4169085150041 15.694450566048 0 0
-111.930939562725 -1.66806454708822 9.85239247840579 0 0
214.687995319187 29.1531871491795 -12.9477503592184 0 0
162.624972151972 4.7659767577307 25.8041556643818 0 0
210.094075985117 -31.422964144799 8.29513776068226 0 0
5.18611580718832 17.7985969338005 11.3227209762558 0 0
216.780427316361 -14.6737397984758 5.54823238576349 0 0
-17.3981481091398 9.61427344967249 21.8133476256718 0 0
107.558280155345 -6.27680094520092 -4.64009819657752 0 0
214.717399687116 34.6717245244008 -3.45382004209814 0 0
186.991415001588 -26.5954813861889 -36.8647915856375 0 0
-49.9434431351948 -3.21609344442736 15.675207884695 0 0
43.5856423182498 13.5832175604684 0.75926264967033 0 0
92.8113627259553 -7.40546244959986 22.5798995041151 0 0
170.295325170974 9.03059251503561 -10.9224128648058 0 0
191.076887921533 29.8934438664198 20.7297013248282 0 0
210.008618446597 -9.37310491172077 -25.1785748992999 0 0
-72.066340481818 -2.12199360902144 14.063295332379 0 0
181.914834802993 27.416322775294 -28.0915729554848 0 0
155.198318319029 25.1583045668837 7.86363916707423 0 0
74.309130207706 -13.857952764848 7.2199848894726 0 0
194.964386353059 -39.4335937300734 -21.0177745348382 0 0
-12.8127621744229 4.44015297337579 -7.47313923925777 0 0
15.5235666711533 8.97979420936936 22.4968055043862 0 0
176.420607191422 -32.1805017480076 -19.1398340586593 0 0
-14.9072877407095 -6.71421788986188 15.372382148217 0 0
176.410145207891 2.12586315211277 25.5255704070019 0 0
173.345116351714 22.9066818924979 -17.7985912252122 0 0
161.72132767971 28.4312412638836 0.0841955391970411 0 0
64.8782574898121 15.7096906959054 2.08370078827234 0 0
186.849316039982 0.0286491008626304 -15.7317539731868 0 0
206.726633957293 -12.7899944039548 19.6893107307314 0 0
41.4646728078098 15.1314418862664 2.70343385593443 0 0
-107.833726665865 -1.08448584535646 10.8566146487741 0 0
-37.9333677887934 -2.80058384503218 -2.64232105205382 0 0
-130.695939530066 -1.83845395202192 -8.38967217999803 0 0
150.808351481831 -15.5564652566546 -7.98277123105294 0 0
179.799640349317 -18.0587663709928 -27.1567096010952 0 0
-10.2868693228333 5.53696174706005 -7.3987248085103 0 0
-129.140564447199 25.2807482430031 -3.74090627271837 0 0
51.8457867964503 -6.1101512835844 21.9110296897185 0 0
216.705588676742 -35.2476738299224 -5.51636029480183 0 0
-8.19595044182755 9.65283904255498 -3.83316493368762 0 0
-84.3430131769943 11.0132645795313 -11.2808619828153 0 0
198.526268577532 30.7500880936817 -29.5556588114255 0 0
-32.3934417715318 -6.01078793047571 2.70572588640216 0 0
-88.0212289375171 20.1898139713348 10.8847557945861 0 0
-122.9054572316 18.6031769510014 9.86787791538551 0 0
97.8799077806876 -16.4973899636001 6.06273469635001 0 0
119.62419577544 -0.146587116539834 25.1803273969018 0 0
167.26602976099 -7.22715773772453 -11.1921038052972 0 0
69.0287945889051 1.81053865190707 -5.96186491294195 0 0
-71.9349983974634 17.81963960894 -3.00108806269443 0 0
120.482892747413 -16.6403659745139 0.524237839137538 0 0
176.687337121073 -17.2909171902473 21.5405715921506 0 0
137.088669287008 -22.9367393009844 6.90825346973576 0 0
47.0401987566746 1.27094125986113 -6.3926912740777 0 0
70.7472385831404 -13.6233422684012 7.71829232361626 0 0
61.1273096426025 -13.3009008955832 9.94262214938193 0 0
210.107908273959 41.9460780983449 -10.3763667129204 0 0
168.349335570869 3.39521626066465 -10.4541695559973 0 0
-82.0258468750591 -5.83534835709135 6.34522003730307 0 0
120.449791749756 -19.7850320852204 12.5477604712428 0 0
3.49508040539695 3.9644750824073 23.0957454973091 0 0
57.5079354747171 -6.64664982545006 21.8892451222549 0 0
196.798192655984 -28.1609008832527 17.3440985404248 0 0
-132.990350279948 16.4192645732406 10.1138217228286 0 0
-31.0486894552022 -7.47807954673938 10.5582605671127 0 0
-70.9435558896824 18.644666560254 13.7960075305835 0 0
176.393407837994 -37.0463109157791 -3.89584927460526 0 0
214.927083523414 24.5895121112237 1.98341466098012 0 0
195.566457731963 -32.2500855128065 -37.3579900022686 0 0
92.1737641765316 0.235801100679801 25.1951860439632 0 0
-14.2379904493728 16.9977297315625 5.47809325355795 0 0
29.8065305921995 -9.10922828806219 17.2758852222155 0 0
114.833339575316 8.21059082831679 -7.14426647398523 0 0
86.7155619988833 -14.3929696617355 17.0929547906575 0 0
134.614582572249 -17.6487115434974 -2.91447524124759 0 0
204.604825809122 0.461142695446354 -1.61261346288943 0 0
161.506153379135 -11.0770262536013 -10.0802355934312 0 0
178.482488193697 5.62247172291047 -13.3691564970291 0 0
162.203834085167 -28.8880485839636 -4.30370940638391 0 0
145.456595354023 23.8779863149838 1.8469055051269 0 0
-5.59220687992664 1.48773614125699 22.3975757703642 0 0
25.3950882056438 -6.42685991248928 20.0272704603775 0 0
202.357300608711 2.33075131930616 21.0556699362179 0 0
152.11776165733 -26.0630544625802 3.64433092036459 0 0
204.968861535998 16.5549862536027 -23.1546593968119 0 0
202.782762870813 15.5403514607459 30.037659620324 0 0
211.674717062088 24.3312635138869 -17.6004450903399 0 0
183.239293189057 34.3895259206538 10.5135571496055 0 0
-27.1845825406729 15.0370409983486 18.6768309722166 0 0
-108.429476829752 23.2511500304087 -3.55695678536927 0 0
91.5028555902958 15.0558140098292 17.9337888373202 0 0
132.737323448843 19.1805516991607 15.2853393311223 0 0
211.498152088861 16.5602455169607 16.6493859663722 0 0
-113.872939437676 13.0527998728359 -14.1891533050465 0 0
210.778388088107 16.6647859274727 -14.4991640679774 0 0
169.183997810083 -3.53620058751188 22.8321332771172 0 0
-137.276326210479 15.1084581898431 -16.7488419483404 1 0
-83.5141509662638 20.6545307329447 -1.17770218055049 0 0
13.9545430512943 -8.99236440723893 7.30351937279546 0 0
178.544480198955 11.6944784037898 32.0690454419419 0 0
41.6481008708856 6.94658637564789 -4.40578892980358 0 0
-64.9024299386726 16.9097276949825 -2.7618597087709 0 0
-53.6830918821331 16.1097303512077 17.0735938767055 0 0
-4.67548285382297 6.16078829598196 22.8294332874049 0 0
216.162998553537 -13.0976325245671 5.85654057325938 0 0
202.917961915097 18.3342322259589 -25.2215394007345 0 0
186.641477907606 38.7339898774812 -15.3786723549817 0 0
182.200579022692 2.17436287448293 27.2161418109282 0 0
48.1190327504886 4.91746432844999 -5.87103467913877 0 0
172.306126232126 -2.76969321385375 -11.4192910120925 0 0
-11.4706764359018 17.2863495900906 15.8658757783184 0 0
185.911543826811 13.4857841762907 34.7326716875123 0 0
218.252619020624 -22.5622854091151 -26.7708693902257 0 0
-126.557402403187 -4.73629710280684 1.34586129854009 0 0
177.716349431461 -39.5354202422446 -8.08218042509737 0 0
115.495684117041 -11.1199790226454 20.9115853908389 0 0
146.7472361283 3.08437182553969 25.5129067648565 0 0
30.4928086020366 4.96784698031745 -5.7641897560399 0 0
205.04452617279 -4.73882847512755 16.812247837378 0 0
177.569937205017 -2.11694632679216 -14.067495555093 0 0
-83.6206860384816 -4.67672275973252 9.0314369050314 0 0
76.8631215861868 7.29910302118872 23.8157114935244 0 0
30.3129823610031 1.39153268394375 -6.42459807432107 0 0
197.596622491662 -35.2871125366521 -32.5752976069887 0 0
11.3902696587812 16.0876796056944 16.609567186559 0 0
-47.6442421165663 -6.68137594028636 9.49911783350824 0 0
171.323001617726 5.00458604346715 26.6309739380355 0 0
-36.1144519143364 18.7033839085061 13.6596024003381 0 0
93.9411629883737 7.76830732291953 -6.63403786539589 0 0
198.802289724725 24.4604299064992 29.7563543000192 0 0
190.780591700876 18.4742519486223 35.6340972092927 0 0
150.227167085448 -3.04431412547435 24.1084207167015 0 0
171.356521923736 -33.2924503169925 -11.2012834006194 0 0
175.406393633209 -28.4395970230646 -18.0867093758625 0 0
212.99604265659 35.5411797652007 -16.4603841451971 0 0
-13.2208801501397 -2.55108766855599 -3.46223637754851 0 0
206.587207036867 0.176678095387064 13.0996862606968 0 0
178.685876080516 -30.9622078873155 -22.7413858234747 0 0
195.555200693383 11.9858393845058 -17.4235089168207 0 0
-135.905089336545 -4.08470926166692 -2.63488375455794 0 0
153.289396567254 20.8143203776198 -5.95963505800072 0 0
-79.600396407004 -4.14949357887091 -0.859075697347736 0 0
189.195985944159 40.0454101978308 -9.56628369445912 0 0
29.9926934387413 4.77442334762084 23.8251464784612 0 0
67.7014491468595 -0.328954191718376 -5.27049095961577 0 0
-75.877864092854 -3.37962263951598 12.0623494578481 0 0
204.763468162411 29.8380430933035 16.8222386929296 0 0
206.825673692827 26.4735094766839 -25.1011524457464 0 0
138.309430799166 16.3096877390101 -5.99541428082518 0 0
-99.639356524486 19.8108877919423 -8.30924166630289 0 0
-46.2859463903717 12.2254463147629 -4.65829475253992 0 0
184.430605810677 19.6301400699055 -26.4934344151345 0 0
217.285552055956 -11.3471433385045 -3.00451319876307 0 0
76.0042189533175 -7.80207631498376 -1.43872508343661 0 0
175.621332319539 -8.09474514579722 22.3336382200059 0 0
110.230381356171 -5.22339643699978 23.7480381375459 0 0
214.068985550843 19.3116151550077 8.94308642125534 0 0
169.783398596576 -32.1545517292668 -10.3214896489062 0 0
172.968488988959 -29.2166197555936 -14.8362911432812 0 0
-7.71556441100849 2.00956130120692 -6.58895673770843 0 0
5.90368866113049 6.58814655154767 -5.35322754566028 0 0
210.675436946343 12.715154891993 -9.05548033690666 0 0
183.538996885848 1.40712876128828 -16.1485685810247 0 0
147.364426832107 23.7982654495773 -0.108033938321309 0 0
119.330893018526 -7.04688029363412 -5.13529878529408 0 0
191.672566137655 -20.4640402392231 23.6170655662114 0 0
118.810379526237 9.59974530668416 23.6634746810698 0 0
-18.7445432126663 1.23422347121692 -6.66348248734336 0 0
204.901416894087 -33.1627542119769 -36.0645489349171 0 0
27.175869355326 8.97583916874403 22.5751615028953 0 0
169.013231239947 -14.0201757502778 -12.5550554066918 0 0
86.7025962225459 7.86278986096396 23.6872522385227 0 0
165.963676154898 -20.0929587236465 -12.8280641098722 0 0
197.778831894164 -39.3662609067184 -14.8726443558036 0 0
170.805930467745 -32.4300978144323 2.71334724825995 0 0
-106.842062885891 23.0249521800404 3.47114206559372 0 0
126.170314234294 -8.21664854362528 -5.44489023563426 0 0
-67.2920615786809 10.8548036528956 19.1090088756678 0 0
216.369021372892 -36.1174942307931 -12.0176883361966 0 0
-115.504947716382 8.59041482131961 -13.0271769605846 0 0
188.768581649984 -32.7948298651246 -35.8720398529203 0 0
-101.514132310841 -5.21097660940926 5.0016855514301 0 0
160.095151601909 -12.1858763972036 20.8398513554729 0 0
213.037800416719 16.2583782727617 -4.33341713094701 0 0
45.7185745168573 6.02695545714845 -5.14196801352836 0 0
-62.2881831858936 -1.70666318698089 -3.98032648969134 0 0
205.942627431404 40.1327171800141 -8.98641807029875 0 0
185.873492466441 38.2971666863889 3.61717352786318 0 0
16.8703535569467 -2.63678477794942 21.938051781459 0 0
180.239587658803 3.00634472596802 27.3510712938296 0 0
39.0818629209128 17.3840483135756 10.4840237865647 0 0
91.1569394604442 -14.026658941473 3.79675240163147 0 0
-74.9863483468924 16.6903705034105 15.6151676493508 0 0
88.2146718113733 -12.0171053668854 1.74269189706033 0 0
213.852918122019 -27.4441199021854 12.304080350832 0 0
-61.8579423333729 -6.05644302469442 9.26430292994172 0 0
160.040993820336 -7.86913643116254 22.4292065917397 0 0
147.671211215765 -24.3306308075725 7.82431340014373 0 0
-73.4464575678198 8.52803627427753 -10.1046089031441 0 0
-1.71777693044883 0.0439215237535299 -5.84245271170234 0 0
220.620477315153 -18.1967124566685 -6.64869376917887 0 0
172.03370306308 1.82406063098655 -11.0634894097725 0 0
82.4948091836811 17.3372751756305 3.66781434518748 0 0
145.79169633248 -1.72428075576082 24.5935061410329 0 0
27.6430301852465 9.18896854994997 -2.6465437057481 0 0
6.6334456936599 -8.66402577699799 14.0001367280673 0 0
71.7150573782961 -9.14824468262961 0.397854103764288 0 0
166.54619242369 29.8689631605702 -3.12479669158656 0 0
206.630195251372 -31.3848993445621 9.28934631081854 0 0
0.977204383676646 -3.08438769299925 -2.92742007178261 0 0
147.737475969497 -2.07118845106148 -8.14392149352696 0 0
-87.7461059463089 1.65086764244331 -7.5600278334754 0 0
-124.390049678778 -2.06416938011964 8.61330146457419 0 0
208.262060815174 10.8319572202068 -14.1345312693145 0 0
219.85326265631 -24.8324738945985 2.25849692636973 0 0
178.268706149417 32.7122325208477 9.55449927321101 0 0
62.399042279196 -13.4553986652638 13.8630471819112 0 0
203.632837282538 13.9943414842316 28.4893944810755 0 0
206.395089618362 -16.2674984400879 21.4465498171196 0 0
-131.940992679126 12.7341614825143 11.3665884795726 0 0
32.8908659648971 -5.11539405160144 -1.05572264986277 0 0
107.43717089216 -13.4989004158325 19.3030977851979 0 0
22.3861354384051 3.37698324072125 -6.58229507830453 0 0
1.94858333289311 -8.75023548944736 10.8754747721816 0 0
-106.381846389428 -2.62548549964665 9.5738133435957 0 0
102.131902339185 16.0234481028414 17.0537028829921 0 0
197.271103914287 -32.0175123880557 -37.3801282750697 0 0
11.4032956202798 -5.05393085798536 20.0528020599498 0 0
-14.5274276400216 -7.6573450540474 13.3118074680628 0 0
-92.773742230507 19.7645306634807 -6.29351476225534 0 0
147.296658271761 6.19554789138092 -8.37208392779337 0 0
171.835593763584 32.7299754670936 2.11476481670742 0 0
28.2303566970724 16.9808231544216 13.2926161132445 0 0
165.270118495128 0.353379959274641 -10.0698588224746 0 0
166.883533926084 -14.667139468373 20.5145155575803 0 0
-108.840170846107 7.01758698611974 14.6556029181706 0 0
145.786458840313 21.7908622235919 -2.92052798348661 0 0
113.430221397105 -8.94104571512831 22.0036185357472 0 0
216.858782015088 -12.9973222551227 4.04430969791395 0 0
112.246544356751 12.9631106702608 -6.23420895075261 0 0
-11.5785026568344 -7.97942190161272 12.4834308559586 0 0
204.119869823807 -6.03686833316338 18.1889424847645 0 0
65.3255825602629 13.7265181200694 -0.304140869544613 0 0
58.2892619092703 -10.4549289272908 18.8778446165021 0 0
65.5797054820352 -8.10678740163282 -0.243209838072003 0 0
182.346299158137 0.129828969118802 25.6104733207913 0 0
-60.4377192562194 4.05892599317128 19.4871172554742 0 0
152.74029608114 -21.6005570543336 -7.55803662801871 0 0
-116.991104247028 24.3181889098289 -3.21645729914728 0 0
166.384186222226 7.29545601269834 -10.1795731111213 0 0
30.5775589031948 -3.67505303859343 -2.51671872023788 0 0
170.370594321487 15.8081097412786 -12.3333184839319 0 0
161.093983948579 23.3031336279159 16.1086412825654 0 0
-22.7248778305979 -6.1975004537567 2.52934467522659 0 0
203.549286266737 21.9700035840255 -26.2412398263408 0 0
194.651606628548 -2.1744859855248 -11.7583547312444 0 0
120.442576146125 -18.0558234948319 15.3931315173667 0 0
179.947222729411 -31.7941359164063 9.69347679249572 0 0
85.1112523696812 -10.5311883311461 0.455886825507746 0 0
-87.183135081537 4.51361645881556 -8.89381813613032 0 0
63.4973639039435 -8.96950337796916 20.6580884260243 0 0
167.225837863071 -12.25863576635 21.423483912037 0 0
7.20484986547754 8.65309393535478 22.4984871431984 0 0
77.5401499692004 2.88197339817857 -6.0459463131409 0 0
211.090318027159 12.9818794433897 13.523642513076 0 0
52.6089724897254 -3.4657867621044 -3.37391449075413 0 0
175.52215685908 -36.1951049080817 -2.61203596445732 0 0
112.38207978732 -19.1181591774919 12.2492313416867 0 0
103.575575536832 -4.28643883946945 -4.92332368705449 0 0
3.63049618439495 0.113332365806819 -5.92596957552419 0 0
171.60384393367 9.28691777600999 29.0301245450137 0 0
22.0495203172864 17.3896465798622 9.74696503242404 0 0
200.264427146534 -32.8768829527615 -36.3164755250579 0 0
127.530393890788 -1.13484200019956 24.9639436280434 0 0
83.8532886580409 15.3028551205888 17.2212902106256 0 0
-18.3153993853618 -0.93083687079106 -5.15616115716735 0 0
203.997543514349 -7.31175638902836 -8.90866887143926 0 0
218.112239519613 -13.3348203667173 -12.4728812488559 0 0
-89.0927223001771 9.56328006169465 -11.502511599962 0 0
199.978394184968 -8.48705950068938 21.119233997797 0 0
170.999859972426 7.82676169122052 28.1884372938655 0 0
69.6543638435416 5.28729996206039 24.5414240340602 0 0
-134.525410615904 -2.91400928624083 6.53318789191465 0 0
178.443027270307 -36.3571318528981 0.310905805202496 0 0
117.366627466278 -7.56118623100346 22.7093917123634 0 0
195.386142973517 -15.0512601073194 24.6304429772958 0 0
157.305841397821 -22.1007511126093 -9.26443773899587 0 0
86.461654486434 -9.34468145425673 -0.856075742590931 0 0
-68.6945461217805 -4.12062707134419 -0.794020268015072 0 0
-13.3048875046863 -7.48001950543183 5.04508445367432 0 0
-95.7541707640058 12.1749576039612 16.0873905827754 0 0
133.39786047749 -14.8833901551666 -4.53391567693674 0 0
176.587733140052 32.8393070236703 6.97163293694981 0 0
75.6182798946753 4.67480632704335 24.7536750194064 0 0
199.870693437195 -10.8092647746897 22.1234580740575 0 0
-37.1017175921092 19.2354090277248 7.92411050490965 0 0
41.3440318128525 12.0924402234185 -0.509099022727911 0 0
213.93791464409 -7.34711734814822 -0.998240524833164 0 0
-64.9966504501484 -4.28308357041561 -0.396028675700836 0 0
215.557177997758 -21.2053609267952 -30.7305031748769 0 0
72.6421717999492 -1.28783380587603 -4.85143674532661 0 0
-54.9803477950209 20.2114174599841 10.0110093980367 0 0
215.190949908275 26.2322528264621 -2.30017952542773 0 0
47.7655440570382 17.4139015257189 8.68677372412502 0 0
204.547468938316 -26.6299174480209 -39.9127711593289 0 0
203.604354458194 42.2190733737351 -16.3321871057481 0 0
-138.437687287392 23.5939537909978 3.18138297794414 1 0
-113.666219315983 24.0031680274089 -3.03814955772239 0 0
-42.9794035058951 -6.72606919965578 10.6593644037543 0 0
86.0644972786005 1.20853742311921 -5.56863449028056 0 0
193.802505556111 18.3178068111381 -27.1269383873058 0 0
118.699028868203 -0.786196537333658 -6.26017547462312 0 0
193.192967309438 27.228639162949 -30.0101613669926 0 0
191.590837550412 -24.3766789654225 21.2561593172141 0 0
192.088147556157 -1.50210256289235 25.098069909145 0 0
100.252566106271 -2.84825279122748 24.5357399741805 0 0
87.4061562011246 4.33409980196773 24.9345680396325 0 0
39.1888812793278 3.53361805247528 24.1476520603902 0 0
179.733225279959 34.7410693461583 6.71604581674314 0 0
193.947045514976 21.727051700695 -28.4598435090051 0 0
-38.1458077724453 -7.00818917630476 6.34078776339207 0 0
172.359262970037 3.03731419352096 -11.3392807071942 0 0
218.30171459684 -13.1285070875633 -8.88755626466744 0 0
197.850679133843 39.5234590208838 0.423126503144088 0 0
171.600892123602 7.54138329384049 -11.0511734401163 0 0
65.4926416869521 7.07714057280896 -5.50290685630039 0 0
150.505969445513 23.877065357126 9.346207346875 0 0
191.390438063938 -19.1774009728527 -38.963276436474 0 0
11.9268422795223 1.52703505767532 23.0845701688973 0 0
147.73228174744 -22.6811284876183 -3.56596404862696 0 0
-108.385403148784 3.44298878184888 -9.95073694128956 0 0
164.717976724869 -21.4985930873754 16.2945522963598 0 0
132.1900736714 17.599364630203 17.8312451451468 0 0
167.193938425031 27.9093230389863 9.89572183924424 0 0
106.096986730761 11.7850918203204 -6.34491748047286 0 0
12.2222630535276 14.3584393130372 18.735658403527 0 0
138.203726531845 19.158507162174 -4.50450077486997 0 0
158.146331614246 15.1674560834307 -9.18863998914527 0 0
84.1453144023522 4.71452456239078 -6.42048273064888 0 0
162.293252537373 -22.6802829883276 -11.2564791892827 0 0
221.897188340913 -27.155601097431 -17.8920625291065 0 0
178.950661833802 -40.5715503264303 -10.2759765188946 0 0
34.5606735895818 17.1751909902244 12.106146601941 0 0
172.480046447467 10.5011936078898 -11.2892552977716 0 0
-84.493548389943 21.6600103857443 2.08932436840466 0 0
-117.352340519444 18.0924985916693 -13.2488738218728 0 0
184.746009302492 -10.9982056306345 -30.8520344985717 0 0
-106.415879711063 22.0035543573959 6.71541178484032 0 0
181.378229135737 34.1157346320937 10.0412476400157 0 0
65.637202678954 11.2472590562583 21.1858623975953 0 0
218.284061429242 -22.7413806735157 5.64306543174209 0 0
201.178281645145 31.1813241336704 15.7326242399952 0 0
33.5439555880501 1.4514393543609 23.9021615279365 0 0
195.54964438926 -35.8562456914874 5.27913807856983 0 0
-57.6505778924012 19.1727460000644 2.27318769260263 0 0
187.409149707436 39.7062167846205 -11.7838879449461 0 0
218.586103457384 -35.0009177467692 -10.8851035652757 0 0
-83.0992472477713 -1.63104689190173 12.9182267045449 0 0
-82.607734545949 0.0263293836011574 14.6198523333932 0 0
151.808668010791 23.8215295367392 -2.10144879272069 0 0
154.09763547261 -12.3939300615203 -8.77087575263048 0 0
-58.6774599406563 4.59083820481304 -8.13511122339027 0 0
213.476887656942 -11.8494086554442 -25.7478446567744 0 0
-89.0519695240547 -1.3435228518665 12.5391384836831 0 0
-123.27057460389 11.5937655415812 12.6941149549331 0 0
179.341558983508 36.153075597102 -13.0372159364676 0 0
-67.0350707885317 17.2588558407118 -2.68194623896888 0 0
-93.7138631782417 21.8807674234994 6.50230986879917 0 0
185.729798652784 31.1445087295823 18.0724763394774 0 0
177.493773812073 -1.71409715069754 23.362895999796 0 0
221.526483910595 -26.9788502617771 -3.84053700376707 0 0
210.132730689646 -9.70745885274125 13.6751725271887 0 0
171.578887263692 -32.1743217153338 -12.6720522980925 0 0
172.887766988374 -29.1676276660579 10.297027971136 0 0
174.730961524376 -23.061083725728 -18.2521220697189 0 0
-103.319913999319 18.8972750322774 -10.2414850544886 0 0
217.656582462431 -28.2188026777049 6.79448160809071 0 0
148.097164590629 -21.4277319954165 -5.49750238969702 0 0
205.305587126787 -8.92680991933181 -31.4392041974969 0 0
173.664654961563 35.9722660023322 -5.47501436989509 0 0
175.009653956242 25.1341092868151 24.1670286095773 0 0
219.752024222306 -16.3517874535517 -12.3293865895317 0 0
-12.3165871503797 15.5474536055399 3.14002664078438 0 0
24.0952210285332 6.45410286744102 23.4224023171164 0 0
-40.1531361526704 9.70970396801301 -5.9869081661688 0 0
204.386227967285 41.0375462724391 -24.6000352606299 0 0
208.550659549183 31.0848218523461 -23.8247276336111 0 0
211.265386908455 26.289296538498 -19.2204833372824 0 0
162.364727218598 6.40069416516394 -9.54257408922536 0 0
187.176721751601 18.7218442451683 34.7453656588172 0 0
192.495841508146 -9.25070493787867 -32.656022140335 0 0
210.106987196736 8.00472006680075 6.27595139634369 0 0
169.953708130972 -12.3492854837251 21.6718721926292 0 0
96.6656524936487 -13.3442374561107 1.57953164394765 0 0
152.847021985269 -24.4929611956604 -5.45364697585376 0 0
126.120315263822 9.94301412279778 -7.17105955140732 0 0
183.247541349418 -39.875972104217 -4.09132781356179 0 0
-123.667024976034 24.120276944718 -8.50740435211778 0 0
198.953317079974 0.634691498216839 22.7649739841024 0 0
182.58686285245 -17.3363585475785 22.9031969413051 0 0
49.056233782387 -7.18671454394556 0.38614909736699 0 0
-45.6409780554684 8.66197127247933 21.0111314101708 0 0
88.9425912240992 -1.21682203775208 24.9390940859201 0 0
-73.3487455580177 3.25151761832185 -7.87328773042718 0 0
-8.86001325466405 15.9703692350959 17.671009137144 0 0
68.4965342388442 16.5633570907228 14.3867098595057 0 0
163.654994567595 -6.73407666687932 -10.1272050766721 0 0
181.235290628578 6.48755481150828 30.1093345716585 0 0
109.434595447359 -4.89148677534666 -5.06064979664357 0 0
37.9618719021294 10.9489765270885 -1.36386677117303 0 0
84.4910413056137 -4.75994580628247 23.704007152608 0 0
196.245802309191 17.6470388999146 -26.9874791647761 0 0
150.522464567519 -1.40958778148466 -8.39603512663851 0 0
-136.79261755444 -3.8399730760014 4.7265321868061 0 0
14.5151568726675 12.2337225146429 0.0954145257075815 0 0
109.790308805385 6.11996758685244 -6.95708997837883 0 0
-114.486803223998 -2.46797161239783 8.97789458773675 0 0
166.983947214059 -9.43173953549337 -11.3019141832496 0 0
128.604391288991 15.4968331497667 -5.87156561993168 0 0
56.3881865935822 -11.3479243596942 6.01315212677751 0 0
180.395353989926 -36.9773240259106 0.66395525576022 0 0
189.592462127998 3.36310540845268 29.1606050114471 0 0
218.9580001897 -26.0856459492303 4.59637914148803 0 0
202.955165562086 -4.98346171978171 -5.37705670132732 0 0
119.335723501508 5.01545029211521 -7.16501864245252 0 0
187.062147534173 -12.7448877423495 24.3868736502872 0 0
189.711485403925 -38.931059572255 -25.2448819279292 0 0
200.041123761583 15.6072210895759 -25.2020993839499 0 0
167.560723598903 -3.31494291995738 -10.7043309393652 0 0
6.87625447621163 -2.45957745697456 21.4296910967118 0 0
46.0951165008486 -11.9597824231768 12.7104323879246 0 0
181.065451248333 -10.2451392028201 -20.6730102984835 0 0
-50.4697704616581 15.2771860701802 -2.13297724451771 0 0
78.6404029648569 -7.96904620692215 22.0072644441205 0 0
196.086783848587 1.35440887702428 -9.11845867372906 0 0
-61.4626356810127 16.208476017114 -2.86732327755882 0 0
-121.564131380264 -1.55402593783101 -7.43257828678563 0 0
76.1073274278844 -7.74652546965091 22.0675104271986 0 0
178.663963592655 -33.3343839242731 -21.7720505986892 0 0
148.953362548894 -19.9521458223805 -6.55289187110547 0 0
204.120331825403 14.956133480801 -23.3447632600823 0 0
175.929086247137 -31.292171729095 8.44665193081813 0 0
185.79197026248 -40.856139887311 -16.492333850855 0 0
-83.3876364620168 -0.387201451022137 -5.85654131006094 0 0
210.622579206266 37.511750629266 -0.0162504787947532 0 0
69.2916166622945 -4.76611670770303 -3.28598832396258 0 0
150.158913959259 24.8802461577897 4.8680639838293 0 0
209.833759246533 -4.71461697726293 8.03658949189066 0 0
-45.3183025927727 19.5910861433739 11.6383979867531 0 0
125.874104916872 -21.3143441213371 9.20195873521178 0 0
200.271735358404 36.1751416512873 -28.6621081734044 0 0
209.391867531881 40.5492068092986 -20.1215777376336 0 0
-134.585792436886 24.5221635393071 -12.0117975884493 0 0
-25.8165289793195 -7.74698021674224 9.5940395412046 0 0
211.126140528812 -9.47147153794609 11.6834596230909 0 0
-34.4930658964534 -2.63785782744666 -2.90416933577871 0 0
191.323986238532 -41.0807255350924 -12.6498098909857 0 0
-5.96807757241206 16.7199351851603 16.5213558810545 0 0
205.815492560637 28.5285760416569 -26.2460589259876 0 0
215.236201784179 31.6102679579833 -4.58634911365042 0 0
-86.0520792767174 3.68085232849669 16.4976920274488 0 0
208.588987377416 -7.36717908755122 14.0191032918804 0 0
55.5035481602901 17.3434670065699 11.2690547483385 0 0
182.704732350696 29.8701337859325 19.3475579121856 0 0
42.5488187600571 -7.47618673729948 1.27456632732412 0 0
202.866952776159 13.8386799781003 -22.8450344680102 0 0
191.64374042052 21.1873931154053 -28.1931307453079 0 0
190.405565302218 -36.365308263742 -29.6712594523397 0 0
178.492622870972 -11.377728306613 -17.1637293563051 0 0
-74.4751842147513 -1.9780537145704 13.8556108538326 0 0
-111.002170247169 10.7972196913883 14.486917942981 0 0
-77.6226617513786 17.8489996023979 14.4294423044815 0 0
76.1394682041594 -1.78799964280981 24.5538090773804 0 0
198.237035333665 -40.5242997260818 -12.3680692690798 0 0
198.396061497395 -17.2232053454855 24.9176054255714 0 0
23.853679533722 -1.95331248258126 -4.36347788752793 0 0
-141.574839057542 23.1130841329251 3.99915584717542 1 0
-100.090092232498 -3.88843376808784 8.43675098472379 0 0
8.75934249239918 -1.50875626563765 22.0002789959036 0 0
-82.0825106480004 6.70669288056299 17.8629619429313 0 0
64.4876864434739 -13.8501869420871 12.4213023222071 0 0
27.5934338361855 -10.2870604933533 13.3206904261496 0 0
-56.4262859373498 12.1313947225438 -6.29420038038567 0 0
86.3034044368015 3.68329475606322 -6.15361689870036 0 0
-50.9517953116867 4.25868221409238 20.449934797026 0 0
-140.28563981585 26.5600939589287 -8.61865927182362 1 0
-121.532402385763 13.8292636551798 -14.8569173149438 0 0
189.873306784151 25.4676259910737 -29.5746850011488 0 0
81.0533171768626 15.6063246451019 0.704722603915704 0 0
120.094198208709 -10.2793962758724 21.388789116279 0 0
-47.9195015068762 19.7869870253322 11.2511241215818 0 0
48.7612866587507 -12.0720466345096 9.89302831452754 0 0
-43.4094815385259 13.3523387878725 -3.07801297317061 0 0
168.73072630564 5.23566718534864 26.4196037427362 0 0
175.436914319899 25.905564528115 -24.4538063264229 0 0
145.589868657236 -4.63367072792729 -7.8150674867214 0 0
-2.02942754784162 -3.18050210398387 -2.74281115600268 0 0
74.1605451774606 17.6139167203264 5.80085559510461 0 0
72.9454559532035 -9.97174191128577 20.4359823183144 0 0
34.4435857171459 11.1727236538278 -1.07776069185239 0 0
206.334736944893 -2.94162762365944 14.2405715268601 0 0
221.10999918011 -31.5899835045506 -6.74747608885164 0 0
133.458873148654 0.233350543554772 -7.29066320344652 0 0
197.744054670445 -9.02322754029762 -27.6281908865393 0 0
203.917011647504 -11.7716555982317 21.03344809317 0 0
-78.6352417591865 15.1415560059191 16.4085877454211 0 0
207.868154750999 -8.63743777794653 -25.7790917087988 0 0
163.298517223953 27.4943900793474 7.10345103625674 0 0
113.618897458995 16.9277415577409 -2.42767662724062 0 0
215.127235669014 33.9086265548681 -6.12228426335523 0 0
-16.8563317549091 13.350228315973 0.00783973075169922 0 0
181.924530424812 -27.2527399098812 -31.0836669073202 0 0
175.752481574478 -36.7204568795727 -17.5042227715231 0 0
202.742157872566 -28.4910913342638 15.1824338206233 0 0
204.24585186872 -24.2856946556307 -40.0516055826659 0 0
214.861395661753 34.1760517327361 -10.5583996884029 0 0
-47.7305468499939 15.0415030782528 -1.93862454831112 0 0
99.2933775025188 -5.34537315075465 23.6005058374785 0 0
78.8874806678589 17.466768658357 12.2835111773096 0 0
191.645701383948 -6.76852374034996 -17.1831903644658 0 0
175.517092437524 8.59573185677278 -12.3524242144577 0 0
-43.887938226729 18.1862495230429 3.34966463633654 0 0
165.390716481039 2.02169015572031 24.9481800805256 0 0
192.739843288225 -17.8463051582124 25.0081154399815 0 0
174.066556373722 -25.0890366472093 -17.1962952293851 0 0
176.413363628159 35.3745025647146 1.87169635244984 0 0
-40.1019140093635 -7.11612106034072 8.80326978389308 0 0
190.305139535699 -10.3306931166639 -24.1444187217153 0 0
141.555037054124 -15.3808983017768 -6.00011865663892 0 0
131.865589221496 18.7409719773172 -4.52728792066189 0 0
207.117370637082 -32.2642657949708 -37.3793971068985 0 0
156.625603250464 -1.89048471132772 -8.99069523412154 0 0
127.120819543114 20.6317445161908 1.11734215396103 0 0
184.674692397918 -27.101380772996 -35.2475744247403 0 0
62.8494088556202 8.00571475816269 -4.69939267369238 0 0
167.718633810961 -12.2168687166748 -11.8520066319881 0 0
182.008074817604 10.6154305505288 32.601444555629 0 0
1.53597019205197 -8.57723335077917 8.26375449662928 0 0
13.6496919902919 -7.19066949505384 2.78183409655949 0 0
206.790113265307 -10.9072718128479 -18.4347595146747 0 0
-100.342235994987 22.4422142619765 4.84317276374322 0 0
-95.3343699827323 6.85456395689097 -10.594442409905 0 0
198.341487961458 -35.7991789945545 4.45805213681482 0 0
212.874516547224 37.0828887949864 -1.63311857904395 0 0
51.1706760046226 16.5449924974685 4.6055880523171 0 0
210.214670028175 -19.6518092925376 -36.1788094559773 0 0
-64.0051295812366 4.85220727263676 -8.43953780160387 0 0
-76.4231532697806 0.0608547235993468 15.4977897358735 0 0
-110.891351632643 -4.65760145231617 5.67894822933215 0 0
197.419834589979 -20.5857018169483 23.8444051944918 0 0
209.6770220968 -10.0578258651793 -28.9643754373488 0 0
210.334096892669 -35.2058135186836 -1.22646739524145 0 0
203.574371361557 -33.6442817602567 -35.2309251019347 0 0
173.566391565743 32.5073157994477 4.57146818270466 0 0
-8.57352668626968 16.2246972724322 4.5667763694315 0 0
-1.25641495594523 -7.63079717584618 15.2501431469207 0 0
221.311757131083 -23.3204732749052 -3.62077714649664 0 0
219.494239116117 -29.2933784266429 2.43795721333703 0 0
215.342901839414 31.3515825723711 -7.59433802962894 0 0
135.78322239211 1.41739704595251 25.3722778399538 0 0
21.8000892230313 14.3727149754228 2.41259660067768 0 0
217.120508644564 -35.289539296355 -23.2914223116296 0 0
-104.014545923087 2.94144452098609 -9.39819584587928 0 0
45.4189282985167 9.08668125375488 22.5639338320081 0 0
196.153667730041 -4.7065130440248 21.6483589064588 0 0
-106.032748188869 15.2526242622176 -12.8238925389227 0 0
185.415443154095 -31.139400640268 13.3172124483614 0 0
-73.4547001757148 14.1036512563708 -7.78343458691708 0 0
47.9796226110587 -11.4918293625596 15.6988172573464 0 0
161.347163467191 -26.4784248666205 9.08002836725662 0 0
-49.1390448418108 17.3199009203615 0.906725621262365 0 0
143.893219564289 23.4878354900445 7.12621024890298 0 0
21.983510505408 -7.79605271829856 18.3904968221281 0 0
154.81830811152 23.1295842248053 13.3252174489361 0 0
-99.7755125949071 -5.20477397135542 1.757837547532 0 0
189.729553339696 15.97734353558 35.7811834518369 0 0
27.1807383063464 11.6552048276895 20.940467477511 0 0
197.577541897448 -26.4711155630765 18.9880344018342 0 0
-73.3763705912815 8.18943803403355 18.9752933029051 0 0
207.64752731091 16.5113743205462 -20.0890877995659 0 0
151.737033269202 -24.6673281169144 8.80367627204368 0 0
-57.1434324183398 19.7624939646827 11.8935813995666 0 0
-86.624436646458 10.8038783094572 -11.4985479732023 0 0
164.451905846507 7.04054330134263 -9.80292145603787 0 0
202.649093885697 10.7232153346748 -15.0085496016064 0 0
79.4379081623696 4.0242951819188 -6.2526683406356 0 0
206.677534975526 -10.3890814260257 18.4511147445518 0 0
-119.467219672916 23.5584198896625 2.96346907245254 0 0
211.686446691808 14.1502770624913 -7.58620055718144 0 0
210.127740295012 27.1235464284881 17.1929905775902 0 0
