"x" "y" "z" "f" "a"
36.7088064356807 -7.78130530552088 -2.85917802634599 0 0
-198.870617944163 -11.0502037593551 10.224083912468 0 0
-199.265743580255 -10.9778459573772 -28.502931418801 0 0
-93.598500319672 -9.80039513126491 -11.8203707270243 0 0
-51.7450328289156 6.3073507121437 1.98548278827546 0 0
-165.995410156964 -12.7521061590113 7.44806951578413 0 0
-69.9246521395222 -20.2635961771061 2.34280107192648 0 0
-94.6192093467168 5.69360245140344 -1.06106016130283 0 0
58.1933299302216 11.8503293398194 13.3444548966249 0 0
-216.373511797751 44.3393992249673 -8.44844617902098 0 0
-193.797694440674 16.8987975438139 15.9346865019873 0 0
39.0389503649018 -15.3956164734672 6.73023404275092 0 0
-172.752901776858 -27.1087333871495 -23.5992059869292 0 0
-202.3109611065 19.1710320757723 -13.987814550899 0 0
-175.136450240037 -34.637687174004 0.106348352058631 0 0
0.228351981693151 5.75576189325057 15.269879069941 0 0
-131.673686600631 -22.8314151164362 -4.16578065314004 0 0
29.5888489050278 11.3294023788319 6.60553980386917 0 0
-47.2232660844813 0.767130875758838 -5.98834545331241 0 0
-69.8698473330104 6.52080572512514 2.60017718648813 0 0
-104.066094517368 0.394799887965377 -8.8888730086795 0 0
-108.676793968692 -18.1313855260888 8.0535756408238 0 0
34.1950669951974 -15.3465093731364 11.0898907678377 0 0
-14.1120534432764 -0.42649354235924 18.4584596134471 0 0
8.40984613510292 3.68625440652826 -4.37171890984864 0 0
35.9592472322074 2.50021912871735 19.4360728894289 0 0
-227.28160707604 27.4951484406837 -4.6028317175247 0 0
-96.7384291464848 3.9204704018291 -4.59746553718426 0 0
-88.0319394095247 -17.4821715175104 -7.67607579874011 0 0
80.7887987924263 5.73594090429592 -3.7162806372927 0 0
-177.377498831022 -31.533720169772 3.06360421682556 0 0
-180.438055431779 -19.9556660356931 7.17648040892462 0 0
-72.2589971813277 -19.3008692487344 -0.808115159467886 0 0
-212.537501090492 48.5691852473371 -5.25717281439988 0 0
33.5294853900225 7.59004381929082 16.2328592198754 0 0
-40.3787071160744 -2.43833169414153 -7.44802614614787 0 0
82.9339923506585 13.3321537484785 0.933236006173317 0 0
8.06243783765123 -15.9455973276888 4.84279091913328 0 0
42.1159745382211 -11.1673104703125 16.6044274731524 0 0
-97.0431373042209 -12.8468606448903 13.2193220236882 0 0
-215.095016979696 46.2495823474228 -7.19544613260644 0 0
-38.8343476887813 -0.891061958952306 16.9436070228842 0 0
-186.543113605592 24.8231303658943 8.77857668322254 0 0
-173.903254832178 -12.599731688382 8.63863886585772 0 0
-91.2986728903921 -20.8545158097288 0.252359319730298 0 0
-60.8235991779719 -17.7181539074135 -1.47433271537206 0 0
-161.165952387225 -20.2951102747028 -23.0170068067544 0 0
-164.715566843402 11.2897367099862 -9.67548353081022 0 0
-198.854673843792 1.06189806364946 -7.29092356091251 0 0
-140.906250062933 -2.92511529942663 9.55503628931928 0 0
0.012925311039614 7.12382808013801 0.188580772760316 0 0
22.5048931473367 -8.9113822643728 -2.28693329318911 0 0
-75.0634076621589 -9.26522657567172 -9.64926685595244 0 0
-148.372966127046 -22.9978185741818 -15.3613823547239 0 0
-34.8026320772374 -10.1740048322968 17.7375822786633 0 0
-115.175674572718 -5.91966755733204 12.3263712846262 0 0
-40.8547562269403 0.431448274011759 -6.11072110658986 0 0
26.2753755907252 -13.8700275844992 14.5935416543295 0 0
-198.142271972763 -9.03580828616211 9.31709895496322 0 0
77.1690654093658 0.369749793925118 -4.44771914696845 0 0
-152.034130209601 -15.4812480113949 6.37597627702842 0 0
-200.340317052612 10.0387065104979 15.6555401970143 0 0
22.2737058692181 0.784721005330304 19.5927898499856 0 0
-118.320346840162 -21.5869837611633 0.285354263509419 0 0
-193.879285007025 -7.47779042438489 13.102942847236 0 0
-188.141965916373 0.388947385134322 12.9688478255085 0 0
-103.552981781729 -16.855259212261 -11.6090957744241 0 0
70.2374222274116 -13.041092478913 13.2477790555398 0 0
76.902254995099 -13.0319103728887 1.68176833912423 0 0
-180.239986131517 1.30266584833686 -16.7796694604642 0 0
-190.851540046401 -13.7401330514141 14.5613765621947 0 0
-218.267348846448 12.6215774637514 15.0644513923534 0 0
-142.969547759186 13.4511408145758 -17.0873325603314 0 0
-104.58976055873 -20.8628309217043 3.43387196461439 0 0
-42.2833058631365 -18.5659882921356 10.3171064166166 0 0
-2.8979899062678 8.83007923678905 5.11023183378679 0 0
-136.988061737699 -23.4004848248723 -5.19525552609028 0 0
-95.4301887469647 -17.5274767708504 10.2514194680867 0 0
-167.862240900045 -22.2036926093321 3.97861784625075 0 0
-222.9624143873 17.2537601972882 14.7162058184844 0 0
-67.1243572486908 -12.6255451931783 15.7159431172755 0 0
-200.656615976406 -10.3152886863736 -24.0735524417239 0 0
-177.0836201956 16.8492769645988 -6.28869449125068 0 0
-198.904611176942 -21.3092058912619 -27.3264978548538 0 0
-100.903461390447 -17.9373620993789 -10.1985054890767 0 0
-192.638854026081 26.5677651211113 -10.182678568212 0 0
-197.201462283062 -2.63995710762968 11.7788716165255 0 0
-192.595519211289 16.8573059385751 -10.4304157035915 0 0
-223.743570997472 15.7140072161602 -2.21209622513556 0 0
-114.46536515355 -14.336077507747 10.3866461542324 0 0
-178.066662572914 -34.0252291978222 -12.7495731371457 0 0
18.029739859643 6.5375204435882 -1.48239159830463 0 0
-84.7487722397214 -15.4923829150053 12.985742661593 0 0
-2.53850173733464 1.15176993594274 18.4120817868591 0 0
-83.0305539774141 -16.1650949409117 -8.1324832063698 0 0
50.72131595215 -2.76580379005684 -5.70047259923158 0 0
46.3135886049676 12.4331693681875 9.34262972216925 0 0
-203.328063208179 -13.3060348976666 -2.59763770904812 0 0
-61.2823981694547 -19.8757598077705 3.18568180976608 0 0
-76.4873360302307 -15.502964275623 13.5512717870073 0 0
-129.44416376414 -22.544068422276 -7.90181723216117 0 0
-84.2689280854837 -19.4331481033671 8.82637208275426 0 0
-80.3980079897584 -11.2067199089157 -10.0962164403645 0 0
61.6754165736849 -3.59169519694546 20.4116007177024 0 0
-157.790600539387 9.19346764427648 2.03462400819212 0 0
-131.479568563529 -5.69076892686863 -17.602823920535 0 0
-178.707281322781 16.0265633171639 7.66361280254028 0 0
-78.8483888477207 -3.30125351087216 15.0353035862399 0 0
-41.8458408045497 7.3035294930126 7.2450003424844 0 0
-190.707850951777 -33.283511257624 -10.005920172295 0 0
-39.7905255468754 0.516591673797357 16.0531842230332 0 0
-186.400529261441 27.009314042055 0.611532065619356 0 0
-152.386162386223 -22.0374579793767 1.68444960784693 0 0
35.0508793941727 -13.9276484467705 14.0731733024457 0 0
-60.2589494500289 -11.3538327170626 -7.40452542303057 0 0
8.23235020766799 -13.8058364437064 1.593915350523 0 0
-226.99882844692 38.4420883731513 2.58274823214819 0 0
-50.159861408685 5.9665167323936 10.49639600582 0 0
-178.818233311469 -15.5260951512363 8.8087207995273 0 0
-110.065975308155 -2.41016520099603 -11.2703950818204 0 0
-183.170083648968 -9.3220345703733 -25.6618860754548 0 0
-209.36053879465 45.8019177880214 18.4119081778421 0 0
-162.871935295284 3.3164359160421 -20.4758263491465 0 0
-205.409898832942 8.59353752936115 -3.18412916235659 0 0
71.7518990592542 2.45109811061857 -4.27051191149428 0 0
-55.6649669464387 -11.3953405706125 -6.6883971363165 0 0
47.0706869906456 -11.4576234126061 -0.261082254413805 0 0
-93.031649681465 -5.83330174489099 14.6021523037937 0 0
-113.287891467635 -15.9939039023836 9.47026420389591 0 0
-37.4165439079368 -14.7605598841086 -1.42920850270921 0 0
68.2799044814009 3.28157026361692 -4.21598338975563 0 0
-188.300613612295 -11.1057052361091 -28.5405498703671 0 0
-160.101296159648 -0.191170607502162 -24.1422470760223 0 0
-191.919928122045 -33.0344318096844 -9.02958147748092 0 0
1.7058834030809 8.36283889686954 2.47386920494888 0 0
-132.672884606859 6.49274011206858 3.23390764806261 0 0
-219.457809664835 13.7352147935124 -6.54617325345199 0 0
-167.501345774536 -11.5364580845509 7.93379756046384 0 0
-162.800626842822 11.4138725715263 -7.17723342717063 0 0
56.8936625356377 -1.04328478715043 20.6529582945072 0 0
-227.517326249785 37.5573159736409 6.12596917370075 0 0
62.2761906751024 7.73225860269568 17.64498110048 0 0
-65.3094773188148 5.24440665420106 10.468382433102 0 0
-162.824688261614 -19.9509034616893 -23.9002041878119 0 0
78.969954756483 14.0333950701555 11.4593414631849 0 0
-148.462446851527 2.19637919725531 -24.615281085802 0 0
-216.558075243996 28.2285294608268 -15.2960010306788 0 0
-121.117938955735 -21.6978847693317 -7.81195267436872 0 0
36.6441791368069 -15.277508120394 10.8650396891436 0 0
-42.8914483120528 -8.4752073180999 17.9858544478306 0 0
-118.291162683762 -12.292846188658 10.7547370124147 0 0
-220.281195389715 21.3844983310847 20.6696413019609 0 0
-73.6076009892676 -11.1084500344112 -9.18412036227318 0 0
-172.369561809749 -20.851423359951 5.34614678343035 0 0
-129.702483843118 -19.6825147274617 -14.3680226572309 0 0
-104.003037188049 -2.22851252085656 12.0625443188416 0 0
-189.846352966384 -8.77288797189132 -23.0690859575469 0 0
-57.9179075033737 5.4217724873129 -0.203061519165835 0 0
-197.723630241159 36.6317811006972 23.2468597912329 0 0
42.0909477824055 5.95564284803418 -2.69409036784236 0 0
-27.7524855543013 -13.0935471943582 16.4319116393302 0 0
-187.332545491161 23.36312427681 -5.54544599650001 0 0
-4.72354056075569 4.46523061867479 16.0752721584418 0 0
-185.027735776396 -2.82614281567494 -17.3086711321542 0 0
-88.7646657127576 -20.9907785349112 2.95035959436018 0 0
-211.139362759524 14.0456844466225 -7.4212212193128 0 0
-137.458701473769 9.73549167229069 -16.8017909157444 0 0
-160.277260574002 -1.18681678604977 8.88119593311084 0 0
-23.536695937094 -13.9525408273641 15.8274184556542 0 0
73.6542584306123 -14.5269476727478 6.69995923374985 0 0
-34.8626137714097 -15.5223435448385 -0.333049263953574 0 0
-59.072304759968 -2.7625484035601 16.4252819942479 0 0
-204.239363070554 1.29042253151861 4.89962216958445 0 0
75.1841325799622 14.5285435241501 5.44506063464016 0 0
-143.515412695534 -18.3576887997525 4.76076787238725 0 0
-211.778540212687 9.61956746515096 15.4017671454293 0 0
-102.790270658572 -0.679122687279609 11.4888554154294 0 0
-115.749193556521 -18.0370529885829 -13.1273808671193 0 0
-228.351292691206 23.7063229355451 7.72805763420926 0 0
90.8850018901988 -7.05257844788545 -3.69432005954136 1 0
-167.861080436701 -2.85340633319319 -24.2363019960589 0 0
-114.391417987446 -12.6587286545629 -15.2516117008476 0 0
-32.7769098362652 -17.5342840549055 2.63126759598819 0 0
-226.683665317963 33.6572677928958 13.7933776251669 0 0
-155.108294776526 5.4528739024184 -23.0386641228516 0 0
21.8397851355626 4.40721540587325 -3.44308348805949 0 0
11.8081768646916 9.18452317401378 3.29695767650449 0 0
-138.723893012392 10.9786498364537 -15.4373046735087 0 0
-155.235401171361 -15.7379821066207 6.20231542778297 0 0
-151.789572442062 9.5779761246373 -23.1084199994592 0 0
-189.740054530003 -18.7231074586543 -30.4496435897917 0 0
34.8958887352739 -14.8215386609239 4.36356919557228 0 0
-195.265546157345 28.888633585301 -13.4027486910103 0 0
-88.1727504719825 -12.0865439537376 -10.9077082772576 0 0
-199.13266078868 -28.7808433242524 -0.312958456654212 0 0
62.9189819795316 -4.88366564641452 -4.47989030067834 0 0
-175.318509120091 -28.0048010548049 3.95013581063791 0 0
-191.96012153392 44.0240265434811 10.146406833944 0 0
-12.8005780624321 -17.4769500467483 10.8330551779349 0 0
-91.4372935827468 -5.3096023625801 14.6289978858798 0 0
-169.33457946528 -26.7771476743888 -21.9806890561267 0 0
-209.225231725459 38.6144913416071 24.19688078112 0 0
-213.832800291665 33.3268275936819 -16.0709696635376 0 0
-206.862362155041 13.3701545870255 20.6653384917239 0 0
-166.007970792092 -1.04084390096736 9.34628014186655 0 0
32.8206388367191 -14.579257996211 3.70965908125088 0 0
34.3134297532866 -12.7241187171742 0.988013576552058 0 0
-186.840785562073 1.13350828268251 -13.7471907114047 0 0
-191.178496154583 33.8339779003348 15.9955986473167 0 0
-136.984174943587 1.50988016925815 8.13890341474717 0 0
-207.515947160978 -24.3897939438142 -14.1368587916582 0 0
-30.7449414588996 1.21452582974525 -5.47820116707375 0 0
-35.8034980822339 -2.08588152656549 17.6994620894213 0 0
-59.1811525031322 3.19559794217149 12.8386509766801 0 0
19.8424884202769 -15.9742129247225 6.34281224353978 0 0
-161.769262615489 -13.5552578928521 7.06673202898321 0 0
-193.858320268967 -19.9787598721837 10.5216891460895 0 0
-12.6638452526457 -17.6932556163123 7.90646728253745 0 0
-218.168016591602 16.0535760991242 -10.1470930300261 0 0
-135.866520014617 7.50214303738923 -11.9466382678669 0 0
-43.2405385634497 -2.14295898359668 17.2631363063839 0 0
69.9473528897953 -0.436002379462735 -4.65599141138766 0 0
-225.608041686372 16.7804319734118 2.5999738649228 0 0
-5.50396199650563 -1.72538387967456 19.2537882185181 0 0
59.0047646556229 -2.84537582107385 -5.325834554008 0 0
-97.606234400256 -16.3527041434024 10.9867972722155 0 0
-146.671946872582 0.658346214630955 8.37976608332184 0 0
-37.8863617344711 -7.04030072429823 18.3105858450926 0 0
-178.205184962399 -8.80252195349524 10.431110477961 0 0
-95.8052158143624 -18.7664663695278 -7.55624264519797 0 0
-185.689730931133 -6.01072931739726 -21.3862482562117 0 0
-223.498043534778 42.3838055990418 8.50348680054223 0 0
-185.098048912934 -2.46350033075993 12.4840393009463 0 0
-24.6736450354541 -14.045255409804 -0.595902285932248 0 0
67.60125853523 9.89295604429755 16.1280296867416 0 0
-40.8844905086721 -10.3771638796219 17.5393261666565 0 0
-183.66171346386 -9.29195763651638 -26.7239267582689 0 0
33.6055037727589 -7.9884195935718 18.8076851207639 0 0
-222.673916658557 40.1088688012506 -6.33226074334725 0 0
4.02282333803983 -16.4684339743204 5.76417526643392 0 0
-176.987117964335 -29.6471673467595 -22.0138389592328 0 0
-204.669501579175 3.39813657913106 0.901918459690321 0 0
-6.53936261610883 -4.14659572429163 19.4131046558618 0 0
-110.468173855982 -16.3411576565654 9.55870555891104 0 0
-99.7035394443945 -7.18724065102003 -12.0800054529944 0 0
-37.2770652320647 -18.9380901716731 8.52669907735433 0 0
-224.948993907801 26.7527859389598 -8.42509137737655 0 0
-87.5838978845729 2.13894865397254 -6.13293128493691 0 0
-215.646649554666 24.6752262066128 -15.2890943056486 0 0
-189.041571553677 -33.6396665310108 -11.7834618158439 0 0
-107.181433635704 -18.4473798998823 7.97225534959874 0 0
-207.104074120372 50.7696241762313 1.99937378484214 0 0
-189.417525676012 10.7798646092535 -11.1355588586636 0 0
-67.8423956872466 4.20661724715052 -2.75549933654659 0 0
-220.137266431763 29.9327231310841 -13.2647710926124 0 0
-110.60248425791 -9.12619791438845 -14.1275042080122 0 0
-126.684134871717 -21.5550606498218 0.484139776444343 0 0
79.4738005607065 6.68196761593261 18.9256325386675 0 0
-198.542074663568 2.45217528516725 -8.11652949824888 0 0
-186.733174646849 19.1774957223151 11.0772171809529 0 0
-155.72642115308 3.58794825845823 -23.6064668593446 0 0
-59.0077903861937 -19.4105815882527 2.19471140777697 0 0
-93.9296259668341 -3.33123261945331 13.6360540035792 0 0
-211.534223371883 8.32786450578902 7.59849669660086 0 0
-204.414158796282 17.9086351497481 23.7953797640932 0 0
-186.92408220332 -29.368357367529 0.759563500178812 0 0
-73.7188736293515 6.73066918195894 4.95402112947621 0 0
-12.4679878150515 1.22556375599293 17.7448400986788 0 0
92.1293310180208 1.47703217850728 -4.21554592640465 1 0
-70.590694158472 1.20386451944646 -6.220893160056 0 0
-10.3865099367396 -16.7839552394486 12.4150907724848 0 0
-211.540703272077 8.51065983799094 5.18480750081904 0 0
-165.941439133674 -25.1238959592148 -21.5480676008704 0 0
-157.864548853757 3.61969829412078 -22.7517354273907 0 0
-130.746890144285 1.34788680619981 8.44831900934766 0 0
-145.699421771139 7.31585930814609 3.27340568327973 0 0
-211.304148350379 47.7050225786224 9.17922076230117 0 0
63.4595254847633 -14.5120878744554 9.52989068447127 0 0
8.61091312837045 -15.0658476270761 3.18289932236794 0 0
52.0734125703833 1.60902572945484 20.1669903466568 0 0
-149.992877579956 -14.0545613152939 -22.266906703829 0 0
-195.076929436225 -6.07535023237155 -6.33324063906303 0 0
-128.260885402229 -6.22567163981553 11.0152761803271 0 0
-129.406807957004 -21.8839750274754 -0.204283564078778 0 0
4.14851579594895 -14.4258167240505 15.0078153510386 0 0
-52.5943227319086 7.03358264287651 5.28007478603401 0 0
-6.17932216692945 -16.919404207394 5.6192462956618 0 0
-65.4185931407839 -7.58405128860658 16.9841260802003 0 0
38.8084159340602 2.57415606823562 19.4921588508897 0 0
-4.43495520030973 -4.97804306418162 19.3774640622256 0 0
-42.6900568054152 3.75908318094498 13.5364044098156 0 0
-221.447011551477 42.9955118199571 10.8102453511536 0 0
-124.229792064186 -5.45398175925389 -15.7053856202856 0 0
18.7876268061865 -16.0311326984728 11.2277409781293 0 0
85.9767083764454 -6.55467996123659 19.4423930797085 0 0
-138.350162603013 3.26314702975413 -22.5758546160337 0 0
67.5157669104546 -3.1772893030533 -5.16695792641584 0 0
-149.455501920358 3.94617104881677 7.16599860650412 0 0
-186.922046922746 -33.9986617220748 -12.1939659333997 0 0
80.5811741040558 14.9820469781556 6.44267045943443 0 0
-184.871399792461 19.3806048503203 -6.94695603588887 0 0
-156.805348588692 2.94659399426228 8.10950681965601 0 0
-199.990225169811 42.9292803292312 20.0189579380252 0 0
-164.076516435525 -10.5172109028309 -26.9162161875228 0 0
-226.248825195346 29.3032398059967 -6.52329761177638 0 0
-104.652762200032 -6.919392473471 -12.4055049720804 0 0
-226.308289999688 39.8613326791469 6.04422118900442 0 0
-10.2478110896441 -17.2899471304275 6.20560167700373 0 0
-164.437565264008 9.91968726473056 5.64238983649435 0 0
-85.8052311717859 -16.9001969362871 -7.89565669389957 0 0
47.0498767609859 3.80026945975681 19.2549791748379 0 0
-222.922697293099 25.3352066936263 -10.5398829985422 0 0
-188.133025280514 31.3019198759257 8.31915311487778 0 0
59.896709966442 11.8351091455335 1.43754479379055 0 0
81.3872983333364 -4.74922571968381 20.2655480479104 0 0
90.2569332357975 4.94743676470151 -4.11576450594895 1 0
-153.259123385265 -18.2797449614473 -21.5257463915407 0 0
-97.6084958179388 -14.1801543967511 -11.7378789126488 0 0
-101.198621315784 -16.4014955835019 -11.4314735518773 0 0
-50.1810320891448 -15.2377197802746 -2.82238186361188 0 0
-31.2042524618432 -7.41771948864479 18.4757161742689 0 0
-199.197209081802 -13.7995208637669 11.4642940078543 0 0
63.0508603173286 13.3570611461457 10.3918943006403 0 0
-61.6345424330262 -16.3391244923613 -3.43088920995893 0 0
30.3221376802627 -4.99936422031069 -4.8595827386706 0 0
17.6008633480796 10.0421809576166 10.5374236797169 0 0
-205.369248797913 4.32578627046126 4.25161728505699 0 0
49.9238578399656 -10.8877823310202 16.6174159321832 0 0
-199.849538836429 2.63973470188214 -6.84134529770738 0 0
82.9346391262429 -7.68218425791786 18.7211500502425 0 0
-192.782905967036 31.6688256630709 18.4723797508046 0 0
-101.400170134207 -20.9376091879652 -3.0876022906118 0 0
-223.297086507461 15.2487806112533 11.252924757444 0 0
-135.0905469057 -19.3149279280837 4.12570296225875 0 0
-80.7715593195096 -17.0601484013294 -6.49430428732191 0 0
-116.118095002981 -21.1558728457112 1.87755838401337 0 0
39.990403980665 -2.80610718128822 20.2316371994385 0 0
-161.083899266822 -25.9328452729188 -0.429477409323459 0 0
-205.379513408046 -17.6938311067576 -4.39580937019415 0 0
-195.712953864341 -12.3923740910085 -30.2669482727619 0 0
-168.226714527424 -24.7300473417241 -23.1099479043584 0 0
-64.0121261183127 -2.49338074833689 15.8643160169543 0 0
-188.632250498319 27.5598469807897 -3.45877139705519 0 0
-194.504049685716 47.0765290213013 7.70328480756549 0 0
63.5945594058913 9.87149264474782 15.9527852426819 0 0
-64.6674756595044 6.70674157907593 6.51233932475288 0 0
-173.602062794862 -35.3641975076562 -2.23759190865873 0 0
-38.6318037102916 1.93156791271296 15.2635759305876 0 0
-173.552387868768 -30.8586228456549 -19.0423434361054 0 0
-29.3277728666991 -1.24230689840815 17.8067286401134 0 0
48.1399499046556 0.879210835470496 20.2048346600004 0 0
-116.517547562017 -20.3470987661464 3.76393019965538 0 0
-217.979758602008 42.1423493525883 -9.34407303006269 0 0
-187.663805770249 -33.7831162792191 -9.74595356269385 0 0
-143.394865093725 -21.601303372829 1.18426531640415 0 0
-9.86029947934053 6.38967813305486 -0.253445123597254 0 0
-167.193726011394 -28.177026534607 0.582297896914692 0 0
-221.842241360822 20.8754454686058 18.9891914539766 0 0
-111.135589773263 -10.886740730311 -14.7402140170136 0 0
-47.1277200089703 0.372116140732103 15.6117044914461 0 0
-205.075421450895 51.0497328654892 2.79904930752322 0 0
32.6950095361563 9.3277655921697 14.341084185102 0 0
-144.786498287421 1.27357063775835 8.17262290050973 0 0
73.7684048934703 -9.96173314228472 -1.69802280870809 0 0
16.5811963927292 10.29212460538 7.55247813138806 0 0
-128.237932419696 6.38707349505424 2.5717458026701 0 0
-112.832006189323 3.11825039676936 8.6295971450818 0 0
-64.1257954082781 -19.6484332854425 1.70788623677136 0 0
-30.6033742441974 -4.89881335565102 18.59748692262 0 0
-108.838796818548 -0.629861805510952 10.7819232479799 0 0
89.764407724648 7.07154224897947 -3.56891563252643 1 0
32.0604448769861 -15.5509041478008 10.6190887285679 0 0
-99.0373755217753 4.74684910078142 -3.36721909325611 0 0
0.244879048402291 1.52127098811092 18.3740149266685 0 0
-214.245967774773 8.58434975170559 8.19894950857757 0 0
-168.954287403621 -30.2209920065266 -16.2044922606113 0 0
-45.4368850310712 2.7418707684888 -4.18577193615782 0 0
-23.5159214097973 4.46643080099539 14.3870932655232 0 0
-170.525817047106 -9.56257989611803 -28.6509230916516 0 0
-172.994961723383 -25.0891117200528 3.8196239308295 0 0
-21.5269401522307 -17.3163732475222 4.18231745592326 0 0
-15.7021799555011 -17.4717272587175 11.1105454656078 0 0
75.4192820278823 -12.2930104173825 0.581371334445196 0 0
-171.244098070193 -29.4277569613585 2.19597743243343 0 0
-118.415451425439 -17.8375729775408 -13.7525291165368 0 0
60.8753774796674 13.2347039640352 10.3270817272658 0 0
82.2853772920924 11.592281005225 15.1898862887909 0 0
-192.671940780273 24.7582620919723 17.4623165338483 0 0
33.2294085619708 -14.5037509927467 13.2707580092234 0 0
-57.4315565102432 -19.8653946918595 6.79864188543741 0 0
-144.169633015277 12.7909985138502 -13.0996429525555 0 0
-40.0750746035021 -5.02935348998473 18.1787644855502 0 0
-169.287941291456 -28.4547420499607 -19.9724683895258 0 0
-191.714624342344 6.23359365283288 13.795447584204 0 0
-165.639962033082 -2.09083384709034 -24.0427681383028 0 0
-202.616634080859 -25.1803769954993 -20.0984843008115 0 0
73.7010547879912 -3.62256666281814 20.5756211351092 0 0
-182.786885355118 -28.9298495131066 -23.543113064598 0 0
-196.675369921894 -0.670091123905442 12.5417759293623 0 0
20.6633643557682 8.08411953629825 0.0919279637462985 0 0
-163.671017778531 -28.614174475957 -14.5206795382497 0 0
-101.063637141643 -8.5183321513264 -12.6603719382459 0 0
-71.8053614945514 -15.4532488318929 13.8259304007081 0 0
-86.7690589834724 -14.3676124166733 13.5221666876456 0 0
59.3486979209769 10.693719941731 14.9218202241161 0 0
-68.2260034911481 -9.07287973087239 16.6874512605234 0 0
-59.3710603235704 -16.8267035892882 -2.42164336414418 0 0
-95.2198607693453 -12.931029347817 13.3725933469352 0 0
-186.289894567744 -21.3520983510896 8.10866310666663 0 0
-176.265637469831 7.31802729868298 10.4222508583115 0 0
-179.614223668882 -33.9114071100678 -0.990888807721014 0 0
-130.142667002631 -3.53379748132679 -16.76665145222 0 0
-31.5096427491388 -3.40239652771 -7.33444873815629 0 0
-227.321357581013 21.5028895766556 9.2979974208032 0 0
-118.87659585144 -21.6212311975023 -7.37520389496719 0 0
-191.517321113829 13.8025947849211 14.252248685403 0 0
-178.036610701665 -6.60282272105613 -25.8469131309751 0 0
-159.324524255295 -3.81368319109883 -24.9593493362429 0 0
76.9730834438063 5.15660916238278 -3.80604427106851 0 0
78.2075058879647 -13.8638370837388 10.9488219881412 0 0
-22.3327410623089 1.00441619832056 17.1904591850552 0 0
-131.621634748962 -18.1824436899819 5.55923307108537 0 0
67.3206427384155 -14.5190043590755 5.97942665191145 0 0
-212.572943812105 46.6296111614149 8.29798104447674 0 0
32.760892651325 5.99599145128052 -2.41159650088614 0 0
43.0467524330308 -14.9292325983247 5.06913050461199 0 0
-158.043409083174 -15.7444975706648 6.23235923882477 0 0
-186.228880505277 -7.10844651912448 -23.7730060634151 0 0
-181.971563042081 -9.53868298018353 11.344844443616 0 0
-182.0206780648 -31.4738233381003 -19.3522683133366 0 0
-126.143156140404 -5.7661244157137 11.2196296043236 0 0
-141.95416412524 12.6542234922516 -14.3188757475915 0 0
-150.953047298902 5.95093732225959 -24.6355088731279 0 0
-190.7784525274 19.0779638256024 13.9692108043455 0 0
-37.7326344320366 -4.81795682494882 18.2578930353953 0 0
-5.58055824536421 -11.2005851573082 -1.44368158795852 0 0
3.27608345525717 6.27777060369421 15.0120858029202 0 0
-93.7623492425443 -16.9088255802052 -9.59938053314457 0 0
-72.9555884244966 6.47201086431547 2.3671183163453 0 0
-3.74269328929057 -17.0366010267573 10.9871056440266 0 0
-184.631155397242 -29.7357841077964 1.44362869264385 0 0
72.4702367577572 -14.0177559474153 3.94840272585678 0 0
-13.3870106685729 1.17149479025198 -5.62630986994981 0 0
-202.398044325189 -13.4541858382833 -27.6204420854313 0 0
-190.927815956718 43.7659505387526 0.989726180863242 0 0
-140.190169168009 2.71917450543081 7.55051799280917 0 0
-170.331846379895 14.4078678856778 -2.28161328944158 0 0
-192.320208922227 13.3835651271016 -10.8382360117373 0 0
-218.529202301658 19.8274327046733 21.2461745212188 0 0
-196.22420546188 -24.4671760145459 -27.5399709062189 0 0
-117.103502362278 6.23637840474209 2.15313005114991 0 0
-127.137050083197 -0.622235164558029 9.51929785250008 0 0
-16.649393780418 -15.4568223083546 1.80649410973925 0 0
-102.737061008531 -10.9419051043414 13.2332361866228 0 0
-191.516569110817 3.06875624767981 13.4263217399062 0 0
-122.148760771017 -20.5642806573243 3.11557877859494 0 0
81.0549575682119 -13.4265302469206 2.40295845375952 0 0
-188.564937662279 12.5132051786995 13.0603892692045 0 0
-220.915075360414 38.5827810216299 -9.66465011223213 0 0
-135.952637906125 0.548647169301711 -20.1950745831572 0 0
-145.050340848274 13.5042912788431 -19.7508237629151 0 0
-120.199025810383 2.15042734169082 -9.59252427314394 0 0
-160.678854638141 8.40661167504539 5.52980422527095 0 0
46.4999656633205 -6.86669221658267 19.1504293160426 0 0
-201.834446471207 3.34462375004733 11.0308479571929 0 0
-132.054427186975 -7.06056499003304 10.5530144242213 0 0
-195.078212769207 24.1274192763978 20.8832500413029 0 0
-164.991487724362 0.737872556406622 9.27547137740278 0 0
59.8308196428562 2.53985030189463 20.1906767081242 0 0
-46.0828058898558 -17.4141932027354 12.3163702326078 0 0
-200.91938686263 -11.7325274369517 -5.14684015616761 0 0
-188.221521363935 27.1815808134536 10.1243639430929 0 0
-211.925051717936 29.948638214023 26.2110490944581 0 0
-141.903354884361 -4.69974014262851 9.63334603735932 0 0
-143.404728880492 -22.7598881435816 -0.906342492071077 0 0
-49.3279750104038 -17.8155233974024 0.482709195095085 0 0
77.3948955111027 12.9419580308248 13.310038295748 0 0
-70.3493922718594 -9.63621512541793 -8.97059648271518 0 0
-224.433659161492 41.9067941519806 0.0153798248874599 0 0
10.7525971212012 -8.91350079945676 -2.44962141053725 0 0
-197.931980290901 -26.5921560249672 -23.2296968966894 0 0
-202.597074311635 -23.2512429372841 3.86251348299773 0 0
-51.495995539094 -2.66816548887273 -7.53273839336723 0 0
-212.418759694775 10.6791718814433 16.9687167088811 0 0
-91.2841314799941 -11.1096121086918 14.4236192792261 0 0
-19.1507302087962 -15.5651022602726 1.67934750373046 0 0
73.9431541984129 -7.21407103600956 18.9509844205065 0 0
-156.260348934299 1.56031782708195 -24.1681921878346 0 0
-161.167073407855 1.18356730249969 -23.0146962759859 0 0
-192.073147445908 23.8766959847084 -9.73055960602142 0 0
-135.585697733639 -2.82721762425787 9.84983649320496 0 0
-176.563117393686 16.577947020078 5.18993075194653 0 0
-202.549100453905 -23.3677543640593 -22.4926523028897 0 0
-15.9309876727237 -10.7734296185995 17.7259216841877 0 0
-188.749674233381 6.38547759664304 12.5218668093992 0 0
-80.0933831316576 -12.8847169932768 14.8073084537793 0 0
-140.739388457188 6.82847745197602 -4.99943467794196 0 0
-101.672491135208 2.93755234922397 9.6281076835896 0 0
-190.525286605285 41.882573334195 0.323381982724024 0 0
-198.396943938355 -12.7299342013337 -10.2403820515805 0 0
44.2426976041313 10.0928373523799 0.743017404094882 0 0
-20.9889525671345 7.64177586203041 3.86955936638377 0 0
-178.349160850065 -11.2180053777225 10.0456878662203 0 0
-118.787722361691 -10.5156432403831 11.3869793820963 0 0
7.46341214645969 -16.174207229899 12.1877176857261 0 0
-148.093514709694 -8.57639366918835 -22.646813448092 0 0
-185.390527541155 5.94855538124279 12.0714035204988 0 0
-132.336145996001 -1.3547415055742 -17.351260196854 0 0
-105.632259318771 -18.3491456472836 -10.79763128249 0 0
-47.0372502931728 4.14644115046996 -2.30251270223923 0 0
-224.34669709727 22.518395993961 -7.88665460144646 0 0
-112.346832668368 -18.5181334592934 7.16592161091461 0 0
-175.26877086336 -20.4538071253864 -28.9375149986425 0 0
-136.442524396514 2.48417828979788 -20.8671894341022 0 0
-54.5640936812974 -5.12332707130184 17.44318638929 0 0
23.3868759414673 10.8751513439392 8.22435429995067 0 0
-175.71205804287 7.68349588664428 -13.4708350976708 0 0
-198.359463544591 11.8101175123042 16.1334661852716 0 0
-192.052397408612 28.6627354930329 -9.19075951089535 0 0
-145.479135226459 -12.0189676624089 7.98619648158018 0 0
-36.3211588410152 7.49117538910234 6.42081322753175 0 0
-42.5585687890419 -19.202428090703 8.3129924614354 0 0
-37.9050251644575 7.33294702322696 5.17340928104369 0 0
-114.815212667145 5.28988738562368 -3.28027101860672 0 0
-203.049257463342 -11.9581884561224 6.06944171391759 0 0
-164.409580529789 -25.3947626789187 -20.3202300660866 0 0
75.0554244458782 -11.1313309116682 -0.696186659243507 0 0
-71.9845908870879 -4.3054285931711 -9.12172201797993 0 0
-187.839600326439 31.0525461578247 5.84180038803795 0 0
-149.201486881379 1.16670301321676 8.22569979140391 0 0
61.6569168846287 -14.227270648731 4.25912491027555 0 0
-84.242069726019 -13.5186641536627 -9.99143109311249 0 0
-183.490403080325 -11.2909336162321 -29.7614512857626 0 0
77.1748358187461 1.74816127025542 20.9019688694429 0 0
-22.6859272876589 -17.5838969545897 11.4150007870575 0 0
46.4606797279602 -4.53608807058258 20.007828981204 0 0
-170.654548014626 -18.007935041677 -27.9654528445321 0 0
-225.457241786309 40.4034078650434 8.83527274208677 0 0
87.5073653454263 -13.1930609313199 1.90283143715048 1 0
-199.924128496006 -5.77495668029149 -5.68241340173104 0 0
-45.6445587971466 -11.2489849979914 17.0828732312153 0 0
-90.2526961372446 -0.965195949631744 -8.71819417086039 0 0
-146.475779611828 8.15722506175447 -25.3473554258683 0 0
-108.728432403251 -15.5897421434916 10.2658543252425 0 0
-23.4956874713103 -0.666788245937567 -6.51488757091624 0 0
-200.392973335106 -14.186764039618 -15.3722398952989 0 0
-200.506328909508 14.0547976142712 -11.0048156487403 0 0
-65.1682678770751 -17.9678036332696 -1.8856784140666 0 0
-202.975024642311 -11.1428379577413 -23.9731913862787 0 0
46.7884176559679 12.3686502809466 5.25316989745061 0 0
-203.747106665927 9.84255243911102 -6.98194612243213 0 0
-138.427723527104 -8.88318753221935 -19.7745439407676 0 0
-145.609144355885 -15.3105317973016 -21.1245299431182 0 0
-18.7953991226134 -7.7038803867255 -4.53670006010752 0 0
61.6070757536128 13.6796169850767 6.80042941822926 0 0
-153.827128683006 -11.6680699944516 7.59936852228329 0 0
-182.243320777311 19.6613001037439 -5.58060911055862 0 0
9.88632763949201 -0.278503165457542 -6.66194116265444 0 0
-173.40423433038 -6.7715591076674 -26.1121101298199 0 0
-114.143934055228 -2.91675609969507 11.3581187384865 0 0
-137.460071388546 -13.4278405730842 8.18766122953435 0 0
-189.401396348723 30.2743925577957 -2.77696101728883 0 0
-7.00709675321587 -15.2235171737047 14.3721198948191 0 0
-205.875736159865 6.59033756369137 -0.343542089414471 0 0
-209.524222625729 9.36790764916792 14.5428951305039 0 0
-205.495346603796 -24.4574918448216 -17.5021320658474 0 0
-104.890519447862 5.19386061201206 7.06346338506383 0 0
25.6852439705464 0.57092115489592 -6.32618737651692 0 0
22.1759947550589 9.02388634212591 13.5193841772519 0 0
-202.721386910057 -27.1654889016818 -16.4386090159732 0 0
-206.18319619686 -16.085851713026 -23.6698647758294 0 0
-198.331534740286 -13.0434412875519 -19.293852560421 0 0
-196.33626615877 -23.5169835264269 6.47577170488185 0 0
-104.508031094352 -14.8376960351622 11.3059985434304 0 0
-20.5445057018246 6.88293586501461 11.8939841958549 0 0
-59.005123271255 -13.4437792157925 15.6560116352025 0 0
-102.100789531987 -6.91548312690154 13.8431803383108 0 0
-200.901583861178 48.9333854668165 11.6749378010951 0 0
-214.502322786566 13.2818392647982 -7.24991370447124 0 0
-22.6524452708445 -9.85328543549665 18.0487134054399 0 0
-145.767606370812 -17.3544716713792 5.50949707955505 0 0
46.7168691079405 -1.34556556343026 20.3979190148675 0 0
-209.072119195179 19.7720157534482 -15.7060213926812 0 0
-7.86782823975321 -16.4544527092747 12.7963100997214 0 0
-217.619653693884 46.1367745431964 7.72184813363161 0 0
-223.967154346141 15.1678885880541 8.97256059472991 0 0
-103.587460724463 6.28176844103781 1.19909459982071 0 0
75.2948042325945 -3.02118851994144 -4.9437267363613 0 0
-184.333832963648 -21.6592786704835 7.30684229690547 0 0
-11.978564332361 -0.873997968449343 18.727946616633 0 0
-217.024877532382 40.5868891533183 -11.2791095062916 0 0
-192.907488097898 11.0194261956537 -11.136164473058 0 0
6.7175601680988 -16.6564007795679 10.7651985887684 0 0
68.9279028489229 -8.43141424416014 -2.66999780904333 0 0
-212.095646097333 8.5357670004652 10.2996208603489 0 0
-161.942971511627 1.40945939091458 8.88694751069018 0 0
-196.77135672622 31.5914544511735 -14.9423378586214 0 0
-93.6718576948175 4.30532693241157 9.09250887021222 0 0
-146.550398780293 -24.2587582554169 -4.2184162078748 0 0
-131.678279540747 -3.10968070579037 10.2023435495147 0 0
-69.0434905451476 3.35091667438768 -4.00039535223455 0 0
40.0319521401591 -10.1832510159738 -1.31026827549974 0 0
-190.825971141255 -11.8437145360391 -15.0270010981655 0 0
71.9592917216139 -10.2009409983551 16.7239044287426 0 0
-99.1313467625681 -3.39176377604599 13.0930844683173 0 0
-15.9323090014601 8.19282639486848 5.88085612644437 0 0
22.0453713234197 -15.9333592564434 6.45874757088812 0 0
-200.673003206099 49.0832099139289 -2.37745797427328 0 0
-23.3065044247271 2.6523368157891 15.9462700476895 0 0
-6.92542825089216 7.52891092388706 1.58459045034606 0 0
-66.0655322176203 -10.0946260136177 16.6050576944339 0 0
-213.67082065947 25.3155035228681 -16.1281346707358 0 0
-105.547530669818 -18.6710718500226 7.86713984365743 0 0
-184.721756979614 -25.4901258968569 -26.9628182791632 0 0
-11.1007449237988 5.65987239447659 14.3303209403908 0 0
-218.604311438552 45.6696818733235 9.54744944075828 0 0
-150.28256995191 -1.99534063628225 8.98105907000679 0 0
-27.9163069276898 -15.713022320291 14.2985782003844 0 0
-158.415475875327 -22.548793639564 -20.3012511036024 0 0
39.4993303390109 11.3359454196802 3.4945304714484 0 0
85.2914471645738 -14.2322015166369 5.02351163701293 0 0
-196.250784559149 48.3607223194578 4.80971670483306 0 0
-226.61405617033 19.913434979352 -1.17572541685276 0 0
-120.345135801346 -20.3895329110446 -11.3145975281817 0 0
-199.79711529381 45.2706135131555 -8.82884391994245 0 0
21.3894169725709 -15.4351224754987 4.88113991231474 0 0
-194.91368883723 33.5201602569268 -13.4507225656992 0 0
-186.007457110597 -34.4471163138844 -9.9529103728436 0 0
-214.083242003765 41.6584342005362 21.0009998547199 0 0
-211.491069193771 23.8159054386952 -16.3700778243777 0 0
19.2780608469935 -8.20005660384048 -2.75595454063594 0 0
-199.026304523166 17.2269133480224 -12.0236524851919 0 0
-212.426177598387 47.2539413920305 -7.38315676439736 0 0
-177.199544195057 -34.9607407455547 -10.517843103621 0 0
-192.017306256816 21.5177189700056 -9.71824386184984 0 0
-176.578719243727 -12.3727086068747 9.32180835108213 0 0
-170.220600315625 -33.4564583198335 -10.6732868910172 0 0
-219.394436327598 46.4864496663361 1.86873985105538 0 0
-189.501553205982 29.0269674080477 12.0489700772799 0 0
-155.832472647908 -21.9095787834023 -19.9494448520319 0 0
-89.3754153546923 6.17448470272192 0.576859770332405 0 0
-224.742901044159 24.8608032299058 17.157806310359 0 0
85.0709664031199 15.2243432265237 8.2764579239478 0 0
-174.152958425583 1.24464477418889 -18.5818063458049 0 0
-151.983116058903 -18.1212334384028 4.99110141885236 0 0
-57.3293190204613 -9.77822903725677 -7.50434094499787 0 0
-218.48580667058 46.1186079037141 6.06847430997397 0 0
63.2060588456441 -2.66704405642488 -5.26674700459118 0 0
-39.772193720503 -18.968634187289 8.89179798045547 0 0
-186.414147704278 27.9958204261912 4.17578025583236 0 0
-213.097080175039 47.8840709362855 10.4230903913108 0 0
-212.888005592893 11.9961930186942 18.3646075355061 0 0
-146.943414056081 -24.8557474724757 -7.95175904609168 0 0
-40.2892823336684 -6.89585686554616 18.2269851386299 0 0
-118.009058250887 0.436690314531069 -10.5849771511285 0 0
-19.7663120310948 -17.2810311978749 11.9392046930769 0 0
-206.211258849915 -17.4508135299216 5.8215432288014 0 0
55.3695517262743 -4.99838515621527 19.9388405868701 0 0
-191.732134391333 -28.6655621733102 -24.4040573263843 0 0
-150.233587219728 -6.71152868018183 -23.3563519880535 0 0
69.0843746216474 -4.7481347073549 -4.64819297772213 0 0
-190.277630387626 -8.84856930251002 -24.3668384701838 0 0
-35.5646889242656 -17.3072897635141 1.80301042862648 0 0
-218.373240986358 20.3732599519083 -12.4114275906159 0 0
-102.982355405982 -17.4260697937517 9.47483641711017 0 0
-15.3322509724935 0.90901255524186 -5.75051531807548 0 0
-220.573510820725 34.2550685651459 -12.0042412017406 0 0
-30.9921641106341 7.55230115040155 5.47352327653164 0 0
-19.6746167593158 -8.55901291470687 18.483530031337 0 0
-7.01259558846457 -2.38884506673211 -6.67967051987875 0 0
65.2095124864013 -3.37658865738592 -5.2178353883101 0 0
57.9377292802085 -6.31721034993232 19.3487370417586 0 0
-36.8306201580741 -8.97006653355764 18.0419921476739 0 0
-7.2012839934843 -17.4949584468383 9.37071008193222 0 0
-209.237427614765 10.7255317429996 -2.14738175051298 0 0
-196.637286508901 -22.1398137514188 -28.772744692848 0 0
-122.102078443236 4.39850186797036 7.17477773804103 0 0
-143.65686947569 -16.3782566987016 6.22618784119044 0 0
-192.210298247077 27.6053695828729 16.7753311214423 0 0
83.3218648994376 6.01096981725981 -3.67899333073185 0 0
-120.463869748806 -17.3173005122781 -14.3562812323 0 0
-171.109649067419 -19.3036146413172 5.72488852844525 0 0
-50.3336454604079 -5.46800907818855 -8.03470800152627 0 0
-106.459622935079 6.34522583916685 1.56488810467389 0 0
-187.987969261361 29.372146798335 0.0571316591936038 0 0
-194.646841865274 28.0197465765842 21.4869642743125 0 0
-44.8624914529093 7.24920828133389 6.62332383550239 0 0
-179.944417332319 -1.84643489747108 -19.3212115915643 0 0
-202.802461757995 -21.897909568606 5.36639242786913 0 0
-224.521063088724 40.7734869905017 10.7804262612695 0 0
-222.57414767018 29.9614592992436 20.3855220553394 0 0
-182.537125841528 -27.6417199659013 4.67285657769634 0 0
-96.1323943515599 -20.4458587124593 5.65087234718516 0 0
-226.908620451218 22.853766143082 -3.46178721238791 0 0
-200.404340822655 36.2551648635172 24.5357368866322 0 0
-185.436702724324 -0.285166734560564 12.5725622291119 0 0
-204.505843352951 -20.1261130414047 5.80110034721584 0 0
-228.824117490354 31.9506642797094 1.71646988583079 0 0
-205.998425372744 50.5133564100407 -2.12826699979286 0 0
-146.201581926913 7.53404451436761 -6.126825167372 0 0
-121.059756933447 -19.9437237310941 4.26811287595551 0 0
-5.03933199041059 -17.3707008114904 9.64349308915829 0 0
-12.4597761723469 4.29866198262365 -3.06554922137491 0 0
-45.2780730542305 5.97392894967716 0.861565249855992 0 0
-61.6402243490536 4.68083739935687 11.4135958485261 0 0
-94.5074051080742 -20.5456933164755 5.59701742343421 0 0
-51.505945186807 -16.7049285313087 -1.43813416609301 0 0
-182.793735725535 23.396433279937 3.59131942683043 0 0
-200.918159510161 -1.7572971041028 -4.09850650379279 0 0
29.4460503914275 -13.9885987241091 2.57097290650675 0 0
76.9602242330224 -13.2890606043939 12.4772178080278 0 0
-88.2488421055886 -19.294744892052 8.79943256069662 0 0
61.3656021934694 9.83549668489037 15.8814817791235 0 0
-124.245668688266 -14.0023340146511 9.32129728764238 0 0
-140.133276898549 -11.1253210462162 8.71663822679498 0 0
-216.637822462157 35.0674969090564 -14.3248328160536 0 0
-203.865244546602 28.1056412502669 26.7510896410646 0 0
-12.7695364094935 -15.0577655025206 1.67586127892639 0 0
-176.866245073458 -4.16413875468033 -22.6067112865044 0 0
-188.728914186971 37.4381934507302 7.34671589441983 0 0
-163.874713088191 -28.4393991382031 -2.1532260401946 0 0
-3.27372420031281 -15.9064543932906 13.3026361135247 0 0
5.73188832623498 7.62623624090647 13.6677336019812 0 0
-88.8875405545177 -18.4905552967119 -6.20939172530642 0 0
-189.496892657298 35.7223161747528 1.69816148264975 0 0
45.6690352024978 -12.1670424706553 15.5624788270588 0 0
-75.8990666158012 -1.45121796656456 14.3802430496907 0 0
29.2695669796482 6.32778677816263 -2.11219822069396 0 0
-204.775670099624 4.41793757562911 -0.544794779800835 0 0
-150.875063765207 -19.4999709879179 -20.3971699617935 0 0
-205.082037002242 7.87697180753313 12.7206371530736 0 0
-85.7045232965234 0.968892271963718 -7.11939964507219 0 0
-156.391061160531 10.0712377008406 -11.6414689127164 0 0
-171.915226773235 -7.17330909346667 -26.0151280063226 0 0
38.436391996247 -7.14664412534761 19.0785744432874 0 0
69.3612209618861 -12.3386194368121 0.767593328907481 0 0
-111.521583925817 -21.3270761866434 1.2478836309172 0 0
-120.019366919218 -9.98644687561863 -15.9831480388936 0 0
70.3313431639191 -13.4134885568328 2.46027831294206 0 0
-112.959992167007 -0.93955489203153 10.5686107183934 0 0
56.8799708074612 -14.5094643284536 10.7905814664537 0 0
-135.277921032757 6.10279387483161 -8.37426841042655 0 0
57.7040668470415 4.54938593124743 19.296440026023 0 0
-198.244031806692 -11.0159541156295 -8.67183269955978 0 0
-130.851428773057 2.95427746710764 -14.1658898437011 0 0
-71.7488982711396 -20.1921841143588 1.64652324504144 0 0
-54.6678506199637 3.13449479093579 -3.78667847164429 0 0
-20.3856515242701 -17.8770377449023 6.07881534674173 0 0
-7.75277766958456 -8.81585856678252 -3.18825416721505 0 0
-198.497878248479 -24.9076562512528 4.10137999851594 0 0
-186.172335573005 8.39216246783567 -11.7562773638077 0 0
-60.9795058658541 -9.37453738495043 17.0491894284502 0 0
-199.093076188138 40.6442941164782 21.6314420370634 0 0
63.7331032733439 -10.6393040715364 -0.994943859379469 0 0
-9.1458503114035 8.10867677343514 10.8477289775137 0 0
12.7368894542601 -16.6050900197169 9.29562082614023 0 0
-204.060921936278 -15.5437173085859 -26.1477347409419 0 0
64.7993056023369 11.9395287582956 13.7597216197899 0 0
74.7415754744433 12.6617053310855 13.5341022093358 0 0
-92.1796129817325 -1.4533589039501 12.9157293907522 0 0
-124.487932517446 2.86412789437811 -9.88245035655606 0 0
-47.8923244575867 -16.9231178482991 12.9180581523987 0 0
-174.164765405895 4.71462213899556 -15.9069790343482 0 0
32.9528260311251 11.482729079335 5.98762654975999 0 0
-48.1420882911852 -18.4586666147733 1.86976905897669 0 0
-46.2314647013721 -13.9504210875512 15.5900729665929 0 0
79.0501939698115 0.0408447498237513 21.1675823518446 0 0
-5.03855688225497 -3.5377618056291 -6.37400571517583 0 0
44.7953980214085 -15.1502546095588 6.10836677612019 0 0
-75.63270413259 -13.5436148709064 -8.75326347098018 0 0
-190.809149189652 36.9434210488929 15.349646809682 0 0
8.96767590877707 -16.4985155792513 6.60908006477108 0 0
-168.698573567934 11.4445290236194 6.43371568977495 0 0
-151.188701638862 9.05455733806025 -8.88471363762739 0 0
-187.685725416974 -27.9734517579149 -25.2286856031636 0 0
-122.510341696769 -6.87924712633901 -15.6254016685286 0 0
-177.700487222777 -12.4716156250161 -30.7323592328058 0 0
21.8162777019464 -16.2060279374941 8.22213830549839 0 0
-205.311293071085 -27.6471941169096 -5.40570799079273 0 0
-105.214531605104 -19.6936917153239 6.33946722003199 0 0
-154.186464204734 -5.22813876048567 8.7385587994037 0 0
-74.0534636404432 -20.5389510942929 2.61184308184947 0 0
-115.066040618642 -0.885771368891682 10.3493163803037 0 0
-146.880222082379 7.65194833566888 -4.1214838797886 0 0
21.771673083339 4.01366915330983 18.1492773675192 0 0
65.4923641452359 0.775171976363427 -4.48821968386119 0 0
-196.273223605976 31.3402080956648 22.5977131688996 0 0
-168.474794668263 -29.1010332640339 -17.9488004555318 0 0
85.0084457250594 11.9501460186344 -0.762836308555076 0 0
-215.375247695198 39.1538714172626 22.1649707465169 0 0
-95.9108906198949 -13.2582731180203 -11.6929179065705 0 0
-207.360044964828 14.25776094464 21.5143056637726 0 0
45.9514496488478 -0.173657252782984 -5.70516250238135 0 0
-199.760311885876 -12.0956540801703 -7.77759177829973 0 0
-178.089544811138 -2.62242255432966 -20.638801397108 0 0
-203.109009422369 -18.7364029486047 -25.7857582398744 0 0
-184.102050340986 -34.2075556931679 -12.6741835014369 0 0
-178.47736689644 -13.5099135882338 9.41849033404379 0 0
-4.50252110973153 -9.40601192792197 -2.61774472334865 0 0
-188.535701719436 35.1827939688203 7.40225716776178 0 0
-4.01891191502922 -14.4865902296521 15.0900052620145 0 0
56.2631927240301 -4.04852212240734 -4.98586260390791 0 0
-193.248165266609 11.7543773618223 14.6001791999327 0 0
63.5112885629343 -6.76503630678858 -3.52895982626052 0 0
-189.88467987675 -3.70934325657249 13.2017163938758 0 0
-79.7255893860157 -18.7556450138457 10.0834159373175 0 0
-212.620472955117 43.8014271036629 19.6621628358821 0 0
-141.788116918107 -17.5469869044045 -19.5223434829379 0 0
-113.734862468811 -11.15091858189 11.8164280474323 0 0
-212.303735652089 11.1055178755092 0.788706192958844 0 0
-121.102711175667 5.98068649829886 3.94384340112357 0 0
-182.520011006475 -18.2629496182856 8.68156807061619 0 0
-192.582438902906 -16.747773168617 13.6568408353611 0 0
5.96671797062595 -3.19357784452207 -6.43633210411151 0 0
-148.775244750292 7.96733612193953 -0.075000108531308 0 0
-204.642072398962 -16.020388358029 -15.7600749916335 0 0
77.079908288794 -8.68480166085475 17.9533075265573 0 0
-190.405746533577 20.9507712196606 -8.60410678688721 0 0
-178.355848625709 -5.18456681281774 -22.5159698944644 0 0
-220.994470027709 32.8404156106457 21.2854731636044 0 0
-198.899480238858 -13.8833219042921 -12.1670624010304 0 0
-209.709830070331 25.4054747755433 -17.0160582169668 0 0
-190.023086547462 -24.9152681758321 -27.7153369482453 0 0
46.7416739297397 11.8933305368528 11.6178147411188 0 0
-204.824540881521 -21.7622261029241 3.6076214956436 0 0
-195.943374633641 -21.3968053215883 8.41005870272793 0 0
-197.64983738107 -31.4993598950507 -4.43359885256967 0 0
72.0646317177641 1.42248469836071 20.8257044949827 0 0
-96.526199969135 5.31936472128374 -2.06677692989138 0 0
-107.336608457577 -15.7645477005044 10.2397754581527 0 0
-64.7053155478115 -12.996855199331 15.6552728769134 0 0
-96.2210591672303 6.41256024837386 2.8908227334382 0 0
-129.660938875895 -4.09996120260764 10.6512742821532 0 0
