"x" "y" "z" "f" "a"
178.949973925677 -6.70839084561848 21.1350923172756 0 0
158.22197495571 -5.27995191609275 21.1844328404663 0 0
197.210687957363 30.6068161039655 12.2490568158482 0 0
-116.344008256199 4.99891589978385 -11.8513841363015 0 0
103.881616153829 -7.45465006141582 -2.24191668725149 0 0
66.5039875542163 5.64655426717679 24.6044062254105 0 0
187.769663284858 27.9099787392201 18.0774737925153 0 0
183.357478293024 11.0041352481453 -18.3691337401875 0 0
82.4811182493525 -8.8699498098335 3.75832634182794 0 0
208.130723936794 -8.34997947941399 -10.5219386176444 0 0
199.633750382685 34.0026675512519 -1.42164331772646 0 0
22.5907308774695 12.5257893334402 23.6761539898639 0 0
-10.388017110156 16.0863567881422 21.6962271502792 0 0
-16.8012051296966 16.5918326105249 3.40748734064683 0 0
123.513055287305 -7.41584838802635 -4.81185065841005 0 0
34.1369466475166 7.90892754884092 24.7535923854592 0 0
170.872276169138 -8.87236847079977 -8.88044753398203 0 0
-143.113195479899 21.4248258258353 1.66447119144756 0 0
-81.8693978335188 2.63488654581344 -7.96037047825326 0 0
219.880891656566 20.299443577243 11.1510762236078 0 0
-66.072280610994 1.1075591294986 19.0729817421422 0 0
199.391040430782 -41.5836975925627 -2.98033230170351 0 0
100.272107977215 13.1280170711193 -3.24711521189276 0 0
138.481103492638 -16.7032545867408 10.9777543266351 0 0
65.3723356566689 -7.98266296894279 5.00182536809972 0 0
-91.9247997089045 4.53823526415062 -10.2091867316474 0 0
-145.595200526451 -4.89725151254997 -8.78840200664161 1 0
0.307333587261374 -4.82562921012412 3.88802129141936 0 0
202.445595258032 -10.5048151252536 -15.7680426018639 0 0
69.0652538082522 -3.12868625060013 23.0982982585837 0 0
-29.4557457365386 -5.30501749139529 11.633921570483 0 0
93.3364975996243 -1.90542304933525 -5.6260114888542 0 0
-11.2153917850171 -5.22690575651213 7.42472564832723 0 0
6.16005553664871 0.0543191148398985 23.4949698703237 0 0
120.862942787564 0.427222161845964 -7.94875848568461 0 0
182.980711355722 -7.24696653340336 21.4938293635729 0 0
199.350108394792 24.2070089550352 28.7628354061083 0 0
191.061176354191 1.99044843756105 25.4593658048648 0 0
202.782294185365 29.0620645873243 -32.0476465475607 0 0
111.64628652327 10.4573017312897 -6.13995580176545 0 0
-52.7660361552959 2.727283890877 21.5897872199258 0 0
153.72902094602 19.9727008729593 3.18265899440236 0 0
-113.613466357906 6.7608950973319 16.9059359163622 0 0
211.447788708781 -29.5769722224101 -37.388556773336 0 0
12.6237922883854 0.75118101611829 24.0208155482913 0 0
194.275834466108 23.2280172636885 28.9246880985038 0 0
39.8911209691359 19.6069033828125 9.99701328358107 0 0
7.54645042498638 2.61135791825729 24.5247306905002 0 0
215.280918801169 -22.0003396258909 18.7829160681185 0 0
-50.7363517841346 -5.28923508626564 10.2344517723528 0 0
215.319164760918 -36.1761895503129 -35.3534250574184 0 0
201.645616915995 28.746452501529 23.0167274797997 0 0
80.6766636945219 -10.7573186043073 13.2262734104262 0 0
183.092748201637 8.04760315916394 -16.4836425693296 0 0
-56.2911749046519 5.11189227853682 22.3791769142748 0 0
52.5054762551364 1.14717387691599 -5.7624922734038 0 0
-109.910999426008 1.60462023494168 -9.52901257948235 0 0
-37.9641713791578 3.86356582999621 23.0934505679766 0 0
211.627512398731 8.86287796664351 -28.778111484418 0 0
187.51369311433 -24.6812944898805 -21.4007281749623 0 0
171.574195506822 16.5602228756541 21.2198888828169 0 0
198.105355762673 -36.2350557642084 6.2371648512746 0 0
-123.751358683338 11.0551398403094 15.6721853687703 0 0
-37.7810771291088 20.446367404987 16.5182707558351 0 0
169.265938623121 -22.9096848114575 9.01990777880905 0 0
167.339399925766 -11.6156796198621 19.090753998443 0 0
191.443947854065 13.4956398501299 29.7088185099226 0 0
141.059108431469 -5.1324012346583 21.5607316597002 0 0
211.958192637003 28.4016747659415 15.7372765319847 0 0
69.0053435785071 3.74005339415084 24.4692583241192 0 0
-31.006339162785 0.716821166047962 21.8613342679553 0 0
-98.0509958665903 5.49667149877053 -11.0173080291538 0 0
188.852952210841 31.3262701123073 -2.81010303446911 0 0
-33.0255004413417 21.3984449534449 9.32628468641042 0 0
184.651592219759 -29.341821851096 -12.8546573168191 0 0
191.399414359235 33.2773094286789 -9.83511280849264 0 0
195.744401385055 -43.740949758815 -8.96490322024348 0 0
93.4275211443515 17.9027709872469 5.40410508475044 0 0
228.697188063582 -16.7921995125515 -3.73652604099252 0 0
-61.842054285983 -2.56510945400759 16.3830128025125 0 0
-30.5174783410499 -4.15280883630792 15.8768430071102 0 0
12.9033707795546 20.7980644848466 12.2363336171801 0 0
-129.395467723984 22.2555472098501 0.120305954534389 0 0
225.145948783812 -38.7350490848471 -22.4664896441283 0 0
182.296470912927 20.7497453770787 24.3328271015381 0 0
-2.77507558928746 13.2950987096411 1.30604668971328 0 0
122.710577646488 -1.29355058925773 23.0851789098574 0 0
-20.2360491606979 5.4042696089796 24.2184253829823 0 0
79.0115355797493 6.26063913422048 24.6152277157336 0 0
-137.373933924919 -4.00880281387784 -7.85246569287179 0 0
194.06863168214 5.50094925820236 27.1536642065315 0 0
126.524737982844 -4.80426120154163 -6.31781107318735 0 0
-128.28511769176 -1.90161659212607 9.42680660495697 0 0
-33.3961475549634 -5.42569330609674 9.92118847459194 0 0
185.891909583515 -4.93136763405049 -13.8454613405689 0 0
184.463792501742 -6.92880596624616 -13.4899912491836 0 0
11.31648205532 -1.67083969732919 22.6303637848547 0 0
-45.7338984130976 -3.66819653987558 0.216952584686385 0 0
126.024343699682 -10.940068609948 18.4406703196919 0 0
230.620655738521 -29.721875493486 -12.3351684331879 0 0
46.6434097505536 16.9608964859683 4.32045895559155 0 0
-37.656329697834 21.6255490872082 13.0412870643785 0 0
208.408870683664 -41.9698841908191 -18.7996218791896 0 0
66.2789848428138 2.17203357338421 -6.26574616973682 0 0
97.971926174463 -11.0105401740945 4.6238025833908 0 0
158.344503731817 -16.7497947285072 14.0645318067384 0 0
-58.0657476651646 21.4688225638835 12.8182947067885 0 0
47.4508523453926 19.3642319838258 10.2480919841841 0 0
-126.515724566033 1.5522461975996 12.2620429912676 0 0
82.6899515840588 15.8474664392678 19.5073458426482 0 0
77.7666426285931 -6.92126652345177 0.758419331797651 0 0
133.14653644557 -8.59532843500697 -4.80305742863235 0 0
180.470845383014 4.00996340129654 21.3332596643852 0 0
-21.1939380137524 -5.43835424368386 9.39496412749628 0 0
-128.278279466111 18.1751690957019 -8.78632247980784 0 0
39.2505115515876 -6.1634109370365 5.03706639991629 0 0
-140.622288327163 18.5889603784359 6.66817432056819 0 0
168.590131389379 -9.68567081689551 20.0371415235659 0 0
183.103025691647 -24.3047421518942 -12.6677058320157 0 0
0.444260442823658 11.2436166468358 -0.132473535982059 0 0
99.0517347304316 18.1829116948901 6.23506245606659 0 0
-53.3203791817258 -0.788296636626542 18.8128143954018 0 0
229.843863234465 -22.8043243816947 -9.50007936441111 0 0
196.180752582876 24.2209506900028 28.5130981724396 0 0
166.767170129504 -24.3051688878678 2.22193242667906 0 0
-9.54216356885383 17.4110695666144 4.43255143177079 0 0
81.7899825581951 4.61870984491691 -6.2949332188399 0 0
202.31661412518 2.77127190317978 24.5672220149872 0 0
189.838554381743 31.7388570136077 -4.68733581991744 0 0
192.116408127792 -12.8490427280212 -18.9103675049087 0 0
111.639751870363 -13.9459507635504 11.1154315627239 0 0
-87.1569227877084 19.3567702964065 14.8237667922408 0 0
-72.2639654397685 12.694101640981 21.4070319227364 0 0
227.275631394838 -27.2641012492244 -23.3898059616358 0 0
204.646907348718 -18.1698809510038 -31.4216554725494 0 0
128.454060169285 -14.1540524869177 2.23176864191591 0 0
131.943754621413 -10.8490787292874 -3.15319911515811 0 0
-0.061540372057031 10.4717689391439 24.3217538418812 0 0
-8.49728919662076 20.9105414497572 14.7468168086558 0 0
10.2943496469186 -6.16543025529771 10.7748240427969 0 0
-129.130638163429 1.96569231977419 12.1912825374821 0 0
208.783599947267 10.4675384464 -32.5686161707088 0 0
216.056123527097 27.214842330444 11.7698102592585 0 0
-141.114100846251 -0.836607529525651 -11.7540342134391 0 0
-62.9021063441244 8.36346981689647 -4.44873753671265 0 0
214.574907892749 -20.7032280747041 -34.1756981761488 0 0
-24.1952776562781 -3.77022947030743 16.98488577542 0 0
125.409472646133 9.00591379640178 23.5861666989586 0 0
213.87351908169 -0.552451321424777 14.2372051465411 0 0
106.688928477779 16.7332606173767 17.6049001744636 0 0
193.407517241596 33.492175362657 -6.05378588016805 0 0
-12.0440774632137 20.4555377240142 8.3975135396503 0 0
-105.714326460218 -5.50716267753648 -1.4147191987921 0 0
191.555412933227 27.9603305262237 -27.8052092036317 0 0
185.803035858074 31.1455657463375 -15.7831328956629 0 0
-65.8526566149745 6.34721316964103 -5.85419811310212 0 0
182.690034165892 -29.0493674900757 -9.78887035758171 0 0
99.7749078993137 9.02454052330807 -5.71891938257195 0 0
205.211180628014 10.8908043512992 27.1058943593066 0 0
221.198614023905 16.1196732040416 -3.20913140087512 0 0
165.340822708133 -6.14452162412075 20.8862338807617 0 0
221.645270601023 -19.0778156357514 16.2999479321535 0 0
96.6830131930797 -9.59248298104408 2.19834132858369 0 0
169.641481952241 -6.55721079185398 -9.39580876527502 0 0
159.466894569602 -2.18266435011378 -9.39332961450354 0 0
216.013403255673 34.0493873144631 -21.0992315747273 0 0
-131.548750679025 -2.14952618911628 -8.72926566066797 0 0
140.454599351417 -11.4182738654291 -3.6711741177484 0 0
32.5587623529175 1.67897285855544 24.6488381725199 0 0
-139.11734086759 22.3427616742676 -5.07274068790386 0 0
230.049735482907 -24.7060544314879 -10.9119103060709 0 0
98.4446354356153 -3.96851214830143 -4.75429636066006 0 0
158.308794193461 19.7072524960431 13.7179711058195 0 0
112.4293540701 -7.84019423183384 -3.38604756471868 0 0
-130.744615310098 19.5864786448123 -7.88107008113603 0 0
61.6834228603365 -8.73135158764658 16.6270531804031 0 0
2.30503104194582 -0.731218294835162 -4.68946067738323 0 0
193.31809938309 34.9280307016824 -16.628773627518 0 0
230.153436094532 -23.7307799103904 -3.10699619152882 0 0
-57.4680505254508 13.2423265110459 -1.41914944006764 0 0
-9.78941315277325 -5.34713279750462 13.5164553786918 0 0
210.098188760373 -17.2220060363532 24.1718734565389 0 0
225.141629506747 -38.1708785440791 -16.8706671374617 0 0
69.0641787943963 3.34947396385025 -6.34634282355033 0 0
221.220226165732 20.7841611747605 -27.5372374644587 0 0
128.10301228618 16.0894660218677 -2.58963549121048 0 0
-70.6821719319674 20.9418144110613 4.74537114668917 0 0
41.667114109521 -7.63080635542342 11.7531012375416 0 0
157.192952378483 12.3344450061895 -10.6060999995859 0 0
223.620259152414 19.5549824580672 -16.7593434299256 0 0
-49.7816103537663 19.8516061907453 17.15316786582 0 0
-45.7831070258801 -5.27409957377583 10.7122112556609 0 0
189.56857410435 33.5439742024799 -17.5559947429699 0 0
-76.0757378281668 16.9347574995428 18.7504974481496 0 0
-91.3516028804529 7.02686290556504 -9.25155638375787 0 0
-119.931989280205 -5.18746470606571 -4.18794653606538 0 0
148.69985551416 16.6561186120701 -6.06769140062405 0 0
219.186356321567 33.0741537308752 -21.8029687221015 0 0
-0.427216692453814 -0.480762958638033 -4.9597856426417 0 0
149.271529951457 -13.1598026167095 17.1094469156744 0 0
26.7668232087849 16.8173390770822 20.4722065850368 0 0
115.301541322544 -0.274076990299336 -7.47313809645297 0 0
167.107586886339 -4.51378955925595 21.1173389884353 0 0
-133.357806719878 22.482090757023 -0.772875182683952 0 0
213.100082993884 25.3429864416506 21.4137930836277 0 0
28.404187843294 -1.08303301710008 23.5999142472348 0 0
59.6968881504746 -0.22416070018112 24.0697450388112 0 0
172.347201475584 -26.5999083861704 -0.0458268081261107 0 0
144.74550929901 -15.3715448006343 14.6533954115091 0 0
191.353912895124 -32.8044846356148 -21.902920840582 0 0
-102.442063004817 -4.36184951885464 -3.62572523155512 0 0
13.3347764901584 -5.50530344398704 5.63270599679623 0 0
7.93974262223376 18.0879217082995 19.5424342941353 0 0
206.343263463157 25.1247295819646 -37.7547245292935 0 0
127.044562081339 3.24583203927741 -8.67938982243857 0 0
-91.4564133129658 1.2632990730875 -7.99196005555547 0 0
30.5773352033889 5.06447027981915 24.9657179740043 0 0
23.0940825510281 -6.2127985583895 16.3142625223599 0 0
25.8146641510608 12.5634896102091 0.672343510685016 0 0
186.588090101883 -33.5984555783893 -15.3800569758454 0 0
94.6526866368129 12.4848421707492 -3.24437086341988 0 0
127.959125729227 -9.20952949959094 19.6028877998796 0 0
228.106808223594 -37.1388171207069 -11.7880919316181 0 0
-4.2604691731001 -4.03485695236161 1.5395452750719 0 0
-43.2566420707297 21.2603993334859 14.3619633925955 0 0
82.8602910377026 -6.30836655723627 21.5406257614255 0 0
-116.023784935013 4.50140678553517 15.4614407150285 0 0
-73.8653484469546 -1.31909316831288 16.4455221113128 0 0
220.659297852505 13.682406469477 -7.62968853725452 0 0
181.665608494992 -3.61167363963624 -12.2982608006484 0 0
166.989522776314 -16.9027673590447 14.9250908683796 0 0
188.52967878358 -23.9142824797835 17.2559163320922 0 0
33.9313692700656 -4.96849653320897 20.5899704606984 0 0
202.640179217052 17.2565475435208 -37.7435100770253 0 0
165.268193596119 -13.2383982848738 17.8159035913471 0 0
36.4871988170581 -4.30509624883009 21.5793672904095 0 0
-8.68292898933324 -4.37068996041366 2.30130293662619 0 0
166.692946925305 -17.7224770017141 -5.96426213207835 0 0
119.055658191818 -9.35807112492333 -2.68563552189083 0 0
211.189396198553 -40.3249266352764 -32.6405523037795 0 0
-77.742107730187 -0.174205075242495 -6.04115279011198 0 0
9.18438472305755 -5.71770650931288 7.23182234664921 0 0
-55.4230180126371 -2.16365006716373 17.3526375290733 0 0
185.79817603927 -30.258837400093 -14.9136028599649 0 0
-36.205010267337 0.70205722449102 21.5005148926605 0 0
130.823460206575 3.95908345952759 23.8928399273008 0 0
-129.849531540451 3.22454475285287 -13.0068414016964 0 0
76.1834272807874 17.1381464689468 3.87312139793825 0 0
-107.758049968603 -2.67639690805452 11.2573501522171 0 0
100.505462104838 -7.16801339437913 -2.05311867592796 0 0
20.0619538247286 -1.13264457786114 -4.17894473439919 0 0
221.342137274867 25.7505086425402 -2.10080101694424 0 0
217.188816547367 33.8679052371043 -21.6924265985967 0 0
-44.3421097394472 13.8473370183799 -0.043764495184514 0 0
49.7569168630452 -6.80070122212507 5.03324517622022 0 0
166.150287817468 4.35613641932768 -11.4344437751268 0 0
196.893491195401 -40.1924188630728 -30.6013778404755 0 0
186.053475134372 -14.0665318929365 21.1792377463423 0 0
210.601685584114 8.07899173136264 -21.4698196381261 0 0
75.3062276755995 18.207744823155 6.99153137204837 0 0
-124.378071315609 -0.204298222293337 11.2998600652271 0 0
191.192512993076 28.0451457247373 20.9496846481434 0 0
-112.197850731756 21.8566994695244 2.54202756600737 0 0
57.4063253181504 17.8279109418361 17.4052346571353 0 0
211.381878255261 30.2311594544072 2.75917141406952 0 0
-33.0034885138253 16.9559777484559 20.8712206986963 0 0
222.7970985606 27.3016356848326 -8.41485031062258 0 0
-6.43982383768145 21.2454710459217 11.9297746044695 0 0
47.5524904445097 9.08462691743981 -2.2192455259397 0 0
200.660748560686 -27.489443046129 -36.356129414028 0 0
188.15079432036 -38.7244376997666 -4.32474150176402 0 0
141.857030207221 -8.13742798390944 20.1879598964068 0 0
205.123639647673 29.638777051794 -32.014444517315 0 0
225.770633359704 -35.1680968399383 -25.7715410447179 0 0
192.495764393926 19.83883053808 30.8754670129176 0 0
-136.961957551436 -0.294914072620689 9.69280323552944 0 0
195.239618038234 32.7344566069737 2.21066048289704 0 0
78.0633526197892 -10.4862308280616 11.6593027144468 0 0
183.700084171799 -17.2957588304216 19.4693093031912 0 0
63.6866865871672 -9.06990860544823 10.9849801741295 0 0
164.062978979102 -17.2072248937343 -5.25182911060731 0 0
195.690391715144 -39.3494676043037 -29.5893026876158 0 0
200.149032381795 -17.2179005876379 23.7784479002195 0 0
-75.5680591141733 -4.96546070095623 -0.0276720840171739 0 0
155.878107212435 -17.3322737990028 13.132748643086 0 0
216.098304751378 -5.63170138652762 14.9696477433022 0 0
23.4390837235695 -3.25348376376411 -0.684146202441728 0 0
198.118547363944 12.2373433822327 29.9385601413142 0 0
218.390465826594 13.9067786903949 11.3132537940102 0 0
212.933369694016 19.0272426130703 -35.6007551481197 0 0
163.664934933603 -14.144406447122 -6.26798816419471 0 0
226.758409821222 -38.0459784848924 -16.1698118326974 0 0
138.924415016737 -1.47985109816638 -8.30122469915257 0 0
213.272012106262 -3.83795726794565 17.0302792680097 0 0
31.7477639237235 6.94565368653094 -3.18212917965363 0 0
-25.1117905510597 12.9619253355589 23.1885831424025 0 0
191.278361832689 -3.74721681556937 22.9595705577674 0 0
-76.4653663007188 -5.66443605934252 2.55215763662804 0 0
189.169401295133 -13.1249974115641 22.2544781190205 0 0
-37.838564406379 19.9143387482116 5.68936310475029 0 0
-136.950957516871 5.04736857118893 -14.1043090878703 0 0
186.957307299205 30.6722733977197 -8.43721935033091 0 0
-131.593324719484 -3.22109056907278 7.8486121548251 0 0
153.355403116747 4.68567885502709 -10.328574734501 0 0
-75.4204609454376 9.38866335684156 -5.75203200479444 0 0
219.289901003798 -23.502319381429 16.4304370635508 0 0
-79.213619955011 21.0175018454473 3.85462399389345 0 0
218.623142179301 21.8251049398749 -31.5512763168286 0 0
28.5638458934208 -5.87265731841492 5.63554697876053 0 0
217.69711253653 -0.945728710891793 2.55545340892599 0 0
201.648910384682 -41.8809895181919 -22.6482528062549 0 0
182.316311792957 10.5646913091419 24.9671960663141 0 0
200.597981713362 -43.109645135812 -18.838907623721 0 0
223.089811584652 24.4973146924042 -23.3564659537004 0 0
226.133726746502 -12.6378749884903 -3.14606205484875 0 0
-92.2753433652369 16.8496984536985 -3.76601255298739 0 0
215.381829434953 -6.50213606507336 16.9677818971908 0 0
-60.0319733674754 17.5998982602348 1.31618042372229 0 0
140.087667253081 17.4962922612031 16.798035823712 0 0
135.475926949166 8.34701464743321 -9.55491914053325 0 0
-58.0024343059567 -3.43013417441474 -2.32986348786939 0 0
202.158827341227 28.6363998924667 -30.1385801490641 0 0
226.714777874657 -24.2056592825572 -23.6721878064193 0 0
89.1903747601238 8.55918523198345 24.3744720636543 0 0
224.102564849235 23.7199151059557 -13.2820127310515 0 0
-31.7520445110831 7.24561591478124 23.9575661484067 0 0
89.106248842784 13.6195373225053 21.8869255080245 0 0
178.981859202316 7.20991478640417 23.0753460344129 0 0
208.847364511359 33.7141099884763 -13.2826135313263 0 0
87.6068548429159 11.910422933563 23.1283125523193 0 0
51.9020588492111 16.8075553884712 4.02993555655482 0 0
153.139324463191 12.0339829527657 21.8627464196938 0 0
76.7602916977276 -3.77903024727182 -2.92882117331236 0 0
219.769044964831 11.4508227147441 0.983083993249546 0 0
163.442126688303 -19.2906049286759 -3.94060973349348 0 0
211.278748439398 21.0074244139287 -36.5378543759108 0 0
97.813343183137 9.40515037959099 -5.37096620260359 0 0
110.721429713774 18.6588008171768 10.5394912339926 0 0
44.8840629955365 12.1679282073345 23.5739647061074 0 0
-140.600968847243 22.6115520257514 -3.70588574553586 0 0
195.847065404817 29.3456126227763 19.3516016110022 0 0
28.4397158047419 19.528219734784 16.299972146836 0 0
-85.4844781173598 16.1424009451269 -3.18589850606989 0 0
108.37704432182 18.5798709761624 11.1547053917274 0 0
93.7529436733276 17.1780242041018 3.22216438607514 0 0
9.10253525957389 -0.297580466940412 23.4075200076164 0 0
186.718396167633 15.8152999914313 -31.2296657762293 0 0
188.537120042527 -20.6709096654386 -21.1978850229272 0 0
221.276158257755 -40.3058218108998 -19.819160873117 0 0
213.180854937464 32.3931420424553 -20.1573386335329 0 0
87.587449676367 12.0739013595309 -2.91028197109118 0 0
-146.552168774756 3.53567466834742 11.0899635718183 1 0
211.361315295696 -10.9345698052464 23.1251751671751 0 0
-145.708819426992 -6.95950637947093 -0.332779339601879 1 0
26.9672051959959 4.94510111024208 25.0092186325304 0 0
101.544283225282 1.2948542886261 -7.30344708941033 0 0
104.301455267019 6.15414302493473 -7.2585457506364 0 0
162.260722253145 20.5044040195037 -1.76250267363091 0 0
227.229814174173 -30.5011560457122 5.11909603360641 0 0
-136.638631658389 -5.82533928999678 -5.0865710309898 0 0
-49.2737714618638 -5.06677407163758 5.0704637855994 0 0
216.925437013952 2.96444965716688 6.40930307588282 0 0
102.480771967068 3.07517719422904 24.2189866258005 0 0
103.803129658603 -13.0873751118771 12.0027425412183 0 0
144.837079785996 -9.32652239837076 -5.35159166203046 0 0
209.496019815949 29.0891175791732 7.5873556342251 0 0
187.704725160685 11.1006063950001 -29.9830726676109 0 0
11.1329038365401 -5.60564542622812 6.3328884975503 0 0
8.97740356734087 8.97254810076351 -1.69873774253439 0 0
-8.81956751998702 12.6368832688137 0.749276191516051 0 0
90.5945325799007 15.2143046564068 20.2061210718051 0 0
8.1730405109433 -5.26211200769439 16.806225301466 0 0
159.748066146733 1.42871905326177 22.3298651040318 0 0
-110.250134496514 10.516824926916 17.8968418028633 0 0
-34.9229858465901 1.66726876823271 22.2295633793117 0 0
213.47220516126 -18.5772786037169 -32.7994545454504 0 0
-53.9390842392357 -5.16948792548165 11.3511445002604 0 0
-42.1298437710986 0.765108872991239 20.9680991106329 0 0
-58.6779450501906 -5.40971965052335 8.20814398775901 0 0
154.33769879009 -20.3963252436834 2.72740456143047 0 0
-90.5011900933986 -1.77907419301979 14.5217024992709 0 0
164.95520673656 6.60553297552899 -11.5986719512498 0 0
183.707325639897 -3.74688417088209 21.1676702284832 0 0
78.376646955173 10.6509997192326 -3.0127596506496 0 0
174.564504765269 23.269299229521 -5.92718136481657 0 0
128.402298491324 -9.3892002738972 -3.89606415034115 0 0
55.300359736246 -3.30630627798142 22.9143057346124 0 0
-80.3273866752565 -1.92589211175772 -4.82166269023955 0 0
75.6790299452122 17.5635523435525 16.5346837068637 0 0
46.4836405521632 19.4662350529138 13.1734404855906 0 0
176.405172599735 23.6597983074981 13.8728256894479 0 0
181.433823059064 -19.1905986846295 -12.6567807606339 0 0
195.35347614969 30.1983158506453 14.5493570896526 0 0
-27.5672400493558 21.2677695050068 14.7024323153595 0 0
1.38905286775807 15.834309084629 21.8309442795541 0 0
125.754851376535 -9.11880147366437 -3.83742799587302 0 0
77.5138072228341 -9.44346400314979 6.51941399573979 0 0
194.222270416816 -37.6982222096696 -29.8674644752562 0 0
188.845734539742 4.50655128364612 25.7917003013533 0 0
-93.6574843908451 21.7037763823965 3.55365699849406 0 0
142.129659443057 -13.2119296006693 -2.73307477740091 0 0
18.5610785402386 14.9783743969069 22.3597858222765 0 0
-112.219156291147 21.3756816985541 5.91171738617162 0 0
97.8330924098857 -8.16808177155318 -0.199282639594687 0 0
205.278548834164 5.69587930362565 24.1578501319115 0 0
182.63082325479 25.050177872707 18.6767067140448 0 0
181.42364755921 27.1691906179753 4.48887667306527 0 0
-122.473494370479 -4.58772504668852 7.25523458592734 0 0
203.440293225071 -0.645060439576909 -14.0122893286532 0 0
181.897124715377 5.09851290166561 21.3033867890177 0 0
-45.7470544495627 4.44212282079336 22.849727529217 0 0
-136.501622553583 20.1361855745607 -8.42796053055211 0 0
108.696493633683 15.8611752313662 19.0332210920799 0 0
-76.931486361198 21.0824521794144 12.2754051555068 0 0
-43.3140930053906 21.5072811510692 8.33909654587751 0 0
-27.0171902526991 -5.39387182800371 10.9418838577601 0 0
-142.320058289929 2.50576818652164 11.0035550902331 0 0
-62.2590549122324 -2.06806050813264 -4.52853195666641 0 0
199.611174884898 -21.6285467402113 21.7002058773624 0 0
218.418415422384 6.54742882406208 0.460043109093434 0 0
71.5423024105441 -6.79706847653018 1.13919436720748 0 0
-8.77927255871254 5.47006116040491 24.5580277537168 0 0
74.5301071255762 -5.16442212742482 22.1800559949507 0 0
217.743580917239 -16.7429500606691 -25.8876799108097 0 0
217.459610573252 -38.1946427165676 -7.451072995307 0 0
209.104193817962 -31.6239330584954 11.4335692369359 0 0
117.937099642378 -13.0126940134876 15.8856410664265 0 0
184.871709000339 28.7435845386378 6.41879649387117 0 0
-16.4144632001657 1.32765428906321 -5.94934191204633 0 0
44.8595037321032 -3.23852585473506 -2.28182459974134 0 0
219.479021138595 -35.7133170525312 -1.26206772648828 0 0
184.115024972579 24.2171706686562 22.7551229308222 0 0
-132.582199307756 20.7505995480511 4.58620450724277 0 0
134.674621911706 17.7345831631031 0.348456133969915 0 0
37.4389206652951 5.90892484063211 24.8693719325324 0 0
68.6407770529962 -8.14893529349778 4.72997177892781 0 0
159.257222094911 20.3623596514724 11.5513203902099 0 0
191.8354620006 23.5778817240472 27.3476541789285 0 0
219.726266211834 22.299145316648 11.3702806007358 0 0
146.235499402275 19.6327362758441 10.8354677096272 0 0
155.621645725308 13.659385228941 -10.2000961854006 0 0
-62.8311261113476 -5.45649018931029 6.36759528914497 0 0
-107.200870095575 10.048427158732 18.3752457731798 0 0
217.820499372928 20.0407630701854 15.8716594129284 0 0
174.954170280227 -8.68784586649173 20.5493443635035 0 0
22.5848869233275 5.42532210676984 25.0285354575021 0 0
66.7016332888368 5.08546266917424 -5.38995858044664 0 0
125.075544144343 6.0324512775782 24.0631435060226 0 0
216.164437199491 13.4927935588271 -30.2861529602748 0 0
-89.9745721251005 13.2248379188348 19.800593327908 0 0
220.243298398793 12.1983902453499 -1.28112538187961 0 0
202.73282503581 -13.3972174529204 -17.8009835484194 0 0
-104.553704503752 12.153698899056 18.4087643854235 0 0
191.770668926111 -40.6985238943459 -3.47105556023201 0 0
-126.286210137434 -0.890889077331121 10.4885161942405 0 0
-85.5633825228844 13.7359821803848 -4.97321001140799 0 0
204.128556505626 34.999830867611 -12.8409242976456 0 0
-45.5071618842571 14.7391469287384 21.8736011357202 0 0
174.174020676544 18.9395230206458 20.5798459725822 0 0
203.159743986301 -37.0024094555681 3.19128525503508 0 0
-14.9888989998773 -1.99913893952679 20.3626814184635 0 0
180.042794049057 26.4489445160299 3.57353185828584 0 0
210.829036153426 -18.9184810238599 22.784999529306 0 0
147.941459622483 -18.2161781266884 1.46815271166162 0 0
-94.4826412691044 0.994385601011084 -8.13537004536956 0 0
223.857436727871 -11.3970843346481 6.81594323868334 0 0
178.172483643152 -23.7820745729016 -8.98507479760234 0 0
32.1626331843765 20.1226268651634 12.6514571535902 0 0
226.629572942677 -36.4054908898008 -6.56160750768732 0 0
-88.1954898811865 5.54233132794594 19.6221082973364 0 0
228.408734882782 -29.6582317504461 -21.0505493637932 0 0
-38.7324707745668 19.0178181987317 18.6984847812962 0 0
219.3891348425 12.6916305871402 -22.5937956925311 0 0
-62.997419506996 -4.47986135930602 -0.241310239569334 0 0
27.3665181054437 -3.39425357154945 -0.284252867647011 0 0
220.999865162229 31.6826535579603 -7.89816433008235 0 0
215.660035317699 -10.09779336551 19.8896619919173 0 0
118.135715854186 -13.5978642065015 4.30405321520706 0 0
225.315545957921 -17.8487286768628 -20.0574869905638 0 0
-38.7797455406169 -3.16611487129617 17.2734806567764 0 0
184.897263550043 -8.66578457956918 -13.5440255533408 0 0
167.822037420189 2.95535597700095 -11.5070474722125 0 0
-146.557230042889 17.8940029399231 -12.5888290907346 1 0
-111.754501320432 7.04735103236043 -11.347678855825 0 0
106.96726829544 18.3515104004604 6.51317611965 0 0
-31.9805621639355 13.6230317540441 0.472334293904734 0 0
182.778329683488 25.969769921599 15.6799637148224 0 0
188.887285574758 22.0418573293901 27.5786746200279 0 0
67.3905390806124 12.3408189878039 23.2460026032212 0 0
174.964585081827 20.7321229117849 -12.6157807156399 0 0
77.7062394045634 0.310482361022102 23.8512609685043 0 0
196.720164688165 -33.8365738640758 9.23411184383687 0 0
186.521247304125 23.5283939825008 -24.5049730037227 0 0
106.441744873105 -11.1362770395682 2.83256080699152 0 0
120.865466030693 15.6413613520366 -2.45485289241648 0 0
181.22751541546 -30.1080782022182 -8.11352478583708 0 0
71.5417863495848 16.0106285662141 2.21903013514283 0 0
227.815603719269 -24.8916232774945 5.75850484713112 0 0
158.455766444698 15.1073728074801 20.2295284124314 0 0
206.547183219334 13.5112878144434 27.2974057593435 0 0
187.029614397325 29.2646559099227 -20.4649770803549 0 0
-27.1384530891098 6.53266571795606 -3.76735192998723 0 0
214.855173669525 -33.9910801654619 5.79228305664864 0 0
157.305083935358 20.3592136648896 2.98578496061701 0 0
151.130414235612 5.16112292460706 -10.2008265621441 0 0
161.384467147794 -17.9989019389874 -3.97402151712322 0 0
-101.387533773323 12.0016130324407 -8.78796591649017 0 0
224.68661073277 -30.9556841525095 -28.238172687219 0 0
197.597379578716 27.7983417979561 -31.9320665071179 0 0
-39.0799161572228 -2.52259157683146 -3.2597260799294 0 0
58.4787123128734 19.0299998722753 9.94939862452686 0 0
223.061571675893 -19.5762359157351 -26.8710133945893 0 0
145.233673017512 -13.5764545373611 16.6781566620359 0 0
-74.1862038273911 21.7287409172527 9.88720955808842 0 0
-94.6368358000161 21.3043703849256 9.20587162376228 0 0
43.6233694530415 -7.32311024585899 8.49684666531856 0 0
-108.002337889815 -6.25055036042528 2.69081562822088 0 0
19.8665671343003 6.9758774988823 24.9653240865656 0 0
194.463507526054 -15.9233094441426 -21.072118832978 0 0
30.9208297342555 -7.04497127489364 13.064842833928 0 0
216.544496391691 -25.9271733040304 15.4814761305486 0 0
218.16623597685 -40.9519305190218 -18.6666368861572 0 0
-46.2486881971582 -3.88960071448299 15.9336162089284 0 0
-23.6251966491478 -2.80039448282224 -3.08818403937121 0 0
218.850536882342 -18.6163583866963 -30.0707935766382 0 0
218.111348639936 -3.91438401034748 -3.62743375931767 0 0
198.002928929681 -27.5164239597718 -34.8889185278401 0 0
209.423705302708 22.5794686689012 26.3398492295491 0 0
-38.5970882884117 -5.23119269252012 11.7203918365712 0 0
1.43352368912939 21.1943982828727 13.1386116313314 0 0
181.5325898757 6.99132783425643 -15.4929878843663 0 0
191.229527471897 -42.6663654432496 -11.6058112053044 0 0
76.2648612030423 -5.69733785089683 -0.722728045455023 0 0
217.432953530204 33.7289434922505 -19.7532538685864 0 0
88.9437374570934 18.2811625720365 7.37222330657918 0 0
207.628159335853 32.0191444033195 -18.3518065109994 0 0
194.513347198668 -38.3968922296734 -24.5101013589548 0 0
-54.2174684799717 -4.02801581546735 0.20208559240894 0 0
212.546915090132 -42.2974426989795 -26.1778829244634 0 0
212.025494633664 -24.4482280545213 17.3644310116787 0 0
-59.2927656114719 4.72779949159311 -6.25177901966592 0 0
28.9466211402337 -6.57945432674749 16.3677161778881 0 0
115.618404813965 -8.29575233582777 -3.35041531405316 0 0
-100.084711438653 18.4223833231936 14.514614907428 0 0
52.8945965303007 -4.1051603700083 -1.58863378256796 0 0
228.424256406342 -16.5964106956625 -7.05300844843666 0 0
208.269618128076 9.52102029483641 -31.1385904427278 0 0
203.44706973418 34.6401115820079 -15.4597557731329 0 0
17.780313742457 -3.26358608845259 -1.08090952000173 0 0
184.190265252538 28.5202701011068 2.96001547618412 0 0
140.549397566755 -0.165140048055019 -8.83158709039872 0 0
124.171244590934 -14.8898382261946 12.7524350546604 0 0
215.841696456546 7.04764201667454 -22.2039831577294 0 0
191.105371375672 17.3116746702926 -34.8099282124213 0 0
185.235146252399 20.9974597038979 -23.2041320796623 0 0
196.209166096075 8.15243766453965 -31.4732422557761 0 0
159.051840354758 -9.71375629232093 19.5832056528812 0 0
208.078796101116 33.3969422182314 -15.0703409004683 0 0
190.773046441373 -30.8228217168686 11.1851652889901 0 0
181.613322093299 26.811404990644 -9.41801417391994 0 0
192.670209011797 -33.8254216599826 -23.717321774823 0 0
20.3756921257443 -2.92534215885832 -1.71162789003737 0 0
216.653762864286 -14.5584327612422 -14.2528057598761 0 0
124.81824748891 18.8554529166964 6.55378773849029 0 0
197.637291693536 -43.2637856623238 -7.34070536968958 0 0
147.928667841997 19.8788741692937 8.4090110084659 0 0
130.619704533759 11.084478331964 -8.10015147838077 0 0
-56.2421395838697 4.79714163572432 -6.0048252228001 0 0
103.063244492917 17.776938096126 4.36823660284403 0 0
93.3248893762743 15.0052614688366 20.4040661167869 0 0
130.937594676137 13.8892992706242 -5.73571858152288 0 0
-11.1726776722894 -0.357303152205314 22.3388166227066 0 0
54.4408613917856 13.1153637906348 0.147116414537564 0 0
-52.4292880725181 8.5487351215353 -3.38769485412163 0 0
186.413344400417 27.4575821962776 -20.427581245739 0 0
72.8418691262569 17.6170929052055 16.7054955593905 0 0
200.677649301424 22.5840266684203 -38.1952402124973 0 0
197.070227473215 4.14485723516922 -22.2406130391557 0 0
155.394059452692 20.3367599584527 5.5988602683882 0 0
215.862292289436 5.10290463695008 -8.66919612390941 0 0
-24.235264726331 4.6241095369637 -4.9582265343054 0 0
12.9488208897249 -3.57513925029545 -0.234522371762666 0 0
213.126160541103 33.420090175773 -24.4062286598999 0 0
188.448137064632 -3.5151873736698 21.5070633291767 0 0
-102.879148531922 14.0188620378234 -7.86461405926699 0 0
36.2115957387748 16.9636737704312 19.9395052669576 0 0
215.658913679668 3.96651007267637 -6.70688776547791 0 0
150.816013111566 -12.1681451049377 -4.55507379707597 0 0
128.463733417265 14.417587893662 -4.90239081930482 0 0
-28.2363846147594 21.0073576206566 8.48661030080243 0 0
211.683035126714 -8.36882354901321 21.3832275601317 0 0
215.473851434745 12.0036873357187 16.7514746594133 0 0
54.9110174628581 -4.49929550538936 -0.917367006673283 0 0
102.851606803386 17.6644050735845 15.4467156687501 0 0
190.663026671528 -11.3410518308853 -17.3607562239297 0 0
202.533179608084 -3.71217967257622 -13.7813628171659 0 0
174.577754628669 4.60951652042143 22.2016983454114 0 0
47.4383398203979 5.66102609177047 -4.24652682618504 0 0
218.526470640584 -17.7554910413094 20.4041990043489 0 0
-82.2210260296809 4.74932082285292 -8.41064619912662 0 0
-87.3373032713926 -1.2710162195237 15.1408372520555 0 0
-35.2848008413204 -4.8159105667883 14.0941428617557 0 0
169.047131949218 22.3410272324095 -0.243786111519106 0 0
224.511966836799 -14.6839046499182 -14.8106532638025 0 0
-10.0119811948583 3.19295390489256 24.1560894669451 0 0
194.794214834281 -43.9380740362528 -11.1621396618676 0 0
125.683599094754 18.3988380290971 3.9536695406973 0 0
-11.4696149919833 -3.9862314833922 0.977343339213301 0 0
170.212948715969 17.0647773734912 -12.8074105678892 0 0
220.072066659701 32.3167520946659 -9.1855975403316 0 0
142.032273017003 -16.1741244865584 0.660004826539257 0 0
132.013443136224 -13.6838879362453 0.222311317706277 0 0
192.86214564867 -36.8939101737566 4.16668465566953 0 0
1.59326805930161 7.69057530480809 24.758686763943 0 0
199.885862593806 28.1999368582093 -32.5541461577979 0 0
-136.019806292408 -6.60011434145586 1.77832508555085 0 0
134.911955011032 3.98350154449762 -9.12357039310371 0 0
173.38220784988 -0.632559814111853 -11.4732513037494 0 0
197.762370067991 6.63342481123089 27.8116612507246 0 0
219.765579132689 12.622964065658 -20.5605717369954 0 0
207.575529267097 -14.5862828243363 -16.8070667129941 0 0
4.5636066570455 7.84070679717987 24.7756252940144 0 0
55.4784662439618 -8.48241225210334 11.7959097113238 0 0
222.050101844601 -26.7549329884648 -31.5193739479429 0 0
-64.5503305728552 20.7390203130259 14.5139903117018 0 0
147.787824687924 7.04181676959154 -10.0330080264303 0 0
12.4605108131089 15.2481909204511 22.2200845319834 0 0
178.431925015427 -10.9882094197894 20.4557132377081 0 0
205.112465140502 -13.5190925811262 -16.5403950894026 0 0
-117.949301760532 -0.114829968104735 12.2002496794889 0 0
202.658816411391 -7.79886726962646 -14.2281078239834 0 0
223.61620022035 21.5467405203686 -11.5382609719174 0 0
175.780359090006 24.0441475625106 -4.06422602487141 0 0
193.809818094388 -35.8075669628837 -27.6539188894401 0 0
207.054208591231 21.4584294193791 28.5066011815537 0 0
-64.8952583121595 -4.08799594522009 -1.31340409254701 0 0
193.539012899142 33.8023616702637 -7.57071247333955 0 0
22.0070996380357 -3.53698216317764 21.5174308400026 0 0
76.9017785192826 5.37314163104532 -5.71311366944438 0 0
15.8751245738388 1.94945889895926 -5.71660946954111 0 0
-77.8572866158909 16.5542349316871 -1.74480965456857 0 0
-43.4456066338871 -4.46490228030549 14.9685695631355 0 0
-98.4294343159764 10.2270965519044 19.5143551969281 0 0
160.956528508607 -21.2241889913584 8.03403684277632 0 0
99.1555967651097 1.89954868700824 -7.32988202278043 0 0
206.56861806653 -18.5229508794187 -32.6246275691089 0 0
198.833431713908 -3.70402877803359 24.5475824080211 0 0
141.381372280937 -3.82933898322744 -7.67397643592223 0 0
-73.7627404778362 -2.84993603235197 14.9038060424015 0 0
-114.276134896485 21.7509136606773 -0.116599508988709 0 0
193.676154186585 26.0188348210367 26.8012529788277 0 0
187.762533215484 11.8585352995687 28.3261072538132 0 0
123.553613262018 16.1630967711559 18.6726150332588 0 0
104.360772257669 -5.30819105301622 -4.41706869539667 0 0
103.625753290907 -0.321921264870793 -6.89914287121396 0 0
188.201762148162 20.3003409073571 28.370067658838 0 0
201.944071011931 26.4524870068736 -36.906580791675 0 0
98.0505632867548 14.7927968227092 20.5182718235705 0 0
222.847362807232 23.5962838730498 -7.00318885929664 0 0
-30.3652405632722 -4.94267817395469 13.8155127686203 0 0
-51.7379912877738 -3.39268485692231 16.2421053447342 0 0
222.441559219127 21.3393668974173 -6.05433580187512 0 0
-109.031568745127 21.679875930641 1.14608700606984 0 0
222.190501466446 17.7421368308191 -9.76926110178991 0 0
-142.785509864154 22.6813520638028 -2.56546442740451 0 0
75.7134773770851 -2.26621576567312 23.3209891389078 0 0
193.20935615643 -0.684331605361962 -18.3648698512844 0 0
-67.0711512066218 -5.24492216942945 10.0610138568413 0 0
170.801640056308 -21.6348569434586 11.2962581424147 0 0
144.973052856277 -6.71662004792284 20.8783037345482 0 0
-75.1789947514277 7.59010574594616 21.5593453203009 0 0
218.61468464305 24.3675259766001 13.0444298695234 0 0
221.350475608387 -22.434171929361 -31.1252461607114 0 0
181.684824190958 24.5497273648925 -15.796216456108 0 0
73.6189127926864 9.29734657739314 -3.44424837872393 0 0
72.0048423013928 11.7087972325057 -1.85781203687013 0 0
-32.2704430975006 21.8105319338691 11.4614373098995 0 0
72.0694691804455 2.36255750668663 -6.50904810572284 0 0
220.480694239315 -15.4983536332066 -17.7601520822171 0 0
-66.0717076653699 16.4726886142815 19.8702616145479 0 0
129.256174248597 19.1594175379183 8.65717602644191 0 0
131.958926033873 -3.27584240273367 22.3465772244813 0 0
189.129370478802 -41.5098901851178 -9.38328423449845 0 0
183.433763451862 -11.9878378994193 -12.8700372122671 0 0
200.784561198017 -35.6765665394314 7.09456810473222 0 0
-77.5968985778 21.7229143100524 7.46349890106437 0 0
159.405759058134 6.994619272254 22.7421900358756 0 0
8.53828435473914 20.6557451415799 10.4053379210661 0 0
8.41893981982673 -4.58097646771825 2.76389075390857 0 0
221.041574501832 14.6717201288367 -19.8712226209884 0 0
228.686846878999 -28.2750668646193 3.08245492606174 0 0
167.486803725123 12.8752582194979 -12.6933752069746 0 0
-139.233664512245 20.2140068596379 -8.90527020690074 0 0
24.9438798144582 11.4229105088888 24.0678391291618 0 0
-85.4678372456213 0.325033727024043 16.4376657859099 0 0
206.900790668549 -38.3956938957217 -36.2280389030734 0 0
73.6255187705146 -2.86297477953736 -3.950313890809 0 0
51.4297114259848 -5.96924397189312 2.44046659125091 0 0
203.772170140584 33.9726463197179 -3.13691397485221 0 0
-140.732375739054 14.3621726708599 10.8588334235847 0 0
0.353615017112945 -3.49659984731685 0.0131237688256469 0 0
219.654906549643 -16.0914941257907 -24.156308847591 0 0
111.802576887878 13.0788882246731 21.9198555818593 0 0
149.060825604105 9.59264594260724 -10.1511807613798 0 0
218.300609066917 -27.7734029337488 -34.8087507088887 0 0
197.633994724668 35.4625814998145 -15.2690131714597 0 0
222.622543239665 -39.3421909061703 -15.4804188673384 0 0
188.501254386298 30.0475892431386 7.6888402170315 0 0
-17.2209683123379 12.201496399533 0.196201864691439 0 0
-36.9960680756454 19.1113794993199 18.6541698493673 0 0
218.149530147839 -13.40889817356 -13.5312151743295 0 0
-29.4995926587734 19.9862095611243 6.44572425419755 0 0
73.3934406978226 13.9431193846766 -0.212220066735842 0 0
-76.0398674766354 2.44804990385976 18.9928819551707 0 0
104.130152933204 -3.1533884043079 22.698690039858 0 0
191.007691468807 -1.8423873628985 24.1051305190879 0 0
-137.076781510273 7.78552203826646 -14.4626164815908 0 0
-80.3555148332822 4.34556617887057 -8.12986162066702 0 0
202.388381831637 -10.9798729042195 25.195374108234 0 0
193.826472375447 32.1446126832245 4.18802434342181 0 0
194.457565808363 -31.6497566977021 11.3383792519465 0 0
224.892914609745 -36.0312808714513 -3.78400311287276 0 0
120.870759317345 5.03954620758524 -8.52306010820433 0 0
208.246227869187 32.2155665012385 -0.437412083327083 0 0
194.236335915244 -36.0190473246909 -31.4548677589717 0 0
27.8630202954644 -5.47365208038389 19.1696593470704 0 0
31.4831975832646 3.44484687211933 -5.48723302962263 0 0
219.281917344257 -11.5581011199078 -12.6860816641505 0 0
73.4393415659386 -5.48488810552292 -0.725065248322661 0 0
-54.1519079296927 17.5490704459318 19.6637406998056 0 0
-112.842591656916 -4.41721736466319 -5.18519700814228 0 0
148.415807958223 -6.21367057168 21.0752369229386 0 0
201.932649157968 -19.0227199664275 23.0186261158792 0 0
76.1621109828569 -8.23583941596036 3.45551274488873 0 0
-54.9628081314414 7.70967649953672 22.9255932079842 0 0
-65.5562793689667 11.1753583762526 22.1722814631147 0 0
195.754888302939 -10.884410236545 25.4149119433757 0 0
117.371457595062 17.6283726743967 2.29898218234117 0 0
176.81451089504 -0.870489602244121 -12.102783459232 0 0
193.112825209975 -22.1496776726322 -29.9487481116408 0 0
220.517953239668 23.9864749028814 7.28641392639602 0 0
113.064851211275 17.1155039969491 1.43459736653744 0 0
219.644375625335 17.9892258403422 11.0638031889174 0 0
134.379204965298 -5.51346276626977 21.4691046135506 0 0
73.8432849548527 -6.70757036682295 0.784430726969007 0 0
94.1072801246102 -1.20401823896955 23.264645955887 0 0
209.216068067435 -18.7475608249069 -26.6403948690925 0 0
192.799570122683 -34.4045059827814 -27.7335463268879 0 0
-54.7496942632709 21.5595536533633 12.7080640733079 0 0
107.124613469392 11.137982542126 -5.26908000432238 0 0
218.131321547273 8.92213647198923 6.65415270522393 0 0
-88.8920789738001 10.2281831386786 20.5314063015006 0 0
118.350394450397 18.8119393635 10.6085623052645 0 0
-7.36812561611614 20.4632586613279 8.53864263328616 0 0
9.5041793993481 -6.09443686133072 12.5231178093979 0 0
185.615652930963 -38.8377055087614 -10.3787609958506 0 0
-32.5028496191883 16.7592174508784 2.55942680187129 0 0
166.869554420326 -22.466283061607 -3.22839773336951 0 0
160.52292663527 20.8962514302003 8.36518946630098 0 0
208.894092170672 -17.2673664809022 -20.7756935288784 0 0
130.398569967594 15.629241058046 -3.57667321875768 0 0
78.3648152703587 -0.138380267358168 -5.9655230528974 0 0
228.596963769327 -36.171170365486 -16.9925176889644 0 0
-124.000136251184 2.81096481570852 13.4249501774688 0 0
166.700324251623 19.8376369872894 -8.01963421516619 0 0
132.985397541657 -12.366886489911 -1.82145126090949 0 0
79.7451627387038 13.7340431215282 21.9787831326899 0 0
210.886583524577 18.0142544311469 -36.316888894467 0 0
219.827384227288 -40.4878217650146 -17.6016892274323 0 0
-11.1356622720141 -3.75926001608542 18.084413036387 0 0
203.228069358738 32.4016132483456 2.02410492315069 0 0
-71.8384571066565 -5.14410552586612 10.332423229691 0 0
-51.6408480482899 -5.03162100752409 4.54608047959152 0 0
-98.8009938022733 20.3442419754841 -0.629416178495191 0 0
-21.5694244829084 6.78552814175819 -3.5955030840566 0 0
24.1093631419757 19.4746525477542 7.97725068421313 0 0
69.1509851750979 9.56187311540099 24.2576992604989 0 0
140.548342919374 11.2069701339117 -9.38204165130847 0 0
155.258562625803 13.9766632153158 20.9112147645551 0 0
188.134432308302 32.1852941744123 -10.4135637710795 0 0
129.636086018288 -14.8016994074064 14.1222042634251 0 0
-95.2675071087411 10.810622579609 19.8235200329815 0 0
-41.2242487152137 -2.80145514990632 -2.11397056017791 0 0
7.95667809074431 -2.98532375326744 -1.80581756965248 0 0
180.574233528021 -23.9548582675226 13.094013682181 0 0
-4.96849615812354 -5.62535915835463 12.7218298010926 0 0
212.587509343442 -6.68901743739178 -6.68851008603627 0 0
166.573235236836 20.0329653412223 15.6250443370948 0 0
19.0140236761723 20.1152281878787 15.3136568559371 0 0
-51.8252211767272 -5.06558586998543 12.2049615418356 0 0
191.471687859697 -31.8410428428977 -26.3750242376602 0 0
204.813505188257 -36.9659891835656 2.24553131842064 0 0
200.470929437697 9.66123994445854 -33.2433801684398 0 0
221.066963494461 22.4027136347968 5.16823730427788 0 0
34.6347627392967 20.0531370177435 12.0050405658522 0 0
-136.392063738341 10.7451486152393 -14.5679902307012 0 0
91.1678102572806 -11.005311995171 6.80774902208042 0 0
224.36497332912 -18.2228470346823 -22.4052182929707 0 0
20.634513332132 19.0930373654363 17.5872358825873 0 0
94.6287348233785 1.3867413097524 -7.02016920484306 0 0
34.9364168354466 -0.772958255099088 -4.5844240574398 0 0
-104.717953205534 -3.54272692454536 10.594326072777 0 0
-47.8755078474925 19.0947584868743 18.2438313762998 0 0
215.498273076897 -41.9202197468539 -23.1352033301017 0 0
-24.1553726973826 -2.40342048483032 19.1073136443824 0 0
215.316710294424 33.3514774756657 -13.1664144306549 0 0
-59.3645688559944 0.608913971497944 -6.17160612119949 0 0
67.1377648679338 -8.63221458620259 6.86784311528998 0 0
186.721475676641 29.8494692828195 3.26361569767681 0 0
-125.509024948112 -3.72195981275956 8.003833564139 0 0
-63.4971742098102 10.0049226208862 22.4392803608455 0 0
13.7543681463807 13.1170413208643 23.4784353566309 0 0
187.13018834964 -20.925252712158 18.7950263635589 0 0
185.558230496727 -16.9173403943107 -14.6988077521862 0 0
197.022854504844 25.5597587614567 -36.2637739251073 0 0
221.55271313872 -15.7118217347981 15.3518525884617 0 0
224.079369286336 -10.5475239482677 4.39987801569691 0 0
167.532700319513 -0.297347848600615 20.8220171108869 0 0
5.81157835633785 -4.82453266302991 17.6918906213115 0 0
172.141233294424 23.3480283886738 2.30112848464947 0 0
203.60748279525 -12.9131966250044 25.6650631085136 0 0
-108.006943346719 10.9588181841689 -10.2257672549883 0 0
-120.615179953149 -2.24391165707857 -7.34018347901789 0 0
217.194306651868 3.65872874539526 -4.14332913232988 0 0
-24.2229024642793 -4.73771763059406 14.914873948211 0 0
86.3051277030784 16.2663683789328 18.767480490074 0 0
176.852340823129 23.5549364278182 -10.8003513942073 0 0
-117.255769516536 14.9841271557907 15.0664461307674 0 0
151.28914149647 17.3437383223809 -5.90924548722365 0 0
227.790629470568 -36.8535897778935 -19.8070553201115 0 0
84.708454678213 -4.67810079528949 -2.78149723523347 0 0
197.575518557311 19.6173525319313 -37.6842836140507 0 0
216.755994463143 -11.7440980718471 -11.546824691424 0 0
13.3402334812193 -5.41137390290929 17.0780688846684 0 0
190.850403668994 20.8900469583079 28.7905498418968 0 0
217.513391866539 26.9509311329203 9.26704263052839 0 0
-38.292255853837 1.81738382662076 22.0686430361212 0 0
-50.5444063676441 -5.34935678121059 7.53075123602611 0 0
-96.8708926120296 1.14064810692874 -8.45754712495452 0 0
207.169492427841 -40.0731948671705 -3.11655910529419 0 0
213.821672946914 28.1553108944813 -34.3864218350683 0 0
196.328975822617 31.1183231594588 9.66854625360233 0 0
