"x" "y" "z" "f" "a"
-208.333622364556 36.9173552673985 19.8243732132492 0 0
-226.184495087652 -10.9168950992041 5.4796381484381 0 0
-218.207211828621 39.8577548556918 -15.7874075581499 0 0
-208.500223887144 -3.29877496540038 13.7657163586146 0 0
-137.842005262834 -26.6337239130585 -10.5614076628231 0 0
-219.042187406654 -5.43082262437479 14.3704051136184 0 0
-200.846742560895 -2.89818164213581 -21.3090973259925 0 0
-210.413594460597 -31.3876945295658 -21.4278872627278 0 0
-165.243899077479 -22.9766477212278 -16.198785011767 0 0
-135.293064368763 2.70099051759766 -5.60256637419756 0 0
-192.853775374768 11.1652402003967 -15.0456235505414 0 0
-229.007519057253 17.2080418829867 -13.5837210669199 0 0
-135.066637321292 -17.409816225587 -14.6422127822678 0 0
-226.371678310965 -1.02317365126738 9.47597308837586 0 0
35.3950818072974 7.55031915330766 14.9726025337097 0 0
-235.102138143549 47.9921053359403 -6.39601633102669 0 0
-32.8628553207022 -25.2807998094719 7.21173650519121 0 0
-172.593513961592 8.14498617175624 -5.29049970548795 0 0
10.8193160772227 -1.8453111204265 -5.95323402649233 0 0
-246.747603934297 28.6607686656423 14.3142493716614 0 0
-95.4782903810646 -10.1275635272407 -11.4143591757293 0 0
-208.577814526811 40.656138491952 -8.8017067754791 0 0
-44.131832233537 -15.9868001131637 -1.40565741059254 0 0
-198.880804198864 -34.5600232963181 -13.5670139893922 0 0
-195.919821017926 -29.7170262587034 -18.2945757829628 0 0
-30.9873598294182 2.09897823627871 -0.153331588707226 0 0
-215.312319079133 -3.76852907387446 14.4799166812341 0 0
-177.313228269042 4.20360434343026 10.3558070846296 0 0
-223.359071925667 41.40445594034 -15.876379355657 0 0
-215.033882438034 35.8420290297058 -16.1357985610698 0 0
-105.075977891173 -27.0104180018759 5.13918543881144 0 0
-230.462441165814 -7.67850396584443 -23.3991702149611 0 0
-74.2002577246418 -3.96248917026092 -7.38033486844189 0 0
-224.438426203112 48.9475047704669 16.6101702313019 0 0
-141.991940204713 -13.8666851402358 -16.5787576496842 0 0
-119.432489910812 -8.59004622284368 16.4244184255267 0 0
-228.096067944535 -32.3668534273002 -10.6502191212708 0 0
-225.984141686663 -8.01309381029891 -23.9310418159807 0 0
-210.899783838186 40.348107524516 20.6223644854608 0 0
-99.0992565890987 4.20612845653741 3.08313917685088 0 0
-64.9453368342418 -5.93015414627454 -8.07543353976947 0 0
-194.84443020136 6.04456142116453 12.2153724215324 0 0
-175.395740330652 -24.056479260833 5.41732223218978 0 0
-10.7557288504382 -14.8667847109719 24.1187695933641 0 0
28.6880060952097 4.13716051391934 1.51944452593835 0 0
-223.15577953996 21.1230542604329 27.5688232232377 0 0
-222.286912888775 51.915071957928 9.7498941548191 0 0
-228.16861929978 46.2088794646053 6.03407332063413 0 0
-221.119282858016 52.4653015975342 7.20306601684769 0 0
-217.995948953652 -6.32065640405943 -7.95755190758656 0 0
-14.7213562873383 3.4698608217946 18.7725321587037 0 0
-220.791992322484 30.8820762498039 -18.4039224477402 0 0
-236.598520145695 47.82767282736 15.2855343075231 0 0
-157.042709137003 4.33677571186408 -9.76846584434538 0 0
-222.967320573997 37.2137725953076 27.394105468062 0 0
-28.3034279271136 5.67220533759403 12.0260356934391 0 0
-209.611626929372 -32.5710733556919 -20.1380976749562 0 0
-201.247987335052 -5.15889565314771 11.5129703376225 0 0
-206.541336326777 6.3173066440348 -12.6575718299551 0 0
-56.4809492347173 -1.83910174516061 -5.53638330160408 0 0
-238.007641754364 10.2884420223594 10.4351196028103 0 0
-105.873308565549 0.879289784802849 -4.59184343413077 0 0
-242.293330371403 13.7174244079157 7.47004577543863 0 0
-235.849763578125 49.6171428713137 10.3673924433964 0 0
-1.23698874334436 4.83712677644664 17.7846433041318 0 0
-220.129176294255 21.360725803589 27.2216926937241 0 0
19.7930973019755 -19.2194493200393 21.4405679412212 0 0
-196.017692738122 -20.6945093696108 -24.9441840329907 0 0
-237.824583766178 12.989996869039 4.2193453155616 0 0
21.8592712686901 -1.57453905433817 24.0545756577588 0 0
-195.177535102764 -11.9974872826054 9.2793472718616 0 0
-161.054357373294 -18.3157532035599 -18.1565042353735 0 0
-172.052660686352 15.1705033714696 -21.1479125928653 0 0
-133.807900855195 -21.6254491789421 10.5301274875745 0 0
-149.44246572216 -28.7269408732514 -3.23832935474702 0 0
-212.08628988792 -25.7521167333886 7.51694363117483 0 0
43.028423447276 3.09556292805501 -2.61731798922838 1 0
-174.442546624704 9.40038051813678 -26.1209088604234 0 0
-124.265157094176 -16.3563691721024 -14.0131958874274 0 0
-226.999315663564 50.2682642757401 12.2761156135364 0 0
-233.167018675621 -28.9612547275851 -11.8473331238766 0 0
33.9412851862035 -5.28865648717605 -3.41481995636054 0 0
35.2966489778923 2.45682816297532 -4.12319809986829 0 0
-224.559343786875 -25.425112137006 -23.8489663784045 0 0
-181.450411600992 -9.64665566960505 -23.685358130059 0 0
-206.216300616606 43.3372669523159 0.299711292103178 0 0
-160.011120596935 1.1729140688789 -16.8463017994686 0 0
-7.95112652246383 -19.4032447746652 3.19888758687062 0 0
-4.88521881453471 -0.940123097321396 22.9028257193292 0 0
-70.7025012367994 -9.92037837437312 -9.40629192282407 0 0
-229.979667859812 7.16006587836015 14.7622432314433 0 0
-25.398514542914 -14.7158181961814 -0.630360118941419 0 0
-16.9574051225828 -5.92546185195025 24.6165023229541 0 0
-38.1481147405415 -3.87665225028466 22.7941940423595 0 0
-220.620122310745 -33.5618132054 -16.1433144517762 0 0
-77.3924913760564 -12.1443785744417 21.5748531515098 0 0
-235.515606662686 41.7427563461221 -12.2221802821926 0 0
-216.424022921169 -0.100874012886414 15.3131601441401 0 0
-59.0583882134921 -8.60733395763625 -8.51035275455852 0 0
-202.513876134324 -37.5374054943084 -10.1937289181607 0 0
-246.274539082363 22.6433956843368 12.2882524378994 0 0
-41.8866127290171 -2.3714010430061 21.834830214337 0 0
-211.563947398669 23.0307098711883 23.7908689676332 0 0
-236.495256690054 41.6111644364029 22.15827770199 0 0
-24.6410567519953 -10.3177263323967 -2.72383958524565 0 0
-240.399692414473 -13.3736230170453 -18.4955635888095 0 0
-203.6413488176 -24.6819429217235 -25.3690723018605 0 0
-151.901956713809 -3.60154406138488 -15.6662649748105 0 0
-194.387981178582 -31.0349512149846 -15.529836100625 0 0
-238.728898793628 13.9505632523591 16.5960750175128 0 0
-230.121474713409 37.2748693703431 -16.9050782704837 0 0
-16.559883107761 2.27556674800358 0.241060565329819 0 0
-181.702010049508 -20.2939990462688 -20.8532473608308 0 0
-94.1870473345394 1.84453229670666 12.9132502699653 0 0
-216.259089372335 5.40265368146331 18.5398783721203 0 0
-211.669891351677 30.5577720041803 -9.28522160813718 0 0
-180.799824132694 -30.1301076557753 -9.22818918377143 0 0
35.0932285969658 -12.4934966661951 -0.484144140671085 0 0
-212.909363785376 47.2466050611542 15.0482436018247 0 0
-171.921186662641 -29.8254504685377 -7.36925658252361 0 0
-89.927116181327 -27.0601226711311 2.89283732217839 0 0
-227.616196416535 -7.34399663528839 2.6464525079677 0 0
-113.115714394248 -13.6991894714445 -13.2608971541037 0 0
-133.455666906729 -11.4973263909742 -15.8871369674752 0 0
-16.1586535015031 -19.010421745098 21.8208341119011 0 0
-205.607994930421 -17.9486573411835 8.77311366185478 0 0
-225.292707054153 1.00048422071405 13.1878551764 0 0
-231.707691618509 -25.6909572014709 -19.5863184263019 0 0
-192.3521709374 -21.832467764737 6.63666906152117 0 0
-176.501129016775 -7.75766632225344 -22.5476801032986 0 0
-218.056220712939 49.5173790162826 -4.79697742167689 0 0
-190.206353583891 -21.2740384938523 6.85597399088676 0 0
-204.588179941119 27.1591006066381 14.0393491115567 0 0
-162.977816448005 5.81692067435566 -7.66777072588275 0 0
26.2542293291051 -23.1596006244702 11.6051635064983 0 0
-194.574823206708 0.443548305096976 -24.1925685220904 0 0
-135.001952403737 3.57127365823583 -2.64933906025711 0 0
-79.4394395694797 2.92631654721161 13.233568397698 0 0
-49.266434669821 0.376743378584253 -2.21403887845763 0 0
24.5551889588391 -2.91656107628407 -5.49272007697201 0 0
-32.6946619222041 -0.994107739114296 -5.17739392023838 0 0
-130.486502429776 -19.0262316594841 13.1816434614003 0 0
-246.530563766291 25.260319774277 -3.7303462411733 0 0
-247.237277648732 34.662927976457 11.6087089622031 0 0
-135.289711358864 -14.1750448492894 -15.0741481151293 0 0
-173.798715724957 6.56336467650006 9.28401237751662 0 0
-220.141611639886 -30.4212202635975 1.46080587210295 0 0
-139.212001519544 -26.8883417237019 1.95031090204686 0 0
-187.097688306968 15.2064516709615 -21.2004224699989 0 0
-155.056316346608 -20.3259489462629 -16.456145978172 0 0
-222.31785393112 20.3021678633471 -15.8663330996275 0 0
-207.673391796847 24.4687948125972 19.1895821949688 0 0
-141.36804096391 -6.55394417984337 -14.6069308982648 0 0
-219.752391658101 5.51397764096951 17.9508278089825 0 0
-191.8688016997 -11.2647889808685 -26.8740186555803 0 0
-143.535158165284 -12.1538541183764 -17.7252370237215 0 0
-225.049390959071 48.260171747858 7.86818702566876 0 0
-193.775702969632 9.15676761439688 10.9677683387708 0 0
-3.03366471751368 -2.98512468493781 23.9587135185139 0 0
1.07541990573334 4.77283199156087 4.27143329306425 0 0
-222.564405661867 -9.76726961627611 -19.1749891054064 0 0
-129.674972996969 -6.43672453466355 14.8956815104747 0 0
-110.446130124289 -27.2116673009241 4.47935185766979 0 0
-236.574097810389 9.94026397033109 12.6499452846146 0 0
-105.045306904554 -0.908700664842103 14.3119530559896 0 0
30.6101689114543 -11.937787972211 -0.768435131699608 0 0
-235.727642155976 11.1671267620114 7.41411864510659 0 0
-18.7381105841574 -23.6990177534543 16.8904485875591 0 0
-213.716518641212 29.039955831671 25.6291457432636 0 0
-224.783409362607 2.76321224656806 14.4937655187541 0 0
28.9747855364665 -9.68625510463642 -1.77162329435062 0 0
-145.348428981616 2.78594809983889 7.28963030846892 0 0
-193.10985783989 -22.9812714883987 -23.1426380892706 0 0
-135.286387038726 -19.5732221984101 12.0292018666445 0 0
-229.779425785567 8.34749642638075 16.8712112056894 0 0
-218.791801756531 -22.0351336188482 11.3234611346185 0 0
-237.554084797728 17.4381116936322 -10.7404238692815 0 0
25.4412310898044 7.64165739340255 12.1261871440752 0 0
-238.679432624931 -14.3281549063717 -20.6754476278524 0 0
-98.1660680103965 -16.8979404803903 18.5215360263159 0 0
-33.8872836802906 -11.4683301982239 24.391877582494 0 0
-209.054796446832 -2.66898849947176 -20.2080359553046 0 0
-88.4676715390665 -4.47453982783896 18.1143878284944 0 0
-171.81916119363 11.8248816527186 -23.521551582971 0 0
-225.235543123533 -11.8055745200323 -27.525740575951 0 0
-23.8474820134281 -4.85600439655729 23.906516028217 0 0
45.5703162955475 -17.7619150944559 21.9770766023148 1 0
-136.925781985834 -23.1856305187406 -13.4637572657278 0 0
-87.1671029062144 -14.2160290147375 -9.13417026277934 0 0
-195.299613658532 2.84489210773443 -22.8004980594839 0 0
-221.262023451252 -9.24013108157331 -26.9775259336308 0 0
-156.54600745228 -14.4716410953174 -18.7457253732282 0 0
-60.753337333102 2.62675764970692 0.775906211559083 0 0
30.6468292286398 1.40609930096171 22.5324779998452 0 0
-72.8036967412582 -4.91327256407069 20.0088438458995 0 0
-237.844338181362 16.3050275998327 -5.81372403349021 0 0
-95.9141181963762 -6.4213708939341 18.222339477041 0 0
29.0607473110228 2.42954483775648 -3.35921933866865 0 0
-139.228758254138 -21.6825746844887 9.79427798158386 0 0
-40.5760052127863 -25.9888175617773 8.05534653152635 0 0
17.3208326442099 6.9527254823062 7.54056215425653 0 0
-217.3487907262 25.1547359553477 -17.6035735015432 0 0
-90.8772334653925 -13.5464325653533 20.2573228508155 0 0
-203.570189264524 -31.7853777507711 -20.3833939263814 0 0
-121.892786926265 3.29761601966981 -2.03818825181026 0 0
-138.850328263686 3.07455309908859 -5.87343431184163 0 0
-23.8802990781475 -25.1218029480225 14.791289642315 0 0
-221.691831662158 42.293081328781 -15.2821720879946 0 0
-98.1857726252801 -25.9204589764321 9.15959138523338 0 0
-28.3578783244392 -15.1768838194893 -0.529783275014093 0 0
-171.158471299491 -20.1219526628735 -19.4037763769572 0 0
-178.794251200942 7.81080808592348 -27.2450145679704 0 0
-222.947370596686 50.8614453868408 5.96571673134625 0 0
-64.8298177668164 -3.56264111989284 -7.24107727969596 0 0
-167.249695859467 -14.8114402191067 -20.286719890348 0 0
26.8635381927852 -11.3836157951067 -1.00892289582523 0 0
-196.624423947639 2.73326683452647 -21.0643122297802 0 0
32.6627088586322 2.85298834658147 21.4907106186265 0 0
41.2681186366994 -2.16414083974864 -5.27274400457794 0 0
-84.7242967884843 4.316711264158 9.94811953400413 0 0
-160.725069640601 -15.1058270402047 -19.0200244056618 0 0
-236.897966978866 28.709324254296 -15.4944034391675 0 0
-235.615886580394 -25.2961871154891 -15.3336261397029 0 0
-208.98939820515 -10.6002990616011 13.015497350034 0 0
-132.930503784494 3.7048918313116 -1.63820711481554 0 0
22.7794977956079 -3.81996785860685 25.0900175728991 0 0
-170.011597146106 -8.53359429165698 -20.5363668169043 0 0
9.82676701285466 -13.7262923909842 24.5831733279323 0 0
-206.994902137996 44.8860438573829 6.04237701844756 0 0
-197.055069211107 4.44740230394204 -19.1674724225915 0 0
-18.5067591312725 5.79844298792946 12.3530231159965 0 0
-127.639870575626 -17.8840186124877 -13.9402901611332 0 0
-216.408441570729 17.7004030676056 24.8490905109516 0 0
-144.700731390095 -22.6103338263802 8.30430853485452 0 0
-237.733228080351 35.0026607937851 -14.1356414335196 0 0
-246.053825683334 39.2264862155052 0.0849207947961812 0 0
-201.092631275805 -1.39433375958838 12.8528128643508 0 0
0.391879732331902 -19.8612284732256 3.87538949438739 0 0
-194.970014967613 -26.9443034207625 4.52182565450543 0 0
-200.48987165987 3.26271630397068 -17.5981733279103 0 0
-164.573082464135 -4.97596841538162 -19.0998329955205 0 0
-146.551207324393 2.95049967150838 -7.67918989990514 0 0
-227.075431734238 -4.06803885299472 -0.104521462952594 0 0
-162.59190669032 4.40159452468867 6.98507799516853 0 0
-174.883777739748 8.80046249349419 -2.83064020407552 0 0
-54.1858088017945 -9.58188902726494 -6.80087249767777 0 0
26.0662021076986 -21.0983856153191 18.9671755837983 0 0
-192.494794968466 -28.4799206152978 3.14116463194003 0 0
-24.7601089281821 -25.6075677767944 9.37817837771577 0 0
-209.98981562776 33.303457235268 22.3512438553828 0 0
-242.518238913211 18.4193304337103 -6.61653913628047 0 0
-23.7937231515225 4.13835330846887 17.0990950548185 0 0
-17.6327940127146 -17.6564466223161 1.64370025785656 0 0
-18.9358564090207 -7.10860867322187 24.7828616572419 0 0
-228.429361849355 48.7442816587183 3.23072910714933 0 0
-105.938054814302 -18.9758160796065 16.3964808817219 0 0
-13.020609664185 -14.0692449867113 -0.116637730309475 0 0
-186.929837474383 -9.59610525430985 9.01441222049611 0 0
-23.1688332350635 -1.46585023145167 22.4562277717071 0 0
-158.978877102807 -29.2669581711372 -6.42326069463453 0 0
-234.250024947713 51.1978098215461 1.94300481672716 0 0
-111.125845976933 -20.7746102476185 14.2975418300908 0 0
39.1596226993632 -13.2032571333849 24.8482287265244 0 0
12.3257926899317 -23.3705074632549 15.8817144302697 0 0
-143.353816259595 2.94004029849814 -7.08965438122328 0 0
-58.2625435356924 -20.3549295724455 19.5006699408725 0 0
-243.473857380362 16.2905047123331 11.2964645930005 0 0
-115.141931061276 -21.9291143182776 -10.9691013359612 0 0
-231.712499805638 12.7093224097171 -4.32433181821402 0 0
-233.916165964913 8.66111321891576 10.5883229856579 0 0
-14.0338580235741 -14.4651214860516 24.2497418729415 0 0
-205.204827448765 41.1490577832481 11.3125710260255 0 0
-240.686342578849 47.1455958679898 10.5092711654252 0 0
-212.376312509031 31.7962530077196 -14.8028144256224 0 0
-189.151373332176 -31.9531115741914 -6.78544596147889 0 0
-218.742711418077 18.0463943938525 -14.162705566078 0 0
-225.367714018176 38.5703870142053 26.8673253376257 0 0
-210.319757995023 -15.1845743878035 -30.1790331154557 0 0
-222.98919639265 35.1190885437455 -18.1342174802167 0 0
-241.98895639727 -19.8818127694883 -14.675794868309 0 0
-81.2322665833776 -17.5899202152726 19.7520834136328 0 0
-183.646442153975 -4.75452697165517 -24.9952593135774 0 0
-102.362275320305 0.779399183756822 -4.26614963386057 0 0
27.5785646816178 7.75791029632636 9.57344919031556 0 0
-143.234273442073 -17.9714485569336 11.9334739704884 0 0
-146.185496402273 -17.6385867204257 -15.9982563708114 0 0
-12.3577206108277 -19.7091111945234 21.3348960743013 0 0
-68.6042759217589 -0.505514032394704 17.9325420891313 0 0
-237.10947477345 -20.5738614001599 -17.1301602061603 0 0
-120.20899415044 -27.692482017793 0.384234535597378 0 0
-214.444097260122 -7.38182675362875 -17.5564629456815 0 0
-208.596187035743 -31.84464453479 -21.534956314207 0 0
-52.5026580355848 4.78408593491846 12.3850378397184 0 0
-162.440466617983 -19.1772256705645 9.11139856171074 0 0
-227.772857811154 -18.6664926013381 9.38078503733919 0 0
-157.26775449949 4.83909265159494 -6.21822392505624 0 0
-205.86664091434 -1.95182200392947 -23.812214825171 0 0
34.8447104206941 -16.5830208783575 23.2170694307433 0 0
-33.5567207314744 -15.0561462792221 23.6110541091533 0 0
-164.598112644549 -19.5398483711209 -18.8116192636261 0 0
-200.929152853524 -36.6707936387679 -3.47651224820451 0 0
-246.359661682358 39.8537898236733 7.67271786724611 0 0
-239.008938708693 40.8879012355964 20.8626364304848 0 0
-214.306898329635 1.23804876706989 15.2672962975805 0 0
-57.0661945632381 -10.3161523133932 -6.67963840798613 0 0
-241.611388717578 31.1558351818515 -11.7058325963458 0 0
-135.219047127387 -26.5041558117433 -10.346392808667 0 0
-207.711622336621 37.110280888633 -7.55973200701619 0 0
-179.975484540716 -30.4953459793565 -6.39876060087751 0 0
-208.393146170627 46.1309746518761 2.19845364019197 0 0
-202.352181642051 -33.477485215335 3.15426193031423 0 0
-130.408832280465 -10.63044485855 15.5027076376088 0 0
-66.9561012769732 -26.8497522285319 8.0854140935716 0 0
-204.260449512471 28.9071658291655 3.99324878025877 0 0
-185.124233538129 -16.8429595944624 -23.1635426447754 0 0
-7.1694485801708 -3.47051289064281 -6.50332185192384 0 0
-230.205204393345 -14.7420988328483 -1.74339116231521 0 0
-198.142938559274 -30.7570121266009 -18.5141712035993 0 0
-140.672623479625 -10.3205952030864 -16.0418667099077 0 0
-235.987593837758 11.9704701730766 5.19380959626162 0 0
-219.461503365265 50.7748562312184 -2.8161300857285 0 0
-215.48970838213 -5.25706931771156 -22.6118110347428 0 0
-244.869693350784 17.5552226476533 0.75751908665849 0 0
45.1471069042247 -13.1535002146875 -0.307493232847508 1 0
-169.961495365218 4.55237373146268 9.41883935555562 0 0
-214.076909885727 44.0015595852564 20.3212998817398 0 0
-191.393900270885 -28.3041569607314 -17.6210776969286 0 0
-86.4653539577358 -12.1499078274383 -9.96059055439285 0 0
-193.541134868358 -28.0008113927622 -19.05810727701 0 0
-203.922566207719 -36.0665713165011 1.43650716288897 0 0
-207.109602631885 -27.7234565497816 -24.4208258883722 0 0
47.6589195595247 1.96699437365048 22.9412443928778 1 0
-81.2072961563292 -27.0872022013895 6.08981930722839 0 0
4.91305062359281 3.47515663757647 19.8245753771091 0 0
-190.815916356911 -25.0131180840613 5.29718088936214 0 0
-34.8638284204056 -11.723671399787 -2.6299764450305 0 0
4.21620388035703 6.54839083921762 12.2999859328798 0 0
-124.191419528222 -8.60935314623539 15.8859240578927 0 0
-199.165714262488 -12.9679896572605 -28.4368903720667 0 0
-223.974091989848 -15.6236663986577 14.1689974471883 0 0
-129.854828147733 -26.1240804290324 4.55195788694154 0 0
-225.204114627927 -10.2467524417058 8.97672332073449 0 0
-217.926147021116 12.2698339488415 21.9052904740261 0 0
24.3332659908398 6.69516289890393 5.79673534330596 0 0
-228.703419204586 8.20127848713035 -0.807936459711738 0 0
-135.181418554074 1.52690647522282 -8.26112672983295 0 0
-175.59668824821 18.4526816809851 -21.6277661392451 0 0
-107.513526077209 -18.6798890870914 -11.243716690448 0 0
-123.618810931944 -9.85041547433262 -13.501053120341 0 0
-226.349123089724 -18.4526996955087 11.5082437249367 0 0
-232.17285916032 10.1267717572341 17.7980708917707 0 0
-80.2624108927028 -11.966218593588 -8.99111444203443 0 0
-126.159808565461 -15.3425887419943 -13.9490914767174 0 0
-141.266792779579 -15.7745785519287 -15.6434391261333 0 0
-21.4797625941033 -6.98166882144893 -4.54992263964261 0 0
-237.233462155472 16.1482592048659 0.194028949664422 0 0
-241.910338358693 22.6115809654963 20.0594918182448 0 0
-151.982121779843 -19.2676467490575 10.2507477533952 0 0
-174.563193583652 17.7055991283885 -18.1456134138511 0 0
-202.136766459609 -26.8411143438102 -24.2711569210921 0 0
-216.530370895553 -25.011639729986 8.31330259078958 0 0
-215.619397512539 47.9671099675209 -5.94776045115976 0 0
9.04106152778501 -5.73455350904358 -3.58885525513722 0 0
-145.999196312591 -9.51831009636494 -15.9859480830477 0 0
-98.1042785371979 -9.70508542940199 -11.3800054728692 0 0
-243.322635616144 32.0035537613581 -9.63696582504281 0 0
-218.050879428059 30.9559095210034 -17.8133479725752 0 0
-197.847758994185 -34.4822565137869 -1.90603662629332 0 0
8.1707247273726 1.55117912562674 -4.39175687522036 0 0
-221.406055788473 -24.7117530985243 -24.8345422805242 0 0
-212.013927678585 32.5900290324765 24.1032764697975 0 0
-75.9900932328168 -19.6921316659533 18.7035805796501 0 0
-210.331706893441 47.7926998756364 8.46137265741552 0 0
-53.1738337950908 0.538097536359134 -2.08918958040218 0 0
-131.219376829881 2.98093565086703 7.43096304606035 0 0
-220.408588473208 -8.66375522332293 -8.39466224295452 0 0
-217.399090389387 46.9113813655317 18.6497368311463 0 0
-240.875800289471 43.4031303936099 -5.94881213072811 0 0
-236.935480330547 46.7432962104015 17.0785880840069 0 0
-229.560909689164 49.469157020157 -7.37899203806293 0 0
-65.7367885315617 1.32177060616772 16.6462804932281 0 0
-0.995497455635238 -1.62764756031363 23.4070220095118 0 0
-194.42300105826 -6.44644837616446 11.0920403467666 0 0
-20.9674448770898 5.09720100705453 5.89639649151506 0 0
-222.652301101464 49.3031342754529 15.7669390181332 0 0
-240.22065880232 36.1899219173996 22.2656206696263 0 0
-35.8669919005212 -16.2510581571273 23.0458937497792 0 0
-186.405054440629 -19.3351376733529 -22.7486170137356 0 0
-139.099228548592 3.80452447594507 -2.0203944495846 0 0
-219.110913072498 51.8976280701941 4.3965059304697 0 0
-53.945572726782 -2.83053906434671 -6.55423058697377 0 0
-195.554755169244 4.15134064129011 -21.4750160840817 0 0
-234.565570867475 48.0932425533363 16.438267097715 0 0
-210.507896402005 -13.1227411726008 12.4418565787659 0 0
-159.6488330944 -4.81143667613657 -17.9505943376711 0 0
-216.276757301842 27.1188435153865 -17.4448762167725 0 0
-93.3036046032704 -2.98979346922549 -7.64276819911274 0 0
-34.3208220474873 -8.64612543063429 24.3691861997903 0 0
-156.859265212752 -6.50349838032063 11.5609554193788 0 0
-213.875280489341 -13.2477659346993 -12.552261903808 0 0
-190.091110849719 -5.07672781986894 -26.5708743842942 0 0
-240.402410546169 45.0954748490069 14.8482913886975 0 0
-147.136882355511 -21.360859088076 -14.9936271387874 0 0
-231.738687413933 17.0055024187867 -6.9692030076781 0 0
-238.295432023422 49.2940675219044 3.27801479904712 0 0
-176.631372809964 0.403425499801795 12.1643771036973 0 0
-27.0461521156473 4.09504022635546 3.2800657088061 0 0
-4.40562987337673 -14.6050904558771 0.305172334435136 0 0
-220.744884492285 -20.4357161228403 13.1130173244528 0 0
-199.431608189101 -29.8809415060895 -19.9726266087176 0 0
-186.130637369651 -25.3792915809634 4.87192505049496 0 0
-201.316988392418 -32.0739687769519 -18.852507190631 0 0
-128.600541052512 -25.173341862866 6.64055134266531 0 0
-217.356642302016 -2.73839903556821 14.7892183554194 0 0
-84.0419036400642 -27.1428207107723 5.61387071786964 0 0
-213.39621082367 -5.30922133575035 14.1324154376899 0 0
-241.029622866587 38.3172125592561 20.5214901142218 0 0
45.6889900645977 -0.0665053251743965 24.1472256950681 1 0
-68.3235436671851 -0.310912993229813 -3.08694189447884 0 0
-207.480737640989 -30.133455071297 5.34871863202426 0 0
13.4434246844558 -0.311699978530614 -5.65088707304611 0 0
-187.014426491209 16.1206624411177 -16.172591534392 0 0
-206.927994957834 -16.412711433926 -29.471527108492 0 0
-227.712884702225 -8.61109772951188 -21.1437510074033 0 0
-10.3843410168131 -12.6412334602706 -1.0002762979166 0 0
-214.992640947859 12.122218123251 -12.3926989485446 0 0
-227.501746446269 51.4038827142215 0.276974235383693 0 0
-204.032897795861 16.7344630897492 14.3335723877969 0 0
-104.548587428468 -17.4178942125708 -11.1543531061041 0 0
-69.5377585707136 -12.8352036665896 -6.9910678620991 0 0
41.0041367054515 -7.53127290232954 25.7182910394643 0 0
-220.648826351272 -26.2843378567629 6.10813069613142 0 0
-97.4548755734558 -27.2083249072644 5.05625372944106 0 0
-179.642282349911 10.3594546866378 2.12698654813164 0 0
-125.360616503254 -18.811677347021 14.0475638585659 0 0
-17.1198564774203 -3.90095502365992 -6.4474014537944 0 0
-200.257229945697 19.2578700612321 9.70481160080341 0 0
-181.536784305067 1.78805461509357 11.9978683629694 0 0
-110.226229085751 -13.3843911392672 -12.7928083960943 0 0
-221.509653893082 -24.5556783062999 7.20590046390026 0 0
-220.679145866242 8.10896657808543 -11.4157441271146 0 0
-208.355150320482 22.7004984212242 -6.79800051285915 0 0
-207.949896934857 34.3123269190458 20.2695524200063 0 0
-53.8935275208808 -17.7652083052988 21.4242963657167 0 0
-127.174075011319 -22.239539372087 10.7776504674296 0 0
-206.74125732244 41.1324720818334 -4.88913051429185 0 0
-141.112362321415 1.87121510440849 -8.82407955243052 0 0
-214.461884728539 14.9662990286391 22.8434931039592 0 0
-241.446541238448 -16.9668265306803 -15.7470462060377 0 0
-110.715978238714 -26.6756123052329 -3.92693809952603 0 0
-72.7485173242644 -3.0185454044675 -6.42111245459248 0 0
-149.488633759132 -13.076099890189 -17.6276698420969 0 0
-198.567013516437 -20.4019643318862 -25.8410849649688 0 0
-127.753121989569 -23.7320351460547 8.9727795653417 0 0
-230.825347795021 47.4682733095963 17.6867199730827 0 0
-238.701413363164 -20.3789046745582 -16.0040459345598 0 0
-38.2432675980078 3.10163783569649 17.3021484253777 0 0
-228.948277056519 43.2787749845441 -14.0543071741184 0 0
-215.118309690587 15.9810250357834 -12.5001418915827 0 0
-236.298930175474 16.6664602074072 -9.50886155749265 0 0
-185.541479696827 -21.0664174262058 -21.4721044768015 0 0
-228.165730269863 2.77246407291027 7.09796096898502 0 0
-186.524783907399 14.5690613885983 -4.10504023116176 0 0
-227.898614663964 1.34153269810082 6.30945325202961 0 0
-207.720365513014 -33.8801311870911 2.1652707066684 0 0
-192.392216851661 -4.21318337674082 -26.9175967967103 0 0
-219.864690459619 -3.56825296109296 14.3220960557826 0 0
-234.362332469926 32.5805377859711 26.8637230909295 0 0
-230.159165278138 -11.3054830977238 -27.2371987266727 0 0
-127.65160777989 1.13204438179118 10.6942259928655 0 0
45.0797139437061 8.34341497308631 12.6963440982002 1 0
17.442852722166 4.79459714339071 18.8689768218539 0 0
42.6054287661904 -3.43690730722799 -4.51237320292823 0 0
-135.993375127182 -28.1577897237376 -2.13630666130337 0 0
-146.226466381926 -13.0460903495732 -17.9212596747662 0 0
-235.419622874301 14.8978268314159 -2.52043389390285 0 0
-35.9819123706368 -6.93331800521905 23.9618706385641 0 0
-209.427400921937 31.4312463769014 -6.62093290658691 0 0
26.5699452201438 -7.38282207242797 25.5617232522771 0 0
-164.460685244103 5.67996836176858 -16.5352764637138 0 0
1.51684541534072 -2.28697159901909 -6.06978733405187 0 0
-217.025786351911 36.1800990968892 26.2972564799732 0 0
-222.827307185282 -8.05124228908662 12.3995930984532 0 0
-27.7661761912128 -13.1505585444435 -1.46296158424947 0 0
-186.078839132678 -14.3551823234021 -24.0963993811747 0 0
-46.2616850599342 -4.64008625307642 -6.82567500468627 0 0
-204.397975157432 -2.75817689477719 -26.0613946515263 0 0
-214.544268212534 36.6158512419954 24.8081725935227 0 0
-16.7007811970429 5.20910144147014 6.31795425870633 0 0
-206.406429278139 28.2698493810031 17.7530947311338 0 0
-100.503598351142 -3.67907016665292 16.4071760124991 0 0
-202.414906639879 9.39177026898545 13.7805314894951 0 0
-181.292590538858 -26.8559391561075 3.2204123968418 0 0
-238.284603707475 39.2325186480615 -11.8212371966731 0 0
-25.4954740944647 -23.8701364167511 5.60271310418117 0 0
-83.4165459266822 -10.0367670581757 -10.5162996741169 0 0
-181.235704276208 13.8703742883976 -9.2519577128033 0 0
-209.639520753292 1.05381009551509 14.4999752003573 0 0
-228.704874676554 6.102286144374 8.43019036160131 0 0
-227.313245581769 48.4009891301511 9.53942730283263 0 0
-113.707943361366 -9.65650243978141 -12.770204370646 0 0
-156.507582154317 -16.9663021569556 10.8574578724844 0 0
-107.229414612892 -25.2205289096644 8.9221247881829 0 0
-226.042401496833 -8.39690085429561 -21.9764154876149 0 0
-117.199024632892 -22.8852525533847 11.0739789725037 0 0
-216.365657627125 1.64106459317754 -11.8597737332057 0 0
-222.680839890053 9.96703652908575 -10.9012381678961 0 0
-161.782250551348 -9.85804000420307 -18.557207359007 0 0
-159.44074239478 -11.7696069252329 -18.4762277040941 0 0
23.1379729628408 2.95030409757363 -3.25008042399165 0 0
-232.221540896051 51.7409757811841 2.1965982055021 0 0
-178.11914844867 10.03663621618 -2.8724768050529 0 0
-232.844202951251 11.1580734014765 0.991391783452403 0 0
-189.621177359183 -11.8472090895765 -25.9036721027233 0 0
-189.883905050244 -17.3029484959487 -24.4327759899018 0 0
-224.658066545852 -33.8507436024949 -10.3901127136724 0 0
-84.0464128889996 -19.4878854654665 18.314093836403 0 0
-212.343135351747 -29.6322380299809 5.18922200733235 0 0
23.9957872109737 -16.9360469112808 2.34110081547568 0 0
-184.898058137222 14.5489973912789 -6.71466898696769 0 0
-74.0137885406989 -23.4655587475594 15.1138195572018 0 0
-207.277591477789 40.4874272215097 -6.57583188370421 0 0
-216.26063432457 -5.84709341328343 -23.8512768808747 0 0
-93.1200810525258 2.97111053101799 0.29954556254214 0 0
-193.901335711079 -32.3584752012053 -12.3603766471215 0 0
-211.008542396613 12.2264353467626 19.2489918282948 0 0
-94.1377294870981 -0.961322154761776 15.3970978145032 0 0
-214.923365867555 48.356144186686 14.7766076183252 0 0
17.2286512294723 -7.5385161948371 25.4925825691414 0 0
-227.560215968623 36.1093065503354 -17.8078529330835 0 0
-218.400579993198 -25.88959287917 7.07884583188426 0 0
-229.760902307094 -7.92627024812328 -21.7745824666082 0 0
3.57924919509447 -13.4621007998968 24.6662511219719 0 0
13.3121523163822 3.87500397688131 2.40631819967957 0 0
-230.950103868455 50.3484984388262 12.4377637515349 0 0
-169.04217247665 11.3111675875368 -14.6588391600673 0 0
-11.1141409926974 0.874208817674659 -2.84509609612918 0 0
-231.229802550819 -15.7789843443904 -0.584786347344471 0 0
-70.5005077106062 -18.0498704319182 -4.20225208771899 0 0
-33.7021115666076 -21.4630932857537 2.58963714477814 0 0
-217.614850875604 -10.2013618534214 -8.97921617021377 0 0
-232.458058743567 40.0718560716039 -14.7940211829423 0 0
-243.617053786054 40.0765549036353 15.7666963557527 0 0
-177.575108563715 -26.4376588764983 -14.9009796754204 0 0
-241.394087440957 37.8868544478066 -9.77347591248119 0 0
-146.880735332722 1.51395198062255 -10.5860382860816 0 0
-215.144516655735 -9.4400012344124 -9.62471925088324 0 0
-211.027099118538 18.9404278564066 22.4039309067918 0 0
-170.134054035357 -26.62649912387 -13.4816992144203 0 0
-221.245928004821 -34.9145378201628 -14.1433223699336 0 0
-215.594854498135 46.843987758138 -7.93039206455196 0 0
-64.1151594542698 -3.94046640204257 20.4816486456909 0 0
-48.992332735356 -2.686606128606 -6.03028253428447 0 0
-193.263148627617 -23.4723525736929 5.94065120298215 0 0
-222.08338046235 48.953484831621 -8.22961950175349 0 0
-12.226212044254 -4.58428511170103 -6.31155980531091 0 0
-17.3799891676177 -8.51512737682842 -3.29174621809325 0 0
-226.272159238653 16.5176908109361 25.2482904429322 0 0
41.387200163592 8.22733796877253 11.9544095004601 0 0
-213.710900019185 26.6776039088391 -14.2376402244525 0 0
-124.507924898537 -2.95155528186892 13.7870062792173 0 0
-29.6939162065201 -5.72224381842786 -6.18451589177726 0 0
-111.639593034343 4.07229097284873 6.19412318450506 0 0
-182.414011475451 -29.4408531285783 -0.785762613426052 0 0
-57.8620001740446 -18.9834814245255 -1.48028061064208 0 0
-26.7661078657835 -11.2065021755961 -2.37715273802747 0 0
-180.518990485648 -21.3434741656534 -20.015511126719 0 0
6.1637475926888 -22.0568794172712 18.5724580061539 0 0
-87.46195444375 -27.110187799231 6.41867430707695 0 0
-244.441309486437 28.8481453631026 -8.37869629461342 0 0
-58.5958523280663 -16.4505250472446 -3.11357604027618 0 0
-220.613000896329 16.1793029032142 24.8194375782839 0 0
-234.38675046561 43.0209946845994 -12.0052923727782 0 0
-4.32255998847776 -23.4846784789275 7.44404252299673 0 0
-210.718975349745 44.0031130366535 17.2136448553475 0 0
30.5508257902219 -9.54237922426995 25.4954139673421 0 0
45.5594597775552 -5.93360440610999 -3.31143681788107 1 0
-215.127377198703 -14.1019322594654 14.2287001925609 0 0
-100.484635648179 -21.8121456142965 14.4660273106222 0 0
23.881505429075 -0.197685174002166 -5.72326686721514 0 0
-0.208291047157965 3.56897036567875 1.98548439420523 0 0
-226.503647548458 -11.249854712531 -18.2801796960225 0 0
-27.0709298968881 -4.33806404674774 -5.77613924901576 0 0
-208.113076429854 27.7704685432099 20.0559769231755 0 0
28.2141907906743 4.26773426417902 20.0430413214062 0 0
-224.617611879897 2.06438240685503 -3.55770463859727 0 0
-207.157661303096 2.60522113276461 14.2285372719927 0 0
-226.332742104404 16.5587297288336 -13.983402030899 0 0
-204.740359665474 -38.2377788364919 -10.4056194149969 0 0
-66.8211608519107 -14.9473465394472 -5.36174944348882 0 0
-204.525872822979 22.6035099289228 13.8438300598666 0 0
-203.75559295838 40.0861553792534 7.355314717296 0 0
-74.1965422562813 -26.3797766963674 10.3498412261974 0 0
-197.121768207199 -3.54851934946604 12.1977794796378 0 0
22.2035197823408 3.8293560212233 1.52302169317653 0 0
-240.307720272789 -21.2025972587471 -14.3176960585835 0 0
-215.375302210295 -37.3679766805947 -12.8370102201369 0 0
-101.245906754294 -12.6981669495302 -11.8484182547886 0 0
-223.892586157919 -11.2219176972983 -17.4923232260994 0 0
-212.933000847381 37.8381946892021 23.4127762539854 0 0
16.6337200440066 -5.37017135472236 -3.80085962909493 0 0
-158.790429394294 -25.0839745948649 -14.0804651752742 0 0
-21.6951840996157 3.83048721462923 2.87637988394036 0 0
19.312699006085 -13.5740791250267 24.6146709959549 0 0
-122.277178638727 -14.4272475687228 -14.1774067345981 0 0
-226.55191701896 -15.4026290201427 -27.5237212574292 0 0
-73.6035679940537 -25.0905731183496 12.9120643707855 0 0
-185.922440322142 15.3776900939556 -23.7289029689805 0 0
-171.046300393585 7.11675416636502 -23.0266098266321 0 0
-64.5496839155093 -22.4466153523692 17.021346769215 0 0
-125.475383323466 -27.8500609532921 -4.13882475709744 0 0
-229.245994435936 -8.62882187063732 -19.8032149267574 0 0
-67.1206386153272 -18.1782363859012 -3.52409686276513 0 0
-70.1195923467499 -20.6541727013104 -2.38581584605014 0 0
-179.067148905296 -13.9729683824207 -22.0710724829578 0 0
-225.189255064988 50.3996681216263 11.3626901021999 0 0
-220.484312744653 5.31986402129989 -10.7070522585356 0 0
-2.9637508470052 -21.1598379635652 19.9749936247233 0 0
-68.5261627071259 4.86688280431071 10.2191078709376 0 0
-134.620410632571 -19.7567628814616 -14.3319780146354 0 0
-214.53631822419 18.2769738792855 -12.4230319410369 0 0
-31.3902285433537 0.459170191192518 -3.84592251163991 0 0
-166.426599444054 -3.28510580953329 -19.7728704328449 0 0
40.6025318075547 -15.3759073101416 23.862618006715 0 0
-15.4505560603753 -3.16602320245123 23.5312241376995 0 0
-185.582624673719 2.54976780233034 12.2590144060945 0 0
-149.049564702819 -28.963445773218 -5.80346499799041 0 0
21.2977467639297 2.93473037768111 -4.63191327934667 0 0
-53.1813536732686 -11.5654293117706 23.4331513029117 0 0
-217.442000601611 -22.3945968120731 9.95235817235372 0 0
-9.9452630200362 -18.7052652527534 22.094836757452 0 0
-234.228451259297 -19.2144657611408 2.45223565706068 0 0
-179.451833186154 -20.1588696856758 -20.6102084942601 0 0
-147.231957349971 1.35260106144811 9.59585539169058 0 0
7.39575290308749 -4.00318270095877 -4.97929563043748 0 0
-235.642189718695 50.4276390266569 8.04577057991334 0 0
-133.003889147829 1.95952644397263 -7.23639701992214 0 0
-229.605803056823 15.9303219850621 24.2120335626065 0 0
-222.937873930888 -22.9058953139388 8.30140309948099 0 0
-226.483147542652 -12.8638432211008 -15.3422098773112 0 0
21.4646903010569 6.31889202298929 16.6139859850054 0 0
-200.986500274524 -29.1017972450116 -21.3677810872353 0 0
-225.067978818481 -7.77220018133385 8.37394220705771 0 0
-217.708224254498 41.9373840126742 23.8370852637221 0 0
-205.069427161144 -1.74203997913883 -21.7831813631539 0 0
-208.191488281702 46.1659710281959 4.35085142608868 0 0
-159.752988920513 -13.1968396888709 11.2244504725097 0 0
-135.90495839714 -1.13566060535447 -10.5778963048533 0 0
-192.864355039321 6.61196004194132 -21.9965351727175 0 0
-60.8851853931093 -26.3298294872076 11.389519211419 0 0
-212.838985380588 -37.710998088075 -12.463867909144 0 0
-176.873953684843 7.49109861800059 8.94709579861142 0 0
-245.587575827436 34.2586001630461 15.8966205097358 0 0
-210.827169487321 -2.86555720418429 -24.3519819102263 0 0
-101.657470200898 -14.919398431669 18.8335862151023 0 0
-205.232377926392 42.5688755107352 2.92580599768343 0 0
-208.425293146538 41.7967957587654 -7.37433912630021 0 0
-223.200448694327 15.9685919914515 25.0170276379731 0 0
-22.6557216945198 -25.1770972424328 8.32181838792555 0 0
-209.181092928238 -37.8653172628186 -3.83858547947766 0 0
-181.276841315812 -15.9741482641456 -22.1593217175078 0 0
-91.505609819716 -25.50554405544 10.4700452842383 0 0
-168.065055393235 7.35607132938232 3.52233488038915 0 0
-98.9960577119501 -5.76691651808621 17.5663979304068 0 0
-242.321335025435 35.6523618173111 20.2816769375358 0 0
-183.957862438356 -27.3006247373354 -15.5379865816638 0 0
-2.94326431203525 5.83930445404731 7.5478882117572 0 0
-119.358248772048 -21.9999201310725 11.960766385907 0 0
22.5305166945625 -10.8446728284504 25.2619584353099 0 0
-209.434774988234 13.2010567553033 17.6401441238947 0 0
-62.8011332390544 -20.448393782171 19.0188387653964 0 0
-198.772543224457 -15.9368431103344 8.57506852176666 0 0
12.727162847878 -13.0460504172036 24.7978564151463 0 0
-19.1382390454902 0.622103997580605 -4.92252638288895 0 0
31.8767769369623 -6.5129939107937 -2.96047439437641 0 0
-2.07894183686006 6.2244540522692 9.88895410068857 0 0
-246.615889278139 34.1581103004657 13.7282784778635 0 0
45.2068576063302 -22.0248437951297 12.4772548270946 1 0
-199.930496296107 10.1035052279396 12.8961520537899 0 0
-195.583509482909 7.17197182967534 -17.6406697889099 0 0
-23.6204973247184 -22.4106810381854 4.32017249555549 0 0
-213.826380726689 11.9105355482982 20.9226530234681 0 0
-6.76370319635896 -6.49110458869795 -4.16006867606633 0 0
-239.657562330997 24.5800274808113 23.1570022620015 0 0
-55.9467560504871 4.80876922003935 11.8079171998632 0 0
-239.783092498595 45.3464598863137 -5.04760066047983 0 0
-135.692693289285 -10.1294270382706 -15.3820276705808 0 0
-192.563539369506 -31.135886050274 -13.574831309403 0 0
32.2876633319912 -2.53156080904518 24.8160501641316 0 0
-231.139164691848 -30.7190626907357 -10.2176969093733 0 0
-29.97415245224 2.93827279607558 18.2725825066038 0 0
-226.592681823795 -6.44172548240911 -2.72875797724742 0 0
-27.5257700290341 -21.8118129375273 19.2956441693192 0 0
-130.729037084685 2.1683250268291 -5.91836475040993 0 0
-181.867105396521 -22.7043273631255 -19.1444483095344 0 0
-73.260944187506 -10.79305487288 -8.96132074045881 0 0
-237.494239593162 23.0972510932499 24.3827023984195 0 0
-244.467360961585 37.5431786287981 16.3276171197013 0 0
-149.414158557817 -23.5499336388978 6.83374023238965 0 0
-174.991519928112 8.96441035863825 1.49033063256868 0 0
-224.410781509808 17.6628292767509 -15.1825899690497 0 0
-156.826648462291 1.80638589972648 8.97239729939687 0 0
-67.09890153773 2.11817855699108 -0.0146204316227468 0 0
-57.2170257943024 1.7628249876246 -0.437884314872608 0 0
-26.3373158289579 -19.0131866918102 21.6740938724332 0 0
-231.971211697101 48.2615955709705 -8.14773235538817 0 0
-167.288851771776 7.15216990895909 -8.89481199369467 0 0
-248.025802936424 32.0306687258238 0.0575659268126802 0 0
-151.453388109314 1.65053987135034 -12.3977073924917 0 0
-231.45967745953 11.6767610828953 -0.787153119623941 0 0
-209.437361860795 -34.2084064402733 -17.4812075157934 0 0
-177.839922624724 -24.9195591004156 4.82792675911489 0 0
-220.920263230255 50.8900552789542 11.7727530659378 0 0
37.6900327038402 -15.7324668191056 23.7020804847018 0 0
-230.320904850456 6.42559434854261 11.3188470390515 0 0
-225.51724461184 -29.7538104638869 -20.324554361412 0 0
-124.8863017205 -10.5925505396436 16.0837000311452 0 0
-140.736047729791 -12.5178896871623 -16.8462227202563 0 0
-193.92326776404 18.304386316652 -6.22760557095047 0 0
6.11891599157668 2.04750866052913 -3.44843804036593 0 0
-236.300839564032 30.2164952229424 26.1207029158291 0 0
-213.808743499602 -35.3288819262682 -15.1437352955194 0 0
-194.413166364884 -17.1376349927462 7.82745721269176 0 0
-239.232720130126 13.1355920004872 14.5474375011873 0 0
-224.715981447003 26.7760753571121 -18.5141971400666 0 0
-21.7477598356379 -25.5090882662415 13.6432312306973 0 0
-66.7732084775875 -25.7541512576271 12.0750767277057 0 0
-96.6851437685591 -0.635366868283967 -5.27182027883661 0 0
13.9612324337723 -1.69905986620743 23.872438279785 0 0
-213.112713768246 -16.8849206710785 11.1444410715317 0 0
-17.9637206659862 3.12991282784732 18.9911467865289 0 0
-189.4718411814 -7.49295408110637 -26.3071190041413 0 0
-97.3613636736764 1.0319311009864 13.3772225029628 0 0
-135.850660716982 3.60135812944848 5.18935638503733 0 0
-117.503557599421 -14.0109713898368 16.8572987258658 0 0
-62.0071279720866 -4.1658179719157 -7.50613777110622 0 0
-205.437049989239 27.3925732752864 -2.31564106880672 0 0
-206.812960958755 34.6031592611161 -1.411282803281 0 0
-200.115121369835 13.4398277464878 12.0561097547341 0 0
-248.226505384987 25.4891778274071 6.74738128331805 0 0
-218.847309490048 0.0244025019010451 -10.449262943879 0 0
-209.613407201962 3.81854808895167 -12.7310203387774 0 0
-2.5509340245356 -10.7865917967579 -1.76216801025774 0 0
-200.74079382688 16.8747482837992 -8.8191722760101 0 0
-2.83325760724119 5.96217698322707 14.6200073339011 0 0
-124.185506913255 2.80358322373085 -3.62450352944569 0 0
-236.700099468297 17.3247411565043 21.7430575148078 0 0
-209.269487800328 3.96969196721081 14.8978436638246 0 0
-207.963441459175 21.4593701560033 19.4046705630168 0 0
-18.8848341837112 -21.9345464811289 19.1286554541021 0 0
-194.448902577133 -20.9729987645755 6.95250809905671 0 0
-196.182208962314 -34.3046994282717 -4.84805107752384 0 0
-195.919270872113 20.2631303688893 -0.718131199997111 0 0
-174.201531345832 1.76337652651042 11.7368278416436 0 0
-184.307733078357 8.16213588712528 9.47881625388554 0 0
-218.70235903294 -37.1225011207479 -10.5972204247492 0 0
-221.101774044144 43.7566617406274 -14.2414023025118 0 0
-204.778440816593 30.1225092196925 2.3447121652735 0 0
-49.1762596339021 -8.07519814232244 -7.44770995727615 0 0
-33.0613810381989 -6.07796281943029 23.8514320927792 0 0
-7.61917255426217 -14.4713532408945 0.186285576799159 0 0
38.8386452463552 -21.1218392650882 7.6336969344932 0 0
-24.6815629178421 5.19689499775058 6.18949894000642 0 0
-208.395287363947 17.7499051088097 -9.35564883824059 0 0
-168.23095468737 -12.01764285881 9.9522785172571 0 0
-129.48525341381 -5.37199288466755 -12.0647481604002 0 0
-208.659127336774 46.6074691939456 6.75853538460831 0 0
-231.628345044919 20.4195639199512 26.1032054393671 0 0
-214.719728269863 43.9670812044897 -11.2848880640028 0 0
-22.6762780026664 5.78956074973219 9.23481551548092 0 0
-89.0109557158426 -3.69106530045191 -7.96454890668008 0 0
-218.547973318562 48.9221941888122 15.7342825698523 0 0
-63.2863645025979 -26.6465548690165 6.52831240341249 0 0
-18.4979006837898 -15.4846658829436 0.272481691362247 0 0
-96.6548962325755 -25.7020245705019 -2.33053742300102 0 0
-213.8490255576 32.5559444498651 -16.2203721104472 0 0
-151.71180439903 -25.6938886111313 -13.0100345662723 0 0
-180.710606018044 -27.8989301861393 -13.4650936253223 0 0
-245.456566017967 41.7796665858654 6.47141512826071 0 0
-229.461512308045 10.4177603040676 -4.40951532806488 0 0
-218.058484825536 49.7701049963745 13.6031034919526 0 0
-231.985391003846 -16.8298506764045 0.569550866421021 0 0
-223.968403508005 4.56772342056395 -6.8530572413361 0 0
-9.13042267554 -5.6332594432927 -5.32165940610227 0 0
-130.119327710886 3.40723126627738 -2.57485083538148 0 0
-117.707688262291 -23.1530646359826 -10.5302598807965 0 0
-241.217013982399 41.6001417605152 -7.25489744773812 0 0
-225.841746310421 -12.0055468770116 -17.1609572711298 0 0
-204.028769363681 -7.02290739710659 -29.4531363408373 0 0
-18.1968359396597 -2.95775912376405 23.3473272592585 0 0
-192.988128779136 -30.4870358729795 0.927836361943537 0 0
-139.947655875508 -25.1782621542671 5.24256749056765 0 0
-247.039341591718 31.2651853128318 -3.33031479468217 0 0
-216.727670130056 38.1376135097021 25.4484144130171 0 0
-204.924465636825 20.2904667604357 14.9237472429961 0 0
-131.534143577611 -10.3694420501359 -14.7988873574164 0 0
-213.062354288771 -27.9080619570978 6.50296843621537 0 0
-223.809569415874 -11.9230405992113 -14.6847743648003 0 0
43.9004568048141 5.08173952746442 1.66911409573423 1 0
-205.34941460687 28.0882538559681 15.9157715656514 0 0
-215.990475870312 49.6075993901352 12.6944252436708 0 0
-215.920486525023 -13.2507547817441 -10.1445844771399 0 0
-220.040085059632 25.8643798629842 28.4010134838113 0 0
-132.605206713878 -2.53913255575311 13.0528252186469 0 0
-179.535562043343 8.08461458406136 9.23018557961111 0 0
-27.1888451946419 -8.87464095908223 -3.81232682933152 0 0
26.478164370696 -7.52675392568031 -2.57712930538216 0 0
-123.845747012937 -18.7278996686801 -13.6604718095607 0 0
-73.2066419405649 -8.83421904177998 -9.77144316167915 0 0
-49.2592720448368 3.65234469569332 15.2848736489412 0 0
-68.3834757152583 -13.0501869784223 22.2823559784515 0 0
-143.974010486802 -5.23954026354239 12.6148497134321 0 0
-40.2551162260529 -8.42648282542594 -5.43990161766818 0 0
-205.349959470505 -13.0532237944954 -30.2499012233881 0 0
-49.4043164518222 -10.0734554433253 -5.4242637867533 0 0
-190.181534474714 10.9158648910799 -19.7338055738443 0 0
-225.356373232207 41.8978821884043 -15.5579520417544 0 0
-204.796214523502 29.6784096572723 14.9110366551766 0 0
-219.008560142375 2.43195355383021 -10.8918799280433 0 0
-121.982349046376 -15.9740895561054 15.8529491276751 0 0
5.97153517190462 -0.487952678890003 22.9014177167052 0 0
-175.069592939584 18.3591001591434 -19.6713202587143 0 0
-81.6612959787236 -7.45347246654883 -9.21693201728324 0 0
-10.6211639463661 2.1800817945255 -0.0453762720051667 0 0
-39.2185012338805 -22.6730471027456 18.0021574193315 0 0
-198.811180559151 21.899311835875 3.58786967363995 0 0
-187.397414704095 15.7635561343838 -6.4363556913629 0 0
-239.833194505095 37.7940445996552 -11.3731563081937 0 0
-65.6132051354037 -9.18204122393545 -9.13321594082759 0 0
-220.426307510715 -7.561246004638 -21.4568095696124 0 0
-194.959222794014 11.713549363479 -13.5967583175161 0 0
