"x" "y" "z" "f" "a"
-227.986872268505 8.51255229469531 18.4138596250811 0 0
-236.435791389631 -22.7805958403672 -22.1608484582469 0 0
-233.316599932887 19.6391990196798 30.0604855183319 0 0
-257.752743928 1.09032907543474 -15.8556623897526 0 0
-185.725211366727 -4.8212919257582 -7.02003704355721 0 0
-220.322161937141 -5.62061768534837 12.7129659921032 0 0
-187.295063428888 10.7928705784584 21.1432246299017 0 0
-222.487919844492 25.0907348532979 27.0942623957489 0 0
-230.141944277253 14.0328666177554 31.7651631914828 0 0
-202.325398351635 -14.7027529258747 0.271981297567852 0 0
-152.978745735371 14.5649909802489 15.145904861106 0 0
-65.1290342485098 3.19783974788933 6.63838896856341 0 0
-272.455473917258 -29.6816467994411 -8.14751516272076 0 0
-217.460831321901 16.4052741706357 30.8795169699804 0 0
-28.1384773087542 18.2695014974844 -7.26847617338849 0 0
-226.559972293571 4.32965535521789 16.7780485333085 0 0
-237.358365568255 -2.93339076985385 -16.4983432321595 0 0
-235.778690269832 23.1001439239813 -7.4019004519422 0 0
-262.14702440701 -37.0430323943755 -8.88170923279281 0 0
-127.59004283631 9.58771260716096 11.6935103715028 0 0
-132.845361493585 20.4526546588091 6.85389923787313 0 0
-172.286772776676 -4.31644618723383 -5.43351333825495 0 0
-214.770646571617 4.76256721728471 30.4486818198146 0 0
-24.2109799077969 -3.41653668861431 2.11398627443317 0 0
-238.174588058403 -30.8369734031356 9.77407084739156 0 0
-231.315422281189 10.2381930193845 15.5294595123426 0 0
-238.98378684498 -34.9491673108054 -17.1970184654788 0 0
-217.128876731511 23.4331281471762 27.9676443220166 0 0
-222.950515481558 33.9038728009827 4.93547874294321 0 0
-61.6292847173833 20.5726457376902 -12.6006236597304 0 0
-207.399282631665 -5.35364287916895 19.5563543626624 0 0
-102.57108877543 5.40587068982244 10.0697474248704 0 0
-248.213994019086 -38.663956600029 -17.84063546669 0 0
-227.33684911382 27.1624478855185 24.7434917825298 0 0
-251.155480089894 -16.0389903293644 -28.8628857222229 0 0
-241.45486509304 -6.42225192442532 11.4506006559417 0 0
-242.780100828252 24.6634904831982 -2.52106294703328 0 0
-55.0629275190764 -4.44082684464065 -1.06952049334598 0 0
-194.62514241221 -10.7272643914884 -0.528790385647393 0 0
-242.268792574471 7.89850212632096 -8.57358548086303 0 0
-185.340717589091 5.44677657353313 20.4695862382667 0 0
-240.719189915931 12.4357379853332 8.58410505643507 0 0
-251.695874385344 8.25742791186864 19.2378545898896 0 0
-52.0275178067786 -4.84686239270614 -2.72357560199202 0 0
-221.795594202929 -1.59672250099168 16.5258718141613 0 0
-171.984995618089 7.61308955044567 -12.0243877583749 0 0
-227.880840367874 9.51190173146644 31.6939737616621 0 0
-28.4966825825829 -7.4212193198455 -17.7598854175507 0 0
-58.7760650873136 -0.515151941181466 4.95378450779409 0 0
-109.809646769668 -4.97586189889528 -3.47964617519192 0 0
-112.368768571096 10.7803037439149 9.95762921886512 0 0
-274.78712265745 -15.5314343099148 -10.3035133822921 0 0
-175.830531131116 -6.60197356783851 -3.46072100247518 0 0
-12.770059587987 -7.72358074881658 -12.3544686080009 0 0
-213.969779825984 -3.79254644024176 18.7488441125274 0 0
-215.584863811686 36.5574582734747 13.6565092365283 0 0
-236.302954933304 9.23146522867965 30.79407059653 0 0
-137.92822685668 20.7629763091037 7.05760020884336 0 0
-149.088201871306 -2.14212242962116 10.6100041166971 0 0
-11.9278873711223 -2.99441149477787 1.88606647019098 0 0
-257.764530097089 3.01983024345302 -10.79214428789 0 0
-119.559246410215 20.9628190831156 -6.74935615926788 0 0
-248.942295425132 2.80567887662499 -1.20069195787775 0 0
-251.050010372813 5.49570671013638 20.7180743822714 0 0
-237.508931256711 -27.6260959555013 10.323435988107 0 0
-205.471485629926 18.7181396637255 -4.53070394433725 0 0
-5.92467111432652 -5.90016173913204 -5.082436273068 0 0
-221.517584857433 14.3542951661363 -9.060979666955 0 0
-113.849919234015 -4.84855830115455 0.999083567813123 0 0
-244.545024801666 27.719051586713 5.63631252434955 0 0
-161.937862155997 20.5856915569058 11.1707864101524 0 0
-83.3571526989497 14.2145937587107 3.56986167609065 0 0
-148.87204298277 -4.90821957393755 7.86653503932042 0 0
-37.8597100769685 3.92480516477878 4.94456554843921 0 0
-34.9678712163429 0.471112775453901 -26.8517177201568 0 0
-194.528725822619 -22.7997694114256 5.11016502378203 0 0
-229.334753926049 -21.3131945253495 -8.51690356067608 0 0
-229.754568576481 -21.7056687356625 -4.63251674592126 0 0
-252.648540870406 -1.90716873186089 -21.2984266797403 0 0
-236.47336135823 -35.1728682188611 -13.0552165805563 0 0
-66.6188683684215 18.2419940549989 -19.0816687526245 0 0
-193.90151146945 -18.3990224717726 -0.143307637592819 0 0
-124.016544805522 6.00634711614281 12.2177457919018 0 0
-29.9291251703555 16.9081738221266 -21.6423401832541 0 0
-176.782479330654 -13.7220160425198 8.24515880211625 0 0
-176.384581861228 -12.7015808933303 3.60470854621528 0 0
-202.526532874506 4.25106407404228 25.8678310100538 0 0
-67.0249057971915 -4.86463646951563 -18.2023956988217 0 0
-49.4922654238924 -2.116320865959 -24.6370340684694 0 0
-269.221805992684 -3.84340051759156 -1.56331329677544 0 0
-235.803356176746 -28.9754793728587 2.57604705599933 0 0
-222.285826215277 -4.9111575553033 13.4405384176768 0 0
-114.274063491421 -3.3280180879514 6.04874213821609 0 0
-75.6971054286703 1.97509496378215 -24.3206513759813 0 0
-224.89172206363 -17.0304545739095 -7.99913822231218 0 0
-43.2308012139958 11.353110685738 -25.4696018561305 0 0
-19.5354262001559 -2.0708267841146 3.64301905409727 0 0
-244.251574837055 2.23165652067857 3.63390545686643 0 0
-24.5029220075015 -7.44837791275523 -13.7897999554774 0 0
-50.3670967968745 17.7648616893267 -20.0895430762648 0 0
-210.920988762353 7.33077637485387 -9.4797600056833 0 0
-251.203007041025 -24.7490837631691 16.9754767260064 0 0
-232.2822310766 -25.8490115461288 -11.7662628045449 0 0
-213.693273983503 -15.1705518726139 -0.181822234803288 0 0
-236.956791000815 -30.2911091114362 -19.2834481794438 0 0
-193.038351783894 -21.3591396321975 1.00741691157135 0 0
-190.543980054715 -8.82795043536925 -0.928045922536079 0 0
-232.490339463908 31.352670103449 18.521490581914 0 0
-248.082198612961 -7.33324667503879 10.163263192114 0 0
-241.888689559428 -3.43208693537472 -18.49624228155 0 0
-260.234730759374 -24.881691451149 -26.8510774597076 0 0
-235.901942723698 30.5531599703196 16.2335969751727 0 0
-56.8417998550879 -5.41092750510986 -5.71113600057181 0 0
-151.04497122546 21.8981241036705 5.64314682715647 0 0
-179.378917003739 -7.46983018597212 -1.46447147163849 0 0
-180.723121037652 -2.02845295030908 -8.52745518303206 0 0
-89.3890218488641 5.8046591978018 8.39900910793871 0 0
-202.479219329835 -0.737004400293288 -10.4269501671616 0 0
-92.7632594569675 3.49112557821352 -22.8598928791552 0 0
-267.760950366937 -13.9247762820501 10.8024918099772 0 0
-178.094461911228 18.3613090688008 -5.20743200057737 0 0
-179.445191589143 15.3396404131142 18.5698517859034 0 0
-46.5969555877974 9.18811251383862 2.64028201734898 0 0
-68.7501976573285 -2.60989319430629 4.45935789977782 0 0
-232.379974611484 8.46338515089272 12.0724395370588 0 0
-125.830926362314 -2.52689463418908 -12.0992538494286 0 0
-145.005712871538 16.9899057602675 -11.0501739840422 0 0
-271.824507991613 -7.27997689848283 -9.07028995081178 0 0
-16.4131837951901 15.310814127192 -3.1690214677462 0 0
-236.475617885424 9.74845640145211 16.611535378436 0 0
-69.4116925584563 -4.3134507813915 -19.2261030771255 0 0
-273.034181107112 -26.6652366543454 0.567677367064964 0 0
-234.174879774465 3.18229230817336 23.5477338753344 0 0
-188.732952825443 -18.5456932557653 0.94890463857806 0 0
-243.576242138093 13.7878726477274 0.796194821700078 0 0
-88.4729355555654 7.93272887659293 7.34993582402286 0 0
-0.250663126151862 12.0427143991473 -25.8935423118957 1 0
-224.10413071009 -18.2519468214522 -0.200910104549521 0 0
-247.344650235856 -24.3223468743912 -28.0088282188772 0 0
-111.640243267957 -3.39585914117016 -12.6946938737706 0 0
-18.3981048575803 6.29645597025807 -27.3508975831039 0 0
-203.823266585326 3.62318979650098 -9.14604104840204 0 0
-170.94122634404 15.7797900244516 -8.10044432170218 0 0
-204.711421942918 -15.4120528616293 8.61681946333082 0 0
-215.121908579407 30.6383267481477 22.3434263485717 0 0
-232.86660928802 6.54843500019562 10.1332228772015 0 0
-184.974116025182 -16.3402568984843 13.77024564381 0 0
-235.115263287448 7.15731983127218 22.2641413975462 0 0
-78.4185882532727 18.1943753941673 -1.73345138414027 0 0
-227.65164038422 33.2286933891408 6.62526543943313 0 0
-69.2437265075162 0.387180016958307 -24.3582496665208 0 0
-97.900851353394 -1.31527815373808 6.30745308991234 0 0
-258.308888713751 -37.3145072110589 -4.59171584100065 0 0
-11.5646276083501 19.1515480036954 -11.3091910930721 0 0
-227.23308539376 31.3076671458954 21.0707930706332 0 0
-231.05864341028 3.40438926155206 27.2675162085089 0 0
-56.4880422506551 -5.03433549827218 -19.7511078525651 0 0
-174.539776146439 18.7997556547374 -4.93818478730949 0 0
-139.333684026647 20.7139453722468 -6.49577821917923 0 0
-190.138488161917 23.2827693571286 14.6665710786057 0 0
-231.377464839152 4.80765770700564 14.4994642058333 0 0
-260.297808259623 -29.6848074455123 13.2084424823023 0 0
-198.422298147455 26.7010700496865 12.8555880982488 0 0
-244.179907349537 -2.2595466592432 -18.3926110461587 0 0
-243.737140429659 13.4208049537074 10.2869963719287 0 0
-140.300480976066 -5.11715074936246 6.44216580758732 0 0
-179.636249998725 -10.9716258178739 1.80419603343528 0 0
-219.844573937349 -1.44194371932223 20.3494795793843 0 0
-202.499469291933 -3.53317658747129 -9.11014392246324 0 0
-93.3836912913315 -4.9047447192927 1.36631592156097 0 0
-257.656347261393 2.4234785262806 -0.0668784102618547 0 0
-15.3774270160395 4.47720853181276 4.3688695765563 0 0
-241.883035064044 23.2386517515822 -4.7987302326258 0 0
-270.011589650479 -23.3173494139696 8.35448663268769 0 0
-138.389299042067 -3.17293488080517 8.27539372470735 0 0
-132.931506141766 17.7693276532176 10.591161471255 0 0
-85.3198838839178 12.6397642131998 -22.6377841652117 0 0
-118.437273708244 0.399600636381013 -17.4578364760047 0 0
-107.487159856945 -4.92246653819836 1.1186883916562 0 0
-243.76473990809 8.90901177989999 -1.21509557220498 0 0
-194.426531356811 -15.1609357369716 0.130224778979669 0 0
-141.237736300393 22.0753506763681 -0.589493061043014 0 0
-238.18651329101 31.1066942150954 3.84129360949506 0 0
-227.515722844066 -10.2647541726585 -13.6389562823693 0 0
-254.000509182059 -8.91720202642418 -26.4484656812944 0 0
-238.219788822199 32.4526114665174 7.88775631869718 0 0
-273.89886247911 -15.7306906632444 2.27411525356554 0 0
-166.425299503525 10.3333874680596 18.0057046992036 0 0
-262.042825154929 -37.1403883135984 4.53484910217686 0 0
-246.355163260546 14.4110298716583 27.9623989783777 0 0
-231.070491814598 11.9316027994248 17.3106245402015 0 0
-191.412050533406 -11.476758599243 17.2533084144479 0 0
-239.612938883565 22.3864368853024 27.353166038078 0 0
-149.2829001906 -0.109850704667863 12.1850884190141 0 0
-262.946989508738 -37.9321434633908 -6.73265474033714 0 0
-162.872200510725 -4.83477476933508 -4.78719370987882 0 0
-138.709795996725 6.80733355977741 -17.2214436134934 0 0
-89.2036495897725 -4.18510306258994 3.8145472671038 0 0
-59.5323830464863 20.3013899519414 -9.62601717307457 0 0
-227.435272845867 -0.193028117841625 14.6941454164348 0 0
-246.343709859175 12.2936856877048 28.0204360744116 0 0
-16.0047882382499 15.4262595041781 -23.4012058869154 0 0
-195.873072737847 20.2209678755298 -3.41897343789558 0 0
-182.914905157649 24.2613793964268 7.04171742909434 0 0
-108.254701147044 -4.79435029455519 -6.01586013906735 0 0
-222.681152542172 -0.890162526361204 26.4969114319442 0 0
-168.632241838384 -7.96864438965188 -2.1229469577111 0 0
-60.4955067684773 16.6489781676461 -21.1690909418668 0 0
-235.333215453726 10.2058285880645 21.879926190883 0 0
-257.167333075978 3.84514872729809 -3.46829551609365 0 0
-95.7207717861704 6.26275634972186 9.07624923697923 0 0
-236.574544268052 -29.7235026777207 4.26735717442679 0 0
-209.292611158097 -1.1901889274064 -9.98855529016753 0 0
-266.600904034166 -6.00493360515653 -18.2626560187338 0 0
-107.182353896757 -4.50313134790688 -8.4370996073977 0 0
-232.163691726951 2.6675844619244 -11.6797961993183 0 0
-238.387046755988 -29.3643939531956 -21.4458538788618 0 0
-222.117675098845 32.6263507101903 20.8721600563648 0 0
-7.24975566860838 0.777430056106548 5.32684416699196 0 0
-105.912562163815 20.6797822649327 -1.56947919611527 0 0
-257.419521523826 -40.5817603076312 2.03476878235494 0 0
-238.976945682688 29.6217895530378 11.8823711353459 0 0
-219.472865894764 -2.30835816292994 21.9989559644238 0 0
-252.371999711047 -40.5110602759829 3.92466804879095 0 0
-212.489960527946 9.82823767859287 -8.39635421682609 0 0
-234.700927124261 21.7163548448374 -8.78897344263206 0 0
-230.730207430334 -17.7541378559893 -15.0443237941535 0 0
-196.233905451341 -13.8028333307594 15.6700433702096 0 0
-56.2986716408129 20.1635404345447 -9.40674750458771 0 0
-170.660299850284 -7.43387035332925 -2.81421986397818 0 0
-246.533071531145 -11.7634653067927 -26.772426871475 0 0
-198.088586174707 -21.6751212654882 2.40347153054552 0 0
-92.4035859369097 19.6960713814467 -14.2210501744305 0 0
-123.351913688931 -4.8358199936811 3.82977739325643 0 0
-184.01073784674 12.8654224004778 -8.39239286094446 0 0
-186.52880772865 -21.3322523272595 7.88875279350892 0 0
-17.9816106900039 4.6554138306353 4.33065585168627 0 0
-211.303770728046 10.3680727382723 29.8411006244073 0 0
-133.332162975919 21.7387185841909 0.652404657162864 0 0
-145.495018166227 7.82505003431233 14.8933104312107 0 0
-253.765725980261 -3.50216128100489 -22.8123812597194 0 0
-193.329768641564 -12.2419825802253 17.0454747862499 0 0
-99.9699903822063 5.55118886166414 -22.2636983935789 0 0
-39.7785869432816 -4.97860390379549 -22.6142842027785 0 0
-250.846967205487 -34.294171064825 12.1774480240971 0 0
-236.311278049226 -27.0378070660528 6.63751925702445 0 0
-237.694526650854 -25.1890843806031 -22.5810272198678 0 0
-198.371792143085 -7.94615553647445 19.2323428175865 0 0
-22.7885890284469 17.0625724077619 -21.3507156221007 0 0
-118.221729366522 -3.72709741255887 5.81881907027008 0 0
-49.5000330640727 0.647947599825018 -26.0654072972917 0 0
-140.930193719575 9.36931594207955 -16.6236102811685 0 0
-224.426471228224 4.24538089965753 30.9966400878446 0 0
-44.3615849848103 13.8230930529359 -0.954624296915282 0 0
-238.971592591977 7.80349920217632 20.2014840334655 0 0
-264.172754054084 -39.230203430255 -10.7661935713887 0 0
-23.8070378553861 -0.266720774087475 -27.0402759283282 0 0
-32.1696409371006 -1.28352421335466 4.83831388113671 0 0
-211.458970092969 25.1821277222041 -0.955214789168668 0 0
-237.110785881281 -1.32113688415867 11.8153557410859 0 0
-8.383893971183 -7.40276723080451 -9.932905128271 0 0
-172.376120033763 -8.08308283720398 -1.15144997418682 0 0
-162.770307951769 4.18183572755385 16.4536272271376 0 0
-243.781536655919 7.05976837892207 17.3697693067588 0 0
-264.927266992948 -29.389741043022 -22.1770949183601 0 0
-14.5764777038944 16.7044885951276 -4.98762529345819 0 0
-257.444816504905 -5.84020711162674 -24.0596637120923 0 0
-21.3502951103111 14.6567532171296 -23.9068685946458 0 0
-268.432773181074 -31.4934312750462 -16.5983195771611 0 0
-210.26387384667 -8.86030780755285 12.5919432185232 0 0
-225.098931442155 25.4926292427321 26.9261046878907 0 0
-52.3930196511073 2.18590744612264 -26.2600437228073 0 0
-166.66746679725 -0.327434722274731 15.0933891556599 0 0
-251.733998146787 -35.7047489785984 -21.6528056582667 0 0
-197.847320492759 -15.7088354181104 13.7532361498938 0 0
-41.8877151239402 10.932948323674 1.22281173184649 0 0
-165.56800023258 -8.56222704227065 0.283366375608336 0 0
-153.177972844307 22.0927451600814 -1.17025046982618 0 0
-151.898495226126 -2.99582957878813 -8.32311981228652 0 0
-141.498082499506 -3.20964523383188 8.67318460026677 0 0
-213.081754230836 -0.508050977891216 26.9284220715192 0 0
-268.389034155792 -27.6557755825474 -20.2850649167171 0 0
-181.171349557292 -17.6937965433461 8.52081620754051 0 0
-16.3639944499507 0.753056248283733 5.25657598578556 0 0
-202.649786713365 -16.0552378156514 10.386522917823 0 0
-66.6255327399065 19.4735401642319 -5.5590614912445 0 0
-229.834963159141 0.319268584484288 14.3232351597089 0 0
-181.165653446645 -3.62695935041437 -6.92886435467696 0 0
-234.793517362507 -29.5410967674919 -3.4959662360555 0 0
-4.30224748786496 14.8412531055885 -2.37922239660786 1 0
-117.593185107949 14.2365992584539 10.2750092131529 0 0
-6.34142094747176 -3.92467873338822 -0.634723479270162 0 0
-183.983505469328 8.08516062214777 20.3838694687331 0 0
-116.384033257055 0.309874669963748 8.73682312428293 0 0
-238.212014171762 -19.7273558244275 12.0813575279042 0 0
-205.561057613021 -10.7303073853365 12.4599194741753 0 0
-236.733966709252 26.9150189413705 23.508881007811 0 0
-241.899709359824 28.56790926767 13.2917362842289 0 0
-238.282929298949 10.24357845967 31.4979866024379 0 0
-227.754009387907 29.3013508066782 23.1831317578928 0 0
-208.519390078541 10.574175469281 -7.48718211594961 0 0
-165.587505173351 11.7972773965013 -11.5950107124348 0 0
-175.563999633157 1.16432032284478 17.2405648112601 0 0
-162.401190545992 0.216596867517886 14.5803591617194 0 0
-231.697907882581 -4.66288811014997 13.0022138411479 0 0
-233.628742085302 -8.79841280639744 -16.2483155758335 0 0
-50.4221852086972 -2.95183622678077 2.96762061686871 0 0
-235.335324241281 29.0942012107608 20.0157461491385 0 0
-211.434645101336 31.7805737288776 20.4421197659623 0 0
-155.945390067366 -7.45072519939887 0.0591138964405428 0 0
-244.671705559178 15.4812567570713 2.40265628291743 0 0
-2.28449977466547 17.7521769185984 -19.581031580473 1 0
-246.174539129958 -12.9175410380705 14.568878018831 0 0
-215.535075454967 -10.6319593677541 10.1071706088243 0 0
-268.007274488623 -5.41505103590883 -15.6340373891884 0 0
-245.565728376623 25.0645403248769 1.07045039293205 0 0
-222.544658819567 10.0238434936162 -10.578881972827 0 0
-208.345955240662 6.76856666222014 28.6599419659397 0 0
-227.921869046634 -20.2228637323826 -5.67937898311886 0 0
-8.49131294003281 14.5516087128171 -24.1448206433889 0 0
-181.584567618694 8.9072931463367 -10.2176104667525 0 0
-169.206121457278 1.03553816676476 16.1011586475784 0 0
-2.31434366117553 3.75837444691945 4.69286705346175 1 0
-242.671467856916 16.6469299196771 30.2089240775751 0 0
-275.082305544026 -22.3048752557252 -9.59937096679234 0 0
-203.136589166327 -16.6200245460676 0.990206371157112 0 0
-155.396606624373 20.7751249403433 -4.06819526733232 0 0
-250.08169363811 -34.3971962967832 -22.8738334912861 0 0
-254.162026183573 3.90109833146658 -5.99767772732095 0 0
-231.56337293301 0.027039527913743 -12.4912455542018 0 0
-244.734391961177 -15.9101859714802 -27.3440303471123 0 0
-103.443600371921 -3.81845529968873 -13.6034206523017 0 0
-194.148075469473 7.33661362081268 23.0755435850387 0 0
-257.987959134516 -28.6092330741136 -26.0253904475867 0 0
-231.659101820191 30.6213619570336 21.0192464054743 0 0
-242.199337802609 23.8751464481562 23.7836280701436 0 0
-257.414369556994 -33.3441580891738 -9.56179920549992 0 0
-271.258231240132 -30.0889580472876 -12.8062739891919 0 0
-161.097300873488 -7.29319397905464 7.6365616034494 0 0
-244.224816143059 -41.2825076052603 -8.34827415388566 0 0
-267.903439897421 -3.00485260112312 0.0345627856714019 0 0
-249.679126818433 3.24397528092439 22.8717973006768 0 0
-144.744023826858 -6.3958136864058 1.92044970502534 0 0
-83.3080787223999 20.7385127708854 -10.9737889659962 0 0
-242.787098580626 -40.7614731894998 -3.15923220539693 0 0
-241.513102357926 -30.1896024122576 -23.291343531165 0 0
-234.388495941405 -7.74997498106293 12.4676465798518 0 0
-234.674002476914 -32.6795979979151 -5.83165480844229 0 0
-113.341340671311 2.66772596450795 9.7261368109777 0 0
-202.676188612805 -12.4713508254953 -0.619632861877882 0 0
-236.490307454769 3.52639552194682 25.4665968744138 0 0
-38.9536208494825 11.9906388021557 0.240865930007269 0 0
-128.939198200119 20.6154577278443 -8.00433270133542 0 0
-5.65715006776833 12.6122531472205 -25.5120825725404 0 0
-107.185443129602 20.5033808952446 -9.93037572395216 0 0
-225.067381436437 9.19812485287428 32.0289914237324 0 0
-25.8193387065237 18.4603284454999 -19.1018219819907 0 0
-150.585705169629 21.0528846002155 8.55246080591381 0 0
-121.738324996956 20.3327757849003 4.7350755951045 0 0
-39.3749563085614 0.566944332400683 5.57631083739294 0 0
-172.402034589506 18.2182555155635 15.760021528329 0 0
-153.309687946799 11.7909430052414 15.4829625675537 0 0
-143.041730680079 22.0597126815975 1.50328764452537 0 0
-168.621466208027 12.6651672337775 -10.6829288755728 0 0
-163.980246131955 -8.36750666293287 6.68551710510771 0 0
-1.8181689695294 6.52980456288528 3.42635223864613 1 0
-262.239456740837 -1.86303068341212 6.17388995783459 0 0
-233.394273567136 -23.5289043261611 -18.220748456934 0 0
-93.6817712925859 0.92733367787092 7.24162955794108 0 0
-195.890509637135 -20.4565929954287 11.5163049071995 0 0
-234.559768765876 -33.302335123339 -9.40061903958781 0 0
-234.043699032863 -29.6621504363082 -7.64146420093693 0 0
-78.7279623187185 10.5330379261544 4.78306401281803 0 0
-192.092180939744 -10.8311837417189 -0.192151980039847 0 0
-197.188102520603 -10.7956294332124 -0.744459072372949 0 0
-231.996991937329 14.939937401617 -11.6429089367594 0 0
-193.948964348502 3.72849487948005 22.6950371438662 0 0
-106.46342688385 17.4879142821901 -17.0316906141455 0 0
-264.117026265627 -2.02564753093653 4.12841391116776 0 0
-98.5678922438453 10.1659887193322 8.19221450351671 0 0
-258.327700528605 2.98377914853704 -6.85723203129124 0 0
-94.0186466947976 8.76291486443247 7.82858598812525 0 0
-220.918475071319 23.0419301678841 -3.21123604753303 0 0
-158.609310584948 14.423383462569 -11.038079697421 0 0
-213.522125634505 -7.59958554516749 -8.48099874501862 0 0
-208.574236260248 -2.80017172017611 24.2964552168635 0 0
-188.958128529041 -1.16387523463256 -9.33335569938867 0 0
-248.350037754956 3.55699025679613 -6.08511451613566 0 0
-257.674337918184 -35.6067699335725 -12.1400895873492 0 0
-190.360652946917 1.23486770267577 21.2060266289218 0 0
-112.390606523652 10.1641371182922 -20.4370070385998 0 0
-264.015354394472 -27.7546138048259 -23.7496746498346 0 0
-157.119863408338 12.3902422529327 -12.6307645895404 0 0
-217.706394316358 -16.1718947349231 0.0307415610850612 0 0
-187.403805826889 -4.3133870788243 -7.88884471251707 0 0
-274.165514200595 -12.024362050443 -2.81667346444308 0 0
-275.032524493115 -14.4656727843379 -7.00976677000889 0 0
-216.919651242856 3.03339588277661 30.8152771359176 0 0
-126.982851197686 -1.63078695593848 8.54709445830787 0 0
-224.327970026663 4.02531026392904 -10.3898811035865 0 0
-208.482097131512 -13.1214097483912 -1.3717151198699 0 0
-246.49326253115 26.2937703277999 5.6512193353394 0 0
-257.447899221326 -33.9110438599439 11.2976534364509 0 0
-167.737752091308 7.82477316333203 -12.693472041915 0 0
-154.95928107278 19.9272408654863 11.2172205260333 0 0
-143.237639397732 7.51599670296222 14.6617885525781 0 0
-204.743391639604 29.6208307039228 12.3360838738578 0 0
-186.555553213837 -6.60618111401473 -2.61724050685513 0 0
-75.7270080851598 -5.26646162122455 -6.1770960154177 0 0
-248.930905694289 -6.32996152831916 9.11872826409996 0 0
-221.811859551271 21.0056387984805 -4.46855050023962 0 0
-191.926586607704 -19.9443076644454 13.0865556526387 0 0
-244.268961282352 25.1272632381679 -0.636051763989703 0 0
-251.274733810599 -21.263659372487 -28.9243790371293 0 0
-273.481460556168 -27.752959474373 -3.62390953322101 0 0
-264.202976444639 -37.7908184364573 -12.8308652804885 0 0
-131.164265935755 0.659103091138934 -15.6355966527002 0 0
-114.496664728645 -4.95125084917128 -3.00215866105741 0 0
-266.231864356783 -32.0082762465526 6.96855019233609 0 0
-15.3794399201086 -7.31908053193985 -11.1192509179626 0 0
-192.526188927956 4.40317122846383 -9.18733516396015 0 0
-250.698269207313 20.0593228456196 10.4839206680108 0 0
-175.924816502179 -10.3992564787575 1.6936480448052 0 0
-227.07812674761 26.7445429352802 -2.46991042573547 0 0
-251.390758978682 -36.7476131794923 9.82480485748643 0 0
-232.910587079228 2.73195619687947 24.8641774729933 0 0
-265.142980193283 -29.3043127858278 10.3448821852366 0 0
-260.230456019052 -29.6608437621403 -24.7116246782051 0 0
-7.1731017189825 6.35688817414959 -27.4306697392802 0 0
-228.317608539549 18.2737306663132 -9.06332860813717 0 0
-159.937813966808 16.237772883428 -9.33634885967452 0 0
-242.629317013007 -5.3627227611051 10.3863282096832 0 0
-229.151905405654 30.796815689706 1.66692090862536 0 0
-249.347117879066 4.19924467488257 19.4215071218542 0 0
-248.418140804637 -4.68047008069063 7.18594528919357 0 0
-127.959751715219 3.85453164900036 12.0881935041144 0 0
-269.247292477897 -15.9765177855543 9.82602393514467 0 0
-245.658086390897 6.76056060600569 17.3285121927253 0 0
-250.350548166413 -43.070762537674 -5.48975580469591 0 0
-25.9905323930546 0.396717508565291 5.456577720969 0 0
-264.469275491533 -5.37962113385583 -19.8141242785752 0 0
-93.4256802628812 -4.91944934864653 -9.20348034526922 0 0
-196.064738988076 -7.12644406775493 19.4795247161125 0 0
-228.656786752454 -12.7265914820897 -13.8901113424494 0 0
-29.0995419739974 -3.20869177585396 2.71440858441988 0 0
-248.476825970476 -7.42486888302396 -25.220387812329 0 0
-127.98125888886 5.76411568092902 12.5927027553032 0 0
-237.138589147517 27.155884052345 -1.82521451748001 0 0
-229.520588985752 10.1864914306403 -11.3426315134552 0 0
-216.831804137051 13.0520284871799 -8.93730316269487 0 0
-225.200763885159 33.0238610212397 5.75142381230121 0 0
-103.198101028985 10.904311403222 8.75810513705164 0 0
-78.2172393398792 -2.36976536192148 -21.2335567739563 0 0
-229.599950059205 -15.0709171740732 -14.2719976293176 0 0
-249.910757774949 -4.5031667309747 6.03001363522211 0 0
-71.2813649094326 8.24938741554698 -25.0749404652633 0 0
-21.7474841556318 19.0427413075469 -9.66238191411558 0 0
-73.0500506050978 14.9185483719383 1.03000770292965 0 0
-264.479340587807 0.0290893611154605 -10.5237074450228 0 0
-190.835045341972 11.2479965251781 -8.088897133625 0 0
-267.02997840996 -31.920592310453 -17.9978402822658 0 0
-265.205863977718 0.00544438521527863 -7.89309959314258 0 0
-201.444795156328 -10.3607641841574 14.3179762763703 0 0
-27.2527838564507 19.5686385488493 -11.378979004324 0 0
-186.209052262756 -10.072696255234 0.255646040494204 0 0
-211.166318118556 -12.641448335629 -2.89745201794681 0 0
-115.522898335406 -4.7982713459468 -4.84839164302385 0 0
-257.978862430946 -38.7995393801598 -15.8327711496454 0 0
-243.164174318149 3.15503508939407 26.9007730135407 0 0
-120.931555445295 7.38071173551665 11.2656233666217 0 0
-74.1240514764012 16.8400422259539 -20.2875024142932 0 0
-59.7757336238439 18.1286250025759 -4.26371160954122 0 0
-115.844119239677 6.5033576207023 -20.363039676157 0 0
-242.861378546842 -18.0499827369341 -26.8323989029563 0 0
-219.895066328956 19.2582299207806 29.8356378433552 0 0
-159.946955141335 20.7489091813483 -3.65003226924222 0 0
-12.8919954508758 3.90019217335907 4.6941024272139 0 0
-187.530496056936 6.68373208691713 -9.78182143870302 0 0
-169.234017379954 23.0268822500102 3.311656831185 0 0
-172.118490539735 13.6250704620005 -9.63193243699499 0 0
-238.493644990188 -36.3292642139999 -14.4886686950257 0 0
-203.967762609833 -17.0838757941363 7.02669140002544 0 0
-243.771641019892 19.8454825460706 27.9627723681959 0 0
-151.58676261276 -6.17462382203276 6.36385687258684 0 0
-53.4665247011821 20.3606087776045 -10.5799126821495 0 0
-272.110151016964 -18.5570443121286 -17.9721953261539 0 0
-261.345822839502 1.17721463108246 0.652718622711986 0 0
-209.303726790099 -15.245652197019 0.572519142419344 0 0
-235.87750239913 -3.81803629772377 12.6345236928512 0 0
-95.8140551330658 1.85789705925694 -22.0820619196389 0 0
-185.266561754647 14.9175829712431 -7.16062354945457 0 0
-199.479163359643 -20.6872087887077 0.510178712822079 0 0
-271.367851303957 -7.50845312031868 0.64123019329046 0 0
-212.297423178908 -15.6390793699345 2.28835880401698 0 0
-134.473300936348 13.9999007604585 12.7133227286743 0 0
-200.026456329324 -13.280341312558 13.6660088210288 0 0
-236.466762353005 32.4696090132339 9.91798833261459 0 0
-162.641232340563 6.11329112710084 -13.6709865602216 0 0
-106.423855545573 11.2577647529603 -20.9049704641962 0 0
-213.375144559127 4.37049469329864 -10.6943322113738 0 0
-250.648896361942 -0.135248762519079 -18.3494964621155 0 0
-236.94420946229 30.5898248067667 13.3131815947227 0 0
-241.096945560195 25.2812744109662 22.3291819524348 0 0
-272.975462978748 -9.48789294287094 -1.99292934827932 0 0
-46.2514536383728 -1.3776828995945 4.50125917026572 0 0
-115.68749724442 2.78125392565463 -19.6101246188631 0 0
-133.751626717665 -3.30130735557478 -9.09420906648644 0 0
-208.136636251946 -9.42398817068962 12.5470269543982 0 0
-242.000965753231 -36.1306062967346 -18.3443663060043 0 0
-244.512117170282 -0.466317358828018 4.51252685734911 0 0
-10.7076617903418 -5.58960590933695 -4.56924275233807 0 0
-215.457384203328 -3.4821147650174 21.2882704883199 0 0
-179.064964164068 -15.8843337122893 7.06165004033625 0 0
-139.017100614228 8.34011743135624 13.5683682163463 0 0
-212.746163659781 18.049440399079 -5.13302300428218 0 0
-20.3921576701286 11.1931934412163 0.572422629719541 0 0
-40.4456128919239 20.0772319710083 -14.3887722408894 0 0
-40.6150487582633 -6.61380352588525 -18.3709182984064 0 0
-99.6149706654913 -2.64326080031165 -17.0649772224056 0 0
-244.565004052237 -5.23827214148128 -21.7285039992606 0 0
-199.666771383722 21.8003997171521 -2.38697600075268 0 0
-238.382213446307 -9.15770465031662 -20.741186611701 0 0
-239.250576911568 6.72047103509622 29.384734309219 0 0
-215.810275064002 28.463570140837 24.192670301047 0 0
-183.166354857363 3.33340096423383 19.5858592254536 0 0
-222.337660682095 -7.43138471432233 -11.5158093547135 0 0
-65.4529616274238 17.7636646323529 -2.72970446153281 0 0
-66.8383596966559 -2.83018665684357 3.9994044585051 0 0
-173.651626985268 -7.3176449470366 -2.59805605392823 0 0
-236.459341449239 21.3684953302328 -9.18263106836777 0 0
-21.7079437733054 -5.2015544710213 -4.03937191536064 0 0
-192.227574370682 -22.4815383586249 3.74194442948839 0 0
-209.922674202335 24.941045371109 25.1372446535971 0 0
-239.096671315347 25.3129985940565 23.7543962502573 0 0
-214.896683300647 -8.89229955604048 11.5925212977987 0 0
-207.257097447207 -13.7124468599003 8.87117626805898 0 0
-84.7741966721208 -4.91102979689774 -0.587295354987909 0 0
-272.550747848812 -29.6981324153627 -5.88026717889761 0 0
-250.117385272224 8.65754646462499 16.6981455496837 0 0
-124.289771275721 -0.244493630741444 9.19090632131638 0 0
-202.102087169811 28.3298658737113 7.12299564648751 0 0
-116.249727097721 21.0971430968475 -5.81723249965076 0 0
-41.2595740093889 -4.96670719014942 -2.62577350340879 0 0
-114.852025372701 20.5870224982993 -8.96077398793016 0 0
-37.5974005021824 1.20950869717963 5.63925582150058 0 0
-230.070795720348 -9.85662502039335 11.4077451944736 0 0
-28.0996878650802 1.93149872174941 -27.2580145122381 0 0
-240.99307399384 -38.5774845984999 -13.0839668166312 0 0
-154.12610535249 17.6200546685553 13.5373315193138 0 0
-58.2385170007795 -4.6002294323404 -1.75384012782838 0 0
-207.910634064966 28.7484729456192 3.18057331480387 0 0
-222.760692006786 -1.49410961870512 23.8085657672324 0 0
-61.2376402627632 -5.97647689672923 -13.9976033383791 0 0
-267.816849991056 -33.3001867366499 3.20017251765341 0 0
-247.474431603262 25.9497814158441 9.85912784263696 0 0
-237.53961086992 -11.2796074666487 12.4039358597616 0 0
-266.912520781842 -12.4911684029135 -22.3472375926524 0 0
-48.0382012345823 17.8517875776274 -5.22973405804921 0 0
-245.008842528058 -41.0680091734801 -0.624369478576285 0 0
-240.147085160146 30.7041481202994 8.27714736522254 0 0
-106.325188577234 11.505767036518 9.07294897032834 0 0
-158.435061306452 4.04125296086954 15.7180822166344 0 0
-49.6771337388221 -6.1649686226893 -10.4970032341388 0 0
-156.932499807379 6.91556920977218 16.9645414489969 0 0
-21.646736644984 -1.45536217891317 -26.8138930917258 0 0
-255.212505671212 1.68488787380741 -15.5524194390574 0 0
-65.9498939585551 1.29112869229166 6.29833927976636 0 0
-91.8661124563224 -4.14837089969219 3.9330198173691 0 0
-53.3328328796619 19.2909593802032 -17.4391817745183 0 0
-258.373568278795 -40.3767301060327 -1.21252785339568 0 0
-99.1775219335524 2.8794502133951 8.81583275955043 0 0
-224.192689830013 -0.762263874707518 24.4445153727219 0 0
-137.528561633468 11.2766389395017 12.829286225542 0 0
-257.255822175654 -2.2591463676866 -20.9886613306962 0 0
-194.757245123131 -7.30612889165446 -2.64454854474806 0 0
-271.928426465624 -30.184093260789 -1.24968372701891 0 0
-59.8501798362649 1.65411712964329 5.97194815672876 0 0
-196.904905761857 -6.40335711229231 -4.20119279880945 0 0
-197.104379602933 2.40508328902252 -9.2216310595199 0 0
-231.589085771646 -10.2543348936936 -15.4250658296217 0 0
-236.793607999471 13.0579473675515 31.6185174117939 0 0
-36.7469458159071 -1.2363394880251 4.87266018172677 0 0
-2.73329255728345 -3.34064906596531 1.27043884057384 1 0
-120.675039093557 5.04454484814444 11.8048320815783 0 0
-267.905660886861 -34.6058290251049 -11.4479026573931 0 0
-252.105621862666 16.0520919477277 13.6472684636961 0 0
-256.902954098405 -21.0628468403192 -28.5527224713436 0 0
-239.594704576858 27.1680655751071 -0.87294396475489 0 0
-222.015055188347 1.74940236111563 18.3081799598084 0 0
-89.2546912524415 -4.86559097168333 -12.2772477960801 0 0
-248.332388696971 14.1568510386185 26.0828466445639 0 0
-271.258014269124 -16.3973303254562 -18.9415724225123 0 0
-246.669632773946 22.9396497702878 1.00107343172191 0 0
-30.424712193017 0.930619157100881 5.58694428593353 0 0
-264.850571782157 -25.7059583054916 -24.233672915623 0 0
-81.1256851204574 1.635290221319 -23.6637934918403 0 0
-15.6392704455172 10.8845021221382 0.857532071760472 0 0
-246.333571206291 -21.9516189436741 16.8393859101364 0 0
-233.989025991818 10.5457844164102 15.4629186871457 0 0
-196.138777729036 14.2282801577538 -6.67044394675078 0 0
-207.943705449543 -5.27516388482861 15.1532110005788 0 0
-258.276677447277 -38.6570838293214 5.28998463451055 0 0
-91.3333125202993 2.15964503051741 7.96034185271173 0 0
-180.053146154517 -9.05668139491876 0.265687544058424 0 0
-89.1663167011033 16.1362605556409 3.29987360051478 0 0
-85.6491071846807 12.875948411957 4.87285103591042 0 0
-222.602810895503 7.29625245794175 32.4234038098785 0 0
-229.744386912608 8.53583443197253 15.9167989064088 0 0
-212.043894245055 -4.56506354658531 17.9319405920709 0 0
-43.560549418388 -1.26065733832114 -25.6602572917382 0 0
-211.799189355368 4.109090250027 29.3197557134691 0 0
-228.531027952186 19.930556716875 -7.19931071682743 0 0
-130.320099080217 -5.21415766752948 4.19441524419207 0 0
-238.381256977249 -16.3777640992742 12.707354094879 0 0
-124.373500576339 16.2101329050625 10.4995949931015 0 0
-107.536314027152 20.958388266964 -5.39252466940381 0 0
-205.499818196665 -12.8076686781119 11.2685484195505 0 0
-71.8184338957633 -5.45408257441727 -14.509167727775 0 0
-231.350420959101 2.53002198761973 25.6588520868022 0 0
-93.4016954176583 -3.24608641477964 -17.1902754446491 0 0
-42.2081032433776 -5.85555932348894 -20.5391934486054 0 0
-229.933989567137 24.3806287526926 -3.7147973926934 0 0
-241.881250331144 20.9406403664947 27.9364131635343 0 0
-188.287730737134 3.98960020476127 21.0018286558205 0 0
-66.5607568532432 -0.646591930713306 5.10498058885777 0 0
-209.599087753456 4.16712770526868 28.6884781127 0 0
-89.5148771813975 11.1198094279689 6.41202639449019 0 0
-255.310933749072 -21.8537600741171 17.1698617285089 0 0
-127.060083047414 19.7580599992397 -10.3824230952644 0 0
-112.522087001437 -4.00530671629099 -10.1214670614573 0 0
-175.390366360591 -9.51644555333424 12.434169256147 0 0
-238.703660693368 -27.4470479399063 12.0200210687226 0 0
-84.5462552241694 20.2612445602576 -13.4889141786848 0 0
-242.348171829842 9.31985570324994 -6.88606436770239 0 0
-235.197382111024 -18.495283440184 -21.4717475273197 0 0
-239.784362460221 -9.71180670863338 12.5219605226725 0 0
-220.387281810554 -14.4190363893437 6.53271744920193 0 0
-147.160862384111 6.61626417927715 15.3870737570169 0 0
-147.328691688019 14.4487182627347 14.403699403049 0 0
-32.554109631979 7.1548557137884 3.03327034886015 0 0
-14.6234666198308 18.951495188544 -17.0834125950048 0 0
-136.695705664963 -5.7422506167408 0.625982056307734 0 0
-218.002300294776 25.199316947046 26.7676020001924 0 0
-245.456914531629 20.715108586322 25.6054383068008 0 0
-208.486649516415 26.2079384382997 0.56506632978237 0 0
-174.530512951864 16.5647545555591 -7.05254002455214 0 0
-252.054260610118 -28.9764059132936 15.4485730649008 0 0
-86.3282618723892 4.80979525235186 8.28925414556004 0 0
-131.230759268147 8.68525934257466 -18.1932456984461 0 0
-2.9297623895817 1.46556567590255 -27.5828980693218 1 0
-217.647200713953 18.7588799957459 -5.25032927746935 0 0
-203.786126613285 -7.1123059740699 14.9822359647796 0 0
-254.468700994102 -40.1928828161024 4.16114082239458 0 0
-198.885850348348 -11.9321214351197 -0.465731581241912 0 0
-210.500294074596 9.03398442384594 -8.29278662008214 0 0
-254.111300559516 3.00689907562262 -4.20972953024286 0 0
-215.629265780642 -13.5132161366843 -4.62244302218186 0 0
-189.245808557675 -5.63307105489795 -6.2265238595251 0 0
-271.245586504926 -13.0621009564184 6.2541817397745 0 0
-225.408912067227 31.2828951165042 21.1890363031025 0 0
-245.618318821033 18.2518143659978 2.95170937738292 0 0
-242.740186738628 -26.871880125773 14.5832363040638 0 0
-261.009945459135 1.35809842313871 -3.426242948203 0 0
-130.806569343118 0.762544002074511 10.4859091742799 0 0
-177.721200540113 -14.3362302184306 4.72246622698714 0 0
-114.080893092159 16.2949525831991 -17.2137222911363 0 0
-275.035405245206 -23.3604726143355 -5.15754065604472 0 0
-164.848024873897 12.083892742084 17.4408033249099 0 0
-229.986508240265 32.8502364293169 17.6567589402667 0 0
-175.784770455023 4.37253557237953 18.2459465344716 0 0
-231.361104788182 -22.7430366016434 -13.1402875294305 0 0
-192.845495076615 24.8350960554808 13.1072334465512 0 0
-178.453471525052 11.2495902143668 19.7012310161277 0 0
-232.705562601367 10.682208058358 31.8403869853612 0 0
-238.053303746411 3.81138728564665 25.6468625750966 0 0
-80.3678812996266 2.47945244132068 7.52781504812756 0 0
-63.3845716066869 18.2402496056143 -19.1953939961034 0 0
-252.967916069319 -30.4558657041138 -25.8770573647123 0 0
-222.243519698959 -3.08222743424762 15.2268769873431 0 0
-34.866435884254 -7.001274966294 -18.1149477359876 0 0
-235.629476667626 27.7239035041267 21.5824109967701 0 0
-239.666405000337 -11.2343651637871 -23.5747881395126 0 0
-33.5657307397193 -6.1670583117653 -8.27608573492095 0 0
-227.062722476068 35.5625360940237 14.0940134964264 0 0
-47.8245387233153 11.492589433277 1.11249348027447 0 0
-159.180461623672 7.18554738180641 17.2640824939768 0 0
-31.9514434056389 16.088779619056 -3.84966495351143 0 0
-210.587827175732 6.19118968158873 29.397836046247 0 0
-16.5161890642472 -6.88971575986614 -22.7156214603327 0 0
-260.795677198569 -39.6657075392605 -0.977497784604043 0 0
-141.292455126839 6.53501524402164 14.5554237434914 0 0
-38.8897042851281 9.05554873995875 2.31631461419031 0 0
-154.126729012437 -7.55374148305592 1.59734458865188 0 0
-146.360811713762 -2.16274326013571 -10.1309743825594 0 0
-184.476558837487 -6.72490747476283 16.8294307583759 0 0
-207.575834832117 23.3840847730083 24.1496790423548 0 0
-208.080784833116 -3.6797800304077 -9.21252842214414 0 0
-237.993011808242 6.28406250366882 -10.9139020980856 0 0
-8.21274838891275 -3.68035695679001 -0.0526231977216117 0 0
-188.564120332656 22.3257935843898 -0.479708408999259 0 0
-237.81451837154 -30.7727715496782 7.94904341273138 0 0
-230.321680545818 -12.1896967735255 -14.7237787670074 0 0
-127.291108499533 -5.2779058595586 1.26390806930354 0 0
-235.80216511507 19.8057641202833 29.852003165408 0 0
-247.516089704509 1.50020232791236 1.7175994528607 0 0
-113.085639272805 21.0316634770149 -5.91075361735942 0 0
-240.699348450192 -3.64852153942316 10.3557771961122 0 0
-249.021932792107 16.6209988363566 10.4188093966181 0 0
-221.056312281056 -1.97375720091247 23.0489230089219 0 0
-233.890842465349 10.3476383178526 -10.8699134249976 0 0
-211.349284906606 15.7283328686568 -5.9719711235264 0 0
-33.6636026674947 18.27936616215 -19.2648419680441 0 0
-219.96096561754 -2.61053240595974 24.2689395461295 0 0
-93.8904274699081 0.316202490955124 -21.5198909362923 0 0
-180.902802602185 0.00327423771210316 -9.29764692544358 0 0
-214.594601228403 -3.16389958708272 24.6062388767898 0 0
-25.6932973682114 1.59981801567218 -27.2836168450982 0 0
-216.37196120465 -5.10723861411922 -9.67582367159399 0 0
-225.694147391144 -18.9238797620054 -4.0011336020946 0 0
-230.9807694894 -7.33719038827123 -15.0895426397328 0 0
-188.285287191234 19.5851042311654 18.0298119923753 0 0
-199.460587501193 -10.9291998502495 15.0557064242466 0 0
-270.928600731804 -5.42514703289844 -4.05899814137059 0 0
-188.540919452091 20.0621110571662 -3.35508422962062 0 0
-263.53179162581 -3.01705009157501 -18.1456934228637 0 0
-246.238785595304 -10.7929408762571 13.4898170680971 0 0
-215.222849195718 -0.450554392276438 27.3667466814365 0 0
-265.714764574736 -34.0853577357202 5.06018748001195 0 0
-238.033508199473 3.66159326961449 23.2768575814436 0 0
-242.194133110685 -12.5130551942053 13.5007487006889 0 0
-117.861419504404 19.0132243216919 6.49138342489259 0 0
-92.6206592781835 14.9514289252622 -20.5353492680517 0 0
-199.020503427719 -9.39774495481609 18.0992644577164 0 0
-247.66717843069 -2.24029784544255 4.60168639392009 0 0
-205.457891575272 -2.63189952048661 23.8598137401825 0 0
-97.3877069845113 -5.04651356531553 -5.29595939055429 0 0
-232.407366659246 28.9763080229305 -0.955000755473548 0 0
-267.476734277266 -35.8794160811819 -7.13074900036152 0 0
-187.241195096725 23.8013214745227 2.32480594370766 0 0
-140.229558492853 -4.57505158721047 -5.08894246419859 0 0
-233.004101792975 -25.618548369569 -16.1201311715056 0 0
-130.755649011619 -5.44650435742758 0.752335073224997 0 0
-7.10119541449068 15.6583044082567 -3.46570326589061 0 0
-103.770880812167 -2.9539202979355 5.79063342273733 0 0
-209.520301744611 -10.4810381556366 -4.55687864739432 0 0
-5.4610359833697 17.5337170544016 -6.43331574491382 0 0
-198.835143334468 -4.03348482979954 21.6770953271458 0 0
-252.048118990962 -4.98876663319222 5.91925214601941 0 0
-34.0394023327191 14.5832619781533 -2.18699983774114 0 0
-96.1390101699382 -2.73811282480165 5.365441981307 0 0
-86.3705369791044 1.12122271354942 -22.8734390010624 0 0
-240.592320947318 4.001311643591 5.61589471408793 0 0
-267.037006006916 -36.325380313955 -4.89302825829325 0 0
-209.336750812357 -15.8964843555025 2.65997401829624 0 0
-127.905489192844 -5.04227444093346 -2.1763626128631 0 0
-69.8087295046813 20.4542561503345 -8.27165082755464 0 0
-202.829678438036 -17.8166546596103 8.40965941073501 0 0
-101.312862264598 1.85083088142383 8.19616484149957 0 0
-59.7868225532863 3.80898142402621 6.11120559765418 0 0
-225.581690327909 23.7381462724432 -3.59511992312354 0 0
-271.146721993856 -26.4105757856202 -17.4810076473257 0 0
-153.961615119156 21.7679637673296 7.04521733232646 0 0
-179.96138205654 -13.4445154268092 2.80240378377018 0 0
-209.231106290722 32.357061969845 14.5718212577571 0 0
-231.588701470086 25.7726176331735 26.0115317034266 0 0
-254.699971437252 -37.7092238789165 -18.7629558098185 0 0
-247.129966225409 -42.2580499419699 -7.24853423898008 0 0
-49.2846552498939 10.8451177657322 -25.5482492556353 0 0
-223.256773765969 -10.138732036108 10.4223594076991 0 0
-223.989242082134 -8.24864504872997 11.4414388668005 0 0
-266.058607004346 -3.69623176827016 4.54700929234716 0 0
-38.3087655393365 7.54232560771222 -26.6935953561327 0 0
-58.1264337337546 15.4969369243125 -1.22741171342501 0 0
-243.477369768561 12.7117119641259 2.9200077584179 0 0
-267.943152613996 -2.58550668568866 -10.119449771895 0 0
-142.585615674664 21.4446031680041 -4.25426461094953 0 0
-169.70504577027 12.8023269015655 18.1023411943223 0 0
-138.90657345254 6.90377596360777 14.1946996826962 0 0
-49.9897805560283 16.0727838724722 -2.80618593160391 0 0
-184.521692447804 -11.5334302299241 1.28621067578315 0 0
-253.906719591967 -22.0014481500519 -28.8487147183093 0 0
-193.584588129256 -20.0740731928418 0.0349269957031899 0 0
-205.535794483629 -4.81488800541519 -8.42194065300528 0 0
-17.6414767230513 0.0404265198258907 -27.3630718857654 0 0
-266.518955135072 -3.11521890303038 -14.539837813104 0 0
-1.40450066559302 -9.04306507416623 -19.5282015838701 1 0
-138.436939692068 19.3325668252877 9.64636341217103 0 0
-1.93767449466963 -5.11722712930961 -25.7018845384656 1 0
-42.3575488048758 0.851805023167194 5.5154512216581 0 0
-249.42658073544 -41.1917345206254 -13.2940852584432 0 0
-234.963237128779 10.6945293063573 31.5880910942028 0 0
-254.513445699525 -1.94073223298867 3.59525185710693 0 0
-110.781269587009 -2.23177551827759 -15.5120332182298 0 0
-130.238825474598 21.6619353109293 -0.00171210183930272 0 0
-270.341772050648 -13.1030036191267 -18.9983571063399 0 0
-250.474414035319 13.5980223842253 13.7237133127823 0 0
-58.2419908470086 19.3767998816106 -6.85539590367689 0 0
-222.369822787196 9.72813523620906 32.3835958517914 0 0
-241.156721958157 -14.1911380874633 13.3005347027895 0 0
-124.149656007593 -2.45629525142264 7.75185654198342 0 0
-234.786203662514 16.0358518941691 31.2954443849542 0 0
-145.653388511962 -4.1013633381184 -6.37009115920721 0 0
-185.920823065441 -20.5564217332694 3.04498652901861 0 0
-24.7710652133516 19.4662690706134 -15.5429406403636 0 0
-145.3933807011 20.892276291193 -5.27457976404866 0 0
-188.681125191687 0.809546946630521 20.6155260254569 0 0
-96.067269917878 11.6654747142225 -21.9314189672727 0 0
-128.962727304527 -2.61197764300342 -11.4311368798182 0 0
-74.7534282890093 6.72896767018285 6.17740310266497 0 0
-40.8632585569755 17.4349390291031 -20.6481424320779 0 0
-233.173022493149 26.2027678296896 -4.19402806143906 0 0
-54.1861697060335 6.06138669698346 4.83333763323526 0 0
-230.420056688491 -21.6723337393186 -11.4351630254915 0 0
-119.572678837906 -3.1049778552852 -11.8336453373529 0 0
-49.4879873476232 1.39670294981104 5.42190761185286 0 0
-234.797843855499 13.4886468411595 -10.5902828168378 0 0
-108.660007366819 -4.99732516216005 -1.09531746152166 0 0
-19.5196828450233 -5.82938617012842 -5.87987935751628 0 0
-210.77591835583 29.9743816092668 3.03125908349936 0 0
-233.091545880676 -2.91712090739223 -14.6123153423855 0 0
-161.630847256497 -8.7820332629386 0.296736596088457 0 0
-243.551429273372 13.9801003780268 29.9357409561371 0 0
-127.375044784924 18.311199686136 9.24096846330569 0 0
-227.495515064761 33.1332505052443 18.7608287980341 0 0
-36.7993672391873 -6.07349729053826 -21.0738490913677 0 0
-149.22172723892 9.95525432443421 15.0180456027957 0 0
-176.782292240967 -7.47356715905636 -1.62145176961921 0 0
-212.41647534169 -11.6261615787663 -5.03690246957835 0 0
-242.139825357089 4.52584441055321 28.3936602540264 0 0
-173.789084047216 11.2333878191987 -10.6635195153405 0 0
-147.658788702916 21.857270427748 -2.53546651402192 0 0
