"x" "y" "z" "f" "a"
7.42288904855704 -6.14433612179904 -0.17695614186499 0 0
-195.05744342973 14.6856098912482 13.5227881041424 0 0
58.5198463740416 -0.961108760616663 1.0446732549429 0 0
-194.545078496933 49.5525396970959 18.2498685297976 0 0
-83.772327897121 -19.1458209325368 -8.6661971417446 0 0
-178.73108399895 15.2567963598422 8.91505226917681 0 0
-135.773426696587 3.58771055397346 0.937593863206089 0 0
-149.70472635857 -23.5054070927913 4.45553529123344 0 0
74.1257813483284 -6.37656511760877 -1.01391003991986 0 0
-180.858199298384 11.3674688063855 10.1857888110381 0 0
-177.248408189615 -31.9590947364362 1.91486602561011 0 0
-21.5121279973151 -15.0258140481442 23.6611592596117 0 0
-207.92889849078 19.2592056362877 -0.858588871401331 0 0
-161.76782587782 2.79621997439107 -18.8221323687934 0 0
-181.555498486302 -3.29252613819065 9.83643273075262 0 0
-170.324597154639 5.53896896392109 7.02513810358033 0 0
-201.366820594589 -13.6056246047921 -9.98630935074489 0 0
-2.48844890053802 2.42855096549729 12.9071698397292 0 0
-40.7312273603047 -10.7305968781785 23.0837187062172 0 0
-145.704476446814 8.03801426273941 -16.1376703652593 0 0
33.2261890540915 4.86657509986927 16.206699675732 0 0
-28.6968732418063 -24.1883934095147 5.68323507309428 0 0
-167.264220181597 -25.6975116929108 7.24240662373014 0 0
-11.6661010955254 0.119864087695416 7.76261174958994 0 0
-117.812516434074 -0.304187931886004 -4.85676376884044 0 0
62.2886534752725 6.25951208909128 11.9611147388422 0 0
-200.598796106852 18.1878807037701 -7.41298200095814 0 0
-87.0184038150223 -5.8597176571949 15.5065003566042 0 0
-85.1378318035061 -28.7484671368161 1.04919782279787 0 0
43.806016977935 4.42176207084521 11.0759622510846 0 0
-61.6885261448091 0.069530020619574 12.449367918042 0 0
32.1902479151379 -20.9055005238374 17.8600295283478 0 0
-166.68444666022 -4.05511600294736 -20.6821301546064 0 0
-59.9933128144607 -21.2174652157891 -4.02369657096512 0 0
13.802044657763 -17.2429040792042 4.54259746180273 0 0
-209.232079665299 23.0937028105045 -8.84308016469787 0 0
-84.27013132823 -15.7429177805962 17.0978350801924 0 0
-139.276198987308 -25.5873378464229 2.17304036872008 0 0
-53.2266450169682 -13.1152493411001 -4.15872817393327 0 0
-176.418279198646 32.1372579364406 11.9516350025853 0 0
-67.0960553076535 -15.9059308406844 -5.95476608234815 0 0
-134.485526043095 -26.3283349817211 -12.8105825246148 0 0
33.9266287798798 -1.57296154251442 3.55167384271131 0 0
-163.468870661796 -29.4054531445209 5.2394037204148 0 0
51.7338880113838 3.29306712156324 20.7657797231264 0 0
16.181304882785 -11.6803436238882 -0.568980130441533 0 0
-88.3554708275618 -9.44584726015287 -7.18241863032278 0 0
-190.291696616495 -26.0240801927733 -4.00366652701 0 0
-164.181327176064 -0.603180788912058 7.47309248093497 0 0
-145.43035431849 3.16978692643462 -28.8861390563542 0 0
-175.827069616862 25.2015204086038 5.53521355712811 0 0
-62.6768562186973 -27.8951262535159 9.45740688140437 0 0
40.373675535378 -6.08085294577546 25.147760347709 0 0
-163.50542770027 5.71014211173889 6.27294450882016 0 0
19.881725908025 -20.8158140020228 8.62953319777301 0 0
-143.607627572342 -25.5977335909966 -18.865406706743 0 0
-125.696679525798 -24.7852036604798 4.95730388189835 0 0
-182.853063849793 -31.1992631936472 -6.25010928059866 0 0
-160.603132639697 -0.341727470831477 -21.3815498770204 0 0
-195.044811751456 -10.0271752045254 -25.549006322615 0 0
-168.659026138572 -8.08819116069736 -24.3160219454775 0 0
-168.353782329758 -3.27341163844156 -19.5526364225516 0 0
-159.300252866207 -4.21635564982124 7.07036506450256 0 0
-115.553576788464 -14.2230942123079 -13.2366583026038 0 0
-108.433447048104 -3.01842846213098 10.6839240250673 0 0
-58.7781491684522 -11.5966534629239 -4.31553307107421 0 0
34.0787456881779 1.75019495211054 7.47763700361367 0 0
-137.607327600191 -6.65943383362095 9.3128597121374 0 0
-32.369044944711 -10.2655477153156 23.6030795486479 0 0
-180.061357155221 26.3591233729849 15.0708598817863 0 0
-137.853300317458 -22.7772989553839 5.61124992907944 0 0
-174.887828548515 38.9161043533557 11.044542486644 0 0
-180.335151871576 -19.2146622880281 -25.3279624197313 0 0
-77.7740856203466 -6.10344035056098 -2.84388205775584 0 0
-201.860421809478 -18.6675334357534 -9.99754175968864 0 0
-171.230551376505 -5.88538762224958 -19.1268545950137 0 0
-191.362055779715 31.618618778198 24.5498833480672 0 0
-113.262579121684 -0.61751984294738 -4.6994748908095 0 0
-176.369157037143 46.1415314049308 7.22783672109258 0 0
-46.1164205077069 -13.1211897068035 -3.67978932280375 0 0
-139.044787824696 -27.7102821348257 -2.37790734799931 0 0
-121.211733030828 -12.2381746966009 11.3803873130633 0 0
-190.454618481268 46.6235863426618 20.2142807278019 0 0
-40.4360100541766 -19.3037690027255 20.817249476121 0 0
-194.64284773311 12.3948285960291 10.8543563591893 0 0
-159.38813354459 -30.7125471238542 -11.7251315523319 0 0
-168.698580043026 17.5993426120114 -0.175858678777891 0 0
-78.5595550710629 -1.36651509482626 12.5407414589973 0 0
-202.13259893252 23.7057035866013 -15.3915457341947 0 0
-52.7984360894161 -25.1304911940245 0.681064699315766 0 0
-24.2391161016932 -10.4762464487055 24.1403554238468 0 0
-181.213497131414 -32.723893136959 -6.48810771936191 0 0
85.0157135865138 1.15926966319304 2.52532959789602 1 0
-181.122525658245 49.064901715599 -6.15394814834178 0 0
-49.7624125263442 -26.9661537296848 3.48808434578541 0 0
-109.577011328269 -16.6866991626372 -12.4983188188738 0 0
-113.950638125705 1.91979393248174 5.51669957497116 0 0
-184.31894417766 -30.8922852990712 -2.59929566434336 0 0
-92.8023207285778 -25.4892271757624 8.90588323281454 0 0
29.7592367573396 -15.6490994483182 3.9436796585472 0 0
-38.4994144624823 -26.6089189590048 12.8440418750032 0 0
-122.803300249379 0.906130816939364 7.00675139679681 0 0
-33.6483672515924 -16.917433739876 22.4698155403767 0 0
18.5387606875894 -22.2233909902779 11.2216612402481 0 0
-83.2015419411957 -28.3230180082087 5.87235067175354 0 0
-128.058575177264 0.0202137213244437 7.826365355681 0 0
-162.975346062228 -16.3035459894356 -26.9085352792675 0 0
-191.623720691364 25.2753607078878 -17.1350566554404 0 0
-172.699200072319 -30.4850638475815 -15.2478117367072 0 0
-179.944381024315 49.77408020739 2.32620197349984 0 0
-173.059238677298 -5.70591205982047 -19.332363486903 0 0
-184.776214559267 26.5837423873515 -12.5201574805068 0 0
-9.4827563047917 -16.2854617147533 1.76203128213102 0 0
-195.809699757428 -22.7477937168697 -9.26837386208679 0 0
-193.838077799729 2.49376653707282 -4.18229468834865 0 0
-145.446302335915 -15.4731266991533 -22.2533883851632 0 0
-181.6049508548 -2.15576008224149 -12.5227014420558 0 0
-176.941724899123 -6.10153180532971 -17.8927611525579 0 0
-133.675028233309 -17.0621923848823 8.58490558814969 0 0
-202.94238080711 15.5034921323694 7.48223940593584 0 0
-191.000842607516 -23.3506619905957 5.17901312579228 0 0
-116.316876292317 -20.0086291471171 -14.4378433770707 0 0
-212.47504884287 21.991676975565 2.85118964225243 0 0
-96.4600046467919 -5.20215528312021 -5.69715741142793 0 0
-178.633178983088 -11.0597041382783 -24.6731026112716 0 0
32.4111057427446 -17.6119563418679 5.64745399631339 0 0
50.1043774122948 5.95038236670102 15.4604811903734 0 0
-167.425920901484 -12.833990989501 6.90041623630812 0 0
-185.403016148448 33.3513125454242 23.0604337514443 0 0
-198.002663521114 -9.70821174543736 3.4930013655264 0 0
-190.444614860825 36.4748803997212 24.2546996157112 0 0
-183.343812632259 36.1713611519612 -15.2321428203694 0 0
-163.939919253897 -33.2449986814362 -3.06223726120634 0 0
45.5901051196177 -3.27643592710922 0.324803069881718 0 0
-33.5337109174352 -12.2313264969119 23.5686965729224 0 0
-163.747628348395 7.91849155901624 -14.7582078271413 0 0
-135.74199185717 2.15986099004429 -21.9788866288845 0 0
-182.810960822644 37.2375520837714 21.2425793975617 0 0
-178.86947228993 -19.5493684495912 8.43214729568702 0 0
-111.24629407985 -1.24205980505983 -4.85681106992611 0 0
-171.502066514508 2.17694882634773 -15.7357233636259 0 0
-117.067334953812 -5.09635403550406 -9.7863399589255 0 0
-207.136116037092 43.9209825216395 -12.3955655310537 0 0
-178.63941139182 31.7826080869217 15.6868242711316 0 0
-85.6754061444401 -13.280339460456 -7.97982783658483 0 0
-119.756527471829 -19.9833293055594 -15.3703379148405 0 0
-190.651070153952 -25.4734357683295 3.00584776523208 0 0
-150.135164857338 8.20962373849315 -17.9676542892925 0 0
-33.6721863622306 -26.8704140455938 11.6079266327277 0 0
-132.071173910544 -1.99837658697596 8.88433006283758 0 0
-167.931999816778 -30.2183984830786 5.82472854387257 0 0
-72.6616183052743 -25.5149418020254 11.9937010433262 0 0
-106.048735807787 1.00611694867264 1.88215072215133 0 0
-134.352382833389 -19.6092229573586 7.66815701306181 0 0
-194.312162948805 -23.482749650373 -7.14418891428604 0 0
-59.3277585611799 -1.21733354853327 14.7418749565117 0 0
-51.9693590781142 -19.690488081099 19.616684109331 0 0
-109.100778392889 -16.7199236592953 12.3861298429946 0 0
-92.5078992564047 -0.776934539708031 -0.0297351813818861 0 0
-60.9456530077905 -13.0519249536646 -4.73589173111231 0 0
-68.8631149106014 0.634479933316179 7.64814928930501 0 0
25.4106532912561 1.46979215612057 7.954507802945 0 0
-155.284259316991 2.56147595981251 6.73281934692331 0 0
-170.465200809775 -7.3728701960417 -22.5290053650171 0 0
-159.225650653044 -3.34799833875688 -23.9056217372243 0 0
-192.146287897354 34.5512645355506 -19.4512488386241 0 0
-140.788546880387 -1.82501816408007 8.11183401877917 0 0
16.853471980299 -9.69916591267286 -1.30425589771995 0 0
-200.84614525574 24.8992639770609 -16.5458285889063 0 0
-19.7812705768776 -20.3567292313685 3.73353252701851 0 0
-125.767488519002 0.584969758424623 -5.4563842293166 0 0
-1.5662566242333 -21.1831699941473 6.91991671648246 0 0
27.8222261183038 -6.03870750812833 24.9728843976492 0 0
-196.454774440349 -8.38251208547094 3.71046487314323 0 0
76.8379367079742 -8.26856155640666 -1.38048450061942 0 0
-189.240893219335 10.7350090323244 10.7796118217036 0 0
-128.061663414527 -24.7813509514302 -13.9096544746216 0 0
-189.824705875571 27.3312932199371 23.4929530958525 0 0
-206.242965063079 17.2822188902223 1.82694838452401 0 0
55.0069145995238 1.2987260080863 22.455968371872 0 0
38.7418920168314 -14.1089246166185 3.13072019329151 0 0
-201.104204764401 -14.8576774098258 -10.874909919034 0 0
-28.5933532407391 -2.74490996671961 20.1488884268834 0 0
-77.8216580849418 -15.0237203607707 18.3339361476433 0 0
-148.986279226667 -29.0686839919247 -8.7146996934486 0 0
-38.8771327374869 -24.8822831955926 15.6243406458339 0 0
-202.371800847168 -15.2290698977575 -6.49822732285825 0 0
2.14577617000088 -7.77661885517016 -1.16229877964592 0 0
-195.631580238067 -6.65367479877873 -22.8826416386295 0 0
57.2945796859025 -16.316371070123 5.00217959538598 0 0
87.4758034300488 -3.88302015680802 -0.048310633751686 1 0
-177.310397071949 37.3153398128708 16.3679477263889 0 0
-169.935414365692 18.8908684865962 -1.05540242439205 0 0
-26.1086453560331 -15.3475311726092 23.3158752197427 0 0
-194.797397505752 -7.03163138502256 -24.1741801613433 0 0
5.81308620149718 -16.0437690691999 24.1339523824185 0 0
-86.7545150634792 -20.887081524045 -7.79704331834654 0 0
-167.405029938145 -6.87781069425752 -23.1796304916075 0 0
-160.561153860911 -6.84696585407045 -23.9498147676688 0 0
-198.803334039859 -11.779952893045 -23.3917841340377 0 0
-39.6791488929851 -14.650278774647 22.9365386065861 0 0
-167.638635399986 -26.748952980857 -21.419352182797 0 0
-148.6725320335 -26.4360008251677 -17.9435797030109 0 0
-173.526513669162 -21.3902408457155 8.2933833978573 0 0
-174.891990602475 40.8069324029913 10.6932656701149 0 0
-182.408617774906 -26.5034237187798 4.14194526295173 0 0
-183.781608184192 14.2090894800503 -12.099652927654 0 0
63.5587948877545 -4.39676974010126 24.7072252013906 0 0
-173.755767476254 -34.6099070445384 -3.80847942683772 0 0
-199.469449805927 52.6438070797419 -3.15894450741322 0 0
87.525283955076 -12.3590532272793 22.9090171994652 1 0
-189.316243232677 -27.7045516306865 -8.10199266519175 0 0
-121.395844503998 -26.1550952759764 3.47522481673958 0 0
-196.012934658352 34.6209072198652 24.6754795017665 0 0
-210.814076808994 22.0161830893538 -3.4755749420664 0 0
-80.6418674940588 -15.4066114462074 -7.80658008283272 0 0
-112.389260261518 -27.8058838816193 -4.37683554566747 0 0
-71.8595151680801 -28.3972567702717 7.04984092558894 0 0
52.9683751625371 -19.869410227385 16.404876351651 0 0
-180.94270967901 40.8559965222499 -13.5566638887209 0 0
-85.2501303589358 -20.0292968842303 -8.02739803034685 0 0
-151.357506595306 -20.5447789758229 5.9203134959506 0 0
26.2234438266762 3.45376872561125 10.8442195374353 0 0
-66.9246564894469 -11.9502293169014 20.4471926989995 0 0
-35.4135958188044 0.909745639163846 11.1168002099873 0 0
62.6126821931651 -6.75951946065873 -1.06160877536367 0 0
4.77544341975458 -4.25420423124435 23.74021459704 0 0
-138.101252130767 -15.0686487846471 -19.4776142149281 0 0
-196.281007384875 16.57974175039 15.3248744149352 0 0
15.4931226508194 -13.6106432268214 1.25998873974365 0 0
-166.939572614076 -33.3706359772602 1.23280086156903 0 0
-36.9398409992334 -9.1072057047129 -1.54996851019531 0 0
-189.812770199704 39.3709702901557 23.5235783538918 0 0
-169.84889799527 1.64756602405571 -16.4061751044156 0 0
-142.736751565218 4.2669969481495 -5.88676634854804 0 0
-166.274894414118 -1.00916322997209 7.60263124611476 0 0
-137.376337995817 6.04657603122016 -21.1756129958725 0 0
-193.978488268466 5.54287189259868 4.5033472126735 0 0
-172.104854688418 -15.2964789002241 -27.1279940317935 0 0
19.0984541575743 -5.29430468586814 24.629786785317 0 0
-179.846398812894 -6.63668643504032 -13.4999594224513 0 0
-184.151387078297 51.0393170067046 -5.42418475025614 0 0
37.0759208941704 -5.46338164224547 -0.361904216312761 0 0
-108.453259511771 -1.89601058628813 -4.81254188139581 0 0
-189.336258370165 -7.08194259961652 7.55637154935056 0 0
-196.335098568364 19.1803174407966 19.3269597983092 0 0
-180.327108086563 44.9309921881643 -10.931947521237 0 0
-192.498369850489 53.4604522363584 9.24228736571809 0 0
-139.639040932073 -22.5529972696411 -19.03476808029 0 0
-160.902522496116 -4.06699892497641 7.1158905863748 0 0
-138.76311099457 -19.7060917301725 -19.3982230355447 0 0
-54.2311004268424 -12.6898191947253 21.9096138850494 0 0
-135.67930751505 -6.00543938676048 9.60242068262579 0 0
-135.372226349084 -19.082159585871 -18.6655219233504 0 0
-137.059633510949 -26.7918241323137 -12.3951189493988 0 0
-141.170505344849 7.19074286692334 -18.8387748445316 0 0
-31.6060323132399 -24.7048808124776 15.9526658495968 0 0
-162.044326593957 -13.8658908641432 -26.7908282288316 0 0
-171.018757285744 18.8325664551915 -4.48048117046979 0 0
-171.055778561594 -28.7918397873861 -19.2420508514374 0 0
-188.657469952132 -27.3559947336066 -2.25993427127009 0 0
-179.784685324674 30.9444884413085 17.1819824134683 0 0
-66.6743676457348 -28.6181516865259 6.54319800508875 0 0
-159.227520508481 -8.85540214029428 6.89806424169025 0 0
-142.939033842364 8.08298234614282 -22.4212631048179 0 0
-162.567366739059 -7.86451299186736 -25.9130828645846 0 0
-188.245164618228 28.8951311492581 -16.4457467508528 0 0
-176.798400095099 -12.1489115613848 -25.8508867908939 0 0
-176.81715358496 9.8657274466626 8.3042135628359 0 0
-198.049209525831 -14.0381368757739 -23.5098363903617 0 0
-179.152562107785 -21.3717367791908 8.51727080848871 0 0
6.46640216891784 3.1032519745431 12.814577794577 0 0
-142.754329156078 5.22013560006672 -14.3360948192178 0 0
-149.446909212687 8.7279717385039 -16.9447290030373 0 0
-158.019150452125 -31.3455261208024 -5.35942736750102 0 0
77.71480322345 2.26939822460087 3.76363397729019 0 0
-182.107662764347 -24.8287564022718 5.0162292213246 0 0
-200.257069560532 -19.0077197577869 -5.27105151910057 0 0
-182.377960713409 -20.1822097204816 -24.5557345540001 0 0
-73.0645229583009 -6.92676107872482 17.9729283993981 0 0
-64.5513804407113 -5.03691499881478 -0.753488526393785 0 0
-189.112665677155 -18.1257748782497 -24.5199486542942 0 0
-154.992153619153 9.17171722781318 -3.10562194976116 0 0
-91.7684117776793 -8.88191380234779 16.0109701282414 0 0
-65.7188059860375 -9.81283698286343 -4.00655892954093 0 0
-153.1354598219 1.19975458232761 6.99797175483354 0 0
-186.767922784856 -7.45200933144423 -9.65907985223766 0 0
-149.004190336422 -16.5809634111441 7.22785439314531 0 0
-200.523909021121 55.1020179611791 4.22530897090977 0 0
-177.843314169831 29.8067627682326 14.2429295052996 0 0
-182.528025370291 51.6030641250797 3.70642439290503 0 0
82.0547477868514 8.66960707239421 14.9115016938636 0 0
-15.6284806291241 -3.11756336568701 3.75677268583613 0 0
7.76548558306999 -15.7589859191299 24.2846268358162 0 0
-186.094563266021 47.6519050249193 18.100385305198 0 0
-96.7442778743925 -28.2525456870038 2.93516988305238 0 0
-200.022448581432 -15.3181301161396 -16.7168624002324 0 0
-187.387201176199 -23.7721315002838 4.74783801174973 0 0
-171.62428454524 -34.5583083243613 -4.06284464391615 0 0
-201.287676187127 -12.597912371151 -18.8684082956602 0 0
12.6685885728211 -22.803879232725 16.8504608754041 0 0
76.07562524548 -8.27409318490909 24.8178300978729 0 0
-184.83267655959 -19.0967893506696 -24.632722786052 0 0
-6.52569310329766 -13.6392913024215 -0.928014724682064 0 0
-183.981593179653 31.4571951216105 22.2502021229895 0 0
56.6850774755812 -19.3324359541877 17.0825256209946 0 0
-157.334738444768 -12.2079800546169 -25.9359169957915 0 0
-166.790680816065 -33.2577149413502 -9.83318977310248 0 0
52.5449347737362 -0.306185580385469 3.450214328866 0 0
-170.02274943098 -31.0392662753674 5.50209810042446 0 0
-143.280219333471 3.51279340253417 -28.2052112026807 0 0
-88.6968698105388 0.284211064021165 8.41205148963728 0 0
-149.996630110733 -27.237820186777 0.546786049765533 0 0
29.4505278538969 0.113847207085669 5.7330060397388 0 0
-186.897352724676 -9.94809762545449 -23.4633338419539 0 0
-10.1977510635695 -3.41000614000553 22.486857107783 0 0
-194.013828057114 -11.4366918899553 6.40355713687505 0 0
-157.931643457973 7.08730074889544 4.79527592211017 0 0
-194.721940834158 9.85716167536178 -5.94742671992046 0 0
-199.726208080924 21.3273448967178 20.1354437712013 0 0
-199.723978173605 52.5110918880657 1.2599222298267 0 0
-179.751378916209 -31.9507221715269 -12.7952180086201 0 0
-79.8203294432461 0.548347497996257 7.99197045028025 0 0
-138.282540703909 -24.304217379552 4.03470579230058 0 0
55.9653853657913 5.64168733664974 12.0683368164972 0 0
-175.427204939155 19.2496052601586 5.96709917396754 0 0
59.8197102415959 -10.1771723661417 -0.0283862677712934 0 0
-198.344621685976 -20.0112627197543 -2.92562683576864 0 0
-189.508949212076 -9.60354515835464 -20.2313416495698 0 0
-142.378309013619 7.31117319912207 -23.8114495228731 0 0
-182.964441437327 10.6449621400662 -12.3692840424839 0 0
0.85285490799598 2.77588771611349 13.2230956050122 0 0
-103.43754766953 -23.4218872898878 -9.2246073027874 0 0
38.3937884755976 -18.8445986496115 20.3011263478919 0 0
72.1183579447262 -3.17465248189427 24.5837628780185 0 0
-49.5973211756041 -26.6663921352513 12.4771476746339 0 0
-184.167534214763 34.0189433691558 -15.3515925262656 0 0
-199.675374025877 -8.44955416277489 -16.2887914137828 0 0
-183.416093834205 -14.4905531198265 -26.0939467574905 0 0
-85.170427989649 -18.4727760268742 -9.17324215393168 0 0
56.8445604236496 2.12595149033669 22.0078642743854 0 0
-134.917406634498 0.649605916122116 -12.9760345636423 0 0
-166.678974335504 -34.1303751906661 -6.797561577436 0 0
-168.344376671166 -28.5671154860444 -19.6682679371279 0 0
-165.520376030068 -3.16701632326382 7.40295361396692 0 0
-87.1628716407221 -11.2528080584266 -7.76892349812193 0 0
-172.421406874657 -20.1774579903804 -25.9475521364301 0 0
-70.9103212801632 -8.15219890327374 19.0340004172383 0 0
46.3627074025122 1.05897228830921 22.1986385904237 0 0
-192.956130487875 0.729132693977745 -4.70238126748423 0 0
-197.821139018826 13.0607770654073 -4.48778535863546 0 0
-194.950264308209 -2.44111387692319 2.19320012686617 0 0
-159.491318825362 -21.4996359977103 5.67405863561605 0 0
-174.490584810688 35.4015102590972 11.3743295761789 0 0
24.2768798374127 -3.27537856005721 23.9151590694445 0 0
-41.7797297715395 0.374516328055645 14.5517554186564 0 0
-155.262283795986 7.88185260579207 2.46820734044734 0 0
74.0109970312298 -11.6711410164694 23.8286876371909 0 0
-82.4371758222956 -21.7844424476177 -6.63307500827626 0 0
-166.284873970779 -29.1033767623761 -18.9551708755467 0 0
-157.195201725018 5.98910429197713 5.60358064367558 0 0
-197.671341137395 -20.2694502331964 -5.31135019219649 0 0
-203.286270247188 18.5809707594077 14.410348601978 0 0
-153.12436232464 -28.9573247327045 -1.54409446062495 0 0
-39.0516962513306 -11.5685806873161 -2.69977402957802 0 0
70.5058966021488 0.701631747299155 3.12611948468916 0 0
-196.995945078198 -21.7850731544132 -18.4709132952324 0 0
-154.855971294771 -7.74515594259068 -26.1508321597366 0 0
41.4571523246334 -0.39943080009298 22.9109711134635 0 0
-184.643215550687 48.723688553823 16.3684532330031 0 0
-71.0775516599086 -7.43579627216001 -2.97820079666501 0 0
48.1030615250115 -0.951986306662876 23.4251771584694 0 0
-200.97270724109 -10.5691916509071 -19.5138700545479 0 0
-31.8513563078383 -22.3917248388727 3.43697929295461 0 0
-214.395897025635 32.9218829638904 -6.77868505844457 0 0
-101.428843396663 -1.50297464571149 -2.37940976317435 0 0
-171.477798463441 -0.0224933145623422 -16.6508745788264 0 0
52.101987935976 -1.09314184963871 23.5596252520475 0 0
-23.3532494927864 -6.35950213166321 0.786448778225362 0 0
-181.753590385134 -30.3972149367375 -14.6174327297588 0 0
-23.1237202600403 -15.2250757707058 -1.5157863813822 0 0
-205.448573575439 33.2807861125442 -16.1735930909608 0 0
-127.899693912811 -2.94776784536187 -14.4051529728259 0 0
-200.160357716873 52.9572280900961 11.6023334049936 0 0
-23.580031827113 -19.1592410692657 21.8527645910357 0 0
59.0574233794344 -17.4244409330734 6.30022963812888 0 0
-15.8321393809866 -5.81664560514966 1.37861958499469 0 0
-130.643869266697 -7.94362019334784 10.2560768190899 0 0
-132.808213435275 -25.8136988462841 2.41968869388594 0 0
-178.314058527039 -6.97402702384606 -16.150767361947 0 0
-118.192726985691 -18.4024398932255 -15.499032915321 0 0
-191.639814052208 -2.86499403576067 5.44848285858066 0 0
-173.841372328868 -3.60547787955866 -16.8756663222524 0 0
-179.709703275875 -1.11315558966895 -13.3010108053007 0 0
-168.03315633857 16.0305645495458 1.5570114293382 0 0
-34.6866032770552 -9.61451279502054 23.4010184185784 0 0
-120.44972628139 -16.5282755498703 10.6718015288802 0 0
-102.956506658952 -23.3841031270303 9.59284350423299 0 0
-177.549197479128 31.8282673700768 14.1049339182782 0 0
-177.574962235907 47.4634562169527 0.878533733325178 0 0
-47.1168581646724 0.663853855594515 11.1081350846494 0 0
-200.732629202974 26.5502082952425 -17.3815786420542 0 0
-206.808821275226 17.7061650900191 7.39083035879583 0 0
-135.70684628009 -2.75699282924899 -23.0559551634355 0 0
-142.450862474436 -12.6729324056406 -22.1978725404538 0 0
-50.7861039036395 -13.4860112091824 22.2631235330574 0 0
-182.22019809841 -5.58370633728641 -9.87007336142258 0 0
-182.874614724201 -31.4486772317261 -3.83632336591539 0 0
-151.423396243371 6.12712474026436 3.33918542536933 0 0
-102.585069541219 -21.1568865636732 -10.4705837152333 0 0
-180.540841368981 -30.772139381741 2.78817559281152 0 0
-198.464933304129 -22.0853326498241 -16.2183557782043 0 0
-13.3654726584664 1.21165071765327 9.63603594723021 0 0
42.0442484764123 1.65320707465412 21.5825791900388 0 0
-185.03125218123 10.5417467918991 10.8663482172492 0 0
-203.895502784601 16.787659409674 10.370495145464 0 0
65.0663527885255 -7.43996468898822 24.9033750036132 0 0
37.1492887204693 -12.1307271680922 1.64559427245271 0 0
41.8185246537645 3.37806905081467 9.36037633309819 0 0
45.0349696744319 -3.69809567868524 24.5059311558041 0 0
-195.482643001559 -21.84836187574 -0.337254446924826 0 0
-180.820349718751 17.6251748609731 10.8433101321788 0 0
-175.298318959044 -11.0376290235673 -25.1556767168305 0 0
-59.0263174948059 -21.7256189181983 17.2581485918802 0 0
-115.542588420938 -8.30656749336869 12.2224801024555 0 0
-192.049485840047 4.88357157799014 -6.82567183376867 0 0
-200.567890194052 16.818768118718 -5.41946057791859 0 0
-168.425105747744 -28.7367934568282 6.92021635006583 0 0
-96.8931056905655 -8.61482015213825 15.2319667317868 0 0
-159.004801510591 -29.4597143270679 1.3526684542726 0 0
-34.1044754759353 -20.5425437584957 1.38680477805436 0 0
-118.943034847891 2.15582773870232 4.49281426325008 0 0
-5.39446082240707 -23.0086057600492 18.1439176970212 0 0
-173.531017034817 5.46630531922169 7.95144418690302 0 0
-137.864621547962 6.66381040832444 -19.3580504543152 0 0
-181.101223565381 -14.0027938499378 -26.2763001111816 0 0
-148.437140026623 6.65800929812641 -9.78585511464039 0 0
-172.046427596127 -6.50237551762664 -20.8054194121738 0 0
8.24856590835236 -4.27970476165523 23.8502037032361 0 0
-203.075506617191 27.7074612905013 -16.5641234733698 0 0
-193.403566952268 3.08507726922327 4.16102309539139 0 0
-27.591678942686 -2.77648000056221 4.12491117349716 0 0
-188.244063216067 52.4821185416248 -8.34982026894001 0 0
-198.60053275706 32.3609134321199 -18.9377352099436 0 0
-188.911731670514 32.0929923153647 24.2392684433804 0 0
-173.827115027674 2.3144566322718 8.04729054841994 0 0
-194.583208416115 51.1836225162311 6.87528151229207 0 0
-171.979639569543 2.10734428893157 8.07315477187097 0 0
-191.932398282057 -24.9544451495114 -3.02849202389999 0 0
-200.700114337974 -20.1395740325132 -8.39609854972731 0 0
-41.3496245750953 -12.3591581726478 -3.20688116424944 0 0
-133.770301306388 -13.4613911733917 9.21157322061336 0 0
-112.067519296649 -25.4764515812731 6.22061416212718 0 0
-123.35975132668 -20.1778109473453 -15.4867764473418 0 0
-13.2526150154333 -7.7285714015718 -0.493864665405404 0 0
-157.949246739544 0.50022661488722 -22.2825393772753 0 0
-189.284792928967 50.5722965758788 16.5307233545382 0 0
12.237658590564 -16.6844546800723 23.5549123212606 0 0
-191.89573648984 51.4366582657201 16.1365795450407 0 0
-208.723630698839 47.4710217154027 12.4998681065082 0 0
61.500824804022 -12.8659524416734 2.26858512432386 0 0
-190.644825201705 13.5491625962594 12.9015828541437 0 0
-186.311205997408 -28.5665662335658 -15.2012305297873 0 0
-179.43571907801 47.9808415322566 -3.45108223834931 0 0
-20.751572280221 -7.51917520367016 23.763119755273 0 0
-132.137461920767 0.268954169351368 -8.81635633387419 0 0
-162.797728034663 -23.9538919797017 -23.5304029581345 0 0
-193.903406863139 -23.8711610122413 -18.8806624091193 0 0
-180.403214114568 23.7558782621764 12.8814253829884 0 0
-119.964320034119 -17.5027605167333 -15.4414095915511 0 0
-29.2658261365291 -8.30168665089539 23.4917379712193 0 0
83.3785128706369 3.09769394714849 22.2644065081373 1 0
-184.753991743938 53.4362505530567 2.64049738433713 0 0
72.4739297737572 -8.09524569755892 -1.16411703452722 0 0
61.9667172529582 0.0407632170449208 2.55539014797823 0 0
-137.649106935267 -3.67257977136434 -24.115448614548 0 0
-9.29266769938288 -13.8413078767899 24.3665057938677 0 0
-131.826113630666 3.14249620115375 1.66119761385471 0 0
81.6857508348562 -6.00226830522503 25.2225319615793 0 0
73.1176601649516 -9.72502733181909 24.5000055827277 0 0
56.3232074527299 -17.9632644463248 7.17990489518007 0 0
-98.835820918282 -4.90070297797521 12.9532092730219 0 0
-191.435793920636 2.59283355026267 -6.37143424482203 0 0
-149.09615401319 -21.6806092786724 -21.7366997338295 0 0
-168.377703531748 -10.88158335932 7.09922534239834 0 0
-180.28855356785 19.5312683980711 10.6386678233183 0 0
21.6539638777288 3.3304372712826 10.982030094193 0 0
-186.637836590473 -27.8342324785938 -6.16403549338425 0 0
-171.122211598439 9.54497296870223 -12.0690592526654 0 0
21.6937685841859 -13.3114177401294 1.84006783650328 0 0
-175.195043036623 -5.56644281364899 -18.9664258307768 0 0
34.7966257696722 -17.3389396578996 5.57846009274211 0 0
-130.417563019312 -26.8664690859741 -10.160457477802 0 0
-150.084154704742 -10.8569995123607 -24.9566018221659 0 0
-197.99875694305 52.5291646384207 -3.18822212151546 0 0
-179.609759620664 49.0967134467612 -0.383526638298729 0 0
-201.289922557047 -16.6110042077843 -8.67178468946643 0 0
-133.516975068232 -5.13238639180612 -20.7808708837111 0 0
-170.538889174348 -10.5565572233242 -26.1948842181706 0 0
-150.086185919245 8.07817457515506 -14.7295808506521 0 0
77.5448913196736 4.94831632407727 20.6341263794289 0 0
-165.863126740248 13.6956408810609 -8.92337245977796 0 0
20.7940884739238 -18.9907316272863 21.5724754983391 0 0
-122.293311996151 2.1053815742292 -1.3976295956233 0 0
-199.376622912805 14.8083352792459 -3.98365362490849 0 0
-141.62447725179 -23.6617638610252 -19.3939749348939 0 0
-73.4922766585192 -19.3860417160224 17.0900210650168 0 0
-140.893898125951 -11.2271319784525 8.62648014550564 0 0
-175.022247819395 33.9008229799697 -0.503169400429767 0 0
-163.464144148851 -20.1942417685352 6.12582237587945 0 0
-69.3777030504639 -12.9002914603322 20.0212428398664 0 0
-154.675187439471 4.66553187870151 -20.7311943210211 0 0
62.2882365284344 -8.27853103009164 -0.881940818492236 0 0
-30.8688213980946 -12.0973903470242 23.7341057560944 0 0
50.6476553592975 -0.829589382032783 2.70174361526124 0 0
60.2592220707343 -18.7294394682663 8.48882808634395 0 0
77.1285008260556 7.4464807068705 11.0693603661679 0 0
8.49345461222968 -17.4923459816055 23.233145035279 0 0
-170.813659030296 -33.6227159589803 -10.199012209441 0 0
-207.679327108643 18.5591571885561 0.905210506735194 0 0
-82.5876908207177 -19.783939138947 -8.05259828010852 0 0
32.3345003434888 -14.5953074385554 24.1510980102072 0 0
-172.930712042998 3.80728861704894 8.10318022605947 0 0
-137.090787574606 1.72395464665437 -12.2844450425562 0 0
-195.817856702733 53.6886202238732 -7.92961690746066 0 0
-194.640586499775 32.6461631409199 24.7735849787811 0 0
-74.6573134444293 -20.1119135143764 -6.78563612470924 0 0
-146.872558325813 5.67343998476981 -8.08552578183841 0 0
-168.425202325769 -1.15259584539902 -18.2035221015876 0 0
-120.36213789349 -14.4731960860739 11.1553279422255 0 0
-194.105779236887 -25.1643803025665 -11.8268405268747 0 0
81.9853104415932 -8.76215776599951 24.8016417940011 0 0
30.5353230881407 -5.23904155724305 24.8290605479863 0 0
-137.687746815645 -0.90362322362675 7.95594018503491 0 0
-196.271555250615 -6.6062975864364 -19.1773208804669 0 0
-134.647640614255 1.19930626760927 -8.1881342569344 0 0
-45.3453816618017 -27.4867377293361 5.73077621349825 0 0
-200.418490061631 18.7946859666492 17.0907789440545 0 0
-200.057302800217 -9.62071259591652 -12.1783724980495 0 0
-204.249476422751 44.8927436903525 -13.8264393038771 0 0
-7.98122537383885 -9.61542449806792 24.786635189727 0 0
49.4761370199917 -19.8838612495389 17.1997022820043 0 0
-185.427586641085 -22.8349048286256 4.74483007123261 0 0
-77.4434144839216 -16.5348546091269 -7.60317032224202 0 0
-200.432681169577 13.1458619637636 3.44297369864842 0 0
-95.5946176803081 -12.8891133880605 15.7567760031114 0 0
-143.382610111071 -10.7056651838367 8.40954267512803 0 0
-187.032291473126 33.3185520221868 -17.996836918721 0 0
-135.964311107734 3.23001558566355 -18.1581424497558 0 0
7.33625315041012 -21.9267322515981 8.73527614269758 0 0
-42.0930123762999 -5.31411048928821 20.8635496308302 0 0
-154.908622710738 -20.3799817131461 5.92062305147188 0 0
-178.462318433401 -22.7011976407971 8.15989849067998 0 0
-26.5977000534535 -23.8925609496968 17.2191495896598 0 0
18.9649458414771 3.90081384735972 12.5861581767313 0 0
32.8054274416923 -18.9549014785787 20.6110754009722 0 0
86.2504390227034 5.86952823340584 6.4611659216321 1 0
-154.98767245082 -16.0543553193776 6.89558636880652 0 0
-109.856116113862 -28.1033444100852 -2.8929629652185 0 0
-196.758604243928 23.6084350454006 -15.9963550494534 0 0
-189.38626338614 22.6568514986188 21.0641867118689 0 0
-166.860189447765 7.17348637691546 6.0084422729592 0 0
-114.40855427697 -10.97498748064 12.6161289217559 0 0
-8.58426197953671 -22.5962888212286 7.68017626834932 0 0
-200.954764092001 -15.0259856575851 -9.37995026238136 0 0
-188.006444771447 29.4017403728853 23.6201858803232 0 0
-145.158945883553 8.05247254663825 -23.0101084056875 0 0
-47.6170505231803 -0.218004245069729 14.8645553979899 0 0
-153.814468803912 -8.72998690525384 7.49954042058447 0 0
-148.140940423587 9.03166746554013 -16.9517133322695 0 0
-36.8447012757155 -4.507563331569 20.6875402020514 0 0
-183.409961756487 52.1375907388055 -0.0597745825284456 0 0
-55.2642590013281 -1.61555135053913 3.67805360743929 0 0
16.9348528470989 -8.95920904294436 25.333182661126 0 0
-119.628689190286 -6.67533192430225 11.5655535110087 0 0
57.0538179709935 -6.72129476401784 -0.758928934484536 0 0
-66.4450320966409 -3.58540180596003 16.651920162159 0 0
-205.879097721895 25.0658565697057 19.0324788210177 0 0
-27.1841444042353 -7.14190480628496 23.2091867916169 0 0
-96.3218364061448 -4.95775370673404 13.3509572041232 0 0
-157.378169869895 -4.65323848960975 7.15436674613958 0 0
-192.533147678886 7.41951769911994 7.46088753833394 0 0
36.6330233786749 0.902495030893767 6.12558056939991 0 0
-191.690947075343 54.0492735977614 -2.65435276975336 0 0
-168.724242112816 -25.7278392977869 7.1808435220341 0 0
27.5016501545313 -18.1632056278119 5.97797990312035 0 0
-172.781721397461 -11.1877067071964 -26.1043100330814 0 0
80.2885528943507 -12.643483132491 1.26335243492566 0 0
-193.731645644155 28.5816628375115 -18.6985165259729 0 0
-183.118519177723 3.72968648809663 9.67547466938 0 0
-156.107062552306 -30.5740311116666 -4.7361616436251 0 0
47.473755205647 -4.52115968033732 24.8344174869943 0 0
-189.424379953877 49.1895191088734 18.0733369738713 0 0
-196.604071774335 54.0303734722059 4.15962466867348 0 0
-214.512262568475 27.6282357443249 -3.16068426891339 0 0
-28.8217820910554 -26.4431118391491 12.427989672361 0 0
-3.896442261416 -10.5169803696866 -1.86991711263763 0 0
-198.803190944336 40.0404683489053 -18.1128333558499 0 0
-163.357784415327 -27.6202366379685 -20.5019621565156 0 0
-183.080003966937 10.3378533341513 10.760050224735 0 0
-127.480448628405 2.45007309785787 3.35571255843783 0 0
40.0706159996879 -8.49886048845905 -0.955814855431279 0 0
77.3363088282155 -10.9387107040736 0.220127436672018 0 0
-82.3842561667273 -25.4103194850522 -5.03927502919494 0 0
-157.066858027555 -25.4257253611836 -21.1932078750582 0 0
-191.379227016084 19.3631000010911 -14.2449355776805 0 0
-196.901270684508 52.3670162406158 2.46722223843435 0 0
-51.096799649218 -16.5018077790188 21.3665053112366 0 0
-175.03957498498 4.55283529175176 7.99737102960921 0 0
-180.901242869859 37.4940881940863 -12.0474178815698 0 0
-127.740319034431 1.95119560131918 5.43142400218245 0 0
-152.643171394048 -12.9126193021536 -24.8764703220738 0 0
-162.113148183718 -28.1431570707043 4.35417238358087 0 0
48.1305610446052 1.28885565441009 22.216824708415 0 0
-73.9942279349981 -27.5122616228635 -1.22949021872984 0 0
-200.125064753753 -8.74857680103896 -6.35908556633352 0 0
-199.182696396851 25.6888746303687 -17.439877374309 0 0
-72.9068316378017 -24.7952499809896 -4.02539727090918 0 0
26.8114213056601 -0.943005796804399 4.84755473419715 0 0
-144.621923232147 5.69973656937377 -13.3868243920766 0 0
26.944451977749 0.587074309947801 6.61573108709779 0 0
-186.603328155069 39.5056165315176 -17.5269156518612 0 0
-11.9560735674136 -12.1092594204369 -2.04574929765721 0 0
-5.42039775827447 -18.4402841715709 3.83896229309325 0 0
-84.5023262700232 -2.91291010729973 13.8422752624673 0 0
-140.272031180397 -27.8598378222827 -8.94125030242707 0 0
55.4720943949865 2.98664487684283 6.78614065205827 0 0
-114.240619113385 -17.2001524768131 -13.6331485655936 0 0
-192.62546080524 -25.0531919851461 -17.897167488563 0 0
65.4181841401315 -4.20975318480049 -0.165763214734086 0 0
-177.20430509285 46.3584964884576 -1.56522864886411 0 0
86.4397151057691 2.21108806926669 2.80161722090257 1 0
-134.253476035696 1.58694540359851 5.82796619865404 0 0
-190.492638448493 -21.7896863698086 6.40791779528354 0 0
-190.385405031174 18.1070343186075 17.0169156883869 0 0
-154.739230880823 8.57684878697114 0.124454198012934 0 0
50.5365123030426 -20.277995764279 12.1355012855575 0 0
-108.056384508409 -18.1049608234046 12.1394117964242 0 0
-175.731172095047 14.5561421733743 7.45054510492978 0 0
-101.791709443724 -18.6934920159724 13.0441523839573 0 0
-94.1206035600489 -21.8028552897766 12.4244488719215 0 0
-204.972164762385 52.8429667676471 3.40326589565998 0 0
-187.799185400778 27.0569342331887 22.8898934082191 0 0
36.4976099276507 -16.1928396802033 4.63225246392285 0 0
-146.806050554182 5.45732306372442 -27.0786747784938 0 0
-122.477721094763 -27.435311034584 0.160792799825388 0 0
-169.654610543353 -0.755273089980522 7.99897013971064 0 0
-191.23228807337 -12.4318596937795 -25.3856140304068 0 0
-93.6020639652545 -26.9092852065358 6.92390483908029 0 0
-67.9722198460558 -22.5435301585035 15.4927384616887 0 0
-196.809936746872 20.5457737871948 -14.590945236623 0 0
67.0474156450539 4.81168224555209 8.24184065080662 0 0
-36.2274627832661 -3.07265963113741 3.39241158022407 0 0
-35.3010120718036 -7.86508747736124 -0.724529201094314 0 0
-212.973924734622 36.240031738378 -9.25768490759182 0 0
-172.88417794292 -10.3167394805681 7.94687471771574 0 0
12.068110116231 -2.28482772867128 22.8934808229779 0 0
-9.38406630966627 -25.0684924496375 12.0775867055786 0 0
-175.372114277655 40.2582257677625 -2.8629379644318 0 0
-118.016526652538 -15.2375363793673 11.3375980239821 0 0
-201.365827921293 -11.0286766230808 -6.79607246728161 0 0
-174.150611505379 31.229745602968 2.15545845607594 0 0
-187.739920244436 13.0342765431644 -12.3568243242035 0 0
-177.834584469073 21.7267561393286 8.05230448294085 0 0
-193.282054595947 52.2883111210933 8.43943944731897 0 0
-191.783979496709 -8.30013756252646 -14.7209662531597 0 0
-201.696606279432 38.3085019470191 -17.6934364051766 0 0
-133.375857307186 0.424284938931324 -13.2740774988142 0 0
-185.286909600617 -21.9113781362047 -22.8738750915742 0 0
-86.7360231516011 -15.4037113471936 16.8207991463681 0 0
-187.20680225107 -8.89408181200168 11.3894705325618 0 0
-1.93338574233861 -19.1111969423301 4.71593404172059 0 0
-210.071724515517 32.7458036399545 -12.6093352700415 0 0
-190.020378069495 -10.3667832466416 8.90395757558752 0 0
-12.8440919828841 -2.30762435618762 21.3927238890362 0 0
-203.730002255111 50.8121097478967 -8.28045110959492 0 0
-111.052881759678 -14.1636017485004 12.7717758048281 0 0
-71.5391100051603 -10.6561436610208 19.6469482666996 0 0
-74.085225568615 -22.2171127807954 14.9329674369794 0 0
-104.237347885735 -27.1047585438687 4.81598301205277 0 0
12.8323899498764 -8.15390979310692 -1.18104680168385 0 0
29.8229584844265 -13.0322772393266 24.7958774587595 0 0
-39.7805401419 -25.1741205186496 3.85297279910292 0 0
-38.2598437337391 -17.4337363842177 21.9958650788691 0 0
-61.1902121091047 -28.6172142691324 4.58876444775711 0 0
42.021590953991 -21.0987348285695 13.4580542721401 0 0
-194.14580130845 7.51542654591085 5.60132378284815 0 0
-213.372628005866 43.8814024714516 -2.80831762515046 0 0
-211.072632570608 31.7180238139392 -11.3043381435276 0 0
-144.264428807356 3.80687794607248 4.47797970252844 0 0
-49.8599192021548 -9.6253227854937 22.166292423452 0 0
-193.532782595596 -5.88776785326835 -19.8124311456431 0 0
-186.141794450027 29.0208188797082 -14.2560682541404 0 0
-35.3548812392703 -17.5558256619358 22.1360629272101 0 0
-175.083941204625 -27.7920125981666 7.52562408015646 0 0
-95.1884774036301 -3.34231765823348 12.5266458105272 0 0
63.6005803098521 5.548302012521 9.94857549809345 0 0
-99.7143631655708 -22.2878891361905 -9.01380950483736 0 0
-76.9238704024857 -1.1251897849591 1.41335091903755 0 0
-177.683423578616 11.7376136053924 8.41202987392538 0 0
-183.042657018876 52.1372151604875 1.98471067817053 0 0
-183.960332696829 52.7363349126653 1.16192393058932 0 0
-169.952098951191 13.18256546969 5.13285563324089 0 0
-109.135098364304 -5.92705464856077 -8.6605049178563 0 0
-162.005894488267 7.00190074425733 5.43557773075298 0 0
-42.2782225889479 -24.3227078793689 2.56953449559567 0 0
-192.696411353295 -26.0595314570802 -14.4771076447347 0 0
39.967365867768 -12.4471867640322 24.6626378190789 0 0
74.5270143961218 -16.0003898305525 19.8536935272349 0 0
-45.8503587902404 -21.9731404071693 18.4249866033788 0 0
1.54699069027301 -0.7211291841924 21.1723321855984 0 0
-138.121356375094 3.39226172135665 -16.1854362729329 0 0
-189.168484109903 -20.5469467345771 6.85580205845654 0 0
-133.331846072815 -13.4196825825828 -18.2943388064651 0 0
-192.605878362836 53.0031216984973 -0.533184244135838 0 0
-72.8042611903617 -26.1831421491541 -2.78750617308715 0 0
-75.0451967361069 0.671844656669073 7.38008775915621 0 0
-145.555833007263 -26.6371824589155 -16.8152841496765 0 0
-147.71860978718 -27.0690846113495 -15.78428538693 0 0
-146.833222451777 -28.763543881027 -7.21365223812093 0 0
-164.25493046761 6.14501399818905 -15.9521952390064 0 0
-177.952779801484 -9.64837025396774 -21.5779976431829 0 0
-61.0021086656443 -10.9201592532704 -4.36600710525686 0 0
-181.580220444476 51.558254775608 5.5551614976262 0 0
-106.338377377875 -18.7453074470635 12.1935723406535 0 0
-118.670005044512 -9.80104431119788 -13.178195815929 0 0
37.7361881606141 5.15727492655455 16.3643333956504 0 0
57.6770760566074 -9.78700527577245 -0.267221355202422 0 0
-204.193965153265 -16.4372787838552 -5.66165690994618 0 0
54.4095033246516 0.369320352284304 4.00544817474003 0 0
-49.5292523994202 -8.97718367041265 -2.38069074438733 0 0
-211.268872949253 23.9942882265488 -6.73772315047836 0 0
-174.457953208397 2.37534736466735 -14.2646817662203 0 0
69.8614852508378 -13.4890171918653 22.7467183803458 0 0
66.4647976786628 7.15345758433795 14.2346304775029 0 0
-68.0485343223031 -6.26291636095524 18.3339954214277 0 0
65.6268468062445 -2.19390206139576 24.1451181539498 0 0
-129.233987736196 -23.2485859369313 -16.8459185309165 0 0
-139.150447368182 -6.59444719441609 -23.6533779006382 0 0
-197.604576989934 -7.48691951767428 -3.01633079162126 0 0
52.6311337191912 -1.35241016029196 1.47700929215282 0 0
-132.512454094679 -21.3072844330015 7.13878191232227 0 0
-88.8565865089256 -25.8225645832946 -5.65272764145728 0 0
-204.731549481106 47.473741015434 16.6414303903561 0 0
-194.433990908681 -9.77597898507485 5.83432508186895 0 0
-162.326088307681 9.28552556316623 -13.3831414200628 0 0
-40.2615750079723 -3.98743620745501 19.6992210766853 0 0
-158.113237533565 4.97478453373277 6.2859401678502 0 0
56.7558071634422 0.579693924864893 4.09367475105968 0 0
-178.841452838789 -24.1547695122044 5.62776435059716 0 0
-177.713106298266 25.994180577387 11.0333190732996 0 0
-81.8610138195505 0.759730016304209 6.5925214421058 0 0
-135.770926065119 -27.5612973868461 -2.3877011036202 0 0
-68.5518246528921 -3.2174788171324 0.383148448369196 0 0
-6.95704328822429 -24.1596144174083 16.0919109546243 0 0
-184.873836377716 52.4191640160229 -3.2246788140739 0 0
78.8798703467285 6.27871901511353 8.44380242969269 0 0
-197.297516870965 -7.86125913642141 -9.69067452089367 0 0
-173.141145118209 -32.109142792052 -12.8256010327753 0 0
-160.968471871561 4.8468518569075 6.37157968736134 0 0
83.0914744825917 -10.8063148431928 -0.0349102480903926 1 0
-84.5652037850115 -24.2698982322964 -5.78702738100168 0 0
79.9763332826869 -6.66592370077589 -1.13225304614325 0 0
-180.876090669099 50.3476023228912 1.83772235095315 0 0
-159.474748356683 -27.6402486736073 -19.7124064947571 0 0
-170.544279279088 15.6534422748932 -9.27696641543116 0 0
-206.486566703806 18.1342461380902 0.474068210718173 0 0
30.0735176647213 -3.57152363122802 24.2257780084956 0 0
-103.877728194972 -15.8879255002469 -11.1178549224965 0 0
-76.7781451853941 -5.19431414582909 16.4536489398303 0 0
67.8543958316503 -16.9460831815413 5.47135570775998 0 0
-136.345235900349 -3.39222288674565 8.9734402955646 0 0
-174.241087613502 42.745418829992 1.49195796269206 0 0
-129.357546245016 -24.2860112189854 -15.4149834200629 0 0
-154.602764730892 -30.2634694578335 -5.40869514393521 0 0
-137.783095258659 -15.1086715793275 8.54688897338966 0 0
-208.505564393269 31.3615496817346 -13.6354070065148 0 0
-184.886398753081 -6.78894130020619 10.3559522249158 0 0
-180.933185001362 36.0256883157628 -11.33680049729 0 0
13.2117660537308 -0.140184717636169 21.4625896790519 0 0
-154.587932097085 5.91525171002458 -18.8884555851959 0 0
40.5010080625754 5.38833844304706 15.5512503700036 0 0
-36.9359853207809 -15.2921685753247 22.9436112281822 0 0
20.701726387659 -4.85637897362636 0.618679773400743 0 0
-109.07834183094 1.54288861157509 4.40605092982154 0 0
-128.690681624539 -21.8804978753876 -17.5981127931154 0 0
-146.764023231772 -15.6278234241157 7.51830097408498 0 0
-163.606057695363 1.1803409402866 7.20754665761542 0 0
60.0953314598701 4.6871407388534 20.0402030521266 0 0
-130.020236943731 -0.644373298282055 -9.6473455284048 0 0
77.2010931465865 -18.2966331623885 7.77457457205526 0 0
-192.548347338749 -24.1093043772679 -19.5227792623843 0 0
-176.285411480147 -0.0951824969304185 8.84294353108596 0 0
-161.253839678248 -29.7952106817032 2.66139736162983 0 0
-105.813244028596 -1.91386290307189 10.2885493168457 0 0
-165.716342583585 0.986899372187911 -18.1685536894571 0 0
-164.80077915667 -33.1950742179653 -9.33010346770767 0 0
-193.030254950851 -6.0896920307694 5.29291757071955 0 0
-67.1338343130518 -10.778071744695 -5.03243425985581 0 0
-130.116287942906 0.936426704883607 6.78969887141848 0 0
17.2438485997314 -22.9631386950701 13.6649360065792 0 0
-141.594430753416 -17.0005824354064 -20.4370906754409 0 0
-178.188563896133 24.1929500442632 10.2906769600835 0 0
-197.012301046266 -9.14623079971014 -11.0947472283998 0 0
-117.941409391471 1.29774286890642 7.03708526952255 0 0
-102.605740436595 -20.5445594181119 11.8534402351603 0 0
-193.146247321783 30.604086654868 24.5455835194152 0 0
-19.3882342773935 -5.99577088981383 23.3260055777742 0 0
-179.237864335118 -13.3790014205586 -26.2947430209275 0 0
-198.295655015509 53.6818731990249 -5.54533102844359 0 0
-182.633264940947 50.7363811507631 -4.0486671402229 0 0
-10.979527288931 -1.0815542299462 20.4926311847821 0 0
44.8179031522412 -11.4038357452092 0.986417579925889 0 0
-177.317673615521 -5.16533800037988 -16.2869963581765 0 0
-70.6779567193621 -0.952699496806061 12.7457635813148 0 0
-193.67669416564 -25.6833984877639 -7.35200245454964 0 0
-188.84874565577 24.9184606348486 -15.1953251255154 0 0
-178.700825609435 17.1543830369473 9.43428889794632 0 0
-210.633664551393 43.1691211622015 -9.21684606662094 0 0
-203.983219394595 21.3410424046106 18.0586116429788 0 0
-171.681395871172 -29.756292256374 7.24840233504265 0 0
-65.3971645895127 0.594489584040618 7.73788413309602 0 0
-134.567057200407 0.986491854466501 -20.6006898800951 0 0
-183.683285086417 -29.5698708836012 -14.9712430407541 0 0
-175.255079973931 17.4165225059279 -9.89590725940568 0 0
-126.57272276881 -17.805628588006 9.34323610044837 0 0
-33.5200282922609 -12.0376391005735 -2.34888356670369 0 0
-212.097473537088 24.1342183955242 11.168640057073 0 0
-181.687798636548 12.8850110810246 10.7050692090292 0 0
37.5032145263588 -7.94113018760155 -0.900593629496381 0 0
8.89561121840657 -5.30117826554727 0.967301805125385 0 0
-178.409359728791 48.4974091598102 3.47118935881945 0 0
