"x" "y" "z" "f" "a"
-95.6739440324903 -21.064212655566 -6.07879049506947 0 0
-138.609548726714 -5.0645877381761 -22.4427926931438 0 0
-102.053749003795 -10.2852252542217 1.86526646292832 0 0
-4.03991599459447 15.9402551780089 -14.1461824828628 1 0
-200.280675665478 -25.1436274734353 -8.67295485888742 0 0
-192.562239506287 23.3718154449917 -16.9241150393896 0 0
-96.1479735001693 5.87388024782809 -24.8579785084923 0 0
-21.2033839781968 14.3637887491129 -5.67619758571839 0 0
-183.384420697557 -10.2136436049462 -20.4760922906917 0 0
-110.284775480952 -10.9389263482943 -20.4517241044097 0 0
-135.518398064942 17.9564488653078 -16.3864124227562 0 0
-64.59631890026 14.5334512719982 -15.3649832821124 0 0
-113.42356715999 16.5187854508167 3.80665654547446 0 0
-175.13455042705 -1.95785908841379 -23.2716191828717 0 0
-156.552194466858 -26.7190480264675 -8.46666196851861 0 0
-155.793008527068 -17.2023063223376 30.9441653510461 0 0
-110.394168991764 -15.1945755407266 -17.606363544796 0 0
-140.075002892188 7.27526349406671 -25.7368883653023 0 0
-185.420372892063 45.2354288381777 10.0659228461761 0 0
-165.486628597551 39.4316239717634 25.4441894627583 0 0
-178.122329984 43.4794823840275 19.8667836196786 0 0
-172.40980529874 -41.0676465968773 10.6112247677124 0 0
-158.099177888969 13.2460645051137 15.1665718370321 0 0
-149.051127299948 26.8674179638611 -5.4558204598114 0 0
-155.585012657689 -36.5639978988916 15.6262533268897 0 0
-156.846955112351 -12.902626519597 16.7442184993464 0 0
-23.8131566390718 -11.7591630424218 -5.91445678418255 0 0
-176.336190345873 35.0994103336982 -7.92225487936174 0 0
-182.481884522919 24.2228590678271 -28.6415977534207 0 0
-161.49556030964 -5.23522420022314 -21.9532244633522 0 0
-164.024681899161 -40.67695473507 7.09423718777145 0 0
-175.618523981436 -17.4444979397143 -28.8084171116974 0 0
-76.4483764280798 -9.41403395272159 -21.1667811137298 0 0
-73.51829687944 -5.37376318399447 1.67801999273983 0 0
-192.56519219624 37.517702458117 7.91405632814775 0 0
-164.253257299375 21.5870404305919 -34.5183070525827 0 0
-191.600918352768 -20.8791297562593 -19.476471507903 0 0
-162.525497775647 -30.2551720382998 32.0439067908379 0 0
-156.089269944789 7.62225587624796 -29.100563782363 0 0
-142.107996638029 17.862374737598 -18.9071481739395 0 0
-166.622977410266 -9.78233612480489 -24.0053166082888 0 0
-168.768930852654 23.0646623678161 28.9766489021195 0 0
-127.96370597654 17.6785483081425 -15.3230449236769 0 0
-94.3160109688205 -18.652090153956 -13.721954206085 0 0
-200.21972257975 -23.090847066922 16.0132861622665 0 0
-170.194938584538 37.0945934447775 -5.24443005548295 0 0
-174.680086285032 -38.2020628255949 32.7984597221369 0 0
-147.099367877937 27.1417978640827 9.56655228889096 0 0
-152.524453016726 -19.9509044414236 19.135952029355 0 0
-162.810672449082 -32.3667128031913 27.3724656905409 0 0
-79.0030327699981 16.3246706037583 -10.1125645837572 0 0
-154.083116625611 36.4658193242997 -0.398554039124978 0 0
-150.705630884696 29.0107074321546 11.5223707475243 0 0
-162.794870674253 -1.66346190808306 -24.5561105764369 0 0
-58.5184704757514 6.17431643376391 -24.1441258644206 0 0
-194.208094020961 25.0577871574266 5.68536444640596 0 0
-192.176230142422 -31.9759375500316 -11.4033189404597 0 0
-85.5660261350693 -5.77114450025432 1.8766147836655 0 0
-163.785917255593 13.4245501717883 18.8659938198642 0 0
-47.5721186205408 14.3169641276482 -15.3768186507381 0 0
-54.151979716439 8.61584604513056 -23.0225048936336 0 0
-181.444884023924 2.08304680069652 3.47406168925484 0 0
-143.438019074109 23.8995575216015 8.58001949925737 0 0
-158.419992678719 -7.17601769718248 15.1581022121331 0 0
-62.3387657653657 -8.31974848122132 -21.6400577746063 0 0
-102.696956140506 15.3671971938111 1.77036817597517 0 0
-188.401998721746 -20.2858387042964 33.8707815657644 0 0
-15.2231307115605 15.7019066688864 -11.1432985287889 0 0
-191.324879267078 37.4730013861626 -4.13693440509079 0 0
-179.798032377481 8.69182164695842 17.8480124317597 0 0
-160.476246463102 -6.95866391376623 17.0267653587833 0 0
-119.42288906015 19.6651025700912 -4.61697159906582 0 0
-69.3686369879735 -18.4082107272178 -7.79390628192683 0 0
-152.970186103521 27.6275112995627 15.1063690615202 0 0
-153.324529279819 -17.6343696724378 18.0148894553289 0 0
-148.175037602801 -21.06155000366 24.6754523815203 0 0
-146.081186073757 -6.52612519189652 12.8195800772625 0 0
-78.0539032732966 -19.5377535429894 -10.9648657590778 0 0
-19.8939372991197 12.684841694601 -2.48693883845818 0 0
-180.206976245874 -38.1844460978956 5.31134900693962 0 0
-197.250155164864 -27.6401552939135 -14.2267104967119 0 0
-11.4256948026907 10.2149814244023 -0.133592969974453 0 0
-148.330814662253 -1.15519419673114 9.08909898591097 0 0
-100.48959637394 17.6181067645071 -8.06339945167078 0 0
-136.984391795985 -23.2715403421695 6.81968341685477 0 0
-193.822279470728 -16.2579636917948 -12.6259728004226 0 0
-193.678019553828 -33.3027280966005 3.485332898766 0 0
-168.434221686389 -39.4647518885537 31.6769898104021 0 0
-151.340578902638 4.73538197671014 -26.1239742697576 0 0
-164.144732368404 -6.35982944694533 27.8119067002484 0 0
-53.8699133214359 -13.3097561390447 -4.46210121103986 0 0
-165.752680028088 17.66197460376 -35.4154334109031 0 0
-150.157094119623 -16.4722245853555 24.9058475215179 0 0
-151.801752737131 22.3346337459833 -17.351039120599 0 0
-168.475640522252 14.7725947829162 21.4712041834596 0 0
-160.225153930503 -3.07445134489117 -22.9682558348429 0 0
-190.992775013518 10.994163568577 -2.62540123597762 0 0
-82.0731972797843 -4.63466590564972 2.07116275087809 0 0
-190.893055015484 -19.5900215621365 -21.6294915578575 0 0
-184.306717944494 21.5807355884834 -25.5342686427528 0 0
-191.888734812537 20.8847654594752 11.727565733728 0 0
-160.268031239389 -35.3321819928484 2.6567755535526 0 0
-28.4761181611946 -8.82272784660537 -3.07109705176327 0 0
-74.82087151562 1.30355445785308 3.03851431263995 0 0
-163.651365507547 36.8666243177776 -4.0945890397441 0 0
-189.51865448004 -1.23855420186009 -6.41527649225015 0 0
-176.436576264133 23.1747165481292 -31.2502794158535 0 0
-127.488091263301 18.2164162208976 4.7539336030292 0 0
-153.759600261201 33.4429041861168 13.10272525083 0 0
-45.0820850401029 -9.95360729399349 -20.6212826561285 0 0
-152.483625027106 -14.1101722332601 16.5015887287755 0 0
-198.416386071623 -14.6895563166948 17.6249371196663 0 0
-152.538290876006 -26.9178685888958 27.3831043823756 0 0
-30.2534450374912 -15.0030126404316 -13.2888617440573 0 0
-167.79609255511 15.8159769173261 26.491318099721 0 0
-164.984972949041 41.13355284622 1.78841795787594 0 0
-154.71526259217 27.8369145785671 -9.88116867428227 0 0
-22.8611459091731 12.975546603457 -2.74412680237244 0 0
-151.599880272178 -18.1925657682709 28.7214234921946 0 0
-171.462266402059 22.6181880964147 -34.2007223850952 0 0
-178.501237419939 26.2237970616726 -23.4772296854546 0 0
-9.99133697970073 7.83750431165809 1.63645326569668 0 0
-185.859706257113 17.9122081100492 -23.4444076576012 0 0
-170.796390933741 -30.8255363486066 -9.70109201014277 0 0
-176.570656092596 -19.3075962521318 -23.9904341211878 0 0
-183.246868666626 -16.7707318711949 -23.3118210742381 0 0
-94.0399507821463 -8.91394778200922 -21.593782833968 0 0
-169.587159721629 38.3418026583283 -3.84305768997294 0 0
-184.452604375433 -24.8104536489676 36.8872407307527 0 0
-129.594057366768 12.7212658506189 4.95145947438654 0 0
-14.7485502940424 -12.166332879205 -7.51680569923818 0 0
-134.664147182583 -14.3723739007899 12.151022476949 0 0
-63.1824779084242 15.2721383571124 -12.9046782909 0 0
-168.607577735897 30.192027194816 -15.7043802472244 0 0
-197.679980146348 -29.9871011596184 -11.3934053005385 0 0
-199.914964031777 -34.9523533853231 2.59620364958374 0 0
-76.0702471130911 14.106170519212 -0.551953801449684 0 0
-167.387071413503 35.1350076077008 27.9367513500251 0 0
-191.263750923656 -14.8339468173615 29.1793791746889 0 0
-173.953428918074 -19.5335233298368 -31.3754874291388 0 0
-181.662846386293 27.469976088981 27.0387711884363 0 0
-189.543383464209 9.87809700948254 -10.5533070297366 0 0
-107.639301654185 9.50875083686101 4.00436140530092 0 0
-193.653374636151 21.1129660048448 -3.83927799101663 0 0
-43.8361727242708 1.20070449102041 3.60473826711759 0 0
-133.362309051149 4.11474641362036 5.06857105179059 0 0
-179.443229351421 42.4535962529192 15.6827863200319 0 0
-44.4311398666954 14.4479599496179 -4.64530202218196 0 0
-193.666158482092 36.3068426629261 -1.22686686153905 0 0
-189.011478536191 6.19962671794976 -0.653853137648684 0 0
-117.41289161765 -17.6767191244778 -15.5777871190507 0 0
-185.931815480283 -34.4649181394749 36.3979621695551 0 0
-185.931518146749 -6.27284317988129 7.32866494808753 0 0
-157.49476685909 39.9965858992201 -0.429007538605157 0 0
-23.6243945513832 10.9672795997486 -0.58480070680822 0 0
-149.008113465024 -3.19629969725318 10.2569277910184 0 0
-79.7417650650836 2.99435440981344 3.54740390383159 0 0
-145.319266279831 24.426025596374 9.84151282407252 0 0
-29.330019930355 -13.5727238412016 -7.68685184449758 0 0
-98.8007410762392 -19.5497024057739 -2.74030780317564 0 0
-103.113973371839 6.90744304671973 3.6610135698026 0 0
-153.44241629647 -28.0757991835753 25.3904536719994 0 0
-178.448967096929 -40.6023487682377 10.0621104471823 0 0
-166.519679923248 28.6488357863008 -18.4472630890174 0 0
-196.31318766473 -22.0883095272815 25.9003370624712 0 0
-177.939366265939 16.0698183047745 22.0400290940922 0 0
-36.1051385975799 -3.48969191313196 -23.2249045351129 0 0
-196.349244946428 -25.7574378602695 -15.9090589887052 0 0
-163.440811794513 -12.5643941007565 -30.4499610483028 0 0
-158.312328794597 -1.96286838562247 -23.3982448328839 0 0
-190.007028208401 38.5669511395507 15.2992026128651 0 0
-69.8996630208249 13.5892156037215 -17.4812050294201 0 0
-184.507419579045 10.5710366233353 15.5799785658895 0 0
-170.225659277784 -39.391072762297 5.18643473266913 0 0
-181.859706270341 6.41731277052829 15.5979836561856 0 0
-193.042554042642 -28.9076911225924 -9.43868176132634 0 0
-81.4955067431718 -0.323903457970533 -24.868590480322 0 0
-197.979148750877 -19.8768891852526 23.3218165135387 0 0
-120.812027621275 -15.4381513217966 -17.6577218879949 0 0
-116.248104711226 -10.3028778980341 4.22353560110939 0 0
-167.787663615156 2.47444057939453 13.8672209141825 0 0
-188.081205857439 -35.9001743316207 27.5127682478439 0 0
-199.446983085435 -19.5921007747347 14.3474094746255 0 0
-167.133891743388 19.2902608700453 26.8458157754391 0 0
-162.999181915391 26.1789623228278 28.4634104972603 0 0
-183.831255291475 -38.7993133209604 9.17087017969083 0 0
-149.201850798696 -20.8586177177444 -14.0649829571115 0 0
-163.693052987057 4.03131476969994 14.3552560972246 0 0
-186.776215103205 -34.1877688184201 0.93549271347634 0 0
-156.237555148519 -14.8728113966222 30.3069599025568 0 0
-182.738046959334 -36.9348251153607 25.8454601580118 0 0
-175.145583170911 1.78446652010436 9.9166974377669 0 0
-158.418915911192 -23.3348631577469 33.9268879676619 0 0
-194.649479596376 -31.8085638147364 -4.45883450688754 0 0
-182.467172032055 3.53326380575953 -18.9464769486693 0 0
-151.541119492025 16.780769816406 -26.2732693729017 0 0
-185.383966458016 9.88532096599007 13.621168687089 0 0
-166.297811148496 39.5195253071373 18.6097190427025 0 0
-86.237033188352 15.8473118825757 -1.38618483983394 0 0
-171.5850046995 38.230335162511 -3.83004044970512 0 0
-168.942217759062 32.6800101616433 28.9969874300893 0 0
-104.219618351002 -5.4571843473644 2.62912762307089 0 0
-150.671523341892 -1.47377992633278 9.7268068842352 0 0
-198.157417816119 -35.9805871202602 4.02498943512886 0 0
-2.53342810821899 -6.92194324741865 -21.2134221891636 1 0
-23.6283017888092 -4.3054059384446 -0.033404278017567 0 0
-193.946711991326 -12.4376387043859 -8.18999617497984 0 0
-186.470418780327 -1.41723057389622 -13.7750754330772 0 0
-82.9167856487244 -13.0699314910329 -19.0909078578825 0 0
-71.7339874659639 13.0089586569213 -18.5218521788898 0 0
-74.2881434561009 -19.3290083195389 -10.0775303041207 0 0
-38.6457874620857 15.042818046925 -11.6097623133275 0 0
-170.170205521722 38.9983346870789 18.0083201944724 0 0
-162.398874820598 11.3806731646749 17.4018728298316 0 0
-150.09752854839 0.455955816422479 -23.2615248522392 0 0
-190.45018798501 -5.33782181326057 8.03385651847495 0 0
-197.53666401201 -25.5074960183823 23.1429563754814 0 0
-188.344709359409 34.1795833074813 20.2877525089254 0 0
-51.1710731791605 11.8856388988673 -19.8835049773641 0 0
-192.600081650089 -21.492267903084 30.0721497536017 0 0
-102.780096872931 11.603900767636 -21.5529968587828 0 0
-38.714397957814 14.1768350792199 -4.50613515136215 0 0
-172.966068864538 -40.7644848215468 13.0455177703463 0 0
-166.464767864665 22.8484989757555 28.6307943375503 0 0
-198.50532720921 -34.373182012742 5.37171871566808 0 0
-168.641328199034 -8.73259514327981 30.7990449737013 0 0
-154.099738853464 22.0101553818362 18.1240133838736 0 0
-152.9699399895 -2.7069137354833 11.0203360024391 0 0
-170.196040390709 -22.1943315143316 -19.4880243587582 0 0
-170.14470386833 -35.7513546920591 38.4397989086962 0 0
-144.498589340081 -20.8443803651998 -12.499249089286 0 0
-48.0123450934324 -3.03013201358549 1.2730547561752 0 0
-189.301597519067 -36.0755637295332 17.3997784986549 0 0
-118.70340549649 -12.7859312714637 -19.440168347306 0 0
-187.906557251522 -18.9340734419477 -22.5056291948003 0 0
-184.427287018695 -21.7613113677683 -24.0751873059792 0 0
-181.167936721732 10.6332969429466 16.9885219937187 0 0
-160.891875242961 24.9321077325331 -22.9668042064482 0 0
-37.4336734325668 11.2239063829719 -0.542342144539128 0 0
-88.6299509561572 -19.3018919009889 -4.2449178813333 0 0
-49.9808268648752 9.15772599339846 1.39631919522856 0 0
-107.586456157334 3.61199889959191 -25.5239447597408 0 0
-123.75754076261 10.750091260232 -23.9425227842561 0 0
-158.046772876564 -24.2994046320853 -13.8823748784504 0 0
-46.8696004004125 15.0377996987932 -12.5180376931055 0 0
-177.554141542099 12.6790850043971 18.237407872697 0 0
-33.9100605967533 -14.7070658740044 -8.9979508327725 0 0
-197.721399137731 -12.9677482827642 2.37012892569388 0 0
-155.986769952719 -33.1377279291975 5.58634835772609 0 0
-35.9380770725347 2.02767956083782 3.86064151518434 0 0
-153.53486492141 16.6023682058749 13.6876415560375 0 0
-57.1909642121007 12.4414097556489 -19.1649808919562 0 0
-135.978995722627 21.7349335562942 -5.61241217020244 0 0
-175.923038503183 -19.0462776535765 -30.042250841403 0 0
-152.857699156683 -15.5668598151748 17.0843877415336 0 0
-182.583317046727 42.1972231042578 13.6418011078305 0 0
-39.101243713696 -7.61196174542464 -1.62225310612777 0 0
-165.782745873286 13.7674048227545 -33.1469952716457 0 0
-13.039846554336 1.72871764945153 4.32796779858397 0 0
-126.412916885845 20.5863797377678 3.11438731665135 0 0
-162.325662468654 -33.1790702005127 35.3888235366255 0 0
-198.823340849404 -25.5697470808318 19.5320041511072 0 0
-196.141183748603 -35.2757044675001 1.41161213967125 0 0
-165.730310958517 -13.9158895444204 31.4180389914698 0 0
-152.818025205241 -33.4706053444896 15.0152489634811 0 0
-141.769990324495 21.549300207531 -10.1880604960209 0 0
-196.85480174247 -36.0624908528876 4.16369984627074 0 0
-143.381467822777 15.7748982519672 -22.5746096501711 0 0
-194.605173152487 29.7140092118769 -0.130226288606315 0 4
-154.548659587774 30.4723754577621 17.6466500041711 0 0
-105.085216653353 17.5245730050376 -11.09220384214 0 0
-6.96051838069619 -11.1293273027021 -7.05696154996721 0 0
-148.623166229085 24.3293355043693 -9.58058342284651 0 0
-126.162539771157 18.7744081265992 -11.9978987778668 0 0
-174.670653217463 13.0313741161217 18.9572999755347 0 0
-104.046060887226 -17.2177202964164 -0.690242708159079 0 0
-85.2239853777907 -14.0673886535595 -18.3265745170361 0 0
-153.876182651331 -6.34766479733239 12.4561259887778 0 0
-40.8673698167698 13.3532487241258 -17.6435510287713 0 0
-102.485984059551 -13.2522690507782 -18.8348964646908 0 0
-140.44914723013 -10.2363929547184 14.5703960908212 0 0
-112.319112926362 -18.3075446556083 -14.7722314989828 0 0
-178.855626255441 15.451258397353 20.9326166733438 0 0
-155.812143124005 -28.2140586927699 26.0046673414889 0 0
-160.590772348685 -33.622015849647 -0.673992461300247 0 0
-171.796025282855 11.9195239665425 17.9323123244215 0 0
-132.499346676405 -21.42512872932 -9.27828832870301 0 0
-23.2606930882805 6.45094380553904 2.59625196477209 0 0
-104.200304285814 13.671242545645 -19.2767586303128 0 0
-152.820685970243 -14.6970645069223 20.6564665503868 0 0
-127.197212079275 20.3331508133318 -6.46518104030718 0 0
-143.913851905459 28.2694782228413 0.38992369112818 0 0
-170.671596836349 41.4834291130631 5.85994028756483 0 0
-193.839942416699 -36.4448715156534 21.1276509097489 0 0
-114.887344543422 14.8296451999069 4.52872902756734 0 0
-192.492598386523 -31.9494139163355 -1.53630260182436 0 0
-59.7397652766349 3.43021519788868 -24.772458575769 0 0
-54.3670564040196 -9.73541206147952 -2.05136168575757 0 0
-186.331121058445 -35.0893897734994 31.9146370649944 0 0
-148.575816096679 23.4996425327135 -11.2864854408162 0 0
-152.382751569599 -16.8352312556945 17.1989940706987 0 0
-170.027941664109 -33.7194734016289 38.1559567056296 0 0
-182.491668078432 22.7354188615717 -28.4364090380751 0 0
-159.932448109272 -31.8273423092635 24.2197635274241 0 0
-165.133810448897 1.89509458463246 14.4441020128886 0 0
-169.418243407704 -6.74501752962473 16.5223613526089 0 0
-172.346915766072 22.5308776669851 28.9014259818774 0 0
-28.6597522275838 7.04745219701945 -23.7098627780032 0 0
-155.906090204601 20.1327949611982 -26.1818890402663 0 0
-163.363127089994 39.8598952848103 9.97789035854408 0 0
-74.9976614405783 -3.55271007026667 2.41102681795266 0 0
-183.79793606264 42.8004903304397 15.8614254779583 0 0
-170.006495224908 -37.1428720437166 0.143770962825692 0 0
-149.843296253488 -31.5095032652591 19.9381853749692 0 0
-128.757037496131 11.811585645462 -23.5950828690572 0 0
-70.5900957122362 -11.4028968364903 -20.0477118057251 0 0
-57.1187665375406 -4.01744796371434 1.35511416410993 0 0
-170.717245850069 35.4035973106723 -7.70497419551223 0 0
-195.06457483447 26.6789828446629 -10.6509907967279 0 0
-160.086546855342 2.21962121352423 13.8273252384231 0 0
-5.52124293441246 -1.34452600604462 3.01385913744714 0 0
-46.1747291364847 13.3458450051746 -2.32301946575094 0 0
-161.099672390568 -35.0149983542605 24.02579562415 0 0
-185.00992545689 -12.7781592260159 -20.8283515659688 0 0
-170.875024923075 -18.2059090568297 36.4720566454658 0 0
-190.164909423274 -7.33892772293197 -11.9102576349412 0 0
-172.308162830974 -21.5207667982375 -31.08621854153 0 0
-67.9111296406732 11.165343514182 -20.8726787009758 0 0
-63.060969309235 -17.9262579809287 -8.87201741411461 0 0
-0.022893205994045 -8.18669067333989 -4.21759781473761 1 0
-189.207241823794 -33.3510042518015 1.50708000440989 0 0
-196.532374402989 -34.7194438907359 11.6980654357306 0 0
-74.6095637813065 7.75942119081457 3.58919581840452 0 0
-180.054442495527 -10.8102310907079 23.5301004138757 0 0
-148.818844274014 -13.0535277032228 15.8708109784681 0 0
-110.675293593019 3.65246079726656 3.47534504634665 0 0
-182.055235971574 -25.5380893672528 -15.1326488698758 0 0
-135.232002542337 -22.8799234923677 -3.93351172215077 0 0
-177.65286461652 -7.6479402683663 13.6271116664761 0 0
-198.481755263727 -27.8315289869502 -12.6031760121453 0 0
-106.030675754361 18.0061524065971 -3.05560983843374 0 0
-196.00776773109 -33.6113012058274 -2.8562039100732 0 0
-143.908248223613 21.538401197525 9.01855456716626 0 0
-22.2563948368252 -13.5867826738013 -8.98109183878645 0 0
-188.048853362859 -10.8878742008007 27.2582490431369 0 0
-151.815764620117 36.4463152509854 17.671350197171 0 0
-192.159820370413 19.5943780380201 9.19665365043 0 0
-192.651922196708 35.796530591354 9.23759178529095 0 0
-180.470558825815 -10.3869794846662 21.4137842434024 0 0
-151.391156614855 9.37197676852895 10.1764062720617 0 0
-64.6562323820115 2.5941639392413 -24.8271913036221 0 0
-186.466235747469 27.9672881370233 -19.7683929680942 0 0
-96.6745164041432 3.51558158599555 3.65579562328058 0 0
-179.785892554062 34.1349784906049 27.052614750144 0 0
-166.883254036362 -6.46884164449883 27.2409995291616 0 0
-195.433922310626 -34.7489572791529 16.6774517287412 0 0
-87.487821657479 16.8873806680083 -4.38261499693944 0 0
-141.038960061052 -23.2510925098913 13.7619393716066 0 0
-191.41626495193 -35.2597827586593 16.9141496325594 0 0
-155.456050677191 -15.0208328910971 18.0175925958659 0 0
-90.3364234686593 -20.6377763949828 -6.4009780187926 0 0
-159.075607350537 0.805553362786325 -26.4437249738497 0 0
-182.014369988675 19.6263848888665 24.2920402196651 0 0
-144.793986805012 10.6215523053471 7.81691547989337 0 0
-187.513969342193 38.4445685176397 2.85439790362356 0 0
-148.821916333995 -5.95799430759859 -21.3953175321748 0 0
-176.064559006019 40.751942862994 0.553118765075365 0 0
-179.824140374925 26.3360838765963 -22.623352468465 0 0
-22.7461604066199 -6.67338521873092 -21.8846301864796 0 0
-145.264377863168 -25.558031026631 0.906687972455933 0 0
-170.032183949042 -11.2072433862814 21.0158588022775 0 0
-35.8268963837442 0.276527367663833 -24.1464385246269 0 0
-165.155775341288 -7.91978923333843 24.0539250273104 0 0
-127.700108084548 -15.43209613112 8.19718686633289 0 0
-33.915552706143 3.92761578679396 4.12450393684981 0 0
-5.85588036770593 0.727642808147626 3.96066605153581 0 0
-183.896972924966 16.7850996689362 20.6549220389665 0 0
-166.231041469032 -26.4206703755678 -15.8595230950944 0 0
-178.916879601623 -12.3345882714926 34.245957017424 0 0
-198.273554091718 -14.2257141892216 11.623880039285 0 0
-58.2488177257612 13.2041823780727 -1.21312093029227 0 0
-169.691042260421 9.54121493054284 14.9368420944669 0 0
-170.258597644555 -39.9454431632116 25.0640125657793 0 0
-85.0644657428732 -9.27272260127355 0.645114896882118 0 0
-199.68843922574 -16.9474121886856 6.47529419615554 0 0
-55.9446939920226 8.09955835426723 2.20220859480717 0 0
-5.97746996808665 13.421370885014 -19.5949372689268 0 0
-100.39732897938 17.6027041065885 -4.18886051878501 0 0
-122.900047088954 19.1655900535853 -9.44199871430959 0 0
-163.349610930626 -19.4912742243851 32.418936302524 0 0
-139.848738018935 20.7837207327228 -10.9693081952629 0 0
-179.89889729298 14.3296680168727 20.0309776258467 0 0
-162.623772008663 -40.3468921187841 16.9298127911867 0 0
-28.953495668749 3.81383069304341 4.24301270762313 0 0
-3.91862259406852 13.9712012068303 -4.43696935653356 1 0
-194.41358022395 -9.54135585239042 7.63625617280204 0 0
-146.506494501792 11.9127095339228 8.39316557741555 0 0
-148.06704836858 20.7682668030408 11.6547481872769 0 0
-138.458419524912 -12.7788340714223 14.0922545863061 0 0
-133.423708818878 2.00418575444035 5.17591445528903 0 0
-175.207689522674 41.9895830259629 12.6665551074107 0 0
-85.87867914354 6.87797359118814 -23.9951615657242 0 0
-6.04952967159874 -13.1542262444904 -13.3308339523595 0 0
-200.017916183371 -19.2712159183648 7.9438663150672 0 0
-170.395277195572 -24.127681565445 -17.9181142626728 0 0
-169.738602012191 42.0137826846155 15.0804802831157 0 0
-159.211358064748 -38.1890648946019 10.2982974896862 0 0
-190.396874251018 0.898119441727995 4.46704939288297 0 0
-88.3815064737293 9.33845139300382 4.1059367746681 0 0
-169.384358772393 -20.6779145258459 -27.5012381317512 0 0
-132.552814050513 -22.0057681066029 5.24863694000043 0 0
-191.1760650232 14.1405464109875 0.333223826282757 0 0
-135.690892222415 -10.7543393298041 -20.7136716734198 0 0
-198.324643952529 -20.8689740171932 21.2310164905507 0 0
-157.931954976652 -12.6047612682981 18.3683206761467 0 0
-188.598087737251 -35.8673213664812 9.65564427480104 0 0
-113.151600474366 7.26471934611088 -24.8785025268886 0 0
-178.652068497684 -9.3802726152158 30.036228189703 0 0
-189.701063223779 12.394573485017 -13.9716560140483 0 0
-174.829297821197 -38.9994261934752 36.0245107338819 0 0
-78.5964669109747 11.9499872742013 -19.9866295000786 0 0
-171.691636885646 16.7368188474003 -33.3931797540841 0 0
-170.382411727338 39.5457977568422 19.5116591950506 0 0
-184.509273831969 6.21442724697979 15.9257329962984 0 0
-181.903023965892 6.63989845961501 -21.4024327688954 0 0
-121.384717765817 19.7771838837271 -5.37426818945463 0 0
-57.4433462588215 -6.61443016849246 -22.5194233829973 0 0
-1.97039779008848 -12.746440404911 -12.1631095270292 1 0
-153.542876194283 30.0645153041654 -5.58324000029953 0 0
-78.894937892021 -3.08241813416007 -23.9696245000967 0 0
-192.957542693229 -31.0682040632024 30.939631744135 0 0
-42.3131144917318 -1.60952650919186 2.46939103141542 0 0
-19.5359497433355 -8.93677435581046 -3.73308912303332 0 0
-126.904208717247 6.27634167708363 4.34626204954436 0 0
-163.815232525237 22.9498559098284 28.0494365920597 0 0
-74.8622524219697 12.3112367300191 -19.5454075944813 0 0
-179.370006788805 -21.317111720332 -25.8006429067853 0 0
-165.700754481878 26.4548516417 29.2970076403612 0 0
-44.7998434039179 7.12606403424059 2.49442366399062 0 0
-79.1281418158742 -16.2685833577069 -3.64550748641987 0 0
-157.239655774609 24.0670342201952 23.5261757538721 0 0
-74.6412070920317 8.69104240749049 -22.9174196651982 0 0
-137.060605362927 0.510961268624867 -24.2891209794715 0 0
-160.673815743995 7.25455289775238 -31.4886153593137 0 0
-194.522750865937 -22.4237577984162 -17.5738667734254 0 0
-139.72252793411 -14.3626825511283 15.0452472855903 0 0
-125.453364052089 20.7842873935916 -1.92902896738268 0 0
-138.139707695028 15.8646046320292 -20.6349882193397 0 0
-188.828046838914 16.5896189547641 -18.7694626508389 0 0
-183.027150111493 -21.1254622489446 -26.6830453029552 0 0
-85.3979524603031 -18.6977605803203 -13.3240869265716 0 0
-196.919378902523 -20.8017256210263 -7.8191428370766 0 0
-148.962874631415 33.8107690704258 3.85699909027557 0 0
-176.111834065251 -19.9833683174547 -22.1371065725227 0 0
-183.635366431211 20.3851451020967 23.4983434418688 0 0
-170.321188516576 -10.6302561736347 27.5487279413902 0 0
-182.069928727066 -33.2565875440022 38.5650009011901 0 0
-159.624067316931 -3.52106600238893 15.784107350931 0 0
-151.669648025697 13.8538704291906 -28.7423216539644 0 0
-182.130338073607 -38.9857199834075 15.9071080724738 0 0
-149.692860295079 -15.3318332339262 22.9780275423692 0 0
-172.96307969355 23.8233311492376 -27.6579939335654 0 0
-164.221642270345 36.1854568062498 -4.7286794834529 0 0
-173.551122111124 29.655634038254 29.7180212631555 0 0
-147.819871302162 -3.68009442993031 -21.867897891126 0 0
-65.2517343527746 15.8271830894018 -8.29883685657375 0 0
-150.257218374574 32.2765337828723 19.4882214720695 0 0
-141.706071295028 23.5228099462632 -5.17347408299741 0 0
-66.7615231871055 -5.2427340203759 1.16679251230329 0 0
-180.860005214386 42.5085613363815 19.9100132926995 0 0
-184.373649423091 -6.14219628217279 -17.4516295600695 0 0
-198.904526010009 -24.1995211202973 -6.4393584422072 0 0
-137.451909670207 7.23343122612475 5.72653386107648 0 0
-175.147704385985 -30.0256070393138 -10.4323710078792 0 0
-164.947933622387 15.458114993191 -34.7112943233848 0 0
-168.805337861893 -32.2484117564625 36.941532811422 0 0
-181.160437752621 -1.64369799668552 -19.0326259490187 0 0
-163.203359216896 -13.9188607382204 -21.9993237199396 0 0
-191.594542773249 -0.851799201355327 1.19917866696841 0 0
-171.779767278095 -37.0646634201272 0.336365608748365 0 0
-153.8256957768 16.7757849787608 -28.4534315451235 0 0
-186.968199096298 4.95264362694332 -12.9624248440745 0 0
-160.042695995588 -11.7003500970624 23.2252997762893 0 0
-64.1171844948773 9.9744457615292 -22.0505513991083 0 0
-145.794778743918 -2.34456630800695 -22.5699943923545 0 0
-165.599986206763 -31.6473401233534 37.6141249760796 0 0
-79.5439519570071 -5.3478411692611 -23.1063402992338 0 0
-20.3083826131512 -14.2269230326644 -12.9049608386242 0 0
-77.2270800164739 -4.75775146556296 1.96953417819708 0 0
-179.773485212484 -39.3756679766851 17.9161334971017 0 0
-28.9660291098156 -3.8805563483341 0.265595694776361 0 0
-188.46955148711 -10.3568935186515 24.9292620297778 0 0
-147.640681692333 -25.2262184809287 -4.25168109218704 0 0
-151.728436573549 -8.2669022408747 13.5701444880422 0 0
-87.549600161373 -4.46871411956915 -23.5783744917106 0 0
-164.315844854183 -27.3787695150589 -13.1899333283616 0 0
-198.677353214076 -33.4879073635486 7.69637306549505 0 0
-182.980729504536 21.4376297464917 -26.9369999030996 0 0
-66.7601480997048 -3.70247617023595 -23.70175572121 0 0
-187.011294953865 36.357551885471 -6.43123471686501 0 0
-194.282663241196 -9.72283390857652 -3.90238528076182 0 0
-196.613953133474 -12.4658109198539 -0.578126932127811 0 0
-43.4599050374078 -14.227293734988 -6.4767754905355 0 0
-109.029996478521 17.7529509938188 -11.3779716030468 0 0
-103.44045518503 13.5798399975767 3.29272975375659 0 0
-151.015572642452 -28.3016463734389 -0.0973249052757607 0 0
-184.6392242464 -27.4382048161717 36.8461617860694 0 0
-155.135066001814 22.2197999911721 -21.8124974489374 0 0
-191.371373419348 32.1603534656264 16.1876896988055 0 0
-154.975023552059 11.7684896620449 12.6717488754978 0 0
-192.724248586438 -18.3221830392272 -18.6301070836707 0 0
-162.70384597939 -11.8920463854147 -28.7101612877416 0 0
-191.72980220407 -13.3541234582232 -14.3666390647445 0 0
-196.543435604566 -34.3405533215846 -0.59811502334964 0 0
-143.354502073012 12.1909034608776 7.70991949693833 0 0
-76.9863592403487 -1.81852766202647 -24.3572949023443 0 0
-118.011994331145 -21.6517871240454 -7.01436580068603 0 0
-184.487091258371 -36.0629954500858 27.8514459989264 0 0
-124.287868450687 1.02164919256739 4.12876225653967 0 0
-191.657412834828 19.7693928076266 -13.8808766992488 0 0
-154.922077809028 16.8096366753374 15.3526799653468 0 0
-162.438842838732 -40.4837938252846 8.57771525668804 0 0
-137.080849153163 -18.4465233032742 -14.8047732154729 0 0
-95.4941137705177 2.89220789823243 -25.4096858148424 0 0
-168.414664965463 -12.3178061763812 -24.3181763705882 0 0
-156.543398977616 -10.4470694669736 15.4461019719864 0 0
-148.10392752937 -10.2553921573619 14.4681180337432 0 0
-157.320730664057 -11.2497251632646 22.9742774166247 0 0
-64.242968467315 -3.76515250180655 -23.646898366713 0 0
-10.9677880468005 -12.4892976160202 -8.64925851144297 0 0
-151.43140199401 -19.7296034680247 -16.1764993794811 0 0
-93.9412948457842 -5.87087987905893 -23.142878241653 0 0
-179.118403402558 37.7024247609954 10.560138567843 0 0
-186.551581037595 -28.2142768408717 35.8782449569296 0 0
-172.682211028231 -24.8963151202329 37.6580166480495 0 0
-175.559241221394 39.2014457511532 7.10884877323438 0 0
-193.227782732223 35.8824754305964 5.95026420181282 0 0
-89.7564670837232 -13.1354092715459 -0.703241393599344 0 0
-176.173915344699 -29.8503506943511 38.2595090713395 0 0
-106.147047620798 -13.6344082030328 -18.6239289138032 0 0
-161.503132729866 40.1106256282104 -0.685741397283386 0 0
-54.5633532826578 5.34977647229632 -24.4050500773666 0 0
-190.668794585659 39.6212209157509 13.2188724685337 0 0
-154.151241868944 18.8020196840993 22.7452044086393 0 0
-158.696451119309 -33.4560529339167 1.15973718743781 0 0
-149.885319228069 -26.678864719598 -2.73344786224027 0 0
-20.3659083288994 7.11026646801073 1.96829637406341 0 0
-58.4465189041093 -8.61373818231606 -1.0495267980115 0 0
-169.73257603461 41.2585658049902 7.67943419607465 0 0
-185.614985442663 9.80730570518496 -19.2196582750929 0 0
-188.663239485181 4.03138321787632 -7.16580202124486 0 0
-72.660594147474 -17.1560543506279 -5.30059713023006 0 0
-169.197345589306 -38.0944508452238 28.0928651908676 0 0
-154.511667504846 26.4784193942959 -12.4926432309255 0 0
-170.517165016911 -12.5695769146317 -29.5312261521095 0 0
-171.705476783897 -39.7553646122057 34.8045053664645 0 0
-183.296710277309 42.0541300081037 18.4626851696471 0 0
-177.5198858393 -30.6885795992333 -8.9812765025821 0 0
-155.177893581645 -14.4020235568846 21.2579367745845 0 0
-180.147194274751 6.50937896713573 7.08327917181154 0 0
-90.2758624568483 14.9950301687832 -15.8008279033393 0 0
-180.390506723826 30.03508603604 -12.0796873944687 0 0
-180.694311553686 33.8757491755612 -7.0446549188224 0 0
-179.129014415487 38.1367961816281 26.4992947959319 0 0
-145.86256125682 13.8546715017682 9.21121512151732 0 0
-179.681874475264 8.87681514420034 13.7099723271437 0 0
-180.868320542635 36.8379543508167 -1.20298567393581 0 0
-117.220486578325 -21.7781475173489 -4.28873725537428 0 0
-90.5434834030999 2.70780184137846 -25.3205727758263 0 0
-191.083674583658 -33.2607669168239 2.08248445064626 0 0
-154.022942495267 28.9152103907577 17.6960668186744 0 0
-124.245098176158 18.7319745786404 -11.5974832343605 0 0
-147.726491488386 -26.8828573422532 2.30572944880533 0 0
-181.532696803283 -9.68125516684873 26.258492650093 0 0
-183.592267371802 -8.94957705845259 13.5509834243913 0 0
-130.472096968214 0.0925602159055002 -24.5701091021093 0 0
-66.9693020481395 14.4710495921154 -15.6597333171739 0 0
-200.354768863769 -27.2103867420543 7.66905033704405 0 0
-113.744685385311 -19.1071480515116 -13.6438637061687 0 0
-144.137043067943 -26.0854520693695 14.1217481004732 0 0
-187.499929220259 7.50782918703198 10.5524059223166 0 0
-190.467937548095 17.8365877477224 -16.068571630143 0 0
-143.612888747349 19.0278421598908 -17.3911057131752 0 0
-129.725493426688 -19.7726280507923 -12.5143174543048 0 0
-46.2574891094427 -14.9677611259196 -16.1778366947865 0 0
-178.662642625031 -23.2960268362374 38.1032270887895 0 0
-178.016893843811 -20.9444125927642 -24.4964054438721 0 0
-176.499720975383 26.019483854544 -23.3781155654699 0 0
-42.0574744629299 15.0970424497796 -9.4661731525832 0 0
-191.667683521575 -17.2215693137619 -16.8737124023721 0 0
-158.233464587909 -25.7021272444511 30.0716885883499 0 0
-164.123666718712 -40.2380271668476 15.293296851663 0 0
-155.515642875928 -13.5038633905339 17.3918925843452 0 0
-130.466739162616 -21.6420882401538 3.58678927977291 0 0
-146.504316982225 -8.71425753794236 14.2033883762821 0 0
-183.004903479603 25.4333691639123 -26.7039097606168 0 0
-175.760698726656 22.7554566547944 -33.0013649950884 0 0
-125.80294636121 12.7746248370034 -22.5957773188423 0 0
-192.434961569254 21.274346327182 -12.5165755959401 0 0
-187.01234837581 -35.8811653242791 6.37852413852996 0 0
-129.735865839745 16.9770712009357 5.14579673587356 0 0
-161.677340860215 -28.3263361683596 31.0853834180475 0 0
-174.555801624763 -15.4060018727811 36.6480350485857 0 0
-167.905252639078 -34.3515622684721 38.1942081113893 0 0
-126.151810551356 16.9933523217696 -16.6299033926362 0 0
-92.679662310566 15.2271114248752 -15.4674844804493 0 0
-162.774818882959 11.1601362136536 -33.5916302887652 0 0
-5.75354703150226 10.4746380383679 -0.0843535347243388 0 0
-115.421864344071 -15.5191895466192 -17.4672528528357 0 0
-82.5478410978594 13.2949447347348 -18.1690270524694 0 0
-194.558130514361 26.9799314029282 -6.39405779236701 0 0
-153.794674551531 -11.7082617206596 22.6305176721789 0 0
-129.613279624627 -9.78898109263966 7.87256591305021 0 0
-183.955668745207 38.7577569638692 6.47516447841138 0 0
-200.393807980519 -25.5198054491671 11.4028839767515 0 0
-95.7089635455741 8.09280674063384 -23.830921032683 0 0
-195.020847538697 -33.8374225196648 26.506454568455 0 0
-171.800473172015 -35.7906408586844 -1.93737347341962 0 0
-169.228631730141 10.5938796824666 16.7596314127339 0 0
-78.0470647485355 9.90512407140637 -22.059594939468 0 0
-199.376368389098 -26.4026531849466 -2.81525353264466 0 0
-139.705943151917 19.2186162348809 -14.9759878183994 0 0
-103.587252961243 2.30666403910302 -25.519888409795 0 0
-176.832105296064 37.9981880325879 -3.51906865887178 0 0
-180.380677688976 -38.8856976578665 7.30027605178452 0 0
-11.955122266145 -4.01030839968837 0.205285604573215 0 0
-189.851014626891 24.6361869284985 18.2495636722664 0 0
-74.5783782135832 2.92062397801304 -24.9993137009219 0 0
-169.552610162622 -23.0203943043623 -28.4912288556975 0 0
-95.201843897296 11.037008807913 -21.6247330458551 0 0
-150.173917540945 -3.66811408805312 -21.8380178922718 0 0
-42.7118361645401 -15.8947173337043 -9.53705303245846 0 0
-197.120459510166 -32.5908607254655 22.8992322128224 0 0
-131.307012289796 -17.2200235798976 -16.0460078957582 0 0
-173.604329076461 1.65171034634694 -24.8555513886219 0 0
-187.889671935871 9.04116538208915 9.09716562805031 0 0
-161.597672622346 -9.14805602012929 24.3226610313619 0 0
-188.418588181173 18.6789808602387 -20.4488757403355 0 0
-106.73620384103 13.0673559533944 -20.3383976097528 0 0
-169.261929035779 15.4518171715858 -33.6483397275688 0 0
-135.114604218535 21.1979429969312 -6.82370127025436 0 0
-169.875041273993 22.4148982396975 -31.1920376740078 0 0
-163.312222036259 -27.9441364803912 -11.641019654535 0 0
-148.218598858905 13.7756313719366 -26.7198616248269 0 0
-185.699555048762 4.99880499296584 10.3763554277316 0 0
-171.183731918141 9.7234394677286 -30.5597180744013 0 0
-170.625263786946 -9.50028513675704 28.5058109596414 0 0
-176.080296403195 -6.40269397157593 14.10559288276 0 0
-165.177297250137 22.1697041962362 -36.1313179284983 0 0
-145.292088576828 -27.1315751421242 14.8848421750622 0 0
-182.78262878591 5.96862412829524 -20.0447282610862 0 0
-190.960765381241 40.3368005066679 0.712666657870703 0 0
-39.344872994812 6.8107228885517 2.4993015703802 0 0
-160.35434048999 -7.65387991774679 -21.683890699127 0 0
-149.067054981896 15.8063794277726 -25.5058045240541 0 0
-15.7497945696279 14.2300067381067 -17.3526883580001 0 0
-193.28181526229 -16.1028391872086 27.9680777908406 0 0
-194.446141043827 -10.4462813219291 11.3211498391533 0 0
-191.693667940371 40.0000298620195 10.3152206452518 0 0
-112.168357271744 18.6132746446788 -2.31058008534714 0 0
-131.881004792184 -18.7131841998586 10.460840253018 0 0
-191.313580608239 -10.9566009835717 -13.3116094769748 0 0
-115.264972191561 10.7919639031036 -23.2473688317983 0 0
-144.14624885577 -16.8958420505005 16.38087185551 0 0
-113.153151092715 9.22053228572769 4.04780225115675 0 0
-21.1722694830916 -1.34713709702087 -23.4901418975953 0 0
-5.3776819985452 -4.47182332386778 -0.5600848238611 0 0
-118.852741367297 18.5866701770113 3.78324910882573 0 0
-156.434530392114 -31.6327270426252 21.8384039823577 0 0
-171.231339094777 33.8021443465576 -9.93010614649704 0 0
-162.315227171795 -3.43714575437576 -22.191101733987 0 0
-163.298783548897 28.4724115260093 -17.4206768995829 0 0
-179.967663377561 8.86009349880837 -24.7584239863854 0 0
-144.490892150457 18.1396801121189 -19.5349798986152 0 0
-178.247042244418 -38.0493561587191 25.2883053688723 0 0
-192.566242424911 -11.0822643607107 -10.4319946930757 0 0
-165.409624320264 -18.6841233243882 -31.7950456072593 0 0
-84.5802922886369 2.56295935220111 -25.2527312412062 0 0
-150.286950983301 -18.6253587048308 -16.9387168211962 0 0
-155.937529998187 -29.5188119373918 -3.49898584313563 0 0
-134.790717797586 16.7117766723204 -18.4137950159472 0 0
-137.583282920935 -22.2495698089779 -7.98496667069648 0 0
-154.940603110559 -30.9838704111436 0.720631844672633 0 0
-118.214975217925 -17.417546854056 2.57163937708849 0 0
-157.927617335929 18.2983329890808 25.2695961493116 0 0
-140.275090878363 24.004358659659 -2.9264872854356 0 0
-191.204460732621 -3.15351695571036 0.469148851820104 0 0
-192.44413915672 38.8302637660867 -0.0703325668124197 0 0
-137.544483500167 -23.0317281386473 -4.8758998993154 0 0
-188.711815837569 -4.94437223425786 -12.2245445651966 0 0
-193.092338237317 29.1404084272523 12.4106118576766 0 0
-182.670033208505 27.9533717404786 -16.4343298390598 0 0
-180.851054163456 -35.0383743866269 31.1080416815015 0 0
-186.420959306273 -9.70522935093312 25.6610188851859 0 0
-172.147907083801 35.7995607046069 -7.0056491330624 0 0
-185.261047037354 44.9790408067425 12.0454846205625 0 0
-188.711426763899 -4.00287417505087 4.90981669526562 0 0
-165.274836573579 -9.55003848603193 -25.5456806642331 0 0
-152.72040021677 26.2992803451 -10.0575160853212 0 0
-150.035228832543 -13.2978020397268 -19.9562941138768 0 0
-123.860076330203 -11.6054094577749 6.08286928931911 0 0
-178.459261084297 38.9189701077225 -2.02493588812572 0 0
-165.915399356028 24.9174122792541 -24.399783282579 0 0
-169.456018805438 -40.609512512428 8.48461092666333 0 0
-184.485466170589 19.144795779827 22.247298370451 0 0
-71.8709994587797 1.78027652292706 3.14721781897051 0 0
-184.733767852374 -2.84413542836346 -16.0028769535411 0 0
-189.156765065861 -8.39462600602541 17.5216637703297 0 0
-180.564590399494 -29.7733060649785 -8.82685570148006 0 0
-164.694024698216 -7.31417005149315 -28.7064512314377 0 0
-145.671559462286 25.4118359928521 -5.08007389582842 0 0
-176.484797280586 -39.2022304400917 24.5506531100366 0 0
-149.579172569198 -18.4870911727404 26.8436451802157 0 0
-170.9015467747 -32.1113708803739 -7.28778827486986 0 0
-147.794481172723 -17.9885842805204 22.0044615650452 0 0
-194.705292799116 31.0601439416085 -7.67736861513056 0 0
-187.571646407813 33.543327058187 -5.07769822219132 0 0
-135.368276812618 -10.6754090702238 11.6589726924135 0 0
-69.0492295529054 -17.1930037123944 -14.6473975991456 0 0
-192.397238906057 32.2000457927897 13.8727260132157 0 0
-187.949126795779 -12.2232296813046 -18.1805947821786 0 0
-183.535483683255 -6.15570355359884 9.38815823363791 0 0
-196.266972064638 -35.585423587693 15.1641460866997 0 0
-199.112134921951 -19.1854287768131 0.102202923839173 0 0
-43.5123398599994 -1.78793055826647 -23.9057359163154 0 0
-181.736081857672 30.609663074419 -10.3988000526146 0 0
-195.558043369936 -28.2012071082364 -15.4046275570159 0 0
-161.820461037997 -28.9448058202118 28.6529823996648 0 0
-179.97237138409 -24.3045066600103 -16.7235687052589 0 0
-185.495255229649 -8.07683295349714 9.75839229698219 0 0
-147.559854978869 7.26131199711882 8.29830668091205 0 0
-154.659732621237 10.3803830311737 10.8947688520497 0 0
-186.747446860728 -12.5013484503234 31.4089857859505 0 0
-191.890785322029 -10.4044619490551 18.8090397930846 0 0
-161.928997441378 -32.0962610504787 -4.30501234220591 0 0
-179.711107954355 -35.8332868530021 -0.184525150068398 0 0
-108.611262351958 15.0664164609799 3.4081037629301 0 0
-141.171121925797 18.6787142729013 -16.7944084116384 0 0
-185.249297814153 -28.0710787906187 -11.0173588268984 0 0
-163.330618180257 31.964427507826 -10.0343610128511 0 0
-173.994769614356 -12.2575352532698 26.9779614120775 0 0
-174.376429465884 38.3086167131636 27.5276575538345 0 0
-154.613325406852 -12.7693957369027 27.1529083559813 0 0
-155.197489552517 -26.5565785459632 28.0984040311085 0 0
-165.895773620841 -17.3203571045644 33.5452892445392 0 0
-69.9823619087683 -0.131578578846964 -24.732233429491 0 0
-38.8233638190258 -0.466679963361969 -24.0740622055151 0 0
-28.6033270283773 11.2673816121826 -20.9575817528428 0 0
-125.357945334168 3.69179058738073 4.15632213990096 0 0
-195.303733621094 -11.6523842187567 13.5145810778937 0 0
-178.70564105158 14.3449933232898 20.1748668239974 0 0
-194.629111817734 -32.8310252025424 0.362616172783063 0 0
-185.085354220917 23.745571056662 23.8929508488083 0 0
-139.674088810447 10.0751281343152 -25.51444599294 0 0
-161.942021361585 -1.11615555647027 15.2861270424608 0 0
-159.36992814009 33.8118491720351 -6.71140729800939 0 0
-40.3129080120331 -12.0464612723283 -19.1031647901903 0 0
-148.175835507315 -22.1324712632896 -11.6097249057436 0 0
-194.056535865063 32.4015365981749 2.68546829244912 0 0
-10.0133211447702 -1.56412262358214 3.05913620133519 0 0
-191.177359238623 14.8483271763858 -10.6904298178559 0 0
-105.640976727725 12.1115761291256 4.13388332594048 0 0
-174.595943596268 32.9069726920166 28.983054416043 0 0
-161.982059864609 26.2708286038462 -21.0434639352104 0 0
-160.7643570472 -29.8146650887736 33.9981391767033 0 0
-178.451445029722 -11.1756924251426 24.673860835903 0 0
-159.486417531281 -29.9699839190304 24.309164973981 0 0
-177.963831035145 41.4101106067665 14.2577678816735 0 0
-191.445472193817 -9.04971817771087 14.3384316630466 0 0
-62.1084148710719 13.6066439726469 -17.3207253352282 0 0
-138.479423063312 -23.6576444009081 8.29710328024037 0 0
-198.835784184591 -25.0628090430656 -4.47588668441727 0 0
-168.902327438097 13.2905585839927 20.3176166164269 0 0
-133.591430760164 -18.4925523484268 -14.5154861761032 0 0
-2.53793132824678 6.65236920948586 -23.8138972681615 1 0
-190.594558583399 -31.8062064755377 -2.49844486984274 0 0
-177.110505225301 -11.8146777093304 27.1901321804367 0 0
-185.013613367272 -31.5930632876872 -4.60513456597506 0 0
-115.223616081142 -21.6554872561681 -6.61202483538604 0 0
-156.809350318047 30.1213582220488 23.7011606151749 0 0
-134.875181342879 14.8011427047166 -21.3595901186403 0 0
-163.993070243846 40.6247809089417 5.28953886271791 0 0
-154.217913433561 -15.9226726798798 17.7393845816785 0 0
-150.804082869471 24.7755814929561 -11.0532733252679 0 0
-193.695063529497 30.7035582578294 9.31685693444579 0 0
-199.324945107235 -32.9548829829532 5.72048440857107 0 0
-178.140585070935 -3.66882055196556 9.40436714652329 0 0
-136.009667295485 4.82860586737745 5.44705781438266 0 0
-58.1044893294797 15.2162481764501 -12.5259921779142 0 0
-193.308224022679 -17.3246294775653 -14.8757171269838 0 0
-35.0334551335192 9.33890359027527 0.561817493353146 0 0
-187.857278982949 -30.4657316298043 -6.25503957295483 0 0
-157.570246768652 -9.20395321330306 26.6876933602793 0 0
-195.994891342295 -32.7773630323573 -1.17602414249601 0 0
-10.6788795475951 0.609784179360019 4.03418598126923 0 0
-132.393845861203 -19.9542345120286 -12.2546403961161 0 0
-182.803393509246 17.6396945001835 -26.4323034501564 0 0
-171.268466921003 42.3537528886397 1.23109343295252 0 0
-196.334808859079 -11.5654960429946 8.34837246646317 0 0
-175.491745659909 25.4412844279075 -24.8362209963523 0 0
-71.6694452506385 -2.12299810288708 -24.2429633364138 0 0
-165.994864609902 -11.5326323721957 30.4507785323104 0 0
-155.590418710188 -33.449757677133 21.1762466882513 0 0
-16.4699081079046 15.2007786676413 -8.29794109912667 0 0
-167.142358489925 15.5602722486293 22.7876084079452 0 0
-178.406322189498 -39.1727984469722 5.49088466411684 0 0
-184.303132485587 -26.4042680093432 -13.6451629635514 0 0
-170.273194184329 22.5324370584111 28.9297017741783 0 0
-198.892939080871 -17.426637820067 14.1214396775498 0 0
-143.887672789882 -12.1770077716929 -20.0603355094825 0 0
-18.3290528339195 -11.4469713921568 -18.6949786848732 0 0
-194.94334075065 -34.5778378001385 14.3561645864004 0 0
-166.291903341521 21.492894470873 -33.228451034959 0 0
-158.358166316644 14.8891225423772 18.6842136317445 0 0
-142.809018289155 3.51404861330751 -25.0792851856085 0 0
-87.9794974877953 15.6199766736852 -14.4369114028788 0 0
-81.172956420521 13.4191005438729 0.622578098782322 0 0
-54.9776367251247 11.7142018765217 -0.108519589567095 0 0
-179.053759297327 -27.9103753706108 -12.2490259794273 0 0
-3.16544040782594 9.38824474821766 0.723083798136379 1 0
-22.9324033050607 15.2772125094743 -13.3046040351296 0 0
-167.303995478579 15.929804463499 -33.9428054310355 0 0
-58.9440943875667 11.1068603184514 -20.8910794960054 0 0
-170.591023151477 -19.0670557588166 -20.2622643055021 0 0
-34.7515214112375 -14.5575994636174 -15.7454364567705 0 0
-186.211125745784 -21.2566272215983 -23.8846913406141 0 0
-188.181745576606 44.0883248093528 7.40405091672388 0 0
-121.714414792346 -20.1515145925047 -12.0583173650662 0 0
-185.144480793208 29.4746065097548 24.3774873800822 0 0
-160.30372881603 3.90180792567402 -28.4848308756769 0 0
-179.144613691396 29.1087587908888 -15.2254982150799 0 0
