"x" "y" "z" "f" "a"
2.86147830845162 -15.5943968600992 11.0044001783653 0 0
-182.277639736491 -17.492857890622 8.35023764047857 0 0
-6.51322441312854 6.83332323285705 6.1635557483715 0 0
-205.988703458397 37.9516742624213 -10.8455823245931 0 0
-171.655852305142 -12.3550496378516 7.26832452021659 0 0
47.5187112732473 -12.1038673442398 4.47983586595909 0 0
-149.303715572054 -15.051237103152 6.83990138654306 0 0
-219.083843049218 25.1700689637935 2.46789942531407 0 0
68.0374178602619 -14.8593606624327 6.38879323592543 0 0
-179.258860255124 -7.10596477077474 11.1423566068623 0 0
-187.087803329616 0.799593108048593 -11.3522338867118 0 0
30.8627171155762 -15.2586922631857 9.70873370203489 0 0
-32.4028553484987 -14.2702784096118 7.43541234506924 0 0
-189.710518547436 36.9393483536911 10.1559043630057 0 0
33.0347049563559 -14.0762793319867 7.52835429414246 0 0
-11.0430740032497 0.58357924554698 24.6521843363056 0 0
-1.56616743675803 6.24259060608897 4.28698192809878 0 0
-11.1756081487263 -10.8327047767485 4.9944548816202 0 0
-29.0407630215713 7.87079918062712 13.2099585761763 0 0
-208.197004928554 39.0431337754496 8.72267365620658 0 0
-183.348011963181 -3.82632097217901 -13.3403707045147 0 0
59.5960200876854 -4.1775233874673 -1.93483038524498 0 0
5.31189403314239 -0.000479487767989463 24.6095303728829 0 0
-160.179089086584 2.58854757289945 -17.5877542258802 0 0
-149.047648514683 -18.5315945616725 -10.3799310028274 0 0
-162.673551828634 13.4694481881188 0.411207247897165 0 0
-180.689980409418 -16.780039490423 8.14362119204069 0 0
-126.514735529375 -13.7983436949914 -9.07795871267642 0 0
-128.361090815075 3.91564878495115 -9.14253928047451 0 0
-170.543975040983 -27.6624132188823 2.21413496981076 0 0
14.2274064194895 6.12377897478226 3.46513643489046 0 0
-115.697123706964 -4.9167092198943 -9.37194868714695 0 0
61.1875525738036 9.31110997071174 8.37657140265216 0 0
-187.044153630228 10.2495256395567 11.0961648663661 0 0
-53.3492881497018 -7.007255977508 0.446726682272885 0 0
75.7393184686626 -3.72933725515445 21.9883077729706 0 0
-25.4544225664781 7.86020854594145 15.1813983390125 0 0
75.0204113489973 -15.4490241010214 9.0800569936622 0 0
-136.082824949347 -1.99387858296135 11.2713866920829 0 0
-195.717029157786 42.1107349340933 -5.08780055218912 0 0
-199.836423902687 7.0492838350248 11.4142282553895 0 0
75.76667780299 -11.8583552656933 1.41444134594689 0 0
-210.718009943966 25.1371658796988 -15.9950653902313 0 0
-131.187056820599 -19.5677548282652 -1.24565444367806 0 0
-210.027501250175 27.7422205556015 15.8383588011523 0 0
-170.341263053386 8.56711316635483 6.64804779483975 0 0
23.9593533621659 2.14519472429413 -1.32451152825317 0 0
-124.7403254918 -8.35081123108747 -12.1589709330606 0 0
-40.7086777376889 -2.44533966509719 -1.19731336479693 0 0
-84.5014110864267 -14.6650188470166 15.2463560355488 0 0
51.5938879873235 2.65172801717604 22.6447965857533 0 0
25.5623657418619 9.04176075944001 13.6154727423723 0 0
-213.513356162873 9.93965681093993 1.53446876324714 0 0
-30.3283605904285 0.817091067712393 -2.10781228469265 0 0
-216.275701153265 17.5677123420201 8.4439051954095 0 0
-144.032666868798 -15.3357827627384 -11.8808111371555 0 0
-54.1380484401813 -12.123213712442 20.6393445342028 0 0
8.81384169762053 1.56000894164215 24.2283209529583 0 0
39.5393260126431 -0.18357373366486 -2.49126576076606 0 0
-20.774534838543 3.24835113150176 23.5343785496081 0 0
-167.191134019655 2.96449813226069 -14.0835387827274 0 0
-131.205225719898 -10.3737176881787 11.0696838019865 0 0
-150.339911314623 0.901181628076679 -17.485359277173 0 0
-43.3795803012118 -0.704121978031723 -3.05209293153862 0 0
26.6792094106802 -1.21037815049607 24.1579392438859 0 0
-175.066436074681 6.56818937421681 -12.2734968334001 0 0
18.9190560090047 3.43718322886901 -0.919268946971104 0 0
-200.073767935179 -14.9162050658033 -12.830812527403 0 0
-45.1589724135552 -1.13249102581224 -2.90818547381764 0 0
-215.696322606177 34.4126812274701 3.38158428995898 0 0
-19.1322018915159 -4.38075583129528 24.8577643891055 0 0
-197.647151140837 4.3419495206718 6.75391575836537 0 0
41.3829671013962 6.64611660156684 3.65433839636804 0 0
-193.68494889979 0.629864558646159 3.67658293293331 0 0
-50.8247270795341 1.08578754033183 23.1456520889333 0 0
-3.14860473541909 1.5135974966751 24.3747787207539 0 0
-200.578453645032 36.7461107559099 14.2417854732296 0 0
-181.224676735 -2.86249820499222 -13.8503237971521 0 0
-206.679013932341 41.9806741156304 3.37762052157728 0 0
74.7846626431525 7.3403442275692 19.4502784490689 0 0
-41.8241562666509 -14.5042921341749 7.10430435658754 0 0
45.0016663448573 -5.70837890547656 0.275000746869552 0 0
-104.453743745862 -8.03923378011488 -7.91543287319151 0 0
1.81199853486432 4.95951248808886 -0.368404175498121 0 0
-196.031833775024 33.0772133843581 -16.7220432917948 0 0
-204.390908253069 15.5827938699824 17.0787234866326 0 0
66.2806322757639 -14.1879769822303 14.8053612191299 0 0
-192.143036288226 7.34334037013038 -11.1848500797971 0 0
-216.947648610896 14.1644912550986 -0.471088250650678 0 0
-167.250784150197 1.56598544246853 7.35217350271065 0 0
-99.2147137487391 -17.4217889541546 9.31039429725443 0 0
-163.49849611831 5.35428191997279 -14.9812177009052 0 0
-25.7972303294768 -16.0016186927646 15.5636245056011 0 0
-126.249999418403 -12.37637613192 10.7128572679217 0 0
16.8027392527921 6.53455315878567 4.92334070775958 0 0
-66.7427377022344 2.81119935301432 -1.8943676026698 0 0
23.4759457065599 0.885454411211054 -1.84415472957751 0 0
-6.63968000512815 2.45093740375204 -1.71786243803721 0 0
66.1386725839038 8.32081391178753 18.9813973839367 0 0
74.1118309623702 -3.48165982690155 -4.27790291224528 0 0
-93.157274277665 6.23635462863184 10.983851015624 0 0
75.0671266160257 10.9509474715413 10.9655726549778 0 0
-183.273988121972 -13.1180139650434 10.7613926717161 0 0
-188.306881596986 4.75737368120367 -11.5079226708738 0 0
-211.368785543021 39.1040964108686 -2.45142402080478 0 0
-125.25293626771 -19.4498386583065 0.279809490092318 0 0
29.2309682998754 1.70575854751735 -1.80214976454001 0 0
-81.8306096505548 7.32211429004028 11.1329837430394 0 0
-138.362927669631 -14.0441114410501 8.32914422116131 0 0
-195.85096892646 29.4085724312503 -18.1779393798849 0 0
-175.098994762773 -3.25989374397463 -19.1735691608526 0 0
-173.354325860482 -18.1124718562634 -23.4860867749637 0 0
-192.914789612434 24.084758109333 -18.278142316325 0 0
40.748313652739 5.68288151375136 1.71185937372665 0 0
-85.2594878877021 -1.3214661171405 -4.16264224194641 0 0
0.117571010445562 8.20576215241819 16.8184224641234 0 0
-106.344143238744 3.96318520053545 -3.55391670808359 0 0
-189.63273613904 -24.3457338511735 -21.5260320396343 0 0
-173.992905059755 -3.87164858556339 -21.0027978444691 0 0
20.7772817692176 2.03627248569518 -1.3171496295063 0 0
-37.2098298897231 6.71232430985932 5.51642419398025 0 0
-97.8970232813452 -11.7538381169265 -4.28354735869556 0 0
-199.952551055003 30.5669993630775 -18.1873133965827 0 0
-191.298464626089 -27.5497618848879 -1.45978915997549 0 0
29.8557723853595 -11.8651409658297 20.2397229698961 0 0
-1.32834592738909 -15.9199596070395 12.2428467884563 0 0
-83.7011342637376 -13.6673640729553 16.4925011723237 0 0
-40.9786446470347 -16.5877892122042 11.7621153142385 0 0
70.5474871880332 -13.637113325632 4.12895448070307 0 0
-196.395012232252 21.4000683349278 -19.0493579664813 0 0
-119.802063018804 1.54460031662288 12.9032167547482 0 0
79.5077294990165 -14.1928924801337 4.35585271659983 0 0
-117.105595501585 1.39850409944732 13.4906257608079 0 0
-150.492623816115 9.07091708733672 1.28947352609651 0 0
-170.659420358715 -2.3381655274668 8.46067902666993 0 0
60.5778469101634 9.79113708231061 16.6867890581428 0 0
-128.61878960929 5.10510058907954 7.04023052451534 0 0
-126.237346189135 2.27221121186212 11.2010829165872 0 0
-153.418500759597 -14.4316177452715 -15.8120337586276 0 0
-183.944687868211 -9.25880862665622 -19.7912524703271 0 0
-84.797997900945 -10.8344498200034 18.5739197737449 0 0
-104.096345891472 1.24485842748426 15.9956203710172 0 0
-88.4604522167955 6.21988241979408 1.79902269547806 0 0
58.6842072392597 -10.8437281228356 19.4213570205809 0 0
-154.879581462916 -16.0247512118462 -15.1779570158928 0 0
25.0724494589009 -10.6703161959813 21.4882620582196 0 0
-86.5592675070503 -5.13739362720763 20.3749246960557 0 0
55.2319485929869 -15.2066808785934 8.13310893948256 0 0
-192.012714043655 -28.361757797323 -3.19159524046284 0 0
-198.655815896273 -17.9636923408285 -22.3879029661521 0 0
-88.1552821944459 -16.118753843026 13.1830638370313 0 0
-197.113094416953 -19.5432566573406 -22.0790776459116 0 0
-149.004715259253 -7.96664320746838 -16.3101675555959 0 0
-109.971903515199 6.02645814923645 8.45590889346034 0 0
55.8291110750859 4.23199708434465 -1.19409271897087 0 0
31.8041804095625 1.18134255563517 23.7631037513055 0 0
16.9581895262714 4.28856646188244 23.0132680684495 0 0
-189.304478964924 23.8632366314075 15.9135906534234 0 0
-36.7347446363517 -11.1402244596053 21.9919328865488 0 0
-7.04184323785764 -5.94122271384213 24.6341340734213 0 0
20.8691424232027 3.64374252097708 -0.952912190468592 0 0
-145.873809966163 -16.2468306187527 -11.6316997190093 0 0
-143.821711974621 7.4483647097853 2.10231959371908 0 0
-83.0527887140317 5.10847315865172 0.698567958350601 0 0
76.750349655121 -6.53081695560706 21.1552536380446 0 0
-182.973853998567 -20.9541868362269 7.5003571726351 0 0
-212.255180470674 8.98081299353062 2.90206114867668 0 0
-160.952070322116 -20.8487841228672 3.480672520479 0 0
34.0764641797475 -15.4851073890917 15.0770510213963 0 0
-91.5509770929426 -8.47530796042423 18.7400175815488 0 0
2.40882037710836 3.18426304437352 23.7231031736417 0 0
13.7193285199761 -12.5383361037763 20.3561002031337 0 0
-54.0999175478081 1.98705236233136 -1.77722474331828 0 0
-114.425653094137 6.635595588393 -2.13328025019716 0 0
-190.307299745772 -27.2726273385163 -9.63412434400377 0 0
-194.50769411427 42.8175157419064 0.696816327712904 0 0
-133.856375718391 -9.37956760448964 11.097669184385 0 0
-117.465479935986 -6.71804431605429 -10.5058733482596 0 0
-166.236258936446 -3.70568655981389 -22.4198396458306 0 0
-21.3995123289406 -5.37441926478095 24.7070494983681 0 0
-13.0835565674462 4.99728680073 1.2294445205646 0 0
78.1496442654741 7.79403835954084 3.09554758754578 0 0
-18.2592197312515 -13.5774352444099 7.0669063287212 0 0
-166.041936994941 -15.1612145929707 6.38931644923826 0 0
10.2497064179737 -13.3874687978476 19.6359591968908 0 0
-131.78801408923 3.09026638261261 9.3138062877966 0 0
64.0006323173932 7.02004734580095 20.0879008581447 0 0
-17.087003212796 -13.4585166399622 20.1654900072491 0 0
-174.219376960827 -16.4281754930211 6.61125071198835 0 0
-103.378682736566 -2.84054638098327 17.6036465489441 0 0
-104.345252751595 6.78110418019378 0.525754819586391 0 0
-170.648490803771 3.66193746050226 -13.7984281900168 0 0
-211.696519000913 8.18359143376991 -2.28039798286586 0 0
-20.9384612439089 5.52846889439652 2.17657706701887 0 0
72.2079184534258 -9.6344501678057 -0.127327507173439 0 0
-191.630752713455 -16.6193823520348 -26.3782232329818 0 0
-21.2120807171453 4.84471245826554 0.490585245020642 0 0
23.5464869911071 7.56204531730137 7.93496178473211 0 0
-126.680648929945 -18.1143579180919 4.69489096503433 0 0
-114.218247891759 -5.76721301906288 -9.89359102794492 0 0
-154.918080172179 2.8611841466898 -18.8683039471694 0 0
-193.346490294169 2.08843067375494 -6.04763554760536 0 0
-81.7145052312933 -3.69249180526358 -5.32183260744845 0 0
-105.760964981495 0.66973359697945 -5.47289424884553 0 0
-130.679963614656 -13.2532693607826 9.56199004948619 0 0
-135.825309056234 -0.586695020891621 -12.081184449314 0 0
-185.581838528436 -15.7454298595321 9.80933955569969 0 0
-195.509489916697 -11.3195289158637 -14.6255815803917 0 0
-112.973786599955 4.66854325225551 9.78081734561489 0 0
-176.302158364903 7.31375925273334 -12.0211293780296 0 0
-194.865201615997 1.51487645472009 -3.94246474447877 0 0
-164.785826834845 -13.1412037533725 6.73958035627597 0 0
74.7706745511832 -9.1712203424122 19.7702090892867 0 0
-184.932795544152 31.9295631046271 9.69881728729053 0 0
-185.978367285227 37.7981781736308 0.175975721299115 0 0
57.4718102189713 -14.6590600327385 6.6921931831183 0 0
51.1682295020381 -3.85100993236478 23.2434719581521 0 0
-147.900675784461 7.55543389154923 2.71544909924129 0 0
-168.346708339058 -8.08905041481492 -24.0735982755802 0 0
-19.130349856379 2.85214621211686 -1.52700763282019 0 0
-145.212844371903 9.23919600969499 -17.0673677188261 0 0
-201.393517764597 40.0490944878727 10.5551391478675 0 0
-196.377858349455 -22.0749894169054 -22.793662869728 0 0
-52.7466963873927 3.93606506572478 0.384174236596837 0 0
13.3519847132894 -15.8685080604333 13.7078648820066 0 0
-91.0787409314459 7.86459293808496 6.86313793939944 0 0
-148.667132936616 -14.6897668749135 -13.8849325654037 0 0
-167.899861408781 12.2492520453565 3.84925451181782 0 0
-164.571840279047 13.9449238633417 0.533486993575574 0 0
-140.331278007317 -19.9936968475827 -0.966436925367518 0 0
-186.703445836104 14.2664922696043 -14.2990795806147 0 0
-13.0715882229563 -5.31269536148305 1.75555306580927 0 0
-208.340209004796 23.7050222559461 -17.4863002588767 0 0
-197.239566744576 5.10190846221468 2.70223250897868 0 0
-72.2363556355455 3.24553199470496 -0.562917636997113 0 0
68.1383014560782 -15.4817490310689 9.26642301164681 0 0
51.3894086114846 -13.5350345768585 16.8271898129349 0 0
-184.931002650872 35.7382797368483 -4.87937752612107 0 0
-195.34626580504 -25.9389792414461 -9.02213577261733 0 0
-168.703815064939 -14.6817221860878 6.51683765431865 0 0
-196.75312821796 40.6494044081818 -2.70921136077544 0 0
-175.964101291536 10.3497334777975 7.29859200048986 0 0
-70.0811882688785 -12.1509318832091 19.3747594888336 0 0
-120.987222590588 -8.80195086322833 13.3778139011294 0 0
-173.673109920722 -2.72623903924842 8.85870797106544 0 0
-185.632471331214 37.0346854535833 3.26576046890914 0 0
-112.001087139241 -14.1555232445491 -5.31874376950284 0 0
-117.464907298735 -8.53182806394222 -10.2767958982232 0 0
-146.462492878261 17.1742902639477 -8.09390379733635 0 0
-61.2881868019272 1.03855721375816 -1.88788310042714 0 0
-177.015622385856 -23.9936128529356 -19.669622106735 0 0
-161.546658504533 -1.4961822051307 7.49477406108862 0 0
-202.394972853645 41.8279604291466 2.35560309980776 0 0
-215.841053216084 13.3411614665687 4.31830605627546 0 0
-180.380609371167 -30.1079078322359 -3.60690030093977 0 0
-32.5512839183899 -15.8297653938546 10.1361011688851 0 0
-127.545683997386 -18.7536250878647 -3.40703052981728 0 0
-153.034564028136 7.62095235113603 -18.5513918794394 0 0
-192.524542237432 -9.19907075473818 3.24444476335422 0 0
-196.507037514305 5.44215059692353 8.73997915922378 0 0
-76.3696488246588 -11.3959990841756 19.2057317627981 0 0
52.1151794642859 -15.5309549064184 9.35366894004993 0 0
-106.810965717899 0.324122190294131 16.0425069006017 0 0
-56.6176280203805 -16.2391489542256 15.6448956298131 0 0
-132.202697379793 4.06109942399632 7.96500119037007 0 0
21.5201785369613 -0.928478862525041 24.3632807637229 0 0
-0.790058781652639 -5.76540582383511 24.5377164964731 0 0
76.7606999988066 0.763593273323124 21.9869332963784 0 0
-175.383709647786 12.9196012777122 6.5455856366116 0 0
-202.073099505084 40.2533760128299 -0.200897235355583 0 0
-190.000387384725 -10.9974764680155 7.30191837439017 0 0
-178.70482778948 15.0931638906473 -9.16581679377241 0 0
25.8277961063908 1.82151419503512 -1.62264921444478 0 0
-155.1188720126 4.52755761132909 -18.9385183822602 0 0
-210.316767872881 16.647464958025 -14.6003530225839 0 0
-196.325116583193 -15.1045794875547 -27.6015400843564 0 0
-99.2319437182756 3.60012530521835 14.477073592825 0 0
-193.559367113504 5.75307825207034 9.2967687793843 0 0
80.3056590267069 5.47242056485462 -0.959300671950481 0 0
-158.434744443222 -1.70546346351755 7.31054797163513 0 0
-211.011214273638 20.4770710654803 -15.5860357486667 0 0
-63.8501748840327 -12.779027256873 2.93224900886381 0 0
-189.363611595759 -9.12432336155997 -24.8666225484054 0 0
-57.0372752254197 -3.69655689533554 23.5701249713867 0 0
-62.0426706794669 -7.16416676450626 22.6647896329742 0 0
-167.483614068576 -28.6877646590713 -6.80787160634533 0 0
-219.133808739334 22.4434400088131 -2.05769511683498 0 0
15.3808299033296 -1.11057179269711 -1.10695385810702 0 0
-49.8219720848125 1.73854932885964 -1.99747116749534 0 0
84.3905229631586 -3.89435363258136 -4.66473679905529 1 0
-183.948926170781 -8.28825484787761 -15.5418109661863 0 0
-218.717927258192 28.4186457464093 -0.406817066076575 0 0
-76.7236043900779 -10.3985149473969 -0.961047180686513 0 0
32.2331469289328 -14.8065167254176 16.6562522364965 0 0
-82.5930260967743 -9.77978771386059 19.3824822975041 0 0
-165.481700892264 1.48080252386077 7.33467674344593 0 0
-36.7910087476433 -0.422368912601157 -2.6502251330776 0 0
-158.807960109483 -15.3169252229528 6.58990034730035 0 0
48.2052641610891 9.97380561349929 13.1130823865892 0 0
-90.7391161880693 -14.6059991241763 14.6798416052926 0 0
-107.97708771094 -5.92954709137458 16.6384291418292 0 0
43.4940258244799 -15.7575011239941 12.5364562144792 0 0
-183.277683192168 -29.8799471721759 -9.96996570083023 0 0
-212.816473127528 9.38503124406257 -3.46279374200657 0 0
-189.693024872463 19.9777550982949 -16.4364557937988 0 0
-183.334530384575 -9.97587220468052 -25.3165865399358 0 0
-74.7371685237853 -5.72710417294619 -4.06855109258127 0 0
59.4291400454794 -15.4735998586042 11.8049926936016 0 0
22.3259725971062 -2.87169477427005 24.3614241341478 0 0
-179.963560892193 -32.3882816041453 -7.86003570468741 0 0
-189.715705991483 11.9611143664256 12.2866717883375 0 0
-205.675648048698 21.9800078397657 18.3775558411906 0 0
-182.420882199385 17.4884664741758 8.89812330134245 0 0
-129.697888641539 3.93721692207908 8.44329987653888 0 0
-149.558884392991 18.4628964248748 -10.4065280316772 0 0
-185.44991597762 5.17941470539514 -12.2039215749373 0 0
-178.541332637939 -27.6502150364057 -15.6876866809764 0 0
-192.933682383118 -29.1113620367217 -5.22242979722172 0 0
-196.820349365435 -13.654836719263 -4.28719817586001 0 0
-211.199351902448 10.6206860979431 -9.24574695452371 0 0
-206.243750326676 30.6336299458801 -16.9269409185707 0 0
-168.422125469975 9.3202982247912 6.01540552009527 0 0
-146.215810765362 -12.1856168868907 8.41301328772664 0 0
-159.061799442472 12.9774980162377 -0.65071803303176 0 0
-147.445665700966 -16.9502601095441 5.5449406234598 0 0
-181.343534916508 7.08536525928483 8.09508128124089 0 0
-123.60028120439 6.14103138626985 -5.72339304651881 0 0
-168.402093267853 -1.30642236864407 -20.8871551838173 0 0
-194.624881483073 -19.5915199525348 4.35742233754024 0 0
-30.6685146671984 -16.1129057428274 11.1223231632495 0 0
-161.73541230425 5.45903376774254 -15.8840877234811 0 0
-179.882810494878 -6.35737655916718 -19.1862763997733 0 0
-105.441181156421 -18.9906671385826 4.84051843912791 0 0
-2.86984142368719 5.01111631093309 1.10211999992533 0 0
-215.278522102124 11.8614055762466 -0.560027226747436 0 0
-194.236293230349 22.3475349653277 -18.6600594332672 0 0
-200.15432491708 38.4611631500348 -5.24437057007596 0 0
67.743826857216 -0.158241375436734 22.5201497165233 0 0
-199.17402039992 9.21797762011845 -9.99344363937763 0 0
-128.714441912559 -19.3313702236396 -1.86865055317365 0 0
-183.746916365906 -9.1701947482979 -16.2969437295969 0 0
-108.354964433542 1.36187499290498 -5.55851483360355 0 0
-106.987108441953 -3.52157189347417 16.9904114161239 0 0
-210.705567575818 8.05901311733751 -5.09443378778879 0 0
-197.13677331049 -20.7635364193441 -20.2252534142152 0 0
30.8784712606158 -7.21843921638778 1.88187133319798 0 0
-133.936778042407 -6.44499440047564 -12.8247632171262 0 0
-190.79154131448 -14.6312706928842 -26.6087053951446 0 0
-59.3996378492198 5.39152435663329 2.86367825862489 0 0
-117.857979967533 -16.8952850029652 -4.22959843623796 0 0
-167.505452263051 -28.0441728865965 -1.15259262788642 0 0
10.9375341833716 -2.16643010843327 -0.247427431566627 0 0
47.9309075870343 6.92417827717026 4.33359447517462 0 0
-127.022727991767 6.55703508116201 4.92436408281944 0 0
16.889046546408 -15.0580824942808 16.7897339228194 0 0
83.9387696956626 -12.1013298052221 16.832599919282 1 0
-60.1885494048625 0.028515678700983 22.74997993356 0 0
-133.763420431572 -19.6025058128434 -0.211220649969909 0 0
-156.315409802105 16.1556457264213 -9.15322980050219 0 0
-191.472581467207 -8.5540441883483 4.36916890221675 0 0
-114.332132431719 -12.2377203168377 -7.19354492171907 0 0
-19.4708718802342 -5.47111660385089 1.75638158007101 0 0
-48.4895877662186 -13.3325377940223 19.9093633613713 0 0
39.5541875026225 -11.1519925280694 20.1843621838639 0 0
-173.873709221172 14.466857410731 -8.55010667251078 0 0
-184.13742899898 20.6009461679153 10.0572644440287 0 0
-152.045089229199 -12.0240855221177 -16.3543092612117 0 0
-124.742522752237 -0.158193429973745 12.9889456535575 0 0
40.056410639239 -15.788387613213 11.7923418282798 0 0
-153.189875125217 4.36818918676252 7.52948114858302 0 0
-138.252295637107 -7.70752128230996 10.5330486766402 0 0
57.9035115966597 4.34288028107201 -1.05027814939495 0 0
-8.80832139182136 -9.9520285293525 23.0337534713191 0 0
-86.1796588597893 -13.6014929130265 16.2674433728784 0 0
-195.595770124441 -11.6471684537067 -12.1640062671805 0 0
35.0299961913372 4.99604728171233 -0.738855193562854 0 0
-146.619031847969 -6.91744088701833 9.22690076978152 0 0
-13.3371630683412 -3.74345009349425 0.79532483081356 0 0
-196.675530135411 37.7175863205109 13.0915012591009 0 0
-52.8846875958291 -4.46189109812684 -0.813600872576729 0 0
-47.9428545910121 0.765911881211381 23.4576774054387 0 0
-183.849397524611 35.0295616430178 0.0828548178336399 0 0
-193.593689502771 -1.42484367073317 0.686672073897127 0 0
-180.147572173988 -26.5116488233402 1.63368926014197 0 0
-167.933161869261 3.32069616557966 7.09373876462393 0 0
-184.833204769296 -25.2389242642213 -19.4100463336291 0 0
-190.025028161822 -24.8629527433862 1.9801786267605 0 0
-70.874291976394 -17.5110910218254 10.3742577696645 0 0
-68.4222754906543 2.18749997510145 20.7623282534874 0 0
7.32335823938077 -7.43723118853287 23.9317031068391 0 0
3.31445655952675 4.71193901274429 -0.63138859544218 0 0
-186.753071865745 -26.3362687972958 -20.0889062623505 0 0
-189.935088799141 10.8440101566173 -13.9046551174216 0 0
-3.80400654804138 -1.46525706087991 24.8871928216676 0 0
-194.164034113604 -10.9123610279832 -16.1174629719844 0 0
-194.238628682689 4.46588261398499 3.05568627047898 0 0
27.9338028630572 -12.3948556731119 5.57477716458463 0 0
-199.574219863212 5.19485281141617 2.90912856590249 0 0
-148.564152646442 -21.1351448796077 -4.33157329327379 0 0
59.2822935847468 5.86453185065957 1.47659964361966 0 0
-102.241111853195 -4.57211151759301 17.8744491485108 0 0
-183.43308506073 10.137066632217 9.6205936444737 0 0
-27.455191590418 -0.901570925109057 24.7285323885031 0 0
32.3806439425121 -12.6438045917605 19.3942800917193 0 0
-17.5861102463532 -2.40203741839308 -0.0331476642452084 0 0
-67.4385302580626 -17.2003369458056 11.5590751535407 0 0
-192.437435862788 41.7709027761865 2.65817356948769 0 0
-186.257229764181 -21.5003383891726 7.30316058312534 0 0
-128.334821150715 -7.63856685690215 12.4868168848756 0 0
-166.417411786211 -0.0353165595760211 7.98066728066475 0 0
-138.650679037202 6.82112589054382 3.41373586645298 0 0
-117.680896505525 5.11601585959607 -4.97774930793355 0 0
-198.857856246288 8.37254809776751 -9.05582984563232 0 0
-144.54102541008 -10.9476304858945 9.02722162929057 0 0
-68.9238102883125 4.45951722982782 18.2438384216922 0 0
43.8335441605439 -0.556173055596137 -2.71975849932464 0 0
-194.823757386322 16.6718212731756 17.9770144485347 0 0
-145.21632173313 11.9614271881488 -17.7067976947017 0 0
-192.676276178976 10.4956250737161 -13.3771204379079 0 0
-98.9186873373541 -15.8037227146701 -1.11126796114502 0 0
-132.808356096627 -14.9538798986083 -9.61567230237519 0 0
-62.0214888463109 3.79209211899195 0.264389949791261 0 0
-213.747179831389 15.967449479001 -11.121330219874 0 0
-66.0124091298948 -10.8925546854792 1.05548826502684 0 0
41.2260423237557 -15.5009263657018 14.2307221073058 0 0
-112.521167372182 5.90305736614558 -2.72455861518734 0 0
-195.085606553387 -22.7475687189036 1.03783542938148 0 0
-157.438915480718 -22.2994384473063 -9.95127647325982 0 0
-80.8517610722789 5.0512262926808 0.793836724867648 0 0
-199.348034140558 -15.1618847637037 -24.5776190250333 0 0
-188.170830956598 32.433073025531 13.0430609809245 0 0
-195.945841604702 3.18438900377141 -4.17676411134121 0 0
-189.028836541834 -10.0116380338161 -18.0345699378642 0 0
55.8635239815306 -11.4463510054545 19.19172337696 0 0
-142.490562817022 9.66487998621749 -1.34992055974435 0 0
43.6645943047749 -6.04705023782315 23.0713496164834 0 0
-204.412612327923 32.3571309563684 -16.8198702866503 0 0
39.2481720189525 4.58037899701287 -0.864051238120579 0 0
-186.535774008607 -22.783825309672 -22.0837202999068 0 0
-208.391730469613 37.4972184749056 -8.27849544020193 0 0
-138.742944348999 -19.3670782368223 -5.2673525157564 0 0
0.87778763001775 -6.42893282366596 24.3616149312134 0 0
54.5128534802213 0.712651489088942 -2.16721431496881 0 0
-184.096664659861 -16.7539522923144 8.89740512283368 0 0
-168.652216049894 -29.9594558385837 -5.81241576642869 0 0
-148.876322327487 -18.347596497223 4.0055029770134 0 0
-196.182904863525 14.5424603443553 -16.9988640395573 0 0
-185.340815806228 25.1902790706826 -8.04616809472758 0 0
-182.523089016865 -8.59446658524009 -18.7324483767587 0 0
-183.888182288149 30.0219829860508 -8.78566479698551 0 0
21.6395006443706 1.19653424050853 24.0772571603006 0 0
-191.908305464685 -7.65747783983819 -7.04039148155877 0 0
-188.596757871439 26.9605940584654 -15.6672382241287 0 0
-39.7884644075327 -16.4247163760954 14.4476194250855 0 0
-185.198796529105 -18.6425566094228 7.62867402581498 0 0
-29.976771006727 -1.15451071967242 -1.46843325176939 0 0
-64.3146828241573 7.82009688579902 12.426264537829 0 0
-160.960726365794 -19.1139365415837 4.76213581322939 0 0
48.9838240481368 2.18196490722764 22.8695099727812 0 0
-153.014360644315 18.1299740476782 -11.5919545697275 0 0
-163.243965330226 -9.31307200380297 6.58257633638506 0 0
-1.5420910361479 -11.8160988145702 21.6681296864811 0 0
-178.457377518993 -30.0852650724333 -3.20556774265686 0 0
-188.953408257593 -24.0147049992675 -20.168707258694 0 0
-176.605415714647 -26.8698134040082 -16.4574878371757 0 0
-164.928222086984 -10.0062708588073 -22.7040876682507 0 0
-191.201121236539 17.9609570156697 -16.8528069454802 0 0
62.8540120183001 4.19416537332815 -1.08703249468728 0 0
-179.184136958794 8.36524685051093 7.89571774353588 0 0
41.7005832718381 0.615352670638966 23.579048642156 0 0
62.0534712200551 2.59344498163729 22.2736506896073 0 0
9.00871487976196 -13.4003589200029 7.38665048448649 0 0
-62.9144341847043 -2.49132259932563 -3.14894196568053 0 0
62.0662720200861 6.39016185907387 2.41127331845146 0 0
-191.429534611626 -2.56544219673402 -6.97081739571921 0 0
-192.885865966487 -11.1427613927547 4.09552615268535 0 0
-157.164111506688 13.60441788439 -12.8935461070662 0 0
-57.6012359514975 3.95172624271988 20.4611939165921 0 0
-110.240595548078 -4.71614868536682 -8.8455711175298 0 0
-143.027668175348 14.9805386102582 -8.1714507399574 0 0
-212.412553104868 21.2976470850611 14.5419098922658 0 0
38.747981782176 5.40897250497138 0.620748634558669 0 0
-39.3831011764534 2.95711978018988 22.8800141206232 0 0
-163.400599359478 -25.5962843882405 -10.9619643961583 0 0
-8.16037999279425 8.13908845209487 15.6374217501845 0 0
-112.343928316802 -8.16840865349428 -9.2199636193942 0 0
17.3436530009172 -0.402811112161454 -1.7325978841624 0 0
-131.882945819338 -7.91619221823463 11.7710872915641 0 0
-42.6516021883149 5.79686955789339 19.7943651710453 0 0
67.8080105552205 -5.0599371027238 -2.41299295950539 0 0
-170.78070601911 11.2399595307988 5.5503780074351 0 0
-172.941057849378 1.37417898172404 7.27308501152731 0 0
-34.8816711863056 6.91661806266537 6.2419354946328 0 0
-157.712634884489 4.30229571624377 -18.7458074285444 0 0
-196.237827760394 3.48662900572856 5.91485470217029 0 0
-132.063491168441 -11.6754539237256 10.3234416625144 0 0
-195.199302470974 0.677568385248278 -2.41363198710092 0 0
-217.884215059322 21.4261041066787 6.56702165278264 0 0
-184.028989966531 26.3067123670612 7.52453051157536 0 0
42.8312056225114 -13.9230101813183 17.3239250114526 0 0
0.5826623568348 -13.0718857095538 20.3623517089924 0 0
-164.012500222126 -8.42791693352222 -22.4571418176906 0 0
-97.3521627414289 -4.62932592166955 -7.55290066294118 0 0
-162.925367044606 5.05829155676175 7.43272379606232 0 0
-195.365881148464 -15.1458391513088 -28.8240463695121 0 0
-193.131066324374 -18.9139064964172 5.9242373255087 0 0
-42.8940135183647 7.57117536851127 8.99685794724303 0 0
-97.3119551651502 -14.4017141039968 13.9865697197735 0 0
-198.12733482592 8.93333269072933 -10.9217547636648 0 0
33.4023246253849 -15.6588066211766 10.6016987923362 0 0
28.3043580130637 6.70188932117394 21.1210120643106 0 0
-183.37903936225 23.8918706946954 6.21332141471547 0 0
-133.625065348258 4.3774264545165 -10.7475490190467 0 0
-185.952460923385 12.5373265320815 11.3581767764292 0 0
-107.898177613209 -16.101634159101 9.95078624068544 0 0
9.52899327818737 -7.99039377529018 23.6746165682918 0 0
-191.266684909892 -10.075689909226 4.51922061622117 0 0
-172.194466436539 -31.770727826424 -5.32917208101576 0 0
-192.496650944032 -15.018728894648 -27.1168455077962 0 0
-113.413711114511 -19.2346937977614 2.5368245967521 0 0
-203.185664994074 24.8808025898123 -19.1329578249994 0 0
-199.688044631744 8.11630982295844 12.5075319831713 0 0
-171.839951818799 -5.66012280973147 -23.9592322379898 0 0
-45.2803591419904 -9.97803898122732 3.01197146601125 0 0
-102.875314068038 3.35240942237172 -3.57677942266049 0 0
5.52327042061723 0.474189331047052 -2.03906197119323 0 0
-139.256091550942 -12.7183172881827 -12.7722567422541 0 0
0.199000792122429 5.02670603674523 0.0685335744133868 0 0
-190.5527115682 -8.92932974472333 5.19480835387903 0 0
-47.8894958734682 6.55924474186352 18.1816202868753 0 0
-195.215147386855 41.7187881089684 6.10849460282676 0 0
-32.2156912088496 -5.79421459915789 24.4491368198155 0 0
-197.776724978287 40.1040261487165 -7.40867726802169 0 0
27.8674971206868 -3.44216532833806 24.0981593632941 0 0
-176.644078714977 -25.287136455952 4.12346302585589 0 0
-215.546004956893 19.7358253926467 -10.7558901226386 0 0
-134.29412008203 -17.7412328331525 4.7237836085074 0 0
-12.7659568114308 -0.418417726545561 -1.13669422509139 0 0
-114.671333626654 5.84874338015965 8.02954510929255 0 0
-129.846745280596 6.84801163260619 2.96088705476245 0 0
-116.75681821265 -13.2619645661972 -7.07796323318602 0 0
-192.979122129661 -13.4174794084774 6.16419590581709 0 0
33.0487659180811 5.13779681924278 -0.322725317988908 0 0
23.6743182372176 5.68923366730949 1.73378036490346 0 0
75.2805483516519 2.74411410813366 21.6485259857361 0 0
2.71899710260413 1.48558450979336 -1.99536382072138 0 0
-196.609987943512 -13.1779873588914 -2.41174485078166 0 0
-183.562879616531 23.4184590472246 -4.88497898663243 0 0
-73.0986035006442 4.27512800208806 0.578918894487146 0 0
-181.299035332049 -28.8161109600368 -1.44735787456432 0 0
-67.5771096850565 -9.02577366055158 -0.307848332182692 0 0
-200.325491164665 8.42834944557632 -8.10882668910802 0 0
-108.841296245272 6.49777798226569 -0.35530706788129 0 0
-22.8928480351713 -8.25309244510936 23.8216734098224 0 0
-187.160665418571 -18.1601727835317 6.82721490696595 0 0
35.7714214916294 2.00956063164267 23.3983640622401 0 0
53.3034235551099 8.52376474484808 18.716588035834 0 0
-202.515006903696 8.28329939203473 -9.48148748549311 0 0
46.3582301473928 -3.56527175330772 -0.917590921622267 0 0
-204.537745056414 41.6222159261814 5.65716758038887 0 0
64.2373652709667 -13.3790680912604 16.1632926913768 0 0
-140.568439158404 -19.7495360727141 -4.92547468558414 0 0
-198.34947291705 38.4305760939832 -2.69968675580948 0 0
-139.563987980388 -1.42934773600172 10.3655273595762 0 0
-106.532891319277 -9.22316517305818 -7.78660436717927 0 0
-201.705625898238 36.0713188152929 -14.8515375044575 0 0
-164.566566311326 0.223341807092332 -20.3384693858937 0 0
70.5571418980309 4.85677017100284 -0.832698182916656 0 0
74.4032887271254 -1.02526431945709 22.2416016878087 0 0
68.8639162657813 7.70986643191904 4.20997474352067 0 0
-121.985474613208 -11.7100422541526 11.7021558013213 0 0
-22.1558408361896 -2.99693919677982 0.217222941823502 0 0
-193.706964610909 -3.56922398948776 0.075691946438477 0 0
-130.725062336405 -16.4069692669388 -7.76475069551388 0 0
33.0756010816294 -4.3012554925918 0.349820444088216 0 0
-57.8690829744245 -5.97760267139842 -0.52231475433023 0 0
-185.543209901476 -8.90815108094842 -24.4237610709754 0 0
-66.5463737855263 -1.54513185409448 -3.307824748724 0 0
-196.866564072835 -7.99260575606807 -21.7367176158327 0 0
-143.472064842026 16.1986630770134 -10.4205789750218 0 0
-110.165458913229 -17.4461707670744 7.84578913760372 0 0
-207.963362475886 4.96386100301199 0.538882672774765 0 0
37.3493842640138 -5.91817837948618 23.3147656313246 0 0
-102.378065412246 5.78792597712168 -0.733210093433809 0 0
-176.429300772651 19.2194170341684 0.750157008851412 0 0
-38.0709081678783 7.81339603090138 15.1165705465255 0 0
47.6172172048354 -1.95841123429857 23.46921243775 0 0
-200.486972897053 6.01334298357599 -2.84063391420497 0 0
-23.0691841949712 -3.63195564419014 24.8951301523673 0 0
-196.512396710423 8.70333115218835 -11.0851832445941 0 0
18.2248526381547 2.14235087149173 23.8970745657198 0 0
-197.124940593515 -8.98516921150275 -26.7448295434792 0 0
-173.125025518721 -0.222681687248593 7.92532820190456 0 0
-153.113040389449 -21.1372748433348 -8.36648867945422 0 0
-138.005037470695 -18.2613247278748 -7.32403669768502 0 0
79.4608172120988 0.109715165290663 21.9231927580602 0 0
-189.571407639581 13.0893049647291 -15.3569747859214 0 0
-40.2061563324518 -11.8648229670226 21.4191746695406 0 0
-128.573032449149 -18.5342847011464 3.69375704245435 0 0
-183.883096770061 -9.65612581182743 11.362708098309 0 0
-70.6509112111011 3.35269297799818 -0.513864267326763 0 0
-176.029423099854 -27.6726512122866 1.57791820305499 0 0
-93.3721010262386 -12.920221618367 -2.51471870027707 0 0
-191.455133225428 -2.46627703265253 4.90716512482831 0 0
37.2593103993079 7.73985922072739 7.09312615726684 0 0
-205.440666996781 14.920057777617 -16.4342147129144 0 0
-99.5676341818138 -18.71117351792 4.77550690291787 0 0
39.0594516534608 1.87348321961882 -1.75984835034965 0 0
-80.9513758137722 5.39003710607946 15.0139997265781 0 0
3.59715248576774 6.95480249315383 6.7295048993922 0 0
-9.12175894866377 6.38822369511397 4.57262309629159 0 0
-171.687843048036 8.9996838285047 -11.1561388391764 0 0
-168.12119887196 -20.202973606545 -22.0623386127924 0 0
-168.25430726099 7.54074564715183 6.72158901662241 0 0
-10.1461560420012 -3.56327127508906 0.793211951575558 0 0
-180.46922286306 -6.37412634561368 -17.542609543362 0 0
-146.226323555132 17.7174632485331 -11.3175375150267 0 0
-20.7636756351767 -15.3711718940186 9.46501256851586 0 0
-190.688208952011 35.1917207648774 -12.8408299997663 0 0
-144.341283982277 14.3660455812023 -6.22923465214069 0 0
-193.69879354263 -24.1262521956336 -21.1764357679759 0 0
-94.3315562529463 -18.1524281588922 3.71031305020494 0 0
-128.586965864085 5.99872579973882 -7.87922263337242 0 0
-133.245434613312 -4.15380442465308 -12.2035792488536 0 0
-38.4613794688402 -1.45350982278628 -2.10389597031217 0 0
-193.6338251038 -6.38807105022328 -0.993833200353734 0 0
-122.761976487879 -3.40298606314381 -9.86058078726943 0 0
57.4391707418176 5.63690616595069 1.07289195413759 0 0
-198.22880109933 -20.6380267476109 -18.9139276502991 0 0
-168.339525175085 -18.4808705332731 5.56670839306235 0 0
-115.616534995906 -0.165537497016106 14.6840839165521 0 0
2.55730146346792 -7.54827146457081 24.0412396296009 0 0
-67.3899128326483 -17.1004454518966 8.57152194043967 0 0
84.50717396164 7.76564115937209 2.04045314501618 1 0
-110.604233691038 -11.6767004445526 -6.69982100684313 0 0
-110.067552108436 0.755381753753673 -6.22566325314688 0 0
-118.568677633403 -3.23034817577355 14.79445768362 0 0
-123.306823560498 -19.2893409307469 -0.953568356934503 0 0
-190.602728551618 -5.87136678924694 -7.70934345452314 0 0
-218.182036527664 23.0776150523396 -6.57718937902078 0 0
-192.872915666125 -24.0240971473687 -17.6173660771861 0 0
-195.8885008139 41.4933891998023 -7.27494821837704 0 0
-200.194366248754 -23.1459820655024 -11.6930392204495 0 0
-206.879198341747 40.6340472455352 6.8753386615957 0 0
-202.525541711695 17.1334631995247 18.164381098794 0 0
-190.231893106641 10.4431641026349 11.5571884177908 0 0
-193.090535144502 40.0203948737277 8.38868383336179 0 0
-187.027969411511 -28.357298992028 -10.0092223941745 0 0
-87.7185045087114 2.21050791508191 -3.26198065625363 0 0
63.9146995780652 2.06754862929001 -1.51269362505844 0 0
-17.5263216270605 4.49160969342135 22.7434244944291 0 0
-49.911435197684 -16.8183768683545 11.9144771954245 0 0
41.9029069737943 -10.660929288918 20.4945742691108 0 0
-191.084259561981 -1.24648507220393 -6.84524467774126 0 0
-89.1544007554051 -9.62029500437409 -4.26120432845191 0 0
-152.692873559979 6.27216037429751 6.29610619786919 0 0
-138.189083480601 -19.8558825901764 -2.50760984448282 0 0
-181.244474886838 -7.11269228779792 -22.2637336000032 0 0
-88.5814568245435 -9.29536727338195 18.7917100105195 0 0
-152.239397920404 9.51382617882724 1.02883128302811 0 0
-158.589575642755 5.81850663518093 7.24824141461241 0 0
37.0668679204829 5.82104237972673 1.21301516927659 0 0
-142.83221961652 -3.83704673383367 -14.5848714450392 0 0
-204.249232720478 29.4530934009108 -17.9626245316601 0 0
-154.790086287459 7.62232906569955 -18.2005210769497 0 0
1.09510109953256 -11.3864894123903 21.964966242279 0 0
-182.182015496035 23.6552667172814 -0.791854579594949 0 0
-159.111769589598 -23.1662256716133 -9.71314268184344 0 0
16.256771880118 -0.942835633177975 24.4691544742922 0 0
-99.7844824805795 -18.4224857850593 7.21399648333057 0 0
-182.976488150311 -25.5105622011757 2.5574604381606 0 0
-206.518257699723 10.5680911229209 -13.6286997701718 0 0
-203.230373382031 40.7273413910962 1.13090284578569 0 0
-177.697420641051 -27.1104017302408 1.40854048208045 0 0
6.8535265988401 5.31965121005684 1.34237548791242 0 0
-10.6035891862327 -14.5460641303058 8.5019892596166 0 0
-100.720082668207 -5.81525661120195 -8.33772109809217 0 0
-198.499502161336 -9.29410046326409 -18.8354357138643 0 0
71.8331394748374 -14.6592674315857 13.6865695169291 0 0
-200.011477881321 9.67945456813213 14.3542787755094 0 0
-172.265009703555 5.81821394042401 -12.7007616770618 0 0
-6.62362479822452 -11.5017630960092 21.9797708501594 0 0
-188.536976415215 11.8453532663742 -14.292050493369 0 0
-187.847155291006 21.0293076680025 -15.4633883187182 0 0
-38.6277471683658 -5.1126053592828 24.4086230570929 0 0
59.2167252507323 4.68368085890266 -0.849566943020506 0 0
-184.440517499112 29.8988487561539 10.1790885624366 0 0
-175.531470625155 -11.786631651168 -25.3824495660719 0 0
-184.843848321011 -1.66121113390749 -12.267468597172 0 0
-194.53573359902 -11.9976794825915 -28.9602490185452 0 0
-184.208931096702 -21.6646814217868 7.50142185866743 0 0
-145.258615575715 -13.4605689856464 -13.9187042372628 0 0
-136.850514549787 8.79113691186233 -10.3055278042433 0 0
-174.470148587516 -9.16010541463019 -25.1473716564668 0 0
-195.717595829121 -6.55401625794758 -24.3586590145263 0 0
-204.468083295399 36.3541794636914 -13.9460728946623 0 0
-126.882035995346 -17.5550649752113 -5.41599611716793 0 0
-181.822276370907 0.582075408148804 -13.0615087645515 0 0
-76.4094688074767 -16.9472611410711 6.05141642752469 0 0
-136.408672488638 -18.9985926499847 -5.4002622657908 0 0
-152.672896492244 -7.10554906496282 -17.7407250785372 0 0
5.53057713723836 -12.0006073423966 21.1966963131985 0 0
-56.6942582668507 3.53503995167448 -0.253247396097789 0 0
-79.6173770926445 7.3651812965748 11.5689565819848 0 0
83.7282945618079 -12.2558052161712 0.894359189424349 1 0
-161.115357211536 5.67525258732195 7.30912491239438 0 0
-98.1442654054457 -17.0223901331806 0.496296716736815 0 0
-188.957287809419 -25.6224107786763 -16.5121665296366 0 0
-179.043953548256 -21.4888466459232 -22.4431022261442 0 0
17.6263204217598 -13.8146410457872 18.721000339388 0 0
39.7498000248096 -7.11582260072878 1.43961892057662 0 0
0.725374159988948 0.66934894145737 24.4873162694134 0 0
-6.84362506219693 -5.13292984446106 1.63957432741868 0 0
73.6611801408932 -12.3140627034408 17.0067356439928 0 0
-79.9222082875373 -16.5634408315677 13.3493477251361 0 0
-195.323192484144 -18.0364271960346 -26.6851853974538 0 0
-159.974675496154 -0.741333508415029 7.34078126977916 0 0
-184.955121179399 20.1872704905858 -12.0918599365371 0 0
-44.987864895239 0.992841371235887 -2.25859524403048 0 0
41.1378701846094 -2.53425347149444 -1.18589346570861 0 0
31.2188753916296 -4.67789696350483 23.8439758015864 0 0
-112.716463827972 7.62335058379788 1.34258440100295 0 0
-173.172725386531 12.7174725232555 5.70590825594069 0 0
60.6297558805146 -3.72812644851862 22.7294061136709 0 0
-207.084340688138 8.69719716825301 10.7823719981271 0 0
-99.2602494310836 -2.66612374862962 18.3508818398769 0 0
-96.9925405022685 5.54870030783874 -0.429395928153247 0 0
-103.910112462263 5.96348121663464 9.76103487104386 0 0
-73.5514260718506 -16.657344671983 6.15553719731531 0 0
-177.37278097903 -20.5767334543288 6.72500477835339 0 0
-169.103408799039 0.00782288620878889 -16.2301681588202 0 0
-162.140841734309 13.7814244224573 -9.33296962022511 0 0
-140.536709137258 13.462983593491 -11.2331259853951 0 0
-189.487582382126 38.6554667426477 -7.13816399875223 0 0
-142.947407521182 8.58252504281557 0.67678124433584 0 0
-189.233297637343 -3.96575365875721 6.57630405580419 0 0
81.741274963651 10.0455166254293 6.89189147573278 1 0
-177.041897285025 -4.12837047399604 -19.1360337412927 0 0
-5.24060774399466 5.03257473074998 1.52415665373152 0 0
-187.26022594928 11.7216559726939 11.5624249055568 0 0
84.4537873745529 11.2848599985196 9.25153170560554 1 0
-94.1859966732108 -12.200324831355 16.3683447910276 0 0
-186.576097169244 33.3209454358176 -10.4045648987744 0 0
-189.592845489841 18.5154435428525 15.6535153682832 0 0
-127.210446698914 8.8495205799805 -1.13792392639128 0 0
-149.600427770754 18.5072734433302 -12.4044895405432 0 0
-118.556789679669 -11.5124039410785 -8.70445519764856 0 0
-120.541417928223 -0.103125501146554 -8.29356407868281 0 0
-64.800874510909 -13.8812275115557 18.3150735603754 0 0
-201.598710362749 15.3894811375686 -17.3704866392905 0 0
-162.613091036003 -16.1425659636591 6.15201422630033 0 0
-146.85855967607 13.9250034525438 -18.247396085977 0 0
-71.7821349870702 7.28408735213641 13.4451039185967 0 0
-187.274858443816 38.0989842043962 4.89930924860605 0 0
-181.020991400173 18.5000456278773 7.48164532435286 0 0
-103.377462396099 -13.4616741441092 -4.01450475815268 0 0
62.8341779772116 -4.29104200100477 -2.3285099752953 0 0
-81.4171293790592 -5.91601261483584 -5.18569008007382 0 0
-192.917365843809 41.1783886866658 5.75752528732725 0 0
83.8888181258597 4.84063745085078 -1.30002232540958 1 0
-208.60498593772 36.7667818434554 -11.5492266032671 0 0
6.95355134759112 1.47579344592228 -2.16047275740088 0 0
-110.756226272158 -18.2169976612551 6.55610319424133 0 0
-52.7895397416901 6.21082880318147 4.39401726196405 0 0
45.8417979136197 -13.3494353595095 5.85008474704909 0 0
25.4819562276394 -14.0966908529148 7.86021325557727 0 0
-82.0492146301923 -9.55870757535183 -2.83220708718065 0 0
-197.690353323266 -14.3876887486692 -8.9193181080127 0 0
-90.1040500257711 0.820633130293913 -3.71597281879331 0 0
-31.2797952724342 4.64845415706401 21.9441946123307 0 0
-131.456786349276 1.79248825437183 10.6594296557844 0 0
-134.057951798913 -6.56367169009842 11.5607609953355 0 0
-203.632628242138 33.7712597064783 16.003544944484 0 0
64.539906760285 -5.35880112118607 22.1785008038424 0 0
-216.589918997398 19.5760258450253 -9.03541635524018 0 0
-201.410706164625 39.2899101665108 -9.01721989471896 0 0
-173.40404231608 -10.8080936160248 8.18026602668611 0 0
-197.030151254521 27.131909933168 18.8691020742994 0 0
-68.6766673921803 -9.66647283615947 21.1032780970581 0 0
-80.7956352238628 -17.8825366190744 8.73576040788648 0 0
-122.236236676577 -16.6649150195844 7.32358700776898 0 0
-121.92989430782 7.51686592621905 3.38359365340742 0 0
-30.3112623449625 5.15598870206402 1.7333077762045 0 0
-190.029448704656 -28.1797871938444 -7.42556952048438 0 0
-209.64506123166 23.6626825214727 16.6476578710346 0 0
-204.491017799464 5.60360800818928 -3.07580981735024 0 0
-213.307491515351 10.6772211854373 5.34211326838564 0 0
-160.915926858512 0.952726988394249 -20.035313005316 0 0
-191.019606265707 9.27518695732016 10.9767726065149 0 0
-179.811680193763 -5.07307488878275 -16.7577813701852 0 0
-166.603527344792 -13.231990425666 -22.7637109644314 0 0
-40.0572170824484 -15.3990967170653 8.54789880698342 0 0
-198.614956550819 -19.1285655580306 -1.12443634961599 0 0
25.5782101793485 5.92148694322839 2.34900987511396 0 0
-33.2900187145923 2.991553100593 -1.19871566045823 0 0
-169.777211964651 3.84999273159841 7.04878907434765 0 0
-54.8921995662693 -16.8016552895302 13.8303097088934 0 0
16.0326786973737 -15.7598792087981 11.9698700592117 0 0
-207.192238989851 19.7910613050854 17.4677424465934 0 0
-181.13050328561 13.4407095465851 8.84558105983114 0 0
-82.3095217578378 1.23306625948091 -3.26308829391776 0 0
76.1335797537437 -5.83618653092194 -3.09844776719995 0 0
-194.878373169119 5.40019458675927 2.86047283062727 0 0
-115.540282696272 -11.0996085780458 13.2771823574387 0 0
-87.0640362712959 -6.96230060671293 19.8950882109582 0 0
-152.90528674825 -1.85430858530138 -18.2905831995134 0 0
65.5522020048092 -4.87531104570248 -2.17403890671675 0 0
-206.766910413431 40.5484871157685 -0.494251235494057 0 0
-212.49190040094 27.7324138251081 -14.0447870883971 0 0
-180.48309448152 15.1462682730443 8.08319235903883 0 0
-188.450095680133 12.0584935470087 11.9643780023027 0 0
-206.619836527594 5.59541527657698 -3.46881476746023 0 0
-106.973421256214 -18.6652566528098 6.14705252429897 0 0
-206.581256363632 11.5742204224903 13.7055572343301 0 0
-187.178984597001 -23.8826684036586 4.13266625121106 0 0
46.2734179418904 -15.2700981005875 14.37680051405 0 0
8.67358288432915 4.34977456801665 23.0701695381375 0 0
-187.750241936256 20.6641173225195 14.4365443785909 0 0
-70.9058435125956 -16.7951041264989 6.89658310443181 0 0
-88.8101848940587 -4.62826914275956 20.08995309715 0 0
58.4381064330022 9.53039697895129 9.4341462339625 0 0
-119.414103400505 -15.2766039656847 9.20867311621985 0 0
-4.14007639418948 -7.9408268619271 24.002485109589 0 0
-182.399547916442 19.3704979949968 8.61760426949551 0 0
-14.3370789339115 -15.4500080957527 10.0342110663308 0 0
-195.562017064813 13.244338060302 -16.1565917673421 0 0
-105.644923119197 -7.33538282170783 16.7689971499242 0 0
71.8866182441996 -5.61773438630215 -2.52311881651832 0 0
-167.378123590435 -17.912444328333 -22.105834037958 0 0
-169.721475314947 12.8156924378946 4.09495584303285 0 0
-157.821911785074 8.84611865736688 3.46245831997188 0 0
-197.981616062369 -15.1286042826505 -25.8700540804917 0 0
-196.01896958623 -22.659521205133 -19.9953083813985 0 0
