"x" "y" "z" "f" "a"
-134.56726819579 -20.5866690087947 10.9123721757645 0 0
170.233421632753 -21.5716452430724 -5.56516066600935 0 0
-23.8023799360513 0.996752066243703 1.40462624823258 0 0
190.082700074347 -5.73505672066601 25.6351528889673 0 0
218.92684603078 -29.652803042779 21.7652589425012 0 0
59.6773684820426 13.2359201302772 -16.6673146374639 0 0
125.048164382807 -9.75685226451248 5.09764667096581 0 0
102.147777011405 3.24749110422016 3.27203060573265 0 0
-95.0337005100683 -6.08482853206875 6.68909960726782 0 0
-128.130389399623 -6.22463035015309 11.126523300069 0 0
152.382891038513 9.21343202003906 6.89011011640767 0 0
-72.4929383288761 -2.42156467491298 -22.7008984443994 0 0
153.023661724695 -12.7624259874502 -20.9383745461832 0 0
-129.900850250559 3.06049709230973 5.36158940906471 0 0
186.939085296884 -5.08253347423271 23.1309769832253 0 0
186.872494257198 -35.1137581841146 4.77920790976674 0 0
161.21268038995 -1.22514376959328 8.37541395334599 0 0
105.624829801836 -16.0246194535854 -6.74351925207382 0 0
216.94931374053 -36.3767238740345 12.9354467166944 0 0
194.110630145033 -35.5037117122176 -0.133330019342818 0 0
206.772798867035 43.985800869127 9.17227468405911 0 0
-8.52526373547008 1.94617272652691 0.843901099272461 0 0
191.429424942748 14.9157013197106 -24.7159029410609 0 0
-65.6404769823628 4.21970816455035 -17.0627199116762 0 0
141.767221808286 20.011052914933 -6.70305391756837 0 0
131.493112866617 19.0563674505993 -8.84998772838251 0 0
176.860396534235 -24.532487640822 -4.68624794700536 0 0
68.0796150563629 7.85182955525095 -3.24095254829733 0 0
182.466930518218 -28.4189150993459 -3.66678886815498 0 0
-126.017100504086 3.85092005694309 3.48639515820239 0 0
164.094717493683 21.8181894900658 -12.6553626234841 0 0
188.494268731791 43.9882517800707 3.15843965625642 0 0
186.370791381896 39.4807531850072 25.9467272297022 0 0
5.1981913827872 6.3017249964183 -23.857761009151 0 0
-94.69960836273 4.21705794528345 -0.763171281313281 0 0
189.213162857093 -11.8399745085159 31.9343566562113 0 0
47.3150457145639 -9.81499250831113 -1.67783460382487 0 0
97.092436018817 -5.84893190186263 3.32527310714162 0 0
204.616087253344 14.8897284405558 24.3500682025499 0 0
-55.9720779779999 5.48143152937368 -5.2138022163716 0 0
49.6304601561915 -3.64013769789969 -26.0398707309342 0 0
92.5996472889351 -10.82142802813 1.18142539681133 0 0
155.84215302153 12.7537047372651 7.29195636382816 0 0
92.1958680803907 -4.75287265993118 3.17655015270973 0 0
192.525308397871 -40.2361496403821 12.352499212053 0 0
-114.233244708449 -20.6019940556411 6.69149335886426 0 0
196.992423731172 -17.2249482879496 -32.8295028293295 0 0
0.149885132650957 2.18738947918757 -26.0315955776047 0 0
139.203243475503 -15.5528378212331 -14.3672991993691 0 0
190.188563767691 -35.0215630031134 24.5420757689946 0 0
37.4467900811995 -10.1560487829445 -2.22609319854503 0 0
165.399370249722 -20.6581769778354 -3.41181266137279 0 0
130.172693906095 -12.5359545094143 4.76975126480834 0 0
-134.600648308161 0.381158070405494 9.29355768538047 0 0
-50.6285145670373 5.87005423811163 -16.3351934353143 0 0
-123.157928371573 0.163917077068964 7.68896427706616 0 0
222.402014015707 32.3117204896461 -5.51005827987498 0 0
154.041785129436 18.7851045899419 -15.5376340246994 0 0
203.014332339862 -1.72586601366898 -25.2060719558886 0 0
195.685193699803 47.8024792203593 10.928909061034 0 0
181.697604217793 -26.1297181187094 -10.3828904644214 0 0
214.705334501994 -8.89119408895096 20.932624494251 0 0
104.084201780689 -10.8935695373644 2.51755624636259 0 0
183.324793657223 -14.1068157406401 30.9649354105728 0 0
121.591890042626 12.6466902965756 -1.40597624188317 0 0
185.389964406867 33.5572803173015 -8.63650537101096 0 0
-52.7642230818317 -20.8479063038673 -13.1815068038474 0 0
-77.8011774282985 -14.8928300567341 -20.218848694071 0 0
220.605328187255 -21.7567641737534 3.73667485586057 0 0
-115.066212988533 -16.8259038725272 -14.8119884753933 0 0
114.970097024381 -15.7262784081554 -0.973568582201695 0 0
41.2816971487415 8.63044974234346 -7.30366028545564 0 0
201.025710591638 -11.6107436487792 32.8701561873157 0 0
35.5180196720299 1.88817046821237 3.05481514983406 0 0
-90.5282165787565 5.65510545512245 -3.0847171996298 0 0
40.8631704618221 11.0265906002636 -12.062830041647 0 0
4.10070809192346 -15.4787714906856 -7.8490325390197 0 0
187.028653646496 -8.09716053597453 29.0332529100493 0 0
188.813785381836 34.9299117088526 31.8836999635121 0 0
208.982865484141 -33.316381601808 0.898719925098641 0 0
-81.1704368640878 5.98127448922539 -11.3468688736337 0 0
169.975918769885 -22.941225967793 8.77115297392127 0 0
219.740429149348 -17.1745665508436 15.0107592000484 0 0
183.689724325872 -30.3545354998327 29.5983989381787 0 0
226.986688982998 33.4222566013544 5.63775999901247 0 0
-126.882995808869 -12.6491334826209 12.1625343167828 0 0
211.568605967206 39.9408885103671 31.4409516550898 0 0
91.3782916078003 -12.2737404835005 -20.2277547598488 0 0
75.6089878146055 -13.1943411161457 -2.30090708025201 0 0
180.181218569526 35.0406850003241 -0.235557275362695 0 0
189.067124024623 18.9281981992564 -23.2986053239568 0 0
-109.577218628929 -7.40844668897522 8.44119503901102 0 0
214.225689821864 -14.6769687373579 -18.5908060488557 0 0
202.867183597192 8.60683178151821 13.9679777103294 0 0
-39.416599016892 -7.88311010315986 0.938906748320339 0 0
-130.056946367486 -23.1792758431715 6.7991459590332 0 0
63.1196009005323 6.15267802200475 -24.3946526357449 0 0
-107.307239237709 -11.7727167672438 8.69773392551718 0 0
-77.5137415670079 6.20035525860578 -11.2488986736608 0 0
187.764162012127 30.8533239618658 -13.2607182168349 0 0
-87.6542110799487 -18.382539168976 2.80236205938364 0 0
13.3336669457583 -16.075975913626 -21.0560742021686 0 0
162.179023294896 -16.0632493263056 -17.8539980037452 0 0
205.40797810906 -2.74032585417995 -23.9343332636983 0 0
185.81163207021 -28.0863256123885 -10.1695020458962 0 0
208.576442443873 38.3818739046414 -1.84118462720548 0 0
-15.4156619569071 -17.1499338616516 -8.88867620698636 0 0
57.2055785034829 5.06494280640767 -24.8864954844809 0 0
199.693666443781 -18.0955342305591 36.111310474534 0 0
31.207745742379 -7.99795582614391 -1.40889697895623 0 0
179.795628030732 -25.1624613282034 -9.70147539631947 0 0
107.417286398307 -16.101772320115 -5.13615350314426 0 0
187.979540391071 -38.7446875231396 10.3685603423348 0 0
208.815144807197 -22.4288599015644 34.6286138337863 0 0
30.60146072175 -14.0755460398433 -5.9286959374671 0 0
-40.2600564224684 -20.3395229817538 -11.9707408809804 0 0
134.725029721236 0.0097729878507586 -24.7486069947516 0 0
192.891305981957 -1.71067953084235 20.8580693681733 0 0
160.674574737617 18.4962913078613 -16.4351754623647 0 0
135.677856770883 -1.68035047684932 5.8922650742569 0 0
225.551750761634 35.0651041992714 3.38862783926203 0 0
207.28229627781 13.8057402364085 23.3953571284218 0 0
142.521215426863 -2.22771403993783 -24.8794009185018 0 0
208.769381279879 13.80942115543 21.1895726125149 0 0
173.390679046788 3.68232686068695 -23.3699718515583 0 0
177.906983680567 -17.6155425174327 21.1627985582978 0 0
-142.239558907726 -22.8126378569357 10.4642494580439 1 0
195.725972715343 -23.4752606560745 -24.5772632197774 0 0
14.1782612455122 8.40232238974734 -22.1715937015575 0 0
-117.337530220936 -9.54775501566336 9.88444830870006 0 0
181.822585559039 8.59825216394103 14.4370014331915 0 0
96.8856106378849 13.6450055190114 -6.15192019478443 0 0
53.6770854724981 -11.9718809875302 -22.5633284361975 0 0
-2.32896548087467 -14.4948640506607 -6.0718405536809 0 0
100.008632385482 -13.6138566615555 -17.5463071384838 0 0
209.907463691905 -20.4859776114243 -23.0137959296595 0 0
175.089947837127 19.0923752485188 16.8471511266729 0 0
119.444464982786 -3.89618113386468 -24.7715667282862 0 0
198.468733324248 6.60115953456186 15.7937869006036 0 0
200.296257440018 -36.9343031713495 2.30757791141338 0 0
174.009131758916 -25.518554245391 11.1407132537677 0 0
-88.185032881425 1.87145402783745 -16.5527478411759 0 0
-132.710717827217 -24.1899358051158 -2.55836603553593 0 0
222.400591291708 19.440966812322 -3.69532168596861 0 0
93.4994157478525 11.8588001458878 -4.30677926663715 0 0
188.864960539844 17.0007562457757 33.8911230046223 0 0
128.539259894327 18.3899359501523 -12.920889448421 0 0
-22.3748957960061 -13.3340328500373 -23.9935094068512 0 0
204.071054902781 26.0382518883367 43.0057283693475 0 0
109.588746410448 -15.4354996939386 -1.47694372790283 0 0
-16.1848832326749 5.60648555512893 -5.0733747710062 0 0
107.785162080779 -4.88110592283647 4.59717564503171 0 0
218.611393444608 10.6376570408005 13.9388733450935 0 0
-1.7745739932843 -11.1769130957701 -24.8865800719785 0 0
205.242137553215 36.2498728156472 -6.78247354520677 0 0
163.180121992078 17.6319940027217 -17.5464134928692 0 0
189.622503478373 -17.6411444669461 -33.6344282041742 0 0
-6.94930360506871 -12.0901248365475 -24.4800779063719 0 0
-132.155693474383 -21.9844182533858 9.12781510596453 0 0
156.788048775514 -5.85954212674603 -25.0157776727903 0 0
31.5357050584493 -16.7238100763629 -13.7876766155374 0 0
172.207336153912 10.0426861028913 10.7695197049548 0 0
70.6815791254015 11.3440328747027 -21.0058552034716 0 0
169.767323741157 -10.095124449736 13.3061579210027 0 0
158.653993289443 -18.4660414414717 6.48504798122669 0 0
159.672099268233 -3.17172743339046 -25.2231914998013 0 0
6.81286834847702 -0.248898787265611 -26.6135184686137 0 0
184.539479122553 24.9881943057113 -18.5043472526383 0 0
179.347178563687 -33.033745678043 18.923942586639 0 0
73.344010589645 8.89316623851181 -3.80880906922355 0 0
-113.181398074359 -13.9087952179096 9.21135260232941 0 0
209.476486383728 -15.7024437107075 32.5601450408992 0 0
50.9713046395522 12.4433271682031 -18.3716683773428 0 0
158.29542522763 14.2573752321785 -19.4393721165971 0 0
-132.286856184561 3.75515743935321 4.31301843638814 0 0
-82.4155318460884 -4.50540906850973 5.80249239194359 0 0
-10.6028490763279 0.204812049784711 3.36995551874957 0 0
120.201574526803 -15.7093909490762 -11.7350220174134 0 0
97.4293279590375 -13.4992167868906 -0.813568747256446 0 0
201.387294330239 45.2773278129998 6.2335205649223 0 0
125.136060310845 -0.362442517839782 5.05527670239082 0 0
201.977068490099 -26.8569484814954 -16.973031251831 0 0
103.912475482234 7.25534458322308 1.09963113939167 0 0
211.819431301828 2.21813798153875 -10.0687997612514 0 0
19.6812378737044 6.84419486272725 -24.2113299369881 0 0
209.695584088208 8.26969560087719 10.7877936032027 0 0
172.781209813856 0.724544991537624 10.4615914051957 0 0
66.1562790060823 -10.2150779760613 -23.1436117138121 0 0
216.219115742787 38.8880090879367 6.84664782458564 0 0
189.074284972516 16.2543461035889 27.9034478525125 0 0
218.498219825205 32.8592401649764 37.3226410466601 0 0
-136.951048346264 -11.2072851237466 -13.1741458844886 0 0
189.366795879098 32.0966088453012 -12.2467282862543 0 0
202.064997625028 -5.13398204104473 -27.8447421887784 0 0
70.5357834802643 -15.3372735864242 -14.9555333885801 0 0
212.773546930452 12.270117280174 32.039163117055 0 0
185.936323460671 -14.7480036888904 -34.5586316527254 0 0
147.444092324763 20.1075622644416 -12.0341671051878 0 0
154.164328039727 21.0012173926324 -11.5714810648479 0 0
213.839722529434 5.5594511056297 4.99031695880079 0 0
114.221825753099 5.68605689836297 3.12635221136591 0 0
-1.4510242424367 -3.73903081797993 -26.6656764815685 0 0
-113.877011230778 -7.40518040787587 8.95255939522888 0 0
137.98986403454 -14.5650491947096 4.81861765132114 0 0
-80.6797067321405 -19.8575889871279 -0.409373888352094 0 0
182.140479545233 -12.4175973042565 28.9613302964656 0 0
196.343448237713 39.2620524869876 35.0089862478468 0 0
38.4029006199245 -2.53346349993211 2.13509871865094 0 0
203.875264890563 -31.5932616065904 35.1873490705795 0 0
195.147199845309 35.972422342602 -9.31057903845212 0 0
75.9039588534979 -6.29365662642872 -24.9866495013184 0 0
66.2421820234322 6.43746457116291 -24.2628883959417 0 0
211.850852719004 -2.08202289455734 5.25800500476751 0 0
192.184112642717 -38.9478594276379 6.63900315943105 0 0
62.2117768292221 11.9738305912946 -9.88050165604738 0 0
211.909765733439 -25.177143913256 32.7120522437133 0 0
-5.05467112345862 7.99708129445886 -10.201706937558 0 0
101.789794585205 -9.37436719138609 2.99509730542557 0 0
194.190268500756 -39.4363925664579 6.57387555568764 0 0
218.85668037142 -14.4931754396927 10.8548049999212 0 0
53.0932945422602 -16.2434767085054 -13.6224268529745 0 0
191.054698420597 32.5438259871095 -12.4267732820467 0 0
165.264129305542 -20.4259396044604 8.57156151366783 0 0
-128.413915367192 -0.460527174018232 8.78378588742503 0 0
-45.9333464788648 4.53268862960412 -20.1413999738434 0 0
225.223706460629 16.0706840377631 7.5526059890682 0 0
53.6782246600722 4.42179484787059 -0.364574579573316 0 0
192.79014898606 -16.44523533817 -34.1606785071261 0 0
206.228625487389 12.5356025895582 17.1358129844524 0 0
29.7193367328188 -0.322071671115358 -26.4358217140451 0 0
192.616219056044 -5.00074104692943 25.0366926593492 0 0
-28.0606761266187 2.61916330383757 -1.17272595946362 0 0
173.369178106599 30.0244127547052 0.314873585121901 0 0
127.820608238575 -15.5316233395622 2.01492919764723 0 0
-106.546523058102 -23.2617794603771 -4.19397570659059 0 0
40.8479100372046 -0.649803995485562 -26.2627278136024 0 0
83.616128813541 6.25560532981733 -24.1307865977825 0 0
173.584200997812 -22.632868380523 16.8083304681728 0 0
163.418162753352 -18.0223196639414 -13.561229267165 0 0
179.715160657883 36.5405475982819 5.6764843400518 0 0
62.7200054767497 2.23608638698455 2.3135585207094 0 0
41.1384896191992 11.793278046497 -18.2910864652484 0 0
195.683986973777 -34.3499730282955 28.7904382373905 0 0
-17.1560140008127 -19.3546714382792 -17.1237863346165 0 0
190.666340081439 11.1752686338646 -24.5864897290925 0 0
185.730554849959 -23.3329165675874 -21.6334163147733 0 0
-129.557151135172 -0.885188607035614 -12.0213266398498 0 0
-100.226094749689 -18.705711888139 -15.1832450290318 0 0
203.132024574777 -2.33036684050124 16.0540156101791 0 0
-102.332916646707 -21.4437913639633 2.55614886243427 0 0
87.2966036174759 11.5254522501858 -4.82515234442961 0 0
77.8048050683285 -14.2835341778055 -3.48869982313156 0 0
13.9913983885668 2.55839222669432 0.819173168757948 0 0
103.51460399925 -5.702991597408 3.99407556109636 0 0
57.4015560941079 11.9796522426644 -10.6964612593231 0 0
116.945305715289 -15.3264420679846 -13.1107491450106 0 0
203.672000017794 -7.70064008918672 -28.206691408604 0 0
2.4726042025087 -2.17048629822843 2.83292381754977 0 0
193.831077138451 -21.0955207773587 -29.2521678367896 0 0
203.160513236763 9.44553206115403 -21.3947705346742 0 0
-31.4269368249612 -20.0828306569007 -13.6334859183639 0 0
-23.9648745718246 7.21586355509548 -17.3310654339532 0 0
-58.0503459790984 -2.47774021608055 4.19710662179644 0 0
15.7631456233128 4.2211278824856 -25.5194165607809 0 0
168.20634212663 27.1923927659858 -0.894747059416994 0 0
-115.790999602819 -22.8628323733701 -6.83988069548399 0 0
-125.446181023021 -1.55263736025303 -12.7180771538678 0 0
190.643099069608 5.8759588947135 18.0460644961974 0 0
214.267953424341 -7.47982197874458 -12.9715305026778 0 0
46.4934486079855 -15.9724408157836 -10.3416276638589 0 0
-126.628456792365 5.25338645913589 -4.34590311250371 0 0
-37.6915858036315 2.50983636232852 -1.22516361391456 0 0
111.481247465588 11.3194448672369 -21.2568247854328 0 0
106.66401781141 -14.3377885451233 -15.8687756307962 0 0
160.956068088897 4.13491643030051 7.77346617585365 0 0
18.3479648106627 -17.1790770351869 -18.4430396660635 0 0
-134.273466629124 -4.58629352602529 -12.7838470592047 0 0
-61.3899523621713 0.979908710084222 -21.9878294993877 0 0
141.717487103887 -5.07280626053933 -24.6086129252402 0 0
211.566084762573 -7.01556279086034 -18.8121241281502 0 0
203.453851954876 28.8617436546238 -16.9587868307616 0 0
59.0111151572882 2.01300685211374 -25.7115538252472 0 0
216.690504415334 -20.4333180151389 27.2940649743217 0 0
150.338444039736 -9.29826616779433 -23.3919154420101 0 0
199.323842556789 43.419707230438 26.6302850217456 0 0
138.747508022327 -16.7408786295432 -9.79260256904002 0 0
52.1099725204874 12.6557082155163 -15.0101831618847 0 0
-113.374789440271 2.00148590952378 -11.8965024781149 0 0
118.424704069949 -7.73660220537032 4.81975807152249 0 0
-103.381897281658 0.542688194574575 4.40777382273471 0 0
96.0209668466037 -1.92554089540813 -25.3227615414204 0 0
-24.7561160178195 -19.4452533445418 -17.716314875845 0 0
-123.573438552661 -20.9618783483258 8.07751382833574 0 0
-138.022041057966 -2.3161303924194 -11.0383711489209 0 0
19.1956492755322 1.15470620289993 -26.33773874472 0 0
189.198134887087 15.636005488776 23.0344685181095 0 0
12.2650323361121 -6.7161288369995 -26.0812256140405 0 0
132.065251851512 10.038544658426 -21.7806098336753 0 0
194.42016436117 -27.8528161178394 -14.6870814267049 0 0
135.771970618365 6.46081326371505 5.30444837477293 0 0
-46.8900033527791 -16.8173479008259 -4.396437098497 0 0
-111.132266416986 -17.7205563508565 7.79932529035519 0 0
-118.261849464175 1.31264047241684 5.88480582551649 0 0
-138.570509599862 -9.11628487857698 13.6151123916758 1 0
183.896968298977 -20.9068017956844 -25.68739164724 0 0
146.152799694683 -8.36094319828459 -23.6279353343822 0 0
-121.016112377159 -1.46993255476356 8.33057816898222 0 0
163.465751229265 19.4561547969648 -15.7013906688262 0 0
76.9315811950128 -15.0281049343906 -14.821520578207 0 0
-2.88524456917214 8.5602700876018 -16.7292740365838 0 0
-4.12250583864261 -13.5944586841553 -4.85605506608237 0 0
38.237038449313 2.88245591629764 2.30226021665755 0 0
185.169329064031 -6.96526122099565 24.880643077702 0 0
22.8970963949953 -6.31647747914113 -26.0944595178946 0 0
-118.933437981642 -14.8785969230375 10.039417890146 0 0
149.722098766695 18.2629984211123 1.73347222798136 0 0
171.283713145085 -23.8504173813836 4.31280492889478 0 0
-85.9165536673056 4.12682735637945 -13.5102897318591 0 0
-9.29323621144613 1.12184031348329 2.5745524228973 0 0
86.5080155769658 -14.7883095417701 -3.9018632055581 0 0
-47.0981466794862 6.99547256313729 -9.68295291091234 0 0
-139.321421355732 -4.50951346683349 -11.9032479341599 1 0
171.791332321885 -19.7436371435918 -15.08674583946 0 0
-129.090782299484 -3.56362225029871 10.5605351025532 0 0
49.3556552184928 -16.2031155758939 -11.6586328435511 0 0
-48.9317231778752 -12.4606511938769 -0.428229303984281 0 0
-5.04631022133853 8.16583363890716 -18.768771573657 0 0
189.274235756139 -36.2405871056193 22.0361885117886 0 0
-21.3820274630309 -19.6316026408549 -14.2621641573616 0 0
-74.1743017970615 -7.07524856941121 -23.1931000364845 0 0
218.12281051176 -13.2103298075019 5.06868708129758 0 0
181.983617823123 40.8430567363636 9.12315119621801 0 0
72.529358037714 10.7579905630678 -6.25508872215136 0 0
127.618992523094 -8.76404871771024 5.79848775059688 0 0
-45.9938274952572 1.42024167833381 -0.0151308430423467 0 0
-134.100203548018 -11.341154951691 -13.5805986626092 0 0
210.364486289368 25.3794764191188 -19.1008364098633 0 0
208.14577114264 9.43289333782318 12.8343648918347 0 0
32.1301566851424 -9.02054013207995 -25.1520193577993 0 0
188.149139612551 -35.2263520007447 3.38012466988068 0 0
183.320899768069 40.5916682001118 22.3935162063932 0 0
130.216144743444 -15.6251333204619 2.24220429743984 0 0
12.5085875596885 3.65303034864134 -25.7529554476281 0 0
-140.698506437969 -8.03034196867368 13.9970005902933 1 0
-5.78051253337888 4.74734766540943 -24.7199352203936 0 0
-58.215743854781 -21.0118483113113 -12.3500599374314 0 0
43.6609582313567 9.47625901062962 -8.37908838607105 0 0
-86.4525373514289 -8.9073242880247 6.224414830239 0 0
216.414480938114 13.4378896027571 24.4609178768579 0 0
18.2844284052397 5.31832830171922 -4.10424503470219 0 0
-129.111428422051 3.18549216687301 -8.31940390300373 0 0
213.651429500103 -6.82186601522123 21.8002455794531 0 0
211.421010251563 -33.8756550679392 31.2902308251043 0 0
202.730216786692 40.7130348014291 30.8502275998559 0 0
-3.99427850060585 -17.9760116211809 -12.0977175181822 0 0
-95.0864171462011 3.29266155927259 -13.1972779941821 0 0
55.412500860275 9.24949118837334 -22.8116190969742 0 0
217.644636875998 27.560847215115 -14.164409157693 0 0
180.217534790876 -9.12925955061061 -32.6304256250612 0 0
156.62694170907 -8.68281085685561 -24.2444579495026 0 0
174.743857324501 27.9227992958176 15.2220846752519 0 0
116.076164639995 17.6878071148319 -10.9098220614797 0 0
-61.8360800202634 -2.71275886245123 -24.0294981935231 0 0
191.447072758055 40.9165979470925 -2.407617357952 0 0
181.306368183099 -22.9979383401581 30.4769485435268 0 0
52.97752862816 12.2251623598983 -12.2594748253265 0 0
191.006101223309 -39.4084254660348 9.74428652126189 0 0
199.479066678108 -8.56415821124187 28.7240636530634 0 0
218.934596890981 -14.7574225664956 -4.49100083748069 0 0
158.590538553033 -5.29631675912678 -25.2167585667024 0 0
191.489064354226 -2.15666012148427 -29.7586006047634 0 0
155.746089631884 -18.6739758548231 -6.54263498108561 0 0
3.82580611703096 0.522649085041336 3.37668519265181 0 0
-63.8926957498043 -10.1723711103695 3.52245672288955 0 0
-72.8820386096398 0.258821099358585 2.13481787414441 0 0
15.8241645261912 8.10212905057737 -9.2191482300723 0 0
-87.9273597280694 -14.1844146476042 -19.420557653608 0 0
176.867509611313 11.7465323298335 12.8168154060474 0 0
197.693295825915 -2.84827112322393 -28.6702262963823 0 0
34.401745893223 -4.93902102016916 -26.1613852993394 0 0
195.884068194615 -34.8093798602515 -1.21683875568055 0 0
213.856615888153 -23.154377000751 31.2785362086688 0 0
88.6978175010797 -7.82893006833622 -24.1190438666148 0 0
-63.0863787374718 4.2789428890643 -17.5001103752155 0 0
183.474999648856 -35.2761460427516 9.84940966421058 0 0
-93.3550979993922 -6.08341481886012 -20.3765326893499 0 0
124.893697018051 12.715475037906 -0.859061931137168 0 0
148.471308701075 20.0898522032271 -2.32149136657095 0 0
-23.475802426205 -18.0692670990481 -9.3784444278921 0 0
130.610308453756 4.72854998476115 -23.8581401459171 0 0
-102.834430858336 3.25740292587205 1.14219042897136 0 0
160.974884822023 1.07754163275061 -24.3516080698306 0 0
-43.5703439523716 -20.5198446238708 -12.0302870470342 0 0
-139.770273616673 -19.2351865877425 13.8455553745751 1 0
101.25119965808 16.3638114439915 -13.1183170023398 0 0
39.2777703888854 -16.3333034515264 -11.8387761248953 0 0
167.217089804767 22.0406650344805 11.6900702267319 0 0
187.645993642417 6.72924371518808 -24.2539523040848 0 0
-106.15891382967 -20.9142277407536 -12.0094443799305 0 0
77.8957496827523 12.4386351633269 -19.7998582328178 0 0
213.582762997816 -8.68383057270845 23.2662562369558 0 0
186.0487098624 -17.878193989991 -30.8988799519562 0 0
75.0482169432464 13.7985030347263 -17.1260827631979 0 0
153.09956648592 -4.55947053352171 -24.9603054355609 0 0
220.435686689494 24.4808929611402 35.8039710429346 0 0
-3.27704814772251 -2.41230463546438 2.89982392045688 0 0
188.668600106715 -33.4678101233282 28.9941620143994 0 0
215.982548775812 -19.1550273200771 -14.8707163023738 0 0
65.0921001197283 -0.536269319097898 2.41723808249379 0 0
209.786029051203 -1.84468686819156 6.35600013602862 0 0
195.937014655379 -3.40941448299679 22.485779082472 0 0
33.6348783002999 -16.4051335889387 -12.0889119567741 0 0
131.479692761249 -13.3001975520399 -18.2933930411201 0 0
188.392378478027 -16.7565774137319 -34.3854115625554 0 0
228.690535350597 25.5210753144205 15.8566350834493 0 0
114.804010372876 -16.2433621572074 -7.13754827860046 0 0
187.685979255835 -33.5231972972327 0.851629792116341 0 0
183.325790418525 -0.176686037490633 15.4602829963162 0 0
184.541808207701 33.3103821825842 25.373148028926 0 0
-63.9390097650766 0.166852979670613 -22.3057440096427 0 0
30.0928847243484 5.52707738445274 -3.87950721019258 0 0
182.40087449385 20.6155727902321 -19.8930628490848 0 0
205.328315347874 42.8233617766583 4.31252470839542 0 0
208.164639150212 -32.6129550835896 -1.53357278036052 0 0
219.161669205218 38.8341556493415 19.8173809208279 0 0
208.57850058257 -34.491749352524 2.99837731089838 0 0
198.616475264115 34.8846899430148 41.3006228679953 0 0
29.837327104447 -1.88486674202898 2.60156596909795 0 0
75.1045067888215 -7.60320870702002 1.03105752829134 0 0
124.002198313467 -16.6301867640578 -6.36984254071295 0 0
182.000376877554 24.9987447458274 -16.9181387734301 0 0
41.5593554413113 9.97751833501307 -22.1368284226175 0 0
140.206174852814 2.99437919049344 5.86756007277874 0 0
171.697495586157 -22.8781451242726 -1.22233199369504 0 0
17.0893823121995 -17.202171933336 -12.8634447116783 0 0
28.3278436552494 2.0914002694585 3.12192267646914 0 0
176.54208072826 -20.6570917818896 -18.7555621114209 0 0
-113.516773076177 -5.11861137926901 8.47088440608292 0 0
-107.577187786897 0.402649611763363 5.31745335272483 0 0
68.3990504602268 0.909685353489418 2.38523964827799 0 0
138.53332061177 -15.9443778372153 3.07861987667391 0 0
215.965997061666 14.1379334443648 -11.6671604820067 0 0
191.319500766761 -36.7915278632295 2.98882563294715 0 0
228.072288427402 25.4519623393896 7.93349863739149 0 0
6.85547431965792 -0.471523538424206 3.54164989203865 0 0
181.415324422959 -11.7288893354152 24.7907264684039 0 0
-78.4460185090696 -17.6737650196095 -18.043168417359 0 0
207.300010111804 -20.2781300985074 35.0230229196618 0 0
68.5130507384141 -15.5975578901448 -9.50298482260795 0 0
197.489190274335 29.1703811721435 -16.0613354788196 0 0
166.11106710987 -21.3007610297872 6.48202239306649 0 0
9.02969141004677 -4.79906527004143 -26.4522630178874 0 0
8.84396341709816 -2.63080600124564 2.0626445916618 0 0
182.212433267971 1.55316090773771 14.7739017822611 0 0
43.8535903595837 -13.3486434831506 -4.45993033810277 0 0
192.742627170028 32.1847626140441 -13.635073941996 0 0
211.513286100803 29.9086135187047 -13.0841834057896 0 0
-19.0402943023179 -8.53128233378264 -0.609559451043312 0 0
106.179942160044 15.4841445017802 -7.3436227713719 0 0
194.533592076589 -39.833312828529 8.67523771014649 0 0
198.301810458317 22.4067621166114 -24.1670479631054 0 0
147.231874461476 15.1505597900309 -18.6959091080036 0 0
8.20510999159554 8.42045095833865 -11.1887792142828 0 0
28.4467595184132 -15.8452843611598 -9.8759614775893 0 0
-104.314504051136 -23.1401277447314 -3.72348077265536 0 0
176.741486454376 -26.9854610255761 6.19412035984925 0 0
197.976193396524 -35.9310280209663 0.0434020007166589 0 0
15.25014347701 0.170213583566613 3.75611460401494 0 0
-28.2392168033603 -8.7469376562828 -25.3395178999877 0 0
136.724547747922 -17.216805570927 -4.78262267237985 0 0
227.151697684193 20.9680610660843 20.2975761765521 0 0
128.071287816404 18.597446904082 -8.75964507932836 0 0
219.537792249936 13.9685181122772 -3.89559405778162 0 0
-122.883621564418 4.71148550057874 -7.21115477848274 0 0
-59.3960302122738 3.92731096646412 -2.83611149878033 0 0
176.481948629415 -23.6553328932593 -8.04671241893329 0 0
214.362241011518 41.1135265869216 17.4737234930154 0 0
-37.1813717531069 1.21859914981136 -24.7889252196698 0 0
169.501152867081 -5.87977983316234 11.3655772389414 0 0
-18.9532600859001 6.44004925762486 -21.2320365509196 0 0
119.798344850402 -16.423229338416 -2.85103649978462 0 0
152.669816457993 -10.1861021563558 8.52246705959556 0 0
193.905344848457 44.0634796632712 1.74183800926991 0 0
-75.5207958054113 -21.4616810646612 -5.4439664445444 0 0
165.031794642627 24.7999961478249 6.39156135715913 0 0
179.654573718059 27.0654607944026 20.8575452160726 0 0
141.334673881788 -12.5714487294904 6.72305165478074 0 0
41.6395415173777 -16.5163045635061 -13.3677340166868 0 0
203.828679008088 -22.6090618605243 36.4058445049646 0 0
-118.136453185096 -16.3540994504311 -14.5914783107049 0 0
199.58092175324 29.9207314358874 -15.6993099251865 0 0
1.43602179294208 -7.40357355020135 -26.0491250322821 0 0
-36.4917492923382 -2.61685373931708 3.4665080961375 0 0
179.023847638833 17.6169275683331 -19.7520292155685 0 0
132.304331845363 0.862736161269357 -24.6743061478688 0 0
123.041032968676 4.55745940051496 4.45687065894594 0 0
200.602794935556 10.2096716749284 -22.9159354681396 0 0
-15.6711105644015 -13.9163292113401 -23.8117852824876 0 0
-120.646477941261 5.47664929238781 -2.98246324124831 0 0
182.645619481097 -31.5336703155096 3.83886445320631 0 0
171.523457562097 -15.1148000512862 -23.7172726565471 0 0
-17.4752083673692 -15.9996822982109 -22.4296228105157 0 0
-141.183319741535 -12.9868322266006 16.0396077768078 1 0
-66.9924639109253 -19.1484006942163 -2.86916777894827 0 0
55.6103842992146 12.7117468174832 -13.451513886077 0 0
165.421567882057 23.7090079003542 8.47841286922326 0 0
91.8611257058892 -15.0154752670456 -3.77446631811847 0 0
166.430007470957 -19.2653392947771 -11.0293189880047 0 0
-43.6730357537356 -18.7501204154341 -19.2603194718545 0 0
179.701708506435 1.31910194916188 13.4196858856558 0 0
180.74400242804 -27.7495089680263 25.8706408360669 0 0
155.18856570368 -9.45832435003233 8.96806124796008 0 0
-0.172031330613801 -14.4570811954952 -6.09704085159681 0 0
58.0881948002817 -2.06592505357444 -26.0671273824259 0 0
183.100535038547 32.0934291496695 24.6437538123146 0 0
31.7002472420702 10.5882082702081 -13.3842656396615 0 0
-37.1148590348488 7.33574536193964 -13.4363540915796 0 0
104.485387762382 16.4950070573245 -10.5270654454744 0 0
181.469669933117 9.35486668551665 -22.6487230063214 0 0
-65.4552158820066 -17.7415810128037 -1.45830918821963 0 0
177.30335080105 -2.80409625629818 13.0411774595822 0 0
64.8160465455977 -15.7788347695046 -13.5764890765254 0 0
192.691804976915 36.9121841804918 -7.8131106296557 0 0
65.0445604781198 -3.78571609508696 1.92917783238747 0 0
197.14562634112 -21.8437445122092 -28.5673808598142 0 0
20.0739554798071 2.3787406349011 2.62828847904188 0 0
215.351459413543 -19.5450798919482 29.1345774899509 0 0
-112.804404331035 -17.9682468718049 -14.352771357853 0 0
74.0295005528679 -2.42658739956159 2.53395978678414 0 0
199.408165456215 -10.0845582361873 -31.49368812318 0 0
201.358526833717 9.39154447087583 15.5161601398453 0 0
222.827679855862 28.8094241963794 -7.02627134125707 0 0
-55.0288202885824 5.17494101482428 -17.024245495688 0 0
180.013703345339 -34.5682856524622 16.133052084099 0 0
-19.6320578682895 4.3956903265394 -3.5154710355379 0 0
10.2056354579702 -3.56263018553058 -26.6065222106472 0 0
159.851379979376 -17.316539026032 -14.0358643217924 0 0
94.1188351374381 9.65735334024755 -1.7705431583818 0 0
-53.5995652245685 -2.37484110874879 3.96391103437896 0 0
90.6722191849152 -0.415403299772323 -25.4135971657795 0 0
224.896155309909 29.9187520877867 -1.81062259403864 0 0
182.542296390543 20.6757876686348 21.7868036597309 0 0
177.280771403526 30.2559445085494 -6.60206290857815 0 0
204.034285893818 39.8899030362645 34.3112515538993 0 0
-49.7987397216043 -20.59421247523 -14.7502157132536 0 0
-73.6048848741949 4.05060586841017 -2.1516764102513 0 0
142.338506647607 14.9334986642174 2.01382195848038 0 0
-108.213714352552 -4.48229840129928 -17.4947659732008 0 0
193.127662169806 -33.963137316396 29.0940636887484 0 0
215.615772979098 -6.19918192227227 -4.05376403099395 0 0
140.590830824971 1.79040185324555 -24.4350762102614 0 0
199.862269831577 44.0865262771015 3.70159026713779 0 0
191.364367848655 49.1610505980676 15.6325946590645 0 0
-33.5371773098341 5.96963246090434 -5.99908718475385 0 0
-134.32221066566 1.29906598853149 -9.51115770192638 0 0
202.127357440549 18.0437466936594 41.1848123420722 0 0
-8.59020221276151 -14.7523013066306 -23.1487902982284 0 0
222.949833985066 38.4323356348436 19.2453799881481 0 0
44.6934387019354 -10.945390252789 -23.6113171995234 0 0
170.151245024449 -12.8184584081512 14.7834624759666 0 0
177.696911347549 12.8805739548794 13.5813009790058 0 0
61.6664893691073 -2.42100788245487 -25.9550299972446 0 0
35.4192086698808 -6.94723190224361 -0.81612178325001 0 0
220.307381819546 38.4661828607828 27.628057599125 0 0
213.100501630099 18.8044711373141 39.6243118125417 0 0
193.065745656187 47.5814864299611 21.8539088599175 0 0
189.544732395988 -36.1266094479463 4.23949387439261 0 0
215.861206454312 40.4747252047535 14.8890606679579 0 0
175.048730037719 17.2790351570095 14.8712562189742 0 0
184.174533720895 -7.05818658559975 21.4207458811001 0 0
77.0043402603403 3.89179766316016 -24.9598556008303 0 0
-41.0108160727086 -12.4344254164633 -1.42664557740009 0 0
-124.877430862207 0.331945637752107 -11.8490457094269 0 0
-131.099451330254 -13.5296947418213 13.5057941576904 0 0
187.274845609025 17.648825871581 -23.119057071097 0 0
205.028980457784 -31.1971434839448 -5.30058629003057 0 0
19.7104617241295 3.49835781115818 -0.884839248675589 0 0
218.477664768102 -18.2505540768976 22.0653042455449 0 0
113.404652353722 -7.05519642096057 -23.751943133766 0 0
-74.3225394982693 -14.8052222102688 -20.6100688562177 0 0
180.827664246717 -8.78229190169884 18.1156239139675 0 0
204.890178010705 7.66648140090216 12.1754754458118 0 0
106.288657980041 -9.95271465895769 3.24546083353515 0 0
205.014612107942 37.3371852534417 -5.12199995041252 0 0
-74.2930079562224 -5.6218422876224 5.43752799691309 0 0
23.276312628042 2.00394821221349 3.34247623864737 0 0
-30.525875299654 -4.50187429870514 2.10776802952475 0 0
-47.5441026450716 -10.4720454420521 -24.184794187529 0 0
-65.3579156345512 -0.313035295742479 2.37619696676581 0 0
187.412699790951 37.4167963772015 -4.9018903208554 0 0
159.400273326216 -19.5202627782229 -3.62337292929363 0 0
107.372207976512 -15.7122831462632 -10.6118852019926 0 0
199.161035732709 -7.59495783372511 -30.7042825215084 0 0
-20.1754071101443 -14.3782693863665 -23.4994250164322 0 0
209.630524574913 6.48197571424909 8.37978358023708 0 0
198.993422197385 4.44872675930246 14.843231029513 0 0
20.4328936263192 -7.8666833322508 -25.7241506025343 0 0
-35.3217414123299 5.54379620800223 -20.0119858097133 0 0
207.808181349353 -4.8571253180517 17.0721295801777 0 0
152.50331984632 15.5727031095916 5.4203700202832 0 0
-103.484749575292 5.43640180494009 -8.75093166258721 0 0
-128.885003971543 -20.9613379323378 9.33854570178216 0 0
177.406382789212 4.96460446805375 -22.3483412095035 0 0
137.326993611162 16.6773080816636 -2.19984118835503 0 0
145.79716783007 12.4900598297878 4.83884473332917 0 0
169.697993735508 -9.27276428223731 -26.8302482032836 0 0
-98.8277462269152 -6.60392146544906 7.15924716545423 0 0
189.718499957306 41.2629810363115 -1.30862244931065 0 0
-72.4766394299277 0.218102039215143 -21.0897154512696 0 0
204.245469311084 41.6318577260199 28.5115240207601 0 0
-80.0207468686614 1.54260017514089 1.10182951060679 0 0
190.77395520058 -21.6689260021205 -27.115449437151 0 0
213.569400469826 -15.1387765039023 28.8868389464245 0 0
203.244292073564 -12.2204201839553 32.8503559342953 0 0
226.415882512634 19.4092523521302 5.07363184772678 0 0
-17.1392193352381 5.03720915361559 -23.4836710992667 0 0
130.917690892771 -14.3561279193083 -16.3765345942903 0 0
169.032744618933 26.8185466831442 -4.3046656037817 0 0
-68.4296252319545 -20.4571702156605 -5.00365699972076 0 0
101.212836690543 -7.9488310427231 -23.644569385599 0 0
25.1824125426724 7.38914797606319 -24.0053860922021 0 0
200.271364699899 -0.102144796863166 -25.7884055201471 0 0
188.460669599261 -34.4600026803 1.33743340194345 0 0
207.429106843377 9.51435018641707 -18.6441401721563 0 0
184.349037845243 -29.4147062142283 -5.13412108174841 0 0
175.687208794117 33.9128079155639 9.97863252778109 0 0
144.652894250048 2.09614321290208 -24.2992558340172 0 0
93.5240622372535 12.1509716106698 -20.4906237271417 0 0
-66.21963916656 -1.43016194350385 -22.9962332025022 0 0
-46.138198567363 -3.27476758129746 -25.3867666994094 0 0
149.17873440062 -8.17484350853115 7.81153963909382 0 0
211.009362641045 -36.2049400327209 19.5942956216676 0 0
127.32729755161 11.5951004001931 -21.0420027603452 0 0
-13.791683896116 -5.46466248682507 -26.3967761463673 0 0
-14.7590852137507 6.50545152800327 -21.7503549617381 0 0
-43.6444878237793 -20.0349082262714 -16.5537135806661 0 0
-2.81083085627521 -15.1644150459472 -22.7191467518157 0 0
181.773079466509 36.4981654166915 -0.192428881771549 0 0
-136.716293733188 0.000307296025358211 -9.95363931834514 0 0
219.633620002685 37.8270748746016 8.78035512108042 0 0
-49.3236564958122 -4.57169031850387 3.63452617217643 0 0
23.7842196163941 -3.75880891272651 -26.4522610117484 0 0
145.078814851586 -6.49987017083228 -24.3614073833832 0 0
9.215868684848 -16.2835409100058 -9.54543459400028 0 0
-73.8011913055489 -17.3156530061147 -18.8109222961447 0 0
-118.225514092669 -5.84443781660216 9.30723536941793 0 0
184.891465291518 18.4060665256492 29.0098901497335 0 0
175.631378814402 -20.5539530852441 19.2969957284129 0 0
184.400881558093 -9.13630914740743 28.664185050273 0 0
71.4584280227877 1.37765642930507 -25.5512368381395 0 0
197.813143678103 -23.4884382697019 -24.9102844391547 0 0
114.292144193543 -16.2512199495134 -4.25133972651834 0 0
-92.874555870107 -21.3470314240064 -12.5844018849762 0 0
74.2371077270792 -8.89426896852656 -23.8001333919308 0 0
-84.5867124566081 -18.4829198369621 2.05453062191806 0 0
-129.583054265201 4.98458127541139 0.925358165752069 0 0
28.3224026446832 7.39492098879891 -24.0778266082422 0 0
29.0930787309273 -4.09439447128228 -26.3414341338105 0 0
-132.720497124048 4.75074813646085 -5.329544521763 0 0
32.7982609525856 -2.16709409114379 -26.391064856953 0 0
50.3494173594036 9.43825216810213 -22.6923146332483 0 0
-5.96130083063629 2.05100048956472 0.975871001567226 0 0
-29.6191412514967 5.53164783867703 -5.14874651224413 0 0
-101.85941534015 -9.52222315442701 -19.2039967282775 0 0
32.7635018977029 -12.1899329651519 -3.70423742638671 0 0
100.858468832472 12.7160103997007 -20.0949290549829 0 0
129.538361465653 -16.3744215093167 0.156109155004387 0 0
197.042174878832 -23.9814344214214 36.8211558062447 0 0
46.7153410889266 -2.60313779119245 -26.1799461908187 0 0
216.668374279781 13.4180099601044 21.7494260052703 0 0
216.229171935192 39.3973045420765 30.3484308285572 0 0
87.35427920233 -7.70669667530149 2.07044183133237 0 0
-121.398366908645 3.96711640423954 2.20015894410035 0 0
193.161694429199 -4.82185354790185 -30.8193240900744 0 0
-29.9673554847055 -7.08841005311356 -25.7382344201499 0 0
142.147815468047 -2.92941729617134 6.54477545719258 0 0
199.803939802694 -26.0228858920002 -18.5086247208483 0 0
216.421657453885 -7.87842788310007 5.58971644959699 0 0
-121.683949351934 -18.3708873642586 9.23266358763375 0 0
177.01350562264 -23.4756289149849 -10.0572922850005 0 0
172.960837627377 28.0439673718346 -6.18220337595554 0 0
184.573751234428 -36.526039869406 16.5179413348969 0 0
156.48812037077 22.2536444383832 -0.176534855686179 0 0
183.419901830474 39.6527703238611 2.97232100156863 0 0
199.037952812597 33.7282626506361 -11.6788048349166 0 0
179.651453935058 11.73661411323 14.1603953034974 0 0
156.494086545837 20.2577597157999 -13.7089648127284 0 0
-75.9975091059307 -3.55237329831971 4.51375089642761 0 0
-84.2202853962353 -7.90226151408118 6.14553854293566 0 0
-139.104142699599 5.4109789185032 1.00322428738353 1 0
147.739008502055 18.7906360412483 -0.362541196585928 0 0
-95.5661231102378 -22.4813668577806 -3.420375015178 0 0
53.2133430647174 -14.9459104883055 -18.4396900169885 0 0
-73.3764574843369 -20.5423360110966 -14.3676072205338 0 0
66.6925557201447 -9.96723382793989 -0.534921572549623 0 0
-76.2202976265605 -18.5454034076149 -17.2319845007176 0 0
215.030470776925 -25.9088087613633 -12.2566436720204 0 0
186.469698882314 -31.8759329055392 -2.12417046372646 0 0
122.544731677974 -0.948882458398922 4.99625446628561 0 0
155.33869870062 22.0480640180313 -8.4374418057401 0 0
41.7661998152333 -15.9006469579446 -9.85773190513661 0 0
68.5885911528911 -7.77187787116807 0.494700821134613 0 0
-16.4761087850513 -13.8931725407224 -4.6575331828436 0 0
-78.5456678970221 -19.7952881863887 -0.701710639175585 0 0
101.363276887325 -12.9721540100891 0.338426236929739 0 0
179.654881993266 41.1797382789987 14.6529982775939 0 0
209.523247229838 37.8439514615575 -2.40790297950537 0 0
201.539152328003 42.2906533375588 1.26049385954899 0 0
-80.4235649628162 -2.11080588225199 5.17853679378756 0 0
184.410387268579 35.1386313584163 -5.79943823658945 0 0
190.086720817136 -37.5484423822352 20.2611693465963 0 0
-142.021155244799 -19.1966734506044 -9.65055346907396 1 0
-6.19996447278441 -8.26125642618891 -25.8470687620129 0 0
-77.1584698637996 -0.638192662448638 3.36410718554308 0 0
226.872827479166 18.4451447068713 13.8340529591872 0 0
-36.3088671395991 -12.5899171565722 -1.9935370592988 0 0
-8.43326642397189 -9.53453621076197 -1.58552908669822 0 0
131.239204877276 -15.8938275079636 -11.9649468097197 0 0
177.480501311295 -27.9434997741762 7.75163370775159 0 0
-106.705334052144 6.11409775176273 -5.3757003660086 0 0
143.753619413243 -12.6398713431178 7.2012440674236 0 0
87.3769093639255 12.8544336815647 -19.5450328279802 0 0
208.087130494009 22.8906559550635 -22.2175316735746 0 0
219.343860927954 -15.9350136869047 0.305312310264375 0 0
127.39337478924 11.5092617444477 0.839020051359368 0 0
198.105026806934 30.9557953631839 -15.1477260407683 0 0
216.044099534249 19.5443316597501 -15.488712891735 0 0
177.92621308617 18.576885187406 17.9565062560869 0 0
211.676970570373 26.6675391693851 -17.3112263618277 0 0
-137.34854414527 -20.9094504770025 -8.82052578654043 0 0
139.142592603334 19.6789280432644 -7.10588390808622 0 0
175.103576266896 30.4937327908885 -2.40383715395226 0 0
145.041591939886 -17.1837063581043 -9.34401076916802 0 0
226.742153725521 34.6753842003452 21.0030135091808 0 0
16.4958466011761 9.82699304272895 -17.6481765509035 0 0
-110.093884128692 -2.02221284432498 7.44796892499257 0 0
53.6958248762604 -3.07798454118176 1.98031185505198 0 0
206.522854253038 5.14718389957267 -18.2049587231233 0 0
202.054690556217 13.6667731631776 20.3978707853481 0 0
71.5636189291964 -14.4727988196858 -4.5160225401088 0 0
163.059763647799 24.9834193285398 1.04944905626098 0 0
206.632919530108 -25.4984556584512 -20.5638864724125 0 0
-66.2091627991471 -19.8506034177532 -16.2605333316217 0 0
199.818269639622 -2.79916244775403 19.61766152943 0 0
-120.287838704061 1.63428339441439 5.9728930875186 0 0
181.614079662868 37.9154353258146 22.0277354771148 0 0
141.987739207234 -17.4863988142476 -4.59049278264306 0 0
31.9818913323128 -15.5820829755003 -8.98005331130241 0 0
186.717753356486 -37.7277624752889 9.963161450741 0 0
188.865452062073 4.41705413902976 -26.3663404552859 0 0
35.9530189366095 3.40170416882584 1.19520355495835 0 0
199.059592260319 -7.37945054675051 27.0178102374626 0 0
202.810431582992 -31.1437839646214 -6.920251449693 0 0
206.603790095627 36.781474891396 -5.71015851596353 0 0
148.583387499376 -5.28051864398965 -24.7530598806351 0 0
25.3116231125336 7.52547069830644 -7.39459866987938 0 0
218.676104872067 10.4724825988975 9.16161088390767 0 0
173.563299786362 -4.46392621208244 11.9494245505804 0 0
91.6223128705626 -3.00431389243856 3.56036543915026 0 0
130.317138751264 16.3044820499142 -3.86606034256302 0 0
203.166974550773 -17.7969267482273 -29.853639312545 0 0
215.071975383142 12.8775130704851 16.9469877743148 0 0
216.473360511794 -12.2566635034959 19.2673729046929 0 0
68.9156029355852 8.03301822677271 -23.4695878602115 0 0
5.96537804566937 2.03370060270508 1.65482648344903 0 0
179.742845650647 38.4277685903766 10.271460930617 0 0
-59.2666018784624 -8.5639864608936 3.59954961295281 0 0
-46.7378225510668 -18.91428472228 -7.12462659085978 0 0
-98.8691827520812 -16.9996522919913 -16.7644009689209 0 0
-138.78551951841 -24.8978956641634 3.51188866729246 1 0
125.330402912403 8.37930817719846 2.98540811163312 0 0
198.517299795587 -4.36038580233477 22.7831198632669 0 0
195.252838982732 -30.6962387855744 34.1554708798173 0 0
207.801683965097 -36.5809405271326 21.7018955072222 0 0
199.3956426862 13.5537508948443 20.7474876996703 0 0
-108.96740534906 -12.6508771521875 8.67904997483108 0 0
-76.8749757500319 -21.8404215752982 -9.92046207631214 0 0
65.2379819849201 12.8702283921116 -11.1428363566413 0 0
192.377875688256 30.0038864122908 -16.1177040126482 0 0
210.183986045866 -24.4833590046225 33.980034639697 0 0
-18.8215080153887 -8.5203372760302 -25.6070555990519 0 0
-119.501476796312 -21.9031887960315 6.30752222752825 0 0
210.149667838237 -38.1768141420962 22.0604463335925 0 0
131.479288569371 -17.0108720111903 -3.90666878370298 0 0
98.2165011551874 12.5595106554692 -20.1725876779698 0 0
-32.549993321756 -17.3287500558305 -21.3733590599511 0 0
183.762890045386 14.3165798378115 17.3926534306508 0 0
-24.0117365447501 2.85139538559664 -1.42012462585833 0 0
192.510838228112 28.006365582709 39.4498471923379 0 0
176.836964760599 -18.7067719708816 -23.0820198592119 0 0
68.0908980234871 9.89236255141642 -22.2974954939871 0 0
69.4436161447437 8.81626166182951 -4.21282828341736 0 0
-41.1422452097537 -14.6814093367497 -22.9779533877681 0 0
186.386879109865 20.2522774748805 31.9876873570079 0 0
218.592100343688 -26.0541278458922 -3.53679558936116 0 0
15.6289766106212 1.68034185334291 -26.2955425176945 0 0
180.964741589528 -5.79607637208886 16.029956131106 0 0
180.963780012962 -18.5201874650149 -27.3427449664337 0 0
109.764636558022 -16.1458850668803 -5.4264327992389 0 0
160.761370306116 -18.4811696763613 -10.414491749284 0 0
65.2386588973877 9.24044399720085 -5.14547242422809 0 0
212.06364488668 -37.6911934916281 20.3392568884292 0 0
224.32040928601 35.3261121664121 1.20628252630939 0 0
-66.866931653133 -7.38970049163605 -23.884768175733 0 0
142.110110797772 -15.3505530557656 -15.2808311050175 0 0
215.798619173917 -35.9272642737866 11.9462738128559 0 0
207.458284800947 -3.00560149488438 -21.8911247218916 0 0
179.83723050558 -22.3369138987545 26.2554582785414 0 0
185.158036136708 41.6874022515 2.93205437167073 0 0
-27.8626547164387 -19.973843488187 -14.4062360369552 0 0
97.9159068714632 -9.92502581828135 -22.6283980617068 0 0
-113.307708991873 -0.550312030292067 -14.1098599952449 0 0
-94.2845241429805 -19.9037824601976 2.84391726038629 0 0
192.855924840617 38.1766972576576 31.8045035950966 0 0
210.200949256709 -17.6469216379091 32.9991636229051 0 0
181.041635568929 -34.5427401954315 18.3601858176817 0 0
143.66812997841 -17.3030473310641 0.488564548164173 0 0
43.2266611835465 -2.2849382836174 2.45403334832916 0 0
169.747636649453 15.7215787486119 12.5162175691443 0 0
187.819851237346 16.5549268999684 26.0323824362483 0 0
45.2274407357985 -3.00055949640002 1.84274458777708 0 0
212.781062321644 40.2859945922116 28.5719247718099 0 0
91.6087894978426 10.2602488303233 -22.0743190835986 0 0
125.69773266562 -13.7163786228432 -17.3203441423828 0 0
22.7018993976617 -17.299352055179 -15.1663445893348 0 0
179.078767367631 -27.2557372900145 22.2240426272239 0 0
46.2238222425006 8.52701622786217 -23.2960688510441 0 0
139.621346031708 -11.1199680876871 6.73947914110714 0 0
208.756330185409 -18.8238343440615 -24.9896804001084 0 0
-85.3209753663266 -12.0036806762348 -20.6434707527928 0 0
-140.435243492632 -20.9047037603566 -8.5625520785644 1 0
144.543503830611 -17.6385738471766 -1.83630942238394 0 0
-81.8311420131941 -15.5131710458139 -19.3921751467866 0 0
-21.3889002831009 -2.34234484195279 3.01380901124874 0 0
216.919084181758 -29.5027778940752 -1.98962841749007 0 0
-54.7774979217224 -18.7059028417509 -18.7629067967748 0 0
-139.99001488489 -10.3711743423788 14.0302254662157 1 0
-100.155500016547 1.58940881483737 -14.5545975869325 0 0
-118.642517466122 -19.0570125789114 8.35624163670781 0 0
