"x" "y" "z" "f" "a"
-6.29475693566856 -6.21780954452047 5.97302911371537 0 0
-192.28299029636 7.0351458112348 -11.6759344459139 0 0
-188.630062031527 -8.22503654946504 20.5541836876452 0 0
-220.395956139043 -24.782011514452 -11.6413343836895 0 0
-105.590666755877 -10.6614451922263 11.5945612164794 0 0
-46.1065195194856 -7.7409550296274 8.24462966706346 0 0
-47.8827283211043 -17.1744600950262 -11.9752408518546 0 0
-0.0512928495045856 -1.56553275287311 -19.0350437991006 1 0
-235.192268725305 34.0883266939534 -24.8471580302544 0 0
-37.2130172692718 -1.2697799447466 -18.2678593608046 0 0
-51.3406819996904 -2.90593523914288 -18.2011097440068 0 0
-189.160564466668 -5.46092026750405 17.7930844035449 0 0
-220.048085047547 53.9927930045474 -4.95117438826557 0 0
-188.056048024329 -27.3327661806368 -12.3239752083109 0 0
-215.700023560888 34.6272289224154 -25.8106164945078 0 0
-12.6607111030228 1.47954623291125 4.79229921332665 0 0
-75.6267301245417 -5.62962904343435 -17.3549008722468 0 0
-218.030277362808 32.5190524271378 -26.6725979090946 0 0
-197.739756957705 -10.4725085063073 15.1951678194892 0 0
-209.529832721816 -26.5913288667553 -13.972901436735 0 0
-210.578116410109 48.8310673334281 -13.137702664663 0 0
-166.631833505779 -21.7149454089936 -8.1904751991492 0 0
-211.510383604716 13.621550164429 -17.8343651989239 0 0
-163.354338144414 -29.4345509148638 2.44304196507011 0 0
-174.444605503426 -32.2917075179536 3.18713403029258 0 0
-67.6618865151576 -3.69501263324232 -17.4351102048295 0 0
-220.75900478049 -16.664493216975 -0.656238450727656 0 0
-14.6365495745441 -1.39868692650836 7.07510723683581 0 0
-151.536439063837 -27.6826536733369 2.2751080779845 0 0
-74.8046068060593 -12.5220772216512 -15.56940310726 0 0
-220.609532553415 51.6047868122113 -2.28568015086814 0 0
-153.358937200929 -26.3532775442274 9.68979628373069 0 0
-153.847927921601 -27.8387764895243 1.63087150654672 0 0
-180.652204826063 -25.3445626044983 -10.0262089951282 0 0
-124.226234134752 -13.7024563552165 -11.7425571268171 0 0
-205.292553261855 16.6127792372287 9.39927924311057 0 0
-3.74813752440042 -7.72441549992794 4.55213425236689 1 0
-129.453697451766 -20.8788553844903 11.6894438258521 0 0
-233.267263475551 9.4034430056577 -6.12113880718587 0 0
-197.296767001783 12.055318985041 -11.8438720176432 0 0
-139.435777179089 1.71491979692881 8.45832747848775 0 0
-223.091824030736 49.2037508014717 3.17985570127296 0 0
-113.587146948872 -24.1423278408133 2.30821310891621 0 0
-54.6665871427544 -15.1894451986331 -13.999401459267 0 0
-150.569164657153 4.10820718397425 -0.54035839700812 0 0
-181.12147365411 -3.61939320849848 -11.5354996496188 0 0
-90.0222262304361 6.69839411546139 -3.79849172526157 0 0
-81.7947245924139 -18.5816250788158 6.1542955569264 0 0
-29.4160313934921 5.2886744341214 -14.5558614018557 0 0
-216.78302639134 15.4764639215253 11.8274686641579 0 0
-193.510392713588 -7.91864563777487 17.1199606109723 0 0
-220.844976620476 13.6042967803056 -19.8802559328628 0 0
-148.992275753325 1.54591518205047 -8.66716961366088 0 0
-60.6186743307538 -14.4692879074662 -14.4761421685781 0 0
-9.98344973051137 4.4511810870295 2.28627781477197 0 0
-222.670077235728 -23.6797327661824 -8.84051976854779 0 0
-206.680750139834 22.1153659680146 8.92498147354923 0 0
-241.444382444173 16.3738810737126 2.59564559215959 0 0
-50.3661827147703 3.5627739095623 2.49305020023978 0 0
-139.500786402241 0.423785417582741 10.5594193332829 0 0
-161.853041236973 -25.3941000201725 12.5511127778984 0 0
-204.664125342684 10.7051235147721 -14.8236680593262 0 0
-212.970550680007 -0.249477285721124 6.20836505163805 0 0
-210.665155021235 10.2239699402818 -17.4640617014876 0 0
-78.5407363967148 -0.71142666476254 6.18271205199464 0 0
-199.905481889066 -31.8323037881738 18.0446062282692 0 0
-205.786462149498 -37.8322218431489 -0.893293829574614 0 0
-54.6795716827913 8.23908089493133 -6.93642430392227 0 0
-10.5638040379956 -16.2161598382564 -13.4133599194344 0 0
-161.091145372957 -20.0951067454134 -8.36859707181925 0 0
-42.4680823890859 7.24385538282816 -10.9463534163209 0 0
-129.807583373344 -25.4802119719627 4.14616704981205 0 0
-68.766562710919 7.68138652240259 -4.08264632628482 0 0
-212.261557110179 -20.5866247530694 10.1770162872353 0 0
-159.651464234621 -28.9357292672744 3.35802395566037 0 0
-115.037051008623 -23.5190358672983 6.35854595013308 0 0
-202.537986750192 28.6442173237927 0.259472589429158 0 0
-228.650365216141 33.5917321720895 -27.1904832103954 0 0
-219.60006758513 -32.4058352164536 -1.38362313950276 0 0
-94.0495682951108 -22.2085817124923 3.31017742754341 0 0
-207.038006470789 43.4938676452323 6.46595629615684 0 0
-28.8056773398363 4.55948004994897 2.03592339528409 0 0
-241.717752410922 18.6033768770516 -14.2979546386208 0 0
-3.30079403649569 -11.1265944281884 1.86515891529821 1 0
-17.6576816383484 -18.2389209303501 -9.46005575835097 0 0
-137.303245094545 -5.68457035294847 -11.5550475272727 0 0
-8.50509959615056 -9.99333331208829 2.84313267600906 0 0
-127.342129732835 -11.9011798636969 14.1628560848929 0 0
-193.811412044011 -11.146901911253 18.9456320090961 0 0
-51.2394645959775 -13.8698775258149 4.20329369254388 0 0
-185.695728607654 -26.0043383363277 18.7773932677487 0 0
-223.964300771652 50.0180090211671 -2.73573486105462 0 0
-196.866456406425 -11.9645941672828 17.7221805165933 0 0
-136.958129867975 -6.17178326756446 14.2762503011843 0 0
-226.173037732734 7.82181553086123 -9.53034847234384 0 0
-46.8941622116096 -17.2966512649603 0.304285755645252 0 0
-208.768517819087 30.6736989285681 8.16759398044612 0 0
-185.594568749255 0.915103929945082 16.5655522087955 0 0
-169.1549774829 -26.1537180210953 13.0369741268585 0 0
-158.902431056985 -4.76188817272359 18.6504635488073 0 0
-40.7648106967589 0.29740181335093 5.10045475864083 0 0
-161.690790969602 -28.2798883344698 8.11978506962739 0 0
-244.615998928917 20.0992549450677 1.09687768547381 0 0
-202.646038789701 -11.978316347816 11.3942239451886 0 0
-217.809646718182 -12.4124183704874 -0.996748870827236 0 0
-156.436789032494 7.35924102806044 18.775879972546 0 0
-6.53897651555785 3.53069825396383 -17.0726995975239 0 0
-149.061654011278 -18.8444441918005 -8.16543653126977 0 0
-205.628039856916 35.8813731194148 2.81164472478251 0 0
-100.171448945988 -22.6157736203823 4.56858510362612 0 0
-147.195946542755 -23.7557759673004 12.4638645107854 0 0
-188.66179411677 -13.6297162963705 -12.4165781651524 0 0
-213.506143067619 -11.942036396018 -18.8265985716253 0 0
-189.374596154107 1.86753405642693 -12.5164334806064 0 0
-32.8244584588116 -1.79606845843667 -18.5465936551681 0 0
-199.953245772053 -5.00778129009986 11.1745311796555 0 0
-183.128516522885 5.53367011447339 15.230553980039 0 0
-71.0440814191158 -3.59789425310959 7.63867183443785 0 0
-11.0454713561559 -1.2549179832631 -18.9030872258504 0 0
-206.816000640879 46.4614716570702 1.26689752736777 0 0
-39.5428421061099 -16.877734212019 -12.5252025393271 0 0
-200.011060736205 -15.7433331261233 20.7698678618294 0 0
-145.610315576207 -6.97857629274321 15.9020327123281 0 0
-185.560306338467 -33.3370620742631 -7.92814402542742 0 0
-210.803884781165 50.7977116369549 -8.23227869103828 0 0
-149.595516482074 -1.47683895750775 16.8396636823759 0 0
-236.288603149236 29.355267359308 15.9114215675817 0 0
-176.291553369021 7.95608846416662 -2.07035099776528 0 0
-37.592217768587 -11.1077825226468 4.56960074307328 0 0
-38.9535051108385 6.70103561269765 -0.418868813672128 0 0
-144.889434641791 -2.14552537419465 15.3880470663366 0 0
-10.6022750605073 -1.24893259892133 7.06715026464663 0 0
-106.159476621963 -3.02298360802005 9.24210800770698 0 0
-6.04377222282041 9.25260378256148 -3.16514117505701 0 0
-209.559282688526 -36.3759282256836 9.34138293800931 0 0
-193.108599688318 -33.212005079278 15.9793119516825 0 0
-218.645165712267 54.3161529575239 -1.03089283830043 0 0
-185.021535754933 -38.1322527334392 3.84629625537561 0 0
-157.773835029019 -8.51333688492493 -10.4459670598464 0 0
-60.7898337958736 -16.9114842297936 3.41824831374492 0 0
-51.5297903250308 -1.09662658735026 5.9537218752364 0 0
-204.208657093904 -10.2976232937046 -18.4531069886602 0 0
-171.40012160196 6.96484628088807 -4.74936177344356 0 0
-71.859414413386 7.43070040495959 -3.45467273149947 0 0
-186.314278962722 8.37327491168246 11.8499281608057 0 0
-215.208790427174 -25.6693171435646 20.4407107977038 0 0
-233.866687408591 11.0169420934126 -2.38490752191555 0 0
-243.815573122721 34.8958566318321 8.65447529057224 0 0
-181.680178055523 -2.83457706464889 20.8062104360408 0 0
-151.782579969049 1.1045470042369 -8.92554488794579 0 0
-218.388234326102 -15.4155789928413 1.37100730149251 0 0
-216.902654998138 42.8495974443704 -23.55981023357 0 0
-42.584111452006 2.09445632086795 3.70748302155752 0 0
-209.945260482516 32.5753632318069 13.1307140813195 0 0
-214.24965197744 41.6552451286694 -22.9872506959282 0 0
-159.170002194493 5.8931764049862 12.6509637656231 0 0
-11.311094786921 -14.0376115425347 -15.3148862321835 0 0
-139.120022036829 -15.3123715807995 15.9065057130028 0 0
-60.9831122200579 2.27754289635691 -14.7562763623016 0 0
-200.816706603423 -40.3941740466124 -4.09261182223641 0 0
-165.807807579783 3.39292872454848 24.8960788497635 0 0
-202.67109024555 -25.9216033319718 -15.7501629498317 0 0
-222.466478640799 12.1704392363472 -19.1599650972791 0 0
-90.5243207668967 5.4627054850418 -9.21158606160719 0 0
-156.40565045619 -8.85516103301073 17.0878026092116 0 0
-147.081021204276 -27.0126174234021 1.49621354487848 0 0
-134.104374884458 -25.8468344602324 0.922887003005595 0 0
-220.028012597631 20.5385360678422 -24.5648398122442 0 0
-136.348147289199 2.92652616062129 -7.65674956250109 0 0
-173.692821311894 -7.40395815568789 21.3779626258426 0 0
-211.123002550028 15.2912919373472 -18.0859152650023 0 0
-102.354212299109 -0.884370994789875 7.50928459680472 0 0
-120.795739170911 3.74044230611816 -7.68804371068367 0 0
-218.733134164995 0.205231114022335 2.84498585244408 0 0
-23.7525056331594 1.67214159112443 4.40246593453119 0 0
-11.8559711157534 7.66898374973811 -13.067146915641 0 0
-156.286899401111 8.69102274797554 15.7541925120948 0 0
-142.49953386087 3.40084218480448 -6.76416060574589 0 0
-139.014416968956 -13.722787744471 15.4146796703151 0 0
-196.045205577324 -40.4740984807896 -6.37028108098246 0 0
-184.281306246544 7.93846788654233 12.851889084412 0 0
-203.931321440484 -27.462186208058 -14.6661650548872 0 0
-145.896883814103 -2.78235214684442 -10.4975468676723 0 0
-123.964343637542 4.05143646715258 1.7316035541908 0 0
-213.835616423025 15.5421911340358 11.5300648666374 0 0
-189.76920051852 -11.9235851238464 22.0607729908976 0 0
-40.5132443964087 -15.7483046981243 1.04021473994417 0 0
-205.442989696094 -30.9326970043589 -10.8824842082253 0 0
-198.18772880207 1.47127622450169 -14.0517622628739 0 0
-73.0680485878989 5.93921659901877 -9.95401160648456 0 0
-99.1142148170081 -0.126737979575166 6.70632870692961 0 0
-22.2304377448894 7.93708373134231 -1.6426528859665 0 0
-230.908710322512 39.4841633478488 -25.1927005797061 0 0
-213.461433793004 -19.1196341904346 10.3592265857937 0 0
-63.7710369817025 -14.987995675304 -13.8344473504441 0 0
-123.827797358342 4.4547259164256 -0.0225246909309966 0 0
-154.160106445011 -20.5469482709977 -7.2352455581765 0 0
-50.2291978984323 -16.7138845209569 1.55824574210094 0 0
-181.441351715307 -35.3293446920972 -0.0665089962425054 0 0
-222.237717132012 -28.3696231231122 -1.65950951175479 0 0
-36.1017519377611 -17.1913267098566 -1.16469479721925 0 0
-164.13585130708 4.58983085829416 24.8121134979209 0 0
-153.654434348405 -1.83700816457037 17.9885626257237 0 0
-171.233467117552 -17.0424244132816 18.7138595508365 0 0
-208.738353506984 -20.3997412939416 7.31801397101274 0 0
-174.286079134327 -8.410295973627 -10.6724884247936 0 0
-200.375875712272 25.4880141781022 -4.4862016411357 0 0
-224.01151847548 -26.821089530461 -4.63877769472426 0 0
-219.350244865585 0.104133262209603 0.908773796642362 0 0
-90.0335908364118 -21.772849375108 3.17784692097907 0 0
-95.5005461401946 -6.65197612405739 9.99179854368961 0 0
-197.178999994401 19.0197107183704 5.89998499197246 0 0
-112.22421282213 -9.64884812236167 11.963076230704 0 0
-209.322424543858 44.4442781594967 9.00918868224321 0 0
-185.683516874652 -36.3732943854324 9.18641231246102 0 0
-125.146566910115 -11.5497039313931 -12.4702601932885 0 0
-9.72127917682555 -10.9836479109815 -16.8934747742615 0 0
-182.849736809253 9.50080665486667 12.2011734595859 0 0
-159.425062786569 4.39354161821323 -2.35830129059279 0 0
-136.876487293344 -13.9328544275486 15.4295729427 0 0
-176.205633432359 -27.8555625079574 -6.76471228810068 0 0
-206.164940414646 41.3605662986879 7.25663934588216 0 0
-211.508057866429 -15.2039367132923 3.78654201724664 0 0
-173.4956075234 9.62237308617917 8.31882073664944 0 0
-52.9086385267248 3.6984684585128 2.36767550220152 0 0
-208.175959908517 32.1205351032068 6.95818083715388 0 0
-175.550761015479 12.3609678557927 22.5688676431256 0 0
-236.707370230642 11.5935645255885 -8.21622418050578 0 0
-152.505238532847 -5.8692982330453 17.1756042254925 0 0
-216.050767273667 0.975138668387998 5.15571288162934 0 0
-89.923179585911 3.56256581310999 -11.1271098693043 0 0
-205.625930450031 -38.1706839186515 -4.82445262200318 0 0
-31.6737848391687 8.60322100881158 -9.3892653053885 0 0
-202.527838894295 -0.622611390151987 9.50941919138031 0 0
-40.0659649458468 -7.45593215809171 7.87669998183377 0 0
-60.8129478017382 -0.179487037363981 -16.2846463534046 0 0
-195.077921398477 -20.3219347568693 -13.808340194735 0 0
-203.209063895589 29.9170095359506 -6.08813939338365 0 0
-110.485415743713 -7.80376341785931 11.476171682371 0 0
-222.803923947304 7.17860099781764 2.18316151350824 0 0
-218.717225782482 -7.68345885589284 -10.5697972620413 0 0
-181.740133754147 11.5050964177565 4.91131485066459 0 0
-76.3541940059337 6.37153126744884 -8.97434867201646 0 0
-188.976875186159 -1.34451284917539 -13.0129062059574 0 0
-232.822990391063 54.3761287255091 -5.76765407264941 0 0
-120.928531273298 -10.7944965906984 -13.0174506948937 0 0
-49.883078606812 -10.6127876956112 -17.4065566184573 0 0
-165.510638949079 -29.8855259553325 4.54531414419224 0 0
-186.145699889361 -8.68042756936477 20.516662405354 0 0
-6.60733492768465 0.517493344626264 6.04052487260051 0 0
-109.153666235992 -12.7195745847024 -13.3747621408727 0 0
-121.70147337386 -23.2258285073021 -3.2448739006904 0 0
-232.817126247192 51.3699677852817 3.1676382983286 0 0
-160.362261303982 5.36037656331316 23.2580609397169 0 0
-222.974556970575 12.1199389004364 9.24319945112647 0 0
-15.612256513243 -17.4304987604927 -4.50285640188669 0 0
-182.524419954738 -12.4475943739088 21.3646255358325 0 0
-173.583131067287 -23.4030388009128 -8.76109254981951 0 0
-107.332281163154 -9.76309925327174 -14.4773866460317 0 0
-182.854795872578 -35.3871634756112 6.71559024991643 0 0
-145.694887771738 -24.832327646249 -2.93297811989861 0 0
-139.744550280123 -1.95508905245125 13.2715617783927 0 0
-149.153710353326 -27.364253123158 2.07978198854074 0 0
-191.663354662323 -32.8558595834035 -13.2906222729111 0 0
-235.001263398184 51.8333227130743 -8.27380131126881 0 0
-185.879025423464 -39.1974905668653 1.89740014030506 0 0
-84.2089798840795 4.89958488155793 -10.3155476068489 0 0
-220.762119430702 -31.6637077716675 1.0216844353809 0 0
-189.622201460165 4.25335530832201 12.8372713847016 0 0
-201.07699161479 -39.8808824612952 -1.67129039018309 0 0
-159.855382171928 2.374027724125 -8.52271278781441 0 0
-160.05405940047 -27.0396420402735 9.9122128071042 0 0
-184.446209862116 2.00272493373514 -11.7515386110705 0 0
-143.102916316845 -22.028277576446 13.2273473704122 0 0
-236.117073058662 51.5664142538235 -2.95608993314602 0 0
-196.179328708764 20.1125594765583 -4.9712242218503 0 0
-237.108633023862 15.2195402308631 6.85103255528352 0 0
-142.42121629197 -26.6213227057111 1.78619947876085 0 0
-211.128683912557 -24.3219600692953 -14.8722712294447 0 0
-242.236098769437 42.8216811572405 6.27367518953207 0 0
-207.98320832682 -30.6499044552183 -11.2858237454519 0 0
-187.523968046185 14.4733764136171 0.580724382436369 0 0
-217.437108713386 21.8848133497604 -24.4210701323946 0 0
-207.145071513339 1.79091591737797 8.93020571548833 0 0
-43.454223527 -5.94751886846601 8.19441450976808 0 0
-167.963686518017 5.34319676558173 0.804318045147192 0 0
-162.271307766965 -14.9732053500002 17.3360469642494 0 0
-226.881021980971 51.024381348496 8.63165732105228 0 0
-189.960564313112 -11.436364709006 -13.2059368209984 0 0
-139.236160760365 -7.37724677503665 14.8892938051491 0 0
-144.619006993292 -1.35008155221649 -10.2040647210163 0 0
-223.759043160058 46.1135016900168 14.4541353987764 0 0
-190.866724023565 -30.0482267088335 18.1559831240557 0 0
-88.2016558129981 -6.63861815481366 9.46487095876839 0 0
-194.763564691055 -23.8519769860413 24.0430963804955 0 0
-214.606817239865 49.1388750970846 -16.9184397176447 0 0
-154.822523707556 -18.5208487369114 16.5554176611305 0 0
-218.65046232847 2.69970106240813 -15.3706393006741 0 0
-15.0059633390633 1.73236235826323 4.49175983592529 0 0
-212.567465532798 -34.6104102894185 -5.24777318005619 0 0
-197.496082723015 -3.1837082675897 12.2637011135841 0 0
-198.105821391719 5.6373991722274 -13.6279474054252 0 0
-16.2295181269289 9.54130700698029 -8.79516606800651 0 0
-226.278246591552 -21.8008893539978 4.59102024256091 0 0
-60.2746824661007 -12.533613050328 6.35129808133003 0 0
-203.399978892566 -14.9445730419737 19.3274465792709 0 0
-160.537643918686 -5.04341593361628 19.1821518069762 0 0
-37.4946940583009 -8.64790031234222 6.75944967258285 0 0
-27.337498370206 -4.22449099213558 7.64141141939322 0 0
-207.153149936591 -3.42584604513509 8.23113973422178 0 0
-64.9667216483618 -19.7524911567604 -7.43623988298658 0 0
-115.674479436714 -17.3927627540323 11.3440021473698 0 0
-223.99271038458 -16.3001179688229 14.5116860537388 0 0
-217.5640156077 17.5020328732566 12.7291494196445 0 0
-157.943928237938 6.18726054597608 13.5678270315396 0 0
-192.147120498354 -37.0433519988434 10.5570864413122 0 0
-197.574236975319 -13.1882278808483 -15.0733157552717 0 0
-171.262468539516 -27.1745489451816 -5.46170325246185 0 0
-49.6726207753577 -19.7112923545745 -5.94550979273812 0 0
-0.569295755370325 -0.923097314510586 7.26089739631762 1 0
-47.8853121335101 7.68609580771685 -9.62085383866112 0 0
-223.09726642482 6.09967496740881 -0.385093688348942 0 0
-80.9434132515679 -8.14145905184311 9.1415381192346 0 0
-211.16666404574 -25.808163662274 -13.9680108649005 0 0
-230.447678496641 48.1423719537687 11.7054755913321 0 0
-121.3418565979 3.29914688898503 3.54955385203158 0 0
-217.227377266015 29.6979875948608 18.3002044701961 0 0
-189.204322199081 -38.1043414370528 7.79902483719724 0 0
-201.857959123495 -22.4838070270413 -15.7617161901642 0 0
-225.989399838437 7.2019594169545 -15.0248386809412 0 0
-208.828769841201 -11.5144363559201 -20.1272203946796 0 0
-213.194912238521 49.2572896806298 7.15648919322894 0 0
-174.501000211199 3.75446483568932 24.4552255486678 0 0
-202.989069568478 6.86222031739977 9.49592096977609 0 0
-107.2366275655 -8.00553320241205 11.019413710528 0 0
-179.310415103155 8.11106870076254 16.9264985091542 0 0
-31.6496139628894 -18.9060229330191 -5.97783486300222 0 0
-212.669274488982 -35.6242697687251 -0.576345125871998 0 0
-221.402402920075 3.53612668589392 -11.855751244264 0 0
-244.830470867474 38.7483136610392 -13.2811351506512 0 0
-34.9706346045493 -2.82111147520142 -18.6456238651433 0 0
-212.510933571107 9.83182691412214 -17.7492715733072 0 0
-227.934365627378 17.9715219355298 14.5926375723987 0 0
-160.451361724745 -13.8514400132514 -10.3216272986067 0 0
-210.23321251509 -13.1709531602017 3.62316412571877 0 0
-219.253905958703 52.6075225350613 -13.5591851816494 0 0
-208.165740462961 -6.99492825566182 7.21951131260798 0 0
-126.502450230285 -8.70688796951185 12.9437817395314 0 0
-236.946271884402 15.534275928174 -16.583586571622 0 0
-172.473962281714 -20.9887272860687 -9.67538525518054 0 0
-14.4287395325921 -16.3547107555228 -13.3146305937643 0 0
-208.624981060481 33.3191003811491 7.93777119199632 0 0
-167.87452620363 -10.4465442541248 -10.334357909343 0 0
-226.700872364645 14.1382404755933 10.3067323144548 0 0
-208.186267029511 -36.7141036543841 0.601322771775392 0 0
-166.588807870841 -3.66161865766185 21.8511687160405 0 0
-182.017170003829 11.8575875031372 9.49293570285972 0 0
-183.889529078416 -1.93346284419859 -12.2736091620178 0 0
-225.784564358531 -22.5596165592661 2.18182991485133 0 0
-135.408373239754 -10.6140971807499 -11.8442806615005 0 0
-168.36824979264 7.14824700056964 7.03594306986841 0 0
-213.039552070105 -15.2866965932473 -18.8577065298393 0 0
-24.9217455628617 -0.548726430368502 6.11226301723923 0 0
-207.767067670666 46.0332171634777 4.65623084831654 0 0
-231.907608940246 51.1573682369247 -3.96545320901879 0 0
-83.0993787040196 2.8962152055291 3.43412452172972 0 0
-157.251261117441 2.88886603917523 -7.66252510126274 0 0
-106.687202447038 -23.2232690114535 4.92991910316703 0 0
-50.8393461611645 -5.24731030801327 7.98334697428856 0 0
-53.6504457988277 -17.0297326705774 1.85894471097328 0 0
-169.904841397901 -29.0792406158527 9.64777881113181 0 0
-71.7040473024736 -12.698690316143 -15.5894584413629 0 0
-34.0625835878562 -13.6802213878939 2.05961562382936 0 0
-184.293943763357 -27.3524494673021 17.152492433055 0 0
-239.65738745881 35.1279078737649 13.2746060174058 0 0
-192.780584648926 18.421630172313 1.93481812643711 0 0
-174.904289159016 -10.8833662400433 -10.5888516337151 0 0
-211.860265710734 23.0038582370592 -21.5968194686335 0 0
-221.101474636074 -15.2702517220493 16.1303480295015 0 0
-244.434877062906 41.8379151268682 2.48420868859548 0 0
-11.2433215811582 10.1185996131789 -6.2841052482698 0 0
-58.3678720138635 -10.9422106784201 -17.1432847992626 0 0
-205.577286224039 44.5343034646656 -10.0401087709906 0 0
-218.786614042554 -32.2064054746883 7.81001898753698 0 0
-196.611903971602 9.73755279875886 9.5735777853589 0 0
-143.695902995555 -15.2921167361941 -10.0943654740078 0 0
-89.5712428192992 -12.4264446067002 10.5888399791445 0 0
-220.214802619173 -2.34110336819191 -8.9957166491227 0 0
-233.066665315216 34.7814877664902 17.4498265303952 0 0
-152.58916719075 -21.3740290999582 16.0714165505028 0 0
-113.110116399141 -22.1051661972049 8.66553356745823 0 0
-111.620400595019 2.64806467798676 4.35217341087232 0 0
-6.09772284392916 -17.2526358984468 -5.63012059111353 0 0
-133.743641783869 -21.9379877206005 11.6009740901974 0 0
-223.546960146074 54.5868306006414 -8.95478988006561 0 0
-151.14554199024 -20.0140861700002 16.3736025890948 0 0
-190.754322715709 15.1829814699028 6.68659345902966 0 0
-23.9182784196258 -2.95031685021893 7.28520016030883 0 0
-217.61845562043 -30.4665798043084 -9.70399598958741 0 0
-200.553722676736 -13.4013267060224 18.4887516349202 0 0
-213.872088603301 -11.0475690906559 1.56327301617125 0 0
-154.22075188649 4.17953689695358 2.87379080141513 0 0
-224.429679605199 -27.7366033504933 5.76834797867005 0 0
-14.0077363486581 -8.58476243572266 4.34519437509953 0 0
-229.957890615375 7.83891005499238 -11.0754391764252 0 0
-184.300913143926 9.92299355693874 -7.04589974105899 0 0
-213.152128668995 24.6836319462443 13.5130765346292 0 0
-143.722563833186 -14.2943694350999 15.8115034507626 0 0
-214.05960806471 35.1680523564625 16.9304667358419 0 0
-19.3870363469944 -7.47472512880049 5.93189036990447 0 0
-161.422813358253 -28.6330126075089 0.16518670796222 0 0
-227.428862512919 50.0408202390393 -17.9513857236695 0 0
-194.617077534363 -2.29096031919864 13.2802058439165 0 0
-185.871812181221 -18.5494046936279 22.6951929748634 0 0
-116.51510913274 2.639811267692 4.54386318785803 0 0
-231.116827999648 17.9278414785713 13.97745815594 0 0
-204.354274166157 -28.2371158203184 20.9626713383629 0 0
-221.632855498608 0.0776830852425742 -6.9891574805569 0 0
-16.4396016229413 -2.78895086949279 -19.0112745949212 0 0
-187.450063641206 -5.35687944371464 18.4713456216482 0 0
-125.810327078821 -21.1859028648925 10.8545808934596 0 0
-30.2989952916686 -15.7955784452913 -13.9581016217546 0 0
-13.2351783923661 2.68887013996096 -17.3291463453036 0 0
-74.7638569470365 -5.66669592555698 8.44151177871378 0 0
-188.151863332261 -17.2463713549529 23.4519006893657 0 0
-132.605518380232 4.34037695486958 -1.01184371572871 0 0
-210.370099103924 1.31393659925755 -17.4315771589091 0 0
-201.484974610885 15.6963953352913 8.58436062260454 0 0
-160.341967313708 7.93260482255783 23.6824652051539 0 0
-203.047097084988 26.9834200620371 3.1781712033668 0 0
-200.173620520883 19.5839783010135 -9.79622365693825 0 0
-224.979920533987 20.4296762583541 16.7238703592234 0 0
-225.594983413791 16.7497395307623 13.729256435427 0 0
-217.394405871073 5.49042791625973 -18.2596208116995 0 0
-121.207264514713 -24.2119205990887 6.03112766816687 0 0
-185.71385713832 11.8359367014776 9.73900594847424 0 0
-211.792229875742 36.0651444084235 -23.5665797042287 0 0
-130.614098271726 3.98223470316964 1.55840606838158 0 0
-175.238955787037 11.4674761578091 15.4328457938703 0 0
-225.245327522018 7.81075412999813 -3.42839032318899 0 0
-11.586528477529 0.859378375635723 -18.3616824778161 0 0
-247.341769487912 32.1183181873952 -9.74258382772602 0 0
-93.2806929435091 -18.6554997085301 -9.43543186842547 0 0
-52.803622654117 1.14811747714903 4.34569726336673 0 0
-165.101813318902 5.52882311910139 5.87876405684867 0 0
-215.927498210158 0.101858624819131 -15.8621210696263 0 0
-44.8982273071004 8.33630669619665 -8.42047010283372 0 0
-165.945242977258 -21.4658584870915 15.9945310596754 0 0
-206.05295554893 23.4817180670752 -15.7028100937332 0 0
-224.319146102934 9.06403335268668 1.32671363267285 0 0
-201.436137309287 -10.8692301918319 14.8944141551412 0 0
-203.531556796137 25.6635479461828 5.050199867497 0 0
-220.395264627354 -14.0901627106948 -7.77418411811243 0 0
-146.757930933392 0.0508713285134508 -9.63400969272583 0 0
-61.1187414775609 6.68407410945321 -10.1621937090768 0 0
-97.053013636856 -22.8130214221584 1.54520982473666 0 0
-128.620813824198 0.410894178485508 -10.1000175948205 0 0
-197.131340714811 -8.97468365166912 14.7383370750882 0 0
-210.767880250907 -31.8804313665138 16.2366103691006 0 0
-107.665852075229 -12.4601143723292 12.5604660374734 0 0
-217.497300677622 -15.3832407271216 3.51321826062065 0 0
-191.54906312212 -13.4634540024116 -13.4128381853589 0 0
-232.092889096245 52.866653464153 -4.95701945354638 0 0
-169.124621532383 -6.94919436093616 20.8321368861361 0 0
-217.750772189274 9.80697314334227 -18.3194106537883 0 0
-180.542322270731 2.64339002772555 20.1398375036247 0 0
-138.907915887784 -22.7489551997577 -4.67065183328567 0 0
-240.377668668911 39.4170568018469 11.2106397309219 0 0
-123.611117809075 -16.1818357267363 -10.2616751096286 0 0
-180.55505273107 5.50080941312679 17.769216221633 0 0
-213.124894835313 -8.22973889165083 0.943573605249159 0 0
-231.109600942414 26.1701879079165 -26.0279556889856 0 0
-51.6509821507146 -7.26971132693033 -18.3656842476878 0 0
-161.497984885987 -2.26923026289897 -10.3081215855998 0 0
-86.26828034673 2.74169579202902 -12.0292588041536 0 0
-213.825477959947 -21.0815957660227 22.0225686895318 0 0
-213.921809999056 29.6258496203635 17.0000031562091 0 0
-160.648708409119 -0.711062110945942 21.1262578676526 0 0
-85.4231722932186 -20.5644795810686 -6.77713191163278 0 0
-157.266273069458 9.62445115810526 18.5483035390899 0 0
-18.9073478200284 9.6217225909775 -7.24599161082513 0 0
-240.619628678977 14.235697290812 -6.44950050880587 0 0
-157.154546092868 -0.288513829391471 19.2946981437628 0 0
-246.322444013335 35.8812684355548 -11.66500555031 0 0
-67.0653247276521 -10.6638886423582 8.73760779563506 0 0
-137.14998476632 -2.99005422694322 13.2447022708807 0 0
-130.001441980865 -19.8411418143197 -7.07900568009723 0 0
-228.9243056826 14.1208919563619 9.44434695490718 0 0
-212.135562963037 41.9182368869067 -21.658225461028 0 0
-143.444509363535 -5.8880601440092 -11.1070691480189 0 0
-212.074887196381 28.0945880155415 -23.8600154566251 0 0
-191.403214572782 -17.6000967640579 -12.9067436672256 0 0
-233.521034356206 10.3792062467579 -11.91329724389 0 0
-195.910005589049 -10.5244069522156 17.6349781623418 0 0
-240.211554391288 45.3678557121797 -14.3122784656891 0 0
-206.836734788186 -23.4907194953043 22.6998189752087 0 0
-200.39203070653 -20.3700312883178 -15.2112246790405 0 0
-218.707946956957 -11.4245267236613 -10.4679733579695 0 0
-158.071079684795 -12.7587579109396 16.9931409585339 0 0
-217.06973742853 54.3491048413828 -0.690730324770564 0 0
-220.601020109514 3.30308321079055 2.12929347685405 0 0
-215.949436922069 11.6396945322028 9.70943372419338 0 0
-168.750315218195 -19.6089598197434 -9.58086803188175 0 0
-238.574786785199 49.1837674068459 -10.4443567212952 0 0
-55.9465354562628 -10.0693920661523 -17.584705784205 0 0
-116.493542824109 3.62954296649194 2.68021370521163 0 0
-223.771431626714 -29.9254697961604 3.35911102624391 0 0
-175.440808968031 -1.86538200749245 23.0561832954852 0 0
-227.08364300335 52.0126326084231 -6.7338068799862 0 0
-247.859923998365 30.3215386378779 -1.66355664289197 0 0
-24.3343078460128 -6.71149989880378 7.31856548291924 0 0
-126.123403058808 0.423834054783192 -10.1940378148163 0 0
-0.249998221367565 9.63137672184867 -4.00504091067735 1 0
-174.620279186641 -4.029507356095 22.4759632047566 0 0
-225.404676657594 54.9411098819016 -9.09476807243119 0 0
-19.6287808120253 -5.60121501113521 7.36185243484278 0 0
-100.954359487164 -15.9513190381958 10.0535681566849 0 0
-222.648999066746 16.9980332880253 13.8851837459203 0 0
-79.0761846381995 -14.8369165880569 7.91161889807814 0 0
-190.004155201222 -25.5741571257015 -12.8380434242059 0 0
-23.8332382984864 -16.0345790318487 -13.7644343914447 0 0
-69.1896107230595 -4.93072454770278 8.09804977574928 0 0
-1.39318596464682 8.1473648117329 -13.2512002925972 1 0
-177.107348829328 -30.312213451465 11.4610503348263 0 0
-110.289571301357 -0.407413797140751 -11.6106065258247 0 0
-65.484253165932 7.13462442022539 -8.92374533924937 0 0
-102.297947506732 -20.2710868040414 -7.10477289677064 0 0
-102.920885736944 -6.45809223227955 -14.8812016524753 0 0
-73.4002612767217 -4.95653056412279 -17.3676297990278 0 0
-106.832954884104 -22.2801045598292 7.56049547939967 0 0
-159.09241409191 9.22988887048447 14.3256116384271 0 0
-168.77938208143 8.68487262656351 10.4654407955959 0 0
-31.2726804520348 1.0981092693895 4.69388710209717 0 0
-90.1387795011082 5.12062556538979 0.850036513966811 0 0
-201.085648991824 -1.37754474294765 -15.8376453730991 0 0
-216.336317041165 -14.0061936896736 -14.9827289309167 0 0
-235.62082141512 11.6713503738153 -11.427758917183 0 0
-80.8781581638319 -15.533636551925 -12.8775278447431 0 0
-104.182112512136 -8.98455845952836 -14.8637169651119 0 0
-214.999946276235 2.3682390985839 6.3593057014959 0 0
-207.214120165104 12.397265483963 -15.8474197576166 0 0
-185.368769995446 -10.1882990640318 -12.2074843456451 0 0
-162.61034506115 1.38118972167016 23.1580372046113 0 0
-6.37179176037482 7.51452019732999 -0.809612241509684 0 0
-144.760514712867 -4.99793012014139 15.8260851392273 0 0
-179.1235641487 7.70358465324846 -7.80261684499147 0 0
-246.476278808275 37.6303149521558 1.20080789613552 0 0
-198.498929554881 -28.4396724053425 -14.6486944889718 0 0
-211.155313048625 18.8534848009306 -19.084469520071 0 0
-80.352046205944 -1.97419153430398 6.97980489889037 0 0
-212.079560352955 -19.5036541704391 22.5790552115538 0 0
-197.197154178399 -29.1486891437632 20.6686125418531 0 0
-47.9233233927872 -11.707071005944 5.27662559687236 0 0
-125.884376821427 3.23677127193283 3.88646590221977 0 0
-23.1312287509256 -5.26894077636836 -18.9545847516711 0 0
-243.061311708967 24.1358028316504 -16.7654396414374 0 0
-137.056276526906 -26.1460608742131 1.8003753000171 0 0
-60.2723460233295 -7.09632048884761 8.56532977867164 0 0
-178.122459532658 8.89448520533399 19.01953632784 0 0
-50.8916137057086 6.17307518119441 -11.7807752633337 0 0
-165.947334396815 5.3734600274205 25.5191333719859 0 0
-111.530630157539 -5.94291555792437 11.0730588054151 0 0
-143.667527689789 -8.19233166059299 -11.2316349069009 0 0
-177.979237333098 -4.81030456267386 22.0775103358585 0 0
-36.1692419430384 -18.7612161934264 -4.0541424645906 0 0
-198.675659014133 -14.5348805067055 19.8831407284802 0 0
-148.141176108992 3.39184593019818 -6.4082443644429 0 0
-212.251643222964 -36.0668722256925 3.84411623820552 0 0
-79.4063807255935 -9.28287877706307 9.5517882226658 0 0
-153.426273518418 -17.9855972172921 -8.9855694736954 0 0
-50.8460886599632 -17.5036295697694 -11.4829147775582 0 0
-210.536010159411 -9.07204272652944 4.54644541418374 0 0
-41.8768073661357 -8.50903164717938 7.41417808148431 0 0
-103.656160945946 1.63326473139791 5.3401564879634 0 0
-56.6104491837763 -12.9478951836869 5.56953358869425 0 0
-40.0153993718172 -17.7483909083703 -1.35513461732035 0 0
-35.304611354754 -9.42084287595052 5.8166282865682 0 0
-10.0429132167471 -17.3061904230277 -5.1252472046247 0 0
-19.3089176332558 8.57886392052268 -2.57912190787548 0 0
-184.7821374118 9.97349728853913 11.3488115514929 0 0
-240.138522094159 17.8095141150714 7.31119542044427 0 0
-191.478201127017 -5.02554945748764 16.3015775107664 0 0
-215.390232425038 40.6612021733009 15.9684233731439 0 0
-157.96280696934 -2.41681674186976 19.1444971404946 0 0
-113.999133992914 -14.0097392044832 12.9292238204789 0 0
-134.70231089253 -17.6265943401151 13.9937680033325 0 0
-219.741000214599 -30.4227782652514 10.2558960427641 0 0
-89.9563814314365 -3.48841980541839 8.57730977776645 0 0
-157.571554589756 -6.91742636446306 17.7171565025731 0 0
-209.786889413246 -17.0605533498423 16.6493095366773 0 0
-140.807188830241 -17.0433917523648 15.3994699379504 0 0
-94.2464844711797 -15.9982293773521 -11.7988230838824 0 0
-45.7189116977902 -16.0078923977788 -13.4354305174622 0 0
-201.386615380444 -8.76559948334658 12.1837011279046 0 0
-8.7716933024461 8.7913693929124 -2.41956407435612 0 0
-104.303654424472 -21.610197229215 7.88516267016238 0 0
-228.675405832301 51.793497159538 -14.8575116919505 0 0
-217.458843841877 -4.55663865429285 0.572719217635696 0 0
-116.050533319293 -18.5258956820653 -8.49734177777455 0 0
-110.790327282826 -19.7066196820857 -7.58913351276831 0 0
-58.5629826974073 7.9925184597169 -3.97485573558992 0 0
-163.077818724841 -15.2522954862283 -10.2362647807864 0 0
-19.8748410716625 1.07435524209847 4.90047754981262 0 0
-117.588518616728 5.01915099968028 -3.12046147450131 0 0
-190.168467016646 -10.9118929952222 20.8763412938287 0 0
-217.08897769004 -5.75106021602794 -13.946566906016 0 0
-165.351932286066 5.75983933886926 4.10976831712808 0 0
-156.772202041896 -25.2278721061817 12.0824260380742 0 0
-246.170808937929 25.3703017552209 3.07269481741684 0 0
-150.953933220675 -14.2318033818548 15.9176219105006 0 0
-154.09374925622 -24.9316683284168 12.077261284112 0 0
-184.118991885066 -37.6748285984077 2.29994979538637 0 0
-105.426245092027 -23.5430998568166 1.41981132055547 0 0
-145.127733892112 3.81237872657558 2.70497911046893 0 0
-222.102547316999 49.9607951773997 -18.4833898668651 0 0
-212.359678394779 45.1127923138717 11.4430979706581 0 0
-177.179485860266 -5.9413172715576 -10.8649520181541 0 0
-234.890530415693 42.6049857522558 -21.5450248461808 0 0
-246.124785146011 39.925004605924 -6.41502897289196 0 0
-152.224891305563 4.30744239379108 2.45467720604994 0 0
-206.464009886491 12.4247181426001 9.96274440107226 0 0
-64.5675092461315 -2.85193897609457 -17.3710794030087 0 0
-122.045051200379 1.82079932018279 6.1872472868935 0 0
-202.286216488371 13.1008604358115 9.30383805406647 0 0
-146.010379869162 -14.8908855636937 15.9321303688004 0 0
-203.705494668957 38.85471558666 -6.29862563529715 0 0
-156.109732107815 -11.1542148993002 -10.4341916771815 0 0
-132.738168062962 -14.3532752486599 15.1468871004015 0 0
-115.959622306384 0.147467178389235 -10.8935162087139 0 0
-212.495631762293 -32.8709818666174 14.1664078445147 0 0
-207.314008783685 5.54240983659118 9.5453214948437 0 0
-84.3208117602606 -18.4918228224574 6.75892604959656 0 0
-31.1200584712909 1.09929226272402 -17.480017080874 0 0
-160.621950660036 4.07365091147214 -7.11998740491546 0 0
-216.273233909789 1.82006055922726 -16.3181751015668 0 0
-166.30845642375 9.78951682886662 26.0028426659953 0 0
-52.9051715295633 8.27841971028633 -4.19303898511631 0 0
-178.526874855746 -33.5965522992965 5.50304238650533 0 0
-61.3317646627333 -19.4875840794001 -7.95216378002263 0 0
-225.438978556273 50.758269397768 10.0870504686547 0 0
-215.438074966917 -9.72269218171108 -15.556178246351 0 0
-110.664887063449 -23.8724819480096 0.867446085483132 0 0
-218.479429489068 -29.0493943505086 -10.1180562502459 0 0
-35.2845801908656 -7.27624262917046 7.75836854554185 0 0
-177.042450569301 -2.45048354247327 22.8175130458871 0 0
-226.464756372624 49.6534891592658 -3.30285397502285 0 0
-125.039209224885 -6.62080773953886 12.3910615224194 0 0
-221.179931205456 1.72471786427282 -9.98172121369004 0 0
-178.210586595911 -23.1935444538346 17.9242151744051 0 0
-112.406944442247 4.95836370644005 -0.661010993810312 0 0
-161.447461958467 13.9435223315724 20.3159850745296 0 0
-65.8808144197873 -6.43482507171038 8.26932775133405 0 0
-219.736460805119 3.2218655500475 3.53260083982018 0 0
-211.55655837052 -4.05347913771542 5.95758478993235 0 0
-159.606034329926 10.0850052988399 22.7561877217731 0 0
-201.50812164296 -24.1345937615828 23.3081589970817 0 0
-70.0085452781482 -7.78255680535586 8.89305570695975 0 0
-184.935507368453 -1.61211488122505 18.7869772247242 0 0
-39.4899819700088 -5.32852641262078 7.99219971455098 0 0
-153.456580769126 -11.0739415977366 16.2381131618901 0 0
-198.249059162359 -38.3255105920485 8.28608107480752 0 0
-192.941961071901 -38.8529744989572 6.44670361277728 0 0
-29.6113665313822 -6.94019520854808 -18.6338890365962 0 0
-192.994507346731 -15.7167812529835 -13.6633867004729 0 0
-196.811536684628 16.9158258889679 7.20114224753907 0 0
-193.435240681541 -5.89888264778233 15.9086538984921 0 0
-108.550258225932 -3.28613315082788 -13.2549711780675 0 0
-221.202047327683 52.1949985065099 -5.1109396115997 0 0
-49.8914101506377 7.97864831661214 -2.71166178775728 0 0
-167.234867321169 15.3262187587436 18.5219511262977 0 0
-222.416798705181 -18.1047097316046 -1.12742842431045 0 0
-218.828888819242 -4.85464727396703 -0.917230673321704 0 0
-237.433857545967 16.7315039036807 9.11369188737783 0 0
-208.304810962995 44.9424222585737 -15.2274163642691 0 0
-10.0964251496666 1.82068627075315 4.55892469290536 0 0
-200.321656258042 -18.1241470852734 -15.2317490708763 0 0
-151.638001265414 3.35271924959835 14.7425945084185 0 0
-241.265994513248 30.7734917980339 -20.408743884037 0 0
-27.5191671650145 8.79588285364024 -9.31233852038831 0 0
-177.526649285944 8.78372559830181 3.33520286675573 0 0
-172.675212134289 -8.51654566818401 20.8322576315037 0 0
-207.959666713772 -20.7158856916238 23.1169379786726 0 0
-21.3453898142431 -17.7216388615525 -4.25903051986265 0 0
-169.780747077696 -21.5972665048368 -8.86739421056038 0 0
-243.218110709727 39.6537632619543 -15.520657958464 0 0
-121.745505502744 -20.6270940512319 10.883411398569 0 0
-195.444649032427 20.8438242315164 -2.31916429957211 0 0
-213.475350196271 20.146719732909 -21.1215034798584 0 0
-208.944893783255 24.6803731346566 -20.3045195070542 0 0
-188.772901851961 -40.4912035605263 -0.795681496014449 0 0
-199.543306597252 -39.0147623997642 -7.77842118260603 0 0
-177.575586294872 1.99693665219284 -11.1668793032346 0 0
-199.400827457018 10.9245331746335 9.21467782922292 0 0
-39.8334540690223 0.368241425270856 -17.4079402711983 0 0
-14.7757584147025 -18.234463900568 -8.14666868845788 0 0
-243.737013467196 44.2223814494087 -7.71848187970925 0 0
-112.662375256681 1.2086927665055 6.32956383061178 0 0
-37.9111753192038 9.03526880847239 -6.78038410963456 0 0
-214.310649371127 22.7210507924806 -23.2569091190497 0 0
-219.417442990006 -15.3658659907026 -0.346121595252947 0 0
-215.536507872396 20.8696684070736 -22.7409446589335 0 0
-192.772514269126 5.80844040353391 11.461182771684 0 0
-189.914386895662 14.6152534761207 -4.78477080812668 0 0
-240.209062741994 15.7092153786061 4.19581726201528 0 0
-177.558838397804 10.2056137811782 16.817381517489 0 0
-101.429165007031 -7.26783069708634 10.3844181205912 0 0
-165.93261716693 5.07332032301746 2.12524335683435 0 0
-157.395686355366 -28.3493597959646 1.45038553161885 0 0
-164.621423898128 14.9862641597515 19.2340680033368 0 0
-221.820023126809 -16.5669463375667 1.13995960856749 0 0
-213.953539846977 -7.90472360299991 -16.7599394505906 0 0
-179.466361509283 -18.009098320539 -11.2062505188066 0 0
-170.690361725874 9.1990246100725 26.0542141369121 0 0
-183.315250916427 -3.96929077446157 -11.9946448918275 0 0
-58.2370329330609 -11.2132409195644 6.91816492535279 0 0
-208.932450805938 16.457309654381 -17.0834596813383 0 0
-154.201449133375 -3.97976395912927 17.7544100990106 0 0
-93.8135950821872 -18.5607232039927 8.1433933729684 0 0
-240.780473899613 20.2690714608504 8.68703005285265 0 0
-167.905664091302 5.83666710523633 25.8139419970539 0 0
-208.180129250126 -16.6583639174447 16.4404630277296 0 0
-171.252085752584 -0.278494298399112 -10.745928191257 0 0
-181.529995310231 -5.65367108289629 -11.3857886330174 0 0
-246.930735526893 35.6360522081597 -9.65356969724742 0 0
-216.34999540262 17.0403266946821 -20.5124578013471 0 0
-149.775247779923 -9.44359602282593 16.1658639420292 0 0
-144.219099498766 -11.5196397674294 15.4145671732035 0 0
-195.253983614889 -33.0663612676296 16.6119974073896 0 0
-163.708748952735 5.10452548700482 -5.73296826183404 0 0
-204.984754092431 -12.0011189557406 8.4693594037356 0 0
-126.030923680695 4.02493465100071 1.82030608835603 0 0
-65.2703756825616 -9.57039549661449 8.88458913797066 0 0
-139.215973490902 3.415516900677 -6.9324182466773 0 0
-156.159117694725 -18.9470812748333 16.7230973929981 0 0
-206.319416000522 10.1465845959287 10.0079264094014 0 0
-221.551309661344 28.1966480367424 -27.0971874406378 0 0
-91.8133815882155 -11.1728488618074 11.0518303206979 0 0
-154.238562265951 -7.33792111063315 16.8725869910926 0 0
-29.3626614120166 -17.8108934114524 -11.3871079336542 0 0
-125.544975994181 -14.584667129317 14.4912725547479 0 0
-231.126830398057 54.4156868754917 -7.96203991835836 0 0
-3.14466977758346 -0.799017345911575 7.03994648179639 1 0
-173.497558429137 10.2478384380186 10.7574472604211 0 0
-120.443799884832 -8.69954172459154 -13.3215754685269 0 0
-208.48396580001 -10.5876715737396 6.35738673367635 0 0
-184.681895438118 -9.68247965876882 21.4704263380944 0 0
-209.514017463569 40.7973923144921 11.7876538879346 0 0
-127.850400838246 -25.4143943316074 1.3384715131076 0 0
-102.319412385969 4.35558483752765 -9.23513624434298 0 0
-109.305180967495 -21.6542772486796 -5.12019801351681 0 0
-185.201141277646 -32.531660738038 13.7805467794267 0 0
-197.78771212999 23.4793988871254 -1.49525669112149 0 0
-97.1702294020148 3.06538527112103 -10.8313689705747 0 0
-199.359761655812 7.60419641443654 -13.7074949646513 0 0
-230.239228887725 50.2565091578192 -3.9712187853226 0 0
-142.985450997447 -8.39881703474601 15.6479103619672 0 0
-247.306940288506 28.215554067148 0.882028385571644 0 0
-171.271236029933 -23.6070837336948 -8.03166866305235 0 0
-44.2088180965733 -1.12955586690875 6.00566780214729 0 0
-139.00462810245 -19.3258008548199 -7.47008773904469 0 0
-219.7321999583 -5.20283137497601 -2.84478048948698 0 0
-95.8489737945215 -2.68352258065773 -14.238130080264 0 0
-219.763316931237 -15.175018885799 17.772107047917 0 0
-43.9901767247034 8.84486388376432 -4.73446638510522 0 0
-193.705856862887 -34.4191611169654 -12.5185834581839 0 0
-216.408257852677 -16.3364546206387 18.773269097153 0 0
-6.89388213758905 9.97029532341816 -8.50657708908924 0 0
-168.016796849086 -5.55782923240879 -10.3834383772632 0 0
-57.8389943378421 -19.7360724673998 -2.15156561614248 0 0
-178.083507566504 8.38808993416746 -5.20930640390239 0 0
-180.132186531156 5.40161199225992 -9.80105260221589 0 0
-217.253575299191 -33.6067961158805 5.43902215914182 0 0
-205.294233601012 -14.7105594811844 17.405468116181 0 0
-74.8098628630717 0.814722331521113 4.99729180012751 0 0
-212.991073456892 7.10692917322799 -18.4488919716569 0 0
-201.490507337249 18.8853911019038 -11.5905062846683 0 0
-104.206463595799 -7.35984250947477 10.6716614597535 0 0
-23.0262206971249 5.73369007080315 1.02333483631157 0 0
-245.630087108487 23.7458036699553 -11.4708411972385 0 0
-179.808384648948 3.13972748679996 21.7125630062858 0 0
-223.39199596197 8.20590838346971 2.66461737327844 0 0
-102.085261461544 -12.7123336995541 12.154303554803 0 0
-205.431751029679 -11.360725370174 -19.1793823270626 0 0
-239.914448032996 48.9360546397223 -7.73229288547075 0 0
-225.535084994682 -27.2047282709944 3.40888506549371 0 0
-207.689484613656 32.4656900450255 -19.886122414006 0 0
-210.689292886622 47.8075520620593 6.71784845204529 0 0
-193.736322243844 -36.4110606155165 11.9514077223031 0 0
-150.298037604645 -26.3852084518335 8.87935395236392 0 0
-199.617650502127 -11.0671536844616 16.1848953874694 0 0
-136.847562810194 4.08262261336879 0.740770344879417 0 0
-167.257323029179 -13.372660101244 18.6561070049597 0 0
-207.262034818862 37.6576052376365 -18.2009095339029 0 0
-222.222972725466 -27.1597364697895 10.8120536373778 0 0
-142.954656496448 -12.9067424792828 15.4670655592791 0 0
-9.50825499656668 -0.156773120204391 6.57335642379044 0 0
-17.8122573133521 0.731963116457973 5.24461727839558 0 0
-192.940226671626 -40.5779316866425 -5.08420564411984 0 2
-170.658925419332 3.23015169953472 -10.1458394253454 0 0
-165.891355630987 -15.6830475036541 -10.2899696735002 0 0
-54.5642783667429 5.99753817986481 0.00672105296859604 0 0
-30.502887398936 -12.3164433556482 2.76469434524426 0 0
-239.801874680784 48.7547419730742 0.59582222480558 0 0
-47.2887096506664 -9.39623264733138 7.22634977222602 0 0
-219.29406485043 35.9496732822426 -26.6423575347477 0 0
-4.35750947839332 -3.79311446089526 7.27597678445309 1 0
-150.695654070329 -6.96113474352065 -10.7386687686794 0 0
-230.987491524894 37.304080671868 17.7405284266544 0 0
-156.890548088743 -26.8370620381729 9.69061466107176 0 0
-218.303669811597 19.163051950337 14.4218953732432 0 0
-45.9164269774432 5.64670499041933 0.611018661122746 0 0
-61.3105630054484 8.02332597760772 -4.81898849645311 0 0
-205.215862266724 33.9481999388691 1.45321573983671 0 0
-218.409798307555 53.4565395933142 -10.7591745320632 0 0
-225.308851409483 11.9127024221514 4.96441195961713 0 0
-124.23058744011 2.75300551494551 -8.66529420200909 0 0
-220.503236922843 -4.07983512221344 -5.40408320002971 0 0
-53.8738998374072 -4.51622106910414 -18.3680827871679 0 0
-183.100420646022 -4.95678763719618 20.5986932315381 0 0
-1.48240816938085 0.465481691218936 6.28618927556141 1 0
-123.10354278358 -9.76273495396998 -12.9802564062134 0 0
-229.24932981596 46.5183433959221 13.6391553892532 0 0
-28.6844743726728 -4.59453659461489 -18.9032986179109 0 0
-205.113945269511 36.2028661214829 -13.0315585451275 0 0
-160.138183677013 -12.7078131829154 17.3922274856951 0 0
-100.069900281894 -21.5529732147133 -4.96662837410966 0 0
-234.497040066647 14.3474744579655 -17.4574009247896 0 0
-141.355482230189 -5.39725460711639 -11.198820834148 0 0
-175.420420239864 -19.7844374555563 -10.4944768945016 0 0
-1.33331511608868 -9.72817666554738 2.8768649636783 1 0
