"x" "y" "z" "f" "a"
17.3281473402887 -4.04315059602786 3.57340522569276 0 0
191.389224751483 -19.2905223336447 -27.6658633739397 0 0
189.177234471839 9.04162231802251 25.6856594372556 0 0
165.089367491394 -16.4895393248713 -16.9537849294922 0 0
177.813403501801 14.9962464337189 14.9987424073181 0 0
53.8113585303577 10.025391749212 -16.7058893884931 0 0
191.662514527451 -8.90572956233752 22.5304380212098 0 0
202.421425030118 32.9434331911901 4.52429312335933 0 0
184.738359945653 -19.8441354224402 -24.7370995673425 0 0
151.201054963512 2.12712753473372 -20.3457924002957 0 0
163.110963289915 18.2599677940378 8.91115798538157 0 0
209.383207774373 5.51270989224412 14.5817594677448 0 0
214.538410147046 24.9502871224154 24.6061120219669 0 0
165.420165735147 11.1545383805423 10.6346484972129 0 0
166.040308350303 3.60597594356036 -19.3863731353608 0 0
195.463749481119 -7.33438898740053 -25.1775485282287 0 0
205.814137154797 31.7831162272086 27.4933825747722 0 0
29.142872859785 11.3569122553489 -7.10962509108722 0 0
194.861930213891 -0.399395816616536 -21.0917376685775 0 0
162.723009551102 -13.6919164009922 -19.8739869240172 0 0
2.34586047152181 3.4408911507179 3.34839807384585 1 0
31.4178186931105 -10.1247169213696 -20.7586669478627 0 0
181.920713904432 -22.7108736633066 25.7561985219169 0 0
214.938429030873 25.6987388528037 -1.28729114236612 0 0
89.0011658575349 13.5865502566331 -7.03117348208625 0 0
174.734295507737 -19.7613607709762 -17.3709101581158 0 0
198.740059468292 -24.5469223787632 -14.890043912914 0 0
181.395910120307 34.1952766433706 14.0943013363871 0 0
203.334439141179 6.27163074641844 12.874385206922 0 0
202.079235102145 23.3581703947073 34.8547122769077 0 0
17.5695338228151 5.34650036968891 0.600884287165947 0 0
179.549443405937 25.4252504270024 17.9546282357088 0 0
28.395757712249 -10.286704810281 -2.35008952417896 0 0
208.879444055158 30.5286687214029 20.9325955315677 0 0
168.761637237079 21.3405888634375 9.65493141749038 0 0
210.184317641498 18.5512547757765 30.2514082416269 0 0
15.8649810203649 2.36835558526971 4.90991484851753 0 0
103.818149823578 -14.8981625571348 -9.79162449890076 0 0
205.850325706836 31.8738290753479 6.63955587959389 0 0
24.3104726787099 -3.45229471595185 4.79215074740767 0 0
201.526751027655 26.6931235699897 -9.05531001312174 0 0
171.449680322651 -26.1998539656217 7.30095835771948 0 0
76.1323881694809 -5.95640036162908 5.08463650345186 0 0
204.011855810884 13.9787487896421 -19.8215849728483 0 0
122.879263656539 14.5558140231664 -13.2687552661423 0 0
176.433532443403 -6.66856577867839 -23.5886974763009 0 0
71.1354817672453 1.9773468909316 -22.0583742095881 0 0
208.738559748786 -5.76360451767458 0.634701183698891 0 0
88.3565827681299 7.41076849962619 0.294663028322745 0 0
135.330273374083 12.9997607295803 2.20936121346719 0 0
129.488529409812 -0.6201372400027 -21.7281698382022 0 0
206.461619273263 17.7962553711208 -16.9566926484555 0 0
85.7572850632098 -2.96022112439933 -22.546663810368 0 0
146.901450863731 0.802778566115834 -20.9159340719401 0 0
207.51940993472 -10.193228232238 18.488767392283 0 0
71.4899533052139 -6.93269180255709 3.2589841828596 0 0
172.606866637342 20.2040061592661 12.3663701210795 0 0
166.745031604386 19.8951362792569 9.38836713213354 0 0
201.395699110624 -13.2745307391212 -24.4031922573819 0 0
207.131987866182 -27.7898712953794 24.5540539729583 0 0
74.2567885669092 -1.60734056288168 4.86063891903308 0 0
210.544278207167 4.33350403507511 13.7028874836533 0 0
201.770964956177 15.6079041942303 34.1785771407404 0 0
170.685166499056 -4.47610689061939 -21.736525110486 0 0
154.776413721064 20.7036071097973 0.350716104931032 0 0
176.818916295342 30.0313036700697 7.22448995417266 0 0
140.396551028338 -15.5525918865741 -12.8252719679212 0 0
88.6275479893439 -10.5710912213123 1.79661448544922 0 0
215.220154958528 9.44098042597791 6.0657323324748 0 0
158.35204219162 12.8750950017498 8.30446987292359 0 0
186.87334013001 12.8618570606791 27.813037712097 0 0
181.403660559117 34.3768178012484 12.587372465601 0 0
205.913011857405 -3.89201209816939 -12.3685409476619 0 0
150.698834005912 14.5947020249035 5.21455989879786 0 0
189.451334614538 -7.43070128035708 19.8692819782034 0 0
183.636570427968 26.3166486440331 25.9968554945103 0 0
137.009151513496 15.7672064821809 -12.3837090924044 0 0
207.33337429112 -0.00109938382369369 -5.99795095678588 0 0
144.785828481267 17.3290426990919 0.634613064788115 0 0
210.721562901233 30.1614210448123 15.8418228574631 0 0
153.192230765454 -17.6572589291117 -9.35607706294899 0 0
180.887550245492 14.7370067665511 21.4710747844493 0 0
52.2164223767934 -1.2464901743722 4.82955016625307 0 0
54.5767256153642 12.7924263154402 -10.388796453621 0 0
196.609542041021 27.6143713932955 -9.16966023944377 0 0
46.4416574576444 -4.9110501830186 4.95263607620975 0 0
189.049743934209 -11.223563656894 -27.451284657134 0 0
216.485865555213 19.3419729706371 20.3450274100787 0 0
209.951122705814 -31.4975027765485 7.40226563326332 0 0
128.360896870218 -1.93899201752258 5.50168957957606 0 0
179.217183595434 -18.8176327505035 20.8513874787839 0 0
180.921469871811 11.6999440639819 21.3251550851821 0 0
200.081150214928 5.31956907471873 -18.1397536454555 0 0
169.248758545827 24.013822722164 8.46869478381422 0 0
185.600894542426 14.867988772938 27.3941693236973 0 0
165.6895813877 -18.6330588144907 -13.0217248883342 0 0
202.375033046874 -5.33126169629961 11.8443530240268 0 0
115.636292114715 -7.48738594363847 6.67517497843297 0 0
15.5557005192867 -11.3394087322007 -3.34472903837841 0 0
9.11005816524754 -11.2957573974406 -3.15184785450854 0 0
195.662620970982 31.9797855071538 31.3739513965444 0 0
196.172785567685 7.63885702979108 29.703398569146 0 0
46.1364424882579 11.7858298012461 -13.0301203565791 0 0
162.61832323292 21.2605072644555 -7.03027090053861 0 0
172.436462057785 20.6309068987942 -12.2851203617152 0 0
194.685852760817 12.7970208992251 -22.631612536163 0 0
202.618556095036 33.9815767026089 12.438782554656 0 0
174.480845751306 19.3631495218907 13.8996865579774 0 0
21.7638956584959 4.03374746150355 3.30363987344866 0 0
217.993456477829 26.3446641443353 13.4666571225798 0 0
75.4522030730777 -10.2065875340106 -19.7104098320625 0 0
203.245124688213 -4.98267025643471 9.54659317444602 0 0
215.760953428777 15.3970275658621 20.084038216125 0 0
123.164551601066 3.26086378136666 -20.9416513338743 0 0
28.0699198781516 7.39177635383024 -1.6922486108507 0 0
58.8325769248295 -13.2214623721889 -5.62619597261093 0 0
202.650589309117 8.72460206828618 21.1638331226376 0 0
26.9236427070889 1.20686577347686 -22.2435075469374 0 0
218.026911562529 23.545654860118 14.3466639921453 0 0
101.985524336905 -7.05164907466595 6.08372035203546 0 0
196.0995339129 34.77801307675 12.4752429483745 0 0
192.274617408702 14.9436045965607 -22.3626820644085 0 0
204.058312616885 8.67578892710919 28.3886520995327 0 0
158.327192026532 9.10107501275451 -18.2422461540886 0 0
174.558722730211 -11.1884911018238 14.0812421408644 0 0
177.841953289242 -2.88725704995143 -22.1884852999859 0 0
203.218812538723 -13.1554123833432 -22.8512208249753 0 0
13.9545672440607 -2.67627979099459 5.20157861320482 0 0
143.073339577153 -11.4605618425701 7.97655028833806 0 0
187.928515267387 -19.7963675401014 -26.0728729588447 0 0
211.416318539798 22.3428497135814 29.319489592556 0 0
8.169845695141 8.80554549958926 -3.63891355086828 0 0
206.860480878884 -4.20888975780774 3.56123468109235 0 0
114.256917988878 -14.6170602621105 -12.8187386892711 0 0
210.74481826943 14.7517762488726 -13.2019289885988 0 0
161.91267269514 -10.2825180732249 11.7017477331345 0 0
204.83898676709 31.3202518199849 23.7824107078537 0 0
168.668725057362 25.3521809048598 0.0654800672749164 0 0
40.9293978649291 -8.72461132940178 -0.535533602273578 0 0
217.178432031422 18.0765540956933 0.782507167760124 0 0
108.225513366432 14.2560601517584 -12.2334884199075 0 0
202.63854782013 -10.8440760598905 24.9529343379059 0 0
186.993659649107 -1.13120205969555 14.5846040047249 0 0
192.259592592882 -28.0256767040479 22.4409595553888 0 0
195.371564697204 13.981024289987 33.7349458062781 0 0
212.835735751812 24.5206918025498 -4.49349511491077 0 0
179.827969117016 18.5792936124709 18.1634858886677 0 0
182.270356530445 33.1530262620176 16.7069616205736 0 0
174.549549503055 28.4811438688175 4.96609346034408 0 0
137.13747597081 6.10769487024814 -19.733255075233 0 0
214.711130754782 28.6797662605041 9.32175320410296 0 0
144.816943823039 10.0965941382625 5.10542400486324 0 0
153.573981140208 -3.0470699290139 -21.3435647319707 0 0
192.069650878692 -0.245717944170465 -22.0313874164213 0 0
168.825978562034 12.4867306747883 12.5112252983067 0 0
183.266867982841 34.8294374655734 10.4944320182759 0 0
140.741390081701 -2.98307584691054 6.21140195039231 0 0
211.82065649771 -18.3669989362894 -3.81969112056792 0 0
211.91315999047 -14.8126979068314 -4.45735083215949 0 0
144.064532928991 -17.3812265210211 -4.88668098640765 0 0
166.524323546594 1.56377790375584 8.49204448140364 0 0
187.16124575878 -29.2178072964483 19.9944303081581 0 0
172.532035761014 16.3161585959212 13.2031915203513 0 0
143.2602165394 7.35158241317473 -19.1003870993081 0 0
173.651681312321 -9.2313073767759 -23.9053065307941 0 0
52.2138628134997 11.6176510465949 -5.78885090738234 0 0
183.067999077249 -23.654887513832 -15.5648974235823 0 0
202.947365025015 -28.7183659982613 27.2181771073689 0 0
201.089889173674 -24.3393864965072 -14.1530800349225 0 0
166.183746207606 24.5068695057789 3.55150555570891 0 0
187.994854056238 -25.7542941026108 27.7686888984972 0 0
197.641731700394 33.4670183758098 18.4179704480838 0 0
192.732503797726 13.2568106331368 -23.432873296761 0 0
174.869160182495 21.786854721593 -11.9584610818157 0 0
153.042456470032 -12.4785059082764 -19.2486935764413 0 0
156.65541810338 -18.6559988541424 7.42629157968049 0 0
9.0509982302157 2.33198689366517 4.82286384997259 0 0
30.8063559230054 8.51349231834195 -2.91585062295203 0 0
194.833181275713 -23.3091819320117 -19.6682506069675 0 0
212.685066696806 -16.986542232931 12.2724269986139 0 0
105.616907349962 3.37030532464443 -21.156073477592 0 0
84.9326793869197 -11.7230549707543 -18.0204412149455 0 0
70.3645049767787 11.3780610544765 -14.9184828547978 0 0
65.0502822185732 8.26318035263418 -1.85776533011594 0 0
65.3998278809233 -9.80058886601104 -0.155077061829588 0 0
154.539258544413 7.81034991774616 -18.710112688596 0 0
194.465468820244 -20.528579012871 -25.7294615684726 0 0
176.721776700438 21.7606970712437 -12.8662455609527 0 0
58.5020643788723 -6.80479061493894 -21.8771658911881 0 0
55.9286084046875 -10.9864196964831 -2.36328356591542 0 0
37.9170230467113 -14.8366514897219 -15.8285931221533 0 0
62.2813100810849 -12.6096330500321 -4.2134919230252 0 0
193.895628128308 -18.6033938432706 -28.247300972336 0 0
162.581017967932 -20.5501632864433 8.33595168705582 0 0
211.375313766327 13.2744614971763 -10.8901220969783 0 0
60.9787201541188 -7.80970793961121 1.68133941613588 0 0
201.820952037962 31.9813748883669 1.5009118288663 0 0
201.793776917505 15.0286536807906 -21.1379107890114 0 0
62.6889640166793 0.910053892545931 -22.3938720397761 0 0
90.329741393432 -14.6488509018203 -11.2807682987293 0 0
201.245454627804 -20.5165433596524 29.4782259950876 0 0
174.968511909333 28.6456253372384 7.98354822248165 0 0
114.764862339885 14.9724956668864 -11.3331736043632 0 0
136.489382426681 16.7551505547128 -1.86031844728566 0 0
190.746817066311 18.1292379299585 -19.400937307847 0 0
58.1232035210562 11.0595295216777 -15.1116930804546 0 0
171.366769332263 26.8554711104938 5.17772335706173 0 0
174.385222645727 -7.35057803794557 13.7163502177597 0 0
158.628007661961 -16.2988241905911 9.89379188852208 0 0
80.357444873819 8.09356823257585 -0.902094359245998 0 0
97.4963534585902 13.265691749671 -13.1826961795679 0 0
32.1786376788332 -15.0664157609513 -15.7417570324762 0 0
178.204570888517 29.2915158134887 16.455892039734 0 0
34.2763254723556 9.1386670163417 -3.52579836719675 0 0
9.79968030224255 2.90058093601267 -21.3431813131351 0 0
155.955946536267 -8.14989693828938 -21.4165460088158 0 0
189.683254104916 -12.5870916862589 27.6725194492718 0 0
94.2253427768826 -0.341704772028766 4.34741966057953 0 0
183.229298741635 -31.3344673822892 4.12532311114677 0 0
9.54212139085722 -9.2734212185647 -21.4464459170844 0 0
158.597973370018 3.05199352731642 7.1333540847267 0 0
171.868515161017 25.1824346893587 -4.35120292838879 0 0
168.497832134416 -15.9080301738704 -19.1968504417575 0 0
161.680624433542 -13.8117346317499 11.4845370220856 0 0
215.624218760275 20.4586338828251 22.9500454424866 0 0
79.8691452401865 6.2630255821945 0.505130187036594 0 0
59.112537322703 12.9866571055099 -9.13002961163918 0 0
191.250128282191 24.1299297067449 -14.1735943503273 0 0
176.195204273945 6.57867877917639 11.8075962437895 0 0
121.858337577289 -6.28876115744207 -21.3764815582568 0 0
136.918649893031 -3.30724144849418 -21.8247311808172 0 0
195.105877848076 -5.81615047671875 14.8203441785424 0 0
177.049041825769 -9.75164460354041 14.8190918208332 0 0
57.8767323414802 -1.20803143881959 -22.793612507515 0 0
191.541508332964 9.3834223543875 -21.7702915402946 0 0
100.450047738956 14.4186829034644 -8.12856057744737 0 0
167.595675332687 20.2697832816902 -10.6813536824577 0 0
141.459803857812 -0.159265297042087 -21.3490855856779 0 0
29.6302313110718 -5.89191914468778 -22.2764844758782 0 0
196.427960773055 31.7950415613637 29.9438572765436 0 0
59.7272032748989 12.0621700365088 -5.86115173927902 0 0
158.870526772237 18.9088421963445 5.74487702943952 0 0
206.860196305948 -18.9732875798949 24.7404461389405 0 0
187.812541097517 0.230260205064231 14.4459874576474 0 0
160.097236051193 9.11764679018151 8.54212545708998 0 0
179.69478366637 -11.4631106808291 17.9437083686729 0 0
212.340778012252 -18.3488086166415 0.951590034883878 0 0
41.8277550719033 11.9252172931008 -7.51196508982878 0 0
69.7403692691756 10.4860056736036 -3.41969459578906 0 0
98.9197613137183 5.20561662587988 -20.5078134288926 0 0
209.046796546671 4.70001018970791 11.019541715004 0 0
95.466707563153 1.16804328815139 3.75923485558396 0 0
100.173318017391 2.20923326781037 -21.6486780126136 0 0
196.255633158315 29.1831873445579 33.5460091872762 0 0
180.425485700575 1.32160409298458 13.6003513634989 0 0
209.367403329794 30.5700413394128 26.1456089919204 0 0
30.297215433619 -15.4919415600536 -13.2880986622153 0 0
208.451231692185 -30.3666567334764 3.81687458464897 0 0
209.983985013261 -8.46664909238445 -1.29008584976796 0 0
56.6918032332663 9.61204670964412 -17.3671588974867 0 0
207.124788667468 25.0998283447813 -8.02576772652896 0 0
41.7913440281459 -4.69858809488217 4.2327582921254 0 0
187.281921569715 20.1143462868178 30.9078881524604 0 0
21.9987326817845 -15.7302247612051 -11.4117013642783 0 0
94.5362800495392 -6.18478634216059 5.85088122767144 0 0
185.653985011876 -33.9503674052713 7.07927996512073 0 0
200.963575991194 31.9216363385638 20.4261811552159 0 0
32.8313165320527 -13.3625146837628 -6.08424608094396 0 0
203.597614917093 8.85950154004175 19.4655534356255 0 0
32.260080439424 -3.12382341591602 5.3178275832159 0 0
79.5755323867634 11.6958156867484 -14.8641001454755 0 0
72.8689026826702 10.3630624337214 -3.19947043940532 0 0
180.470218940675 -30.4569652487876 4.85998710120734 0 0
154.021524320695 -9.44778126104162 -21.0587365521596 0 0
176.5255121452 -19.5225682371451 17.3415835868839 0 0
112.406101438598 -14.845305540376 -1.15186017976248 0 0
101.381182558245 -4.62232086307548 6.15875398653121 0 0
18.0348890597328 -5.10968856532927 -22.5677428911387 0 0
176.216843909901 23.0443373054087 -10.9212754968481 0 0
176.754933152128 -21.9998929771122 -15.0176845765669 0 0
61.5576093705756 -13.8115995081722 -15.5330748727464 0 0
182.678323814378 25.3178978739084 24.3077016101867 0 0
209.16583252897 -18.2490520087787 21.7382880733364 0 0
214.626409863628 10.2537798805459 -1.149995250942 0 0
197.103974276237 -5.7652965897598 13.8790399370054 0 0
198.157139530526 29.8784251885796 33.553004615621 0 0
177.461888031787 -28.4839954018411 2.45464948727988 0 0
76.3922558648055 0.15335917398919 4.03081404998432 0 0
111.484774981549 -9.83061111171413 -19.6685835916073 0 0
103.464067865698 -13.5844095900713 0.0757911047022751 0 0
200.172827502384 -17.5572561073226 29.6353935619703 0 0
206.112711010476 20.0646520002957 -14.0734038318066 0 0
179.173781616726 -18.0528996132213 -23.563630033299 0 0
144.491908092511 -1.56451812281933 6.12862272283628 0 0
12.6157601189607 -11.5954871731899 -3.51419464440959 0 0
52.2933159276572 6.78035891461963 -20.0108666032827 0 0
155.143983390602 -17.9310222131044 -9.17032454037584 0 0
117.560832202471 13.6422304514849 -1.61164248428039 0 0
197.557975786881 -0.534273818964185 8.26369742316524 0 0
195.338379298542 1.34614318497849 10.224469847828 0 0
180.966111672614 -20.4736584994044 -21.9607441150893 0 0
15.2598468053082 -1.46496489455707 5.76819227736847 0 0
153.277044188239 15.2658449204392 5.76602574041472 0 0
167.978381724345 -9.81435416319983 12.6004882701781 0 0
161.531957885204 7.21458607946396 8.63152734862071 0 0
181.178336479922 -16.0849306160141 24.546271071097 0 0
201.951636335239 23.8777115204407 -12.1453087097165 0 0
25.452844458358 10.2911363636463 -15.529841788644 0 0
173.200567074015 11.6839765127934 12.1819007400495 0 0
182.89346123219 -9.43564445203825 -26.4507529300701 0 0
188.026961189566 -22.4039929140346 -21.7234520752818 0 0
46.0801079477101 9.40590922887542 -17.3671829261039 0 0
48.9266652317893 2.93093008008804 3.69772766700881 0 0
58.2735540921923 4.7616826943232 2.10047721231987 0 0
23.9337549207732 0.889219304605559 -22.3178716185368 0 0
180.981871179069 8.66161658093853 14.6910828667886 0 0
11.643162501385 11.5046702722663 -8.2798451339838 0 0
162.787343664908 9.99405431618632 9.26994467919444 0 0
202.166147025141 -9.00178231224254 -21.9202687736179 0 0
38.4526885731955 5.97728692692926 0.20077072394063 0 0
206.920683280782 7.75770876063806 15.7259853091776 0 0
87.8416463679789 -6.14680404379992 5.29874824621441 0 0
53.850390146928 -8.21360454230651 0.802618196823623 0 0
126.736015717225 -16.0067375174916 -8.28131996516947 0 0
202.478067115047 -29.0382384663298 -0.677707950263443 0 0
197.107906450301 -16.7912952405101 -27.2835569004163 0 0
171.85968805701 -8.59863747452972 -23.3043491176101 0 0
139.287052754598 -3.96999052614806 6.37878649627439 0 0
36.8237264915483 7.38538685152162 -1.49890279267271 0 0
186.58417516803 -26.1166020600306 25.9811881550934 0 0
121.155222172362 -7.62287615463446 6.90628798597247 0 0
208.493331000079 -20.2911292611404 23.7105446416351 0 0
35.2814434664025 7.21036087334347 -19.2346923641947 0 0
212.459723980558 -20.244289514612 15.7472750248521 0 0
177.487165833783 11.5480620631814 13.5186727819172 0 0
166.807648565085 -17.9761498881867 12.0319190807571 0 0
208.607006998025 -4.69804938489643 -3.65454490459897 0 0
200.34343160025 -29.3356515983309 18.5810992684412 0 0
97.3586267684507 14.117704848909 -10.5844429822369 0 0
203.431385347209 -4.35595745117861 7.13488921549587 0 0
181.176639737798 13.8958355316876 16.8851033227023 0 0
154.236915089162 12.2955946059878 -16.589837768639 0 0
96.661596052336 -14.6756643687783 -5.63695453877023 0 0
176.380909646508 -29.829809284958 6.74552345200282 0 0
176.268740351166 18.9972256640855 -15.6593742813866 0 0
69.2191486113387 -9.33003318457372 -20.5408674859283 0 0
134.29774052448 11.1744001948679 3.04107931600986 0 0
10.8484325763594 -3.81360938748443 -22.6515115307112 0 0
202.547476883626 -30.4561934715958 19.8255560707659 0 0
167.719412340606 5.38444003134059 9.55223783063143 0 0
99.0579138457763 7.40857477142902 -19.2689588597917 0 0
135.882848732538 -16.2470538818495 -9.23586437459927 0 0
57.237970875974 -14.9086610425629 -12.2589666038478 0 0
37.333362822711 -3.72971691709825 -22.6159166971265 0 0
198.474598052762 8.5328301074326 15.5124708228146 0 0
158.213604835162 16.8109722823905 -12.7923611676137 0 0
177.369361394256 17.2958002458986 -17.267462046306 0 0
158.698285040226 -21.0246059272988 2.52670818374982 0 0
46.1496012920924 -5.76274165642604 2.99979955374193 0 0
123.013339930369 6.32707796561561 -19.7360805090254 0 0
217.446442777058 14.9704153014896 5.54140915419542 0 0
104.81813576499 12.1891601219399 -2.01425255939906 0 0
119.986127300007 -2.37156704678787 5.37964459127174 0 0
161.303618166073 0.560281773010419 7.57144783027542 0 0
17.8553993659609 1.83788761993132 -21.9262711382057 0 0
176.291468801731 -11.4416453793266 14.9301147937032 0 0
190.371869760475 36.7511189991843 11.2399966076236 0 0
180.371582935881 30.2398926316358 -0.664324715556214 0 0
173.150580808135 23.2534386396247 11.5014108509917 0 0
214.57107917037 20.6729860861764 -6.31499276199285 0 0
45.3573379911664 12.3284952091121 -10.9813328328567 0 0
202.708069983278 8.62011624753258 23.0842983669413 0 0
159.745975526955 4.6100222257424 7.43697611847002 0 0
98.8015553526841 10.1577790104049 -0.789322704442005 0 0
176.126815875975 20.2950503738215 -14.4869979356899 0 0
19.0151206294903 -2.59264571583465 -22.7439285274792 0 0
206.412431174354 -24.5805440787353 -12.9009263116691 0 0
179.52254933369 -3.71830150498987 -23.024770890594 0 0
172.738555017982 0.256192162001902 10.3588457115827 0 0
205.292102267439 -31.8794032778425 17.7595325402219 0 0
210.402296888133 -17.4687145825059 -12.7173437301663 0 0
38.1645753316034 -9.83001335190566 -1.81893063486841 0 0
77.7801632989 -11.0400871819657 -18.9283208235676 0 0
175.200291258582 1.22226648269932 11.0910633802808 0 0
167.402574809245 -7.16458222168943 11.4276034371222 0 0
89.365781316281 12.0493014698874 -14.7809652660169 0 0
48.4011662379004 -6.01369979492177 2.79603931907631 0 0
108.332756836198 -13.2375394398216 1.9207588388966 0 0
189.684881157626 36.8006194958603 9.47181656588838 0 0
170.125852263089 10.4836057856239 12.0263236022576 0 0
218.738080838739 26.9088552986849 8.7250528601188 0 0
82.5136280096294 -12.0584815887681 -1.01185815859217 0 0
163.44874419754 7.38583602264977 9.55109157278129 0 0
80.5658406008709 13.5679583146391 -8.34302627430731 0 0
197.738578578785 -32.1368501958561 6.70925199686202 0 0
160.090314671579 13.5600431506993 -16.0744296301895 0 0
32.880428730724 5.99405686019216 0.281494474204797 0 0
36.870744249493 -9.46108120995617 -20.9243696099269 0 0
180.44742148891 12.6899464098833 -18.7607173761272 0 0
207.954832042017 31.5086613750513 7.09269428443135 0 0
189.0013067705 36.2678538185282 7.81058343817195 0 0
90.7353664823315 1.59368130587346 -21.9424136439062 0 0
168.151772436735 2.88700254472131 -19.3666559629252 0 0
206.746651162021 8.17745497091347 23.4331032072168 0 0
191.001207904243 -26.4351824078377 29.0616721240518 0 0
158.565071694427 -14.0836684698796 10.4746464238906 0 0
14.1057273770006 -15.9825698914851 -11.5200696903788 0 0
180.186448057231 -23.6359934076539 -14.0932894936577 0 0
73.6185851051694 11.6417224170909 -14.5736109052274 0 0
203.441350573521 26.8117722117109 -7.42290697619002 0 0
138.166557709114 -7.6193278701222 7.20351491401059 0 0
125.513618399427 2.16665542686564 4.39239373656801 0 0
181.538984973267 -28.2726098010672 -2.69760150951332 0 0
211.62088048411 25.1770279585237 -4.30401266012676 0 0
130.714466663023 6.59453527651856 -19.585821956142 0 0
194.335347925554 9.39117669685574 -21.5522621312597 0 0
184.402746249996 19.9362004265647 -17.466562348152 0 0
67.6600695879014 -14.2158790070325 -8.03820401798248 0 0
172.297823007844 -26.4040565243958 4.55375443258419 0 0
190.278243524879 11.0092950640256 -22.6094862503926 0 0
185.324767715087 36.3672554000167 12.7368711853314 0 0
92.3347790918932 -2.3326178081708 -22.4525572333481 0 0
202.276871734972 34.6014821478049 7.38956907680232 0 0
95.0633314944157 8.78869882268709 -18.40548670766 0 0
118.673194539315 15.8703276224472 -7.29144581931153 0 0
197.43526810752 -30.9370429835039 2.72710788797379 0 0
182.910184309857 -17.4745356341487 26.3564112580873 0 0
51.0503003804796 -8.24930270664718 -21.4382483560602 0 0
200.029439472121 33.8980901977105 15.3533458923637 0 0
184.541141552338 3.76880617306196 -19.2300624986078 0 0
150.477221027387 11.3184327433957 5.99219214981213 0 0
191.956166520154 34.7291583338956 3.69123533440934 0 0
210.617631524791 -11.4521283939427 10.9868385853383 0 0
90.9113396707409 4.55057165330536 2.16272331147552 0 0
165.39886331194 17.6512946600779 10.2915217698039 0 0
179.109623713335 -28.4891110853738 0.56990705628934 0 0
194.418640830339 -30.340374364332 16.8637804118289 0 0
48.7860209633145 12.2932695650012 -7.34559831062894 0 0
165.558173060079 7.55020197707736 -18.7978020311878 0 0
180.992338739162 -10.2844587061633 18.7817737698295 0 0
112.925140420139 15.3521899057734 -8.95274853569203 0 0
194.885634079027 -16.3387828009685 -28.0138640392486 0 0
182.641304720258 31.8026948975336 0.707218588524049 0 0
209.747476221772 2.15881905565568 1.22687522810969 0 0
180.732726474332 -17.603597501736 -24.7548940642802 0 0
188.811750814416 33.8064605198632 22.3243590769152 0 0
59.4653786613398 -14.4202867998545 -14.1514239944923 0 0
98.9233921284506 -6.660447247116 -21.5344483878055 0 0
24.6448056578914 -7.56142243225459 0.222267641555119 0 0
198.351973216956 24.4464656782631 -12.9881900056601 0 0
164.115840524871 6.10673187736822 8.98686711835759 0 0
153.760447772357 -16.2294552336193 -13.9855075936756 0 0
125.38800881726 -13.2382293863145 -16.1888086833134 0 0
183.716423165086 -29.9780083767639 14.6570227195043 0 0
21.2452339765559 -1.20542588581438 5.80709969292925 0 0
137.959845339412 5.71673346544864 4.80469517057509 0 0
204.18955923132 -3.65720617268818 5.73386332176692 0 0
210.025771223774 14.5681844908318 29.2063830025851 0 0
72.0308447524766 -10.5036591221961 -19.5433698367327 0 0
23.0157825410011 -15.2368530392629 -9.2068653858124 0 0
96.4221020187949 5.50515995212799 1.725348551067 0 0
74.2525378221924 -6.29340659793826 4.18563401860152 0 0
65.6234749174276 -12.6820004911125 -3.96645974709017 0 0
195.760801692631 16.6382524682141 -22.5614442602504 0 0
102.252637021202 -14.9186610710036 -5.42904969397989 0 0
16.188865051481 -7.40767883771789 0.348683113966342 0 0
202.65301106715 -31.7466498006108 23.5734343624863 0 0
181.063756781669 21.3994491372867 23.8262929235852 0 0
58.7480975886312 6.38354248583296 -20.2239280057541 0 0
171.46292657944 10.2646175008654 11.864338693671 0 0
207.524248895601 30.915076221563 28.0888196446198 0 0
189.627933191511 3.03332429677595 -21.2885646866907 0 0
206.395317134102 20.9871610335308 33.2708266760355 0 0
166.279125548946 12.1244647474742 -17.5358078697697 0 0
105.160391666724 13.7036125060771 -13.0366020619691 0 0
158.955619108628 11.2682635013837 -17.3417746491452 0 0
134.272091149835 8.98766073497882 3.70220392028357 0 0
183.95998314336 34.6152382156628 8.05581314559559 0 0
171.515803674718 1.05294050295969 9.58100322299942 0 0
171.197681366419 22.2707163922552 10.4677870404599 0 0
147.874903147599 16.7816074021152 -11.7205868400943 0 0
216.132968654832 15.9319689566706 -1.56110858310948 0 0
19.3938541026579 6.6869369440606 -1.04339486064517 0 0
209.769070683548 -19.7344177962289 21.6818178680029 0 0
178.50037384937 -26.0096676846416 -6.15312961973051 0 0
46.5615614871688 -11.2291322068492 -3.04233861692731 0 0
194.895009309436 -24.7830009240794 -15.106743691236 0 0
14.4063911802793 0.743986220199032 5.68491423030641 0 0
171.929342128131 -22.9516685284778 -7.43246327589119 0 0
190.982775337404 33.422456106354 22.5755058797229 0 0
193.972616376171 -28.8536954550657 20.6822732309586 0 0
179.27966877226 27.1771081809731 -5.33791525176116 0 0
177.106340023303 -15.283120050401 -24.6286995660681 0 0
72.2558670466437 12.3017662455957 -5.32581931829221 0 0
43.6478800965642 7.72555956161632 -18.9532951885646 0 0
98.3600849550486 -2.07639078539172 5.19683309395825 0 0
160.795645666835 -12.3853347435718 11.5086187860699 0 0
156.55005541328 -2.16194650262092 7.34548434112168 0 0
104.749896288078 -7.50880277078882 6.18728606608519 0 0
213.325463579595 -20.2949622773718 10.198402193382 0 0
168.266885478209 -23.8851734744637 2.11887730477954 0 0
150.466208513248 18.417403224576 -9.10306385292012 0 0
193.402049061178 10.4502657994239 20.6872309810407 0 0
207.052299325297 -5.02451441206636 5.06371282476085 0 0
212.334757722997 8.20174258139633 16.3957831743686 0 0
184.347646783534 -8.89749081142525 22.9646563942472 0 0
78.8531126662391 -1.27576471703883 -22.6143203191161 0 0
179.02269866161 -29.8594738479328 4.25698676940321 0 0
136.596195257529 10.7409712892189 3.61801009518006 0 0
141.321343583657 6.49217287065358 -19.4918746706395 0 0
213.801781755375 19.4034006677446 -8.65989109673806 0 0
152.585300898986 6.30907178767192 -19.3096178778916 0 0
170.865813454642 -23.3056934002992 -4.92854771953071 0 0
183.009163330507 27.3109661077394 20.8770494353667 0 0
184.524873036742 -33.58303424826 11.3812873074125 0 0
45.4732254469021 6.70981765354974 -0.817111429540718 0 0
212.422973342687 -27.9795930721888 12.7789307943056 0 0
200.522396177401 31.4570130726393 28.7039090045567 0 0
193.637589737998 34.3548104697007 3.10591065302362 0 0
33.4213628982972 0.03124950296299 -22.5035673245283 0 0
197.238249891927 -19.1046184245056 -26.704319077881 0 0
24.841907105998 3.86836106807785 3.64371755221971 0 0
9.56738664725656 -0.113495958579259 -22.4830174718075 0 0
9.10447616623249 -7.79355424555909 0.123107577759495 0 0
97.6092712631492 11.8683026021152 -15.544745323906 0 0
179.294200102021 -28.5459802828485 14.6928622128298 0 0
73.3384165099156 -14.4135111504083 -8.16608482152896 0 0
177.561338153306 -18.4344483094814 -21.7499411528243 0 0
78.6853855387024 10.2450098302442 -2.71934189186641 0 0
199.547311514767 15.1202450643238 -21.9100549446131 0 0
74.8697434377808 0.445543066224074 -22.4221252830821 0 0
76.4922525666349 -14.5837200218535 -11.7286635304167 0 0
18.5468031123255 -14.7911281002772 -7.9307505016752 0 0
151.240489799318 2.6717261051261 6.27843149720354 0 0
208.979514857604 20.6339226730397 -11.8759224494621 0 0
132.542322888151 4.77635426641376 -20.2744398583137 0 0
159.607195179962 6.00833642511593 -19.1862637126223 0 0
24.0774690212321 9.14372588046273 -17.0078273007732 0 0
180.731600122514 3.27418538429935 14.0185324711766 0 0
172.202226572801 -24.260640043852 11.3312484380821 0 0
197.220081274742 -4.12167861321531 11.4836835831631 0 0
173.120129550489 -24.830463106295 -2.2991195517059 0 0
174.759935305816 11.0541101714167 12.3188102084784 0 0
181.125349612356 -28.8307508576633 -0.74750384489278 0 0
173.92849164199 -12.3121174253146 -24.2478063047836 0 0
171.13379971794 3.95841283582302 -19.0010254720545 0 0
136.480655231009 -17.0221388880308 -0.344572992269137 0 0
132.427065560169 -16.6704522515694 -1.37752383290174 0 0
215.202300773942 28.2294203229403 7.01838684074135 0 0
215.749219487857 18.5718422518557 -2.68627689434905 0 0
126.520980304197 14.8955824930744 -1.63413087980552 0 0
81.043795928413 -5.54297635358214 -22.0717271964099 0 0
203.720158344681 -28.8970668744932 14.7577492962241 0 0
168.338492107177 -22.5937100053755 -3.65806824250356 0 0
214.53337484174 19.7307037131589 24.9360029273548 0 0
58.3680401542244 -8.23691618272547 1.04661721934338 0 0
128.939527948978 12.8786442142544 -15.5763711684848 0 0
212.107018664434 -17.7670911855904 15.597285318617 0 0
167.230417491996 24.386486689506 5.82760013396875 0 0
192.36621026818 25.9871825893207 33.4205568423559 0 0
184.850708828812 36.4061723132753 14.3472700501876 0 0
125.66559910245 -14.5510633104274 -13.6928238458078 0 0
166.410841646536 -2.51469707858423 -20.9400750406859 0 0
161.997462072289 -20.956553262184 -1.75903966200516 0 0
133.370380533276 -9.0068660716731 7.39678289446262 0 0
142.369932631389 17.0311926885087 0.0229839029593976 0 0
94.200975421667 -14.6860798123254 -7.03535289845589 0 0
209.299796692943 -13.7017424925178 18.0540135055226 0 0
208.971872154153 -10.3046535546225 -12.0108619843193 0 0
79.0759900361238 -9.97171024340079 1.10210485605775 0 0
197.091720438869 2.8045484097636 -19.2479544934964 0 0
202.865151154341 -17.0611485388547 -23.6518566593029 0 0
200.157900250964 3.12598640078552 8.10358180354772 0 0
147.830203151179 -14.3734934389243 -16.7428086979618 0 0
131.767332270856 9.83842243386042 3.10881004242163 0 0
33.8059463784523 9.76904745034516 -16.6411269513493 0 0
197.009012037612 5.4619011554237 10.8830105352801 0 0
127.075890567211 15.9272497444527 -10.7759496123703 0 0
203.620351944262 28.1661015730273 -5.60853520102779 0 0
209.096027384848 -16.6999873851493 -15.4809467158857 0 0
160.218527824307 22.4893621748432 -0.661584284792432 0 0
187.918370408102 30.3007569985235 27.6916170864258 0 0
63.5747534569162 -11.003927363974 -19.3499030802278 0 0
174.393131022128 -5.15806620057775 12.943950306734 0 0
16.2507473753191 8.10578542743261 -2.76440906734677 0 0
190.027796295765 26.8588994254046 -10.5129597071786 0 0
201.333963461954 13.07484479457 -21.1210487118564 0 0
127.122579897087 -12.1738034382191 -17.7470793802639 0 0
157.758780783242 -9.83898702338531 -21.1692964646949 0 0
205.400402235373 -12.8926779447789 23.289423576787 0 0
109.43135538514 7.68171745944268 -19.1368951564569 0 0
190.609726981759 22.6495125285806 -15.9710896157268 0 0
179.768925706619 6.79063589401767 13.5639727324109 0 0
25.6138857831292 -4.62867565409997 3.00738471123532 0 0
178.012437195088 -5.56969113636473 -23.3709829702726 0 0
184.375181735831 27.6897437649911 -6.99283092663416 0 0
207.659582434623 -30.8278340721519 4.98336501696852 0 0
192.121443654801 29.8465788864651 -5.90911941735092 0 0
4.85694808705076 11.3104159624427 -12.2929868388718 1 0
156.541158363095 -19.1407374421451 -4.57095073339038 0 0
81.5403949437572 -0.798548959985571 -22.5826628361384 0 0
198.921848043642 34.4531577768691 4.57860789460122 0 0
148.049848600816 18.0638278132369 -9.23119803618018 0 0
85.7519286462854 13.6251836839964 -11.4861891705137 0 0
196.934962697783 34.1561273049459 3.4453609044376 0 0
164.099966217229 1.52239478198135 8.07588158067368 0 0
25.6113859119681 3.66319343179618 -21.2107706396335 0 0
217.468016454805 24.0653129246609 16.9921728554746 0 0
170.33845007047 -6.1582606686408 -22.3588021515502 0 0
160.157762273671 6.5958953237742 8.01341427008117 0 0
49.7499147311243 -12.7727168293988 -5.01762194370544 0 0
180.547560049206 18.1855625504569 -17.5508325969355 0 0
197.414488413183 -8.60820244069927 20.8755467741026 0 0
208.874866153968 -11.5597560855057 16.7321898605414 0 0
195.024264440664 -33.1813654673319 10.5547488757103 0 0
204.460454082803 8.64055098670893 22.311995574874 0 0
182.784037645687 10.2256650045783 20.3535060619657 0 0
31.8314721783039 11.9856582710348 -9.02030271059224 0 0
189.497895750701 -15.7849726100706 -29.0729422852276 0 0
164.687504883121 -22.0147418536687 -0.744931424684322 0 0
52.4506189105412 7.33631300382995 -1.3776946197165 0 0
19.8560043071304 -3.89962790197728 3.79439190902419 0 0
184.626195861075 13.5729942137235 -19.5077041472297 0 0
210.77927755851 4.08746177310677 -1.16896753808501 0 0
120.09005878293 11.5585550255726 -16.6700553731695 0 0
81.8719103690092 -10.8788450331973 0.459422729847049 0 0
54.6560928425837 2.16209879065724 4.03293111878098 0 0
200.213320276156 9.52424186230286 24.761899151437 0 0
79.0092249372143 5.9941115582834 -20.1689026517444 0 0
209.602517085734 10.5337360202874 26.4770094717869 0 0
174.404210766125 28.3514766389686 9.44501335360669 0 0
156.501622496994 -13.3349061014399 -18.9032905653186 0 0
11.8657747684942 -12.7705203776325 -19.4613937040036 0 0
179.049630735269 -5.9644692931722 15.4496698356904 0 0
209.218395715792 -21.7336760070548 22.5912833492258 0 0
193.690905117987 17.7160840256444 -20.2752259862224 0 0
42.88434727284 1.77924558010899 -22.1857067853493 0 0
195.648501737353 34.6220691471671 15.8567064109837 0 0
188.22833933098 -8.7879807323348 24.8438306655702 0 0
205.521663030987 -5.65323968983885 -14.8694953291048 0 0
161.580081577492 10.4475057525327 -17.6736237050404 0 0
180.332463521231 32.8938215417085 8.96777570326946 0 0
109.213815966328 -7.72058462847748 6.51252306314062 0 0
208.253308486355 30.108637210367 26.9842534267361 0 0
131.896263877335 2.08151655753952 -21.1238793601228 0 0
59.6242646135719 -1.15866724125609 4.76795666016461 0 0
12.7244358342347 -3.49039066461153 4.17228255114034 0 0
40.2360445040817 0.846594310700379 4.45995350470697 0 0
53.884506544872 -8.72576352462902 -21.1431350762425 0 0
198.138886680335 -29.3138690128217 17.7134703414967 0 0
91.5144523152224 -1.83951785643993 4.98810200879886 0 0
199.870043102992 4.58379354707494 10.0781704880578 0 0
216.151981118963 26.0688713205362 20.7996828359316 0 0
181.999165843702 11.556948035029 16.6643572071907 0 0
146.449148023198 -13.3530654023137 8.10845587545078 0 0
203.131754731919 11.3330908983004 31.8672484112506 0 0
216.690276314822 19.9231752407088 -0.79882395223394 0 0
135.80862197611 14.3966883140262 -14.2111769377949 0 0
216.392227417614 28.2234408146244 8.76087135796394 0 0
142.646266983765 18.3665453251037 -5.55650462426147 0 0
186.409180992408 25.9896039542963 -10.7577036914989 0 0
189.464105059882 -25.1028944368679 29.1477059393758 0 0
201.701055852454 -30.182347556185 3.07597997272017 0 0
192.737239461032 -31.6875371193314 15.7802396255131 0 0
195.538634809975 -23.4660652582436 -18.7709904353713 0 0
68.6314055201316 -13.6732111766418 -15.7468870828564 0 0
23.4454270344675 4.82064727428722 2.12547615953595 0 0
188.249302152673 11.0091736399625 -21.2625147100816 0 0
157.087897678199 -18.4391412509163 -8.77598911455591 0 0
194.838517012718 -9.91060538829963 24.7200157576813 0 0
15.033829312753 11.7575955298674 -11.8906696907929 0 0
99.4823669061904 -7.59268669550607 5.5375222437515 0 0
179.704670530155 31.867090025888 6.19367538345953 0 0
81.1006549710878 -9.45373222138187 1.89417238920087 0 0
210.406673408286 -28.1557411803281 0.41967812206992 0 0
10.8618576399391 -6.70379362637481 -22.2535172420768 0 0
10.9787098765513 -4.16515675008806 3.44325504499253 0 0
211.527661764936 16.5352277652483 -13.1910661307977 0 0
142.403856209317 -4.66893098602989 6.65250626384872 0 0
88.46764985126 -14.4957004408253 -7.2940926379849 0 0
120.230221640383 14.4190341494316 -13.3478293714367 0 0
177.481943982009 3.62333267198555 12.074058460368 0 0
190.820262920905 -23.54496573752 -19.4619873757009 0 0
193.350171645685 15.7401933354347 33.8039171417399 0 0
172.135287547274 27.142875367918 3.90907011803115 0 0
164.95209097874 -7.11176425807452 10.5796222707543 0 0
157.458957228849 18.1868692624967 -10.8447867432002 0 0
172.846303192275 -26.1914910108555 10.0511675051395 0 0
148.316955416487 15.4075887197005 4.08108564702845 0 0
186.644990426535 21.8499891266364 30.2895112061597 0 0
207.207270823118 30.5874346813595 2.65521213238832 0 0
194.601938737221 -28.2497131606775 25.8853974511369 0 0
165.29656688822 -14.1560187147669 -20.2443756641638 0 0
211.548657348195 19.8125177909897 29.0185354422082 0 0
153.577355874743 9.74119821027938 -17.8580144977461 0 0
91.616911975011 13.0720530188778 -5.30799708849882 0 0
175.597188157553 -24.2406442375301 -7.99232129603913 0 0
137.298489256973 10.314325095235 -17.6149636172526 0 0
26.0617222135685 -9.08291689325883 -1.1574415821286 0 0
54.5743903962232 12.2280108713116 -6.80240801262452 0 0
150.981985466318 9.96864546294838 -17.7306744408816 0 0
147.720917803075 3.26765956318745 -20.3051237557857 0 0
195.571536165874 9.04472726454814 17.0651514222799 0 0
199.891209384692 -0.284252641488751 4.5898273899938 0 0
211.885871461552 15.666929770007 -11.6330610360961 0 0
152.604443068176 3.96638792176162 -19.8928651220892 0 0
49.493077634082 6.68464623545604 -0.793663293000177 0 0
142.450154622974 4.11745574174645 5.43646023915074 0 0
33.2601956381397 -15.4499148758212 -13.3673328624696 0 0
211.230577878931 -12.9317196577834 -6.73857960828098 0 0
192.946539723611 -13.2058090652579 28.6124817078703 0 0
47.8235209426046 9.99504473643182 -3.95542383286095 0 0
156.099475043843 -6.00973388099447 -21.6420913337684 0 0
151.430245373869 -16.2782858791518 7.69201622526199 0 0
209.263055407162 29.5754782111523 28.2536221218769 0 0
139.831541292753 -15.9020904998463 6.76113483117321 0 0
121.4598496129 -0.265810731558852 4.7666110948838 0 0
182.040925735335 34.1829081671468 9.44395718769295 0 0
211.821196774066 -21.1263232054403 17.9489927866119 0 0
198.39016578091 8.3943099437565 -20.3665309620485 0 0
187.198958926195 -24.1681623185969 -16.6007886374715 0 0
151.883998026913 -7.26689261905081 8.16077105695023 0 0
92.176373850786 2.53054938313818 3.07672936374204 0 0
23.5775613801988 -12.9157412593643 -5.50719019290269 0 0
91.3824647862456 0.266907489420218 4.00914808893076 0 0
210.082889338185 17.9023691069226 -13.6043393249586 0 0
44.1421439203643 -8.90203446880052 -0.544544433084166 0 0
121.544474398453 15.2848130482052 -3.70412566120351 0 0
185.549402018722 3.60098404507634 -21.6621744555635 0 0
25.1139191330361 -14.4158201145981 -7.72807162160545 0 0
217.725135991325 26.0898012131653 15.3131060840625 0 0
190.044906660288 29.7943922523862 -5.9167761707475 0 0
181.552938841156 -3.20643342429898 -23.3741712871863 0 0
168.615339779194 9.11004860292526 11.9188826806464 0 0
110.905763381385 -14.1397371186481 0.387518043921221 0 0
124.527853829672 9.50631211673273 2.34306957618211 0 0
125.701582683358 -15.4686510364841 -10.8583528869901 0 0
118.281794747429 12.5700875761442 -0.111330689499464 0 0
198.942863972134 34.6388853244783 13.9837736787214 0 0
194.741981560709 32.6676074529731 22.1773221589482 0 0
120.810548081599 -15.9312830840902 -3.98087042859066 0 0
166.454616917672 1.28926362034023 -19.8892585832211 0 0
137.028661298676 17.6239031398973 -6.38334990870461 0 0
169.098565240483 -24.6993936566528 7.7530438562959 0 0
199.369616768898 9.45812241163831 30.7443953375763 0 0
201.628941309012 21.9022801509952 -14.5754883903304 0 0
213.716929820154 23.9553562373646 26.2096136996162 0 0
140.625711965553 -10.8311868797746 -19.7689446947785 0 0
180.551815518877 33.442318868893 11.9700021608615 0 0
28.0835712703487 -14.7532737052385 -16.6244778196475 0 0
207.729356233844 -24.4030842538796 -10.4327229337086 0 0
218.234879160933 27.447014896607 10.3386770984267 0 0
200.484734033304 -23.8598486308481 -16.5424330581429 0 0
191.399153527022 -24.2086223356733 -17.2513510558501 0 0
89.5649196585372 -3.82165016751431 5.66250292701988 0 0
191.767047717261 30.8967029829833 28.4603192356432 0 0
212.916784520378 17.5114131591893 -9.41871289285301 0 0
64.8690530777503 -4.96011913556153 -22.372376392697 0 0
191.700418181753 -25.4311073152267 -13.1940995372637 0 0
69.4771301350195 -11.1103759390592 -1.15782925764347 0 0
207.711901798555 -2.70338062905799 1.23518439626836 0 0
174.936335572792 -20.9811637240886 15.6204199134994 0 0
30.1454169402063 -3.81298059402759 4.5037504761849 0 0
132.755727596566 -10.8140758165327 -19.3813057961824 0 0
97.9998030521261 6.18370302265908 1.37502382327145 0 0
158.609869432006 3.81162721936357 -19.6941579772911 0 0
186.928734307961 23.7691418398853 30.3301501198612 0 0
9.33053634681567 -9.57023007768739 -1.57783944940873 0 0
183.490765133569 17.9670163655078 -18.2496004025636 0 0
186.743059753237 27.2041284121071 29.591233785617 0 0
4.64786919319301 4.69057735352085 1.62621981255414 1 0
211.640986906029 9.43440750421115 -7.3344817879757 0 0
196.016350774559 -7.38215019130697 17.6887756939409 0 0
192.591159404633 -27.5727709078474 24.2652261531926 0 0
184.999378329821 -29.6398493361735 -2.26556763910712 0 0
83.3750217812685 -10.4201295540874 1.20207253563201 0 0
176.642732075447 29.4992808507963 13.5541100139306 0 0
190.501201167478 -27.6133800013817 22.6786824170596 0 0
201.194078313976 35.6271171820586 9.71911882557743 0 0
109.421177547984 10.3714193156393 -17.4495480072441 0 0
176.914753740473 10.2110497335671 12.7943701972226 0 0
13.6749977417854 -13.3495246864061 -5.39290035973252 0 0
50.429879549724 -14.5138579642547 -14.8507765053773 0 0
94.6817733750544 14.1726557146249 -9.35662144132522 0 0
107.621058804087 -11.3859963650446 4.15682970231776 0 0
214.843776853324 29.6226145332877 20.1294080605336 0 0
101.185882888447 4.22583850586465 2.77091339274446 0 0
112.762435607266 -13.6223049869368 2.16312641112055 0 0
197.414435760534 7.79513647476517 13.8914791678042 0 0
186.930018691286 -12.2219783139249 26.4796374514269 0 0
197.235664233243 31.9235413458316 -1.11269250274344 0 0
155.504525077666 15.5555893750696 6.54163127778197 0 0
136.543922947054 3.49089517742614 4.9411701757604 0 0
75.7308874031466 7.43888927897162 -19.2979214909017 0 0
134.219776896722 -0.53168859865098 5.43437956114977 0 0
121.583794577109 -11.538508362864 -18.219027579702 0 0
207.645464875004 -1.10660918248097 -2.30627440090201 0 0
77.9319206318114 4.83038587302483 1.43739052506289 0 0
184.990594532925 -10.6591645539466 24.4882983150805 0 0
180.979795132711 20.9396051803976 20.3877793708972 0 0
57.0660102521113 -5.16384038266548 4.22179894513868 0 0
214.086102897353 19.8155715546349 -7.35922394313005 0 0
86.7521957413941 -13.8299709662048 -14.6744981991548 0 0
195.641495343962 -31.636437073067 12.028918237529 0 0
210.668300275274 -9.65442687249252 2.1669461802808 0 0
12.4612684117803 -10.0522914752002 -2.06654094411391 0 0
196.637830261062 -25.2189100847357 -13.2733394953051 0 0
175.513392388767 -24.6887425069748 14.0675410144407 0 0
162.701401078959 17.895801354967 -12.2526191736438 0 0
160.948309270762 8.28101732130822 -18.5771466503135 0 0
199.044306866702 32.1900206640256 22.9193084824917 0 0
187.29917738472 27.2484052228436 -9.36637077258592 0 0
139.355763967452 -8.22495308968252 -21.1081436168301 0 0
45.6008057155167 1.74417147806974 3.89336706270492 0 0
212.149245488167 17.793566506438 -12.0955136430451 0 0
212.899741398232 18.3282386750019 -11.068864055292 0 0
188.769542527988 -21.5893917071544 29.5401051552182 0 0
163.290815927675 14.6836551640006 10.4331676631985 0 0
186.914526570793 -4.5925853468163 16.1346366559448 0 0
102.211340869197 -2.62319710695241 -22.2770159563815 0 0
77.589376093434 -4.7411314492113 6.21149806979983 0 0
109.644942556142 -13.3171574600724 -15.5261373102417 0 0
38.5084109096472 -13.7062735267881 -17.6249377198951 0 0
165.784419712082 9.14571521475094 11.1919295332505 0 0
150.047859733952 -9.29602888294176 -20.9534659771159 0 0
131.972043287272 -15.5216157187054 -11.499697649672 0 0
201.292887375791 19.1653462462527 -17.8532184571353 0 0
215.186481362291 9.53655983271453 8.80208550822758 0 0
188.024142356034 -7.98103530882579 21.3626690734273 0 0
191.863075587532 -2.13746847717799 13.4185278241036 0 0
182.433110688278 34.228855767115 15.311467196744 0 0
206.97119324876 6.63355425146276 12.969616388425 0 0
182.979903861162 5.90165326392041 15.1616755404442 0 0
71.6902627848799 -9.03764396520192 1.23966882875389 0 0
173.247164069997 -25.4109139562233 -0.536250099255867 0 0
210.009581377938 5.15598087818252 16.8382410175333 0 0
72.5731901821505 -13.7764760652234 -5.71699163700532 0 0
200.338630436385 3.47894297754159 -17.4361678806718 0 0
170.000822396517 -21.7324512467242 -8.90276550406604 0 0
31.3363059923239 -5.0254348513867 2.85603171565733 0 0
179.646736103493 8.68103904001868 13.7752840317007 0 0
162.786252749931 21.8124558877531 5.06727737176184 0 0
190.648622755399 30.8337105085851 25.0226200433514 0 0
215.691704475769 27.1986106980226 3.53908559786913 0 0
205.880124845013 23.1224609974127 33.4629971033348 0 0
8.81469863075683 -4.65593600138056 2.89410329580476 0 0
