"x" "y" "z" "f" "a"
235.172482511566 29.9733043924944 15.9700201060647 0 0
228.900477663829 12.9487929491013 -36.5666684736714 0 0
230.782260119479 31.2622593609625 -41.8196201233117 0 0
-2.57066556165297 -0.263136806576951 -2.41120382591376 0 0
223.36948217544 12.1040202413892 -26.8680051671512 0 0
213.473964344759 41.0626015146049 -0.643072164832107 0 0
139.287564810242 4.7348443974338 -0.189742094357257 0 0
-18.3623528191516 -6.65885561099911 25.4884868542836 0 0
-43.072792877568 4.93763818982755 5.82071042000152 0 0
-99.1373410551798 -9.56586249501718 17.3983376632112 1 0
176.783445720521 7.41808921103207 23.0183303665826 0 0
206.361429179024 5.92920738016529 23.1881023385619 0 0
235.848975191362 -10.7051144252097 -27.6409469563798 0 0
207.359458114028 -29.3911269345007 -22.799559909953 0 0
250.922280436895 16.0010332219739 5.66965002934758 0 0
216.929056243062 46.4573906659041 -11.3231198646042 0 0
205.085817994628 2.17924830983324 -9.76819743819054 0 0
77.9372895616044 -9.66675953261548 -3.80179043658068 0 0
240.405251274564 14.3696589805854 -34.6994116031567 0 0
221.715289089869 41.6694958128617 2.97564565711724 0 0
168.455751243947 13.529293534379 19.1636595014936 0 0
223.999195034144 -33.8150483912824 10.0644075200267 0 0
244.65501543262 -35.9059634692749 -17.2922938676027 0 0
99.6662697464846 9.00056307580495 21.6067747559866 0 0
234.203082922447 -37.5957401784953 -3.21861027297859 0 0
55.595565911671 -2.27838296864805 -3.02187284418752 0 0
254.564709764907 32.0822548426338 -5.20586644501215 0 0
247.205174145472 -16.035278280441 -4.93963314217233 0 0
-94.6276614987024 -7.23696797047531 -12.7023941324553 0 0
86.9804353878296 -21.1215584764509 13.043466500571 0 0
-67.7461466292974 -23.0162882800557 0.0799581211650789 0 0
151.940294775789 -13.6983923269526 24.2734561945284 0 0
114.161447077869 6.16972120968991 23.510708745912 0 0
83.2883117459202 -7.11284058269951 -3.95206351624184 0 0
-48.0202231697585 -15.7072027038273 22.7961135800777 0 0
212.113841419509 -24.6220392669564 -30.4028183736156 0 0
-57.8188075640494 -0.0057247292423345 15.9208140036638 0 0
167.018335076771 9.60889157578586 -2.25755574697983 0 0
177.980080466087 -2.69563563711519 -5.34146052928861 0 0
37.2274594336454 6.79899314394831 14.241137933341 0 0
212.647285401569 33.5672372244634 10.0720405703051 0 0
231.823529425544 41.8997121993212 -1.99782425986352 0 0
135.310577238675 4.03876379096408 -0.0840405956864312 0 0
-60.4093813454957 -25.4101153856335 7.10611803975987 0 0
19.8061611976076 4.96822108536776 7.20613356012704 0 0
162.206223631975 16.5379748361247 16.1975691302579 0 0
238.657007607461 33.7909215752616 8.71538098225756 0 0
221.812725862424 -32.1683033668187 -32.3156764689715 0 0
239.760073472215 -35.4371198260834 -3.65003286643167 0 0
-60.2103044309054 -7.94356686878748 -8.88871575197346 0 0
123.589084858593 -11.3604098764608 25.7779773632199 0 0
232.956561016424 26.307733980541 20.0464965364911 0 0
232.201375057551 -38.2305578308093 -7.63086787258969 0 0
240.324488303799 -35.6618641677074 -6.69979504511024 0 0
166.343275189825 -13.0083495118536 24.8303757585425 0 0
223.838770306472 43.2269156666787 -24.22828476307 0 0
255.468613586369 26.1767391024449 -6.65705723452446 0 0
-73.8383113622388 -14.6396454368099 -10.8183032187658 0 0
213.895808393735 -20.3874937091288 -31.483414744466 0 0
57.6494624705124 -21.321826066913 17.6274015433502 0 0
244.308005631361 37.7929171013704 -22.2365985073626 0 0
81.5739999197184 10.4556658142677 11.9353435162002 0 0
224.292310873026 46.1820680138015 -9.35628521639229 0 0
-58.9616542157864 -21.8703882193289 -0.37631829104879 0 0
194.659123444999 -17.7314726003389 -13.2405618065491 0 0
227.560423516856 3.37083623977576 -15.0531273139257 0 0
52.3425085743075 -0.0184564557846091 -2.00062802272838 0 0
118.07452630724 12.0871789511335 19.5079101326933 0 0
218.274552968593 17.2645653665757 -35.647169655106 0 0
187.301215247112 9.24165928484049 -5.39462898728121 0 0
226.268353682943 -29.2654812382906 -33.4988982890204 0 0
234.461423846911 10.3888908171115 -32.5179625789087 0 0
202.817871703284 34.2142865267939 -3.92997946787037 0 0
237.415204073217 40.0975050399391 -21.0672645563056 0 0
7.82728463634711 -2.94301327785261 25.6940783219221 0 0
11.2294799366758 -7.83409109697543 26.5122390853814 0 0
191.919362191182 24.8534827662545 -8.72592631944048 0 0
85.3145884891547 10.6507632880353 18.277530306536 0 0
-18.9647899880958 -25.1234265495791 11.2727843621709 0 0
254.035554995959 17.6307573919809 -6.90105885835855 0 0
164.602189522722 1.08533326070752 25.5356376973318 0 0
-68.7687301296304 1.26730037676963 -3.42316318774597 0 0
218.356058909851 -33.4557718473595 -30.5281077731865 0 0
-45.1612124958331 -17.2760113466828 -3.09191505616382 0 0
246.873095073155 -17.7673306429944 -18.4751939689711 0 0
-15.0289645138344 2.70269490256403 16.8776967759333 0 0
-54.0165133345315 -16.7391160107627 -5.30310114606672 0 0
249.731106251251 20.9381285192883 -27.8193159294046 0 0
216.489795848882 40.6511824628023 2.40074001290177 0 0
94.7257705955182 -6.09870529637046 -3.3339069396546 0 0
202.808715323974 -17.0488792515835 -16.8498327671903 0 0
-68.984532089733 -24.575954127168 3.05283102697906 0 0
36.8985797923005 -14.311780281873 -0.118055525494908 0 0
-95.0773135364238 5.41534397984976 3.02705726575996 1 0
84.8403582601414 -15.6974415817884 -1.11029339369806 0 0
218.768285942793 10.3361982578215 -28.2311993203374 0 0
212.178873553393 -8.77776480605724 -18.4486614636149 0 0
231.213150856457 -6.65426322682856 -17.2136035163941 0 0
152.45827065117 0.595979548372296 -2.41897090130123 0 0
7.16575884608136 3.51069782661954 18.5272463921128 0 0
120.993781485789 14.6217794481994 10.0395552068755 0 0
194.365556211567 26.9002219721798 4.81378848453621 0 0
218.944518355841 -34.7677078154261 8.19661102374323 0 0
171.103862982693 -0.559299661980179 -4.29526500253641 0 0
112.48729374802 -3.68313943031186 27.2366929967434 0 0
204.639802346636 0.969147905164222 25.2969106030068 0 0
244.038568080924 -6.22551290818011 -2.92508752752657 0 0
250.727722156915 20.225253558653 -25.3014684289739 0 0
225.281385087784 37.4877947703891 -37.5423385731128 0 0
-85.5614477487167 -14.42771070725 -12.9231588257731 0 0
175.804114735667 -12.071652063346 25.4942610862413 0 0
241.650248293827 -5.78127136026261 -7.88904328838187 0 0
247.929730139082 -30.747903029565 -9.8368045962422 0 0
-15.7872888332637 0.401165696136525 -1.75127948644709 0 0
204.178544958615 -1.40954001163489 26.2322583136666 0 0
235.077216951725 41.025781345726 -20.1768042074408 0 0
-88.0408212558714 -24.0417431235372 12.3424843700237 0 0
214.480544557461 -33.5917554920057 -27.1964990751752 0 0
225.272162992865 30.0021522345925 18.0399528927914 0 0
211.874511017186 34.4882307704334 8.03907096415066 0 0
206.089044517172 -22.5458973362588 25.0725570155474 0 0
217.821136766336 44.7107311042997 -4.44678991775973 0 0
-93.9633923925093 2.31711899587992 9.86557262231177 0 0
198.072875247704 18.4617434790177 19.0437584129882 0 0
241.361296478317 4.17082111206992 -5.28013738727668 0 0
199.918714675943 7.02479480746423 -9.50655875885807 0 0
236.649937900027 6.56440242148135 22.1191088101696 0 0
243.771872077289 -16.8620721925435 -23.9782012292722 0 0
216.063131529204 -33.2631695652035 9.79245582474343 0 0
83.9113176561784 -8.87538508090128 27.3043682821926 0 0
246.228997441296 11.829691470298 -14.157906805203 0 0
189.237277822578 13.6690322026115 -8.21446135543423 0 0
221.918171508352 45.0705955637819 -17.0596788144911 0 0
233.875753996654 -9.72356629737674 27.4070234542503 0 0
196.227740559106 -13.0583813533149 -11.4617850246689 0 0
159.076841772699 -9.68293284448117 26.2697212239233 0 0
73.3847392586186 -8.87986217807479 -4.06104225246131 0 0
237.710395377831 42.3821893881764 -7.23943800750304 0 0
178.754015288134 15.5579950873057 -4.09152168113007 0 0
178.915638630361 2.3913296748236 -4.51992217498052 0 0
110.25058206413 13.8733384055888 13.1745102279543 0 0
145.201588307094 -15.4202753197211 -5.80633128601397 0 0
188.842810512795 -25.7187079594973 -0.650273355552463 0 0
-69.3601325682881 -8.66775615506984 -9.9008590707371 0 0
134.850373325624 6.62213010725299 0.592467441772 0 0
238.068720351485 14.9344052870709 24.7747048764436 0 0
200.008125777473 8.34331049953679 -8.54040616047776 0 0
203.780141568573 -22.6410365008686 -18.9863164792056 0 0
-55.5239168454181 -0.737730104730103 17.1358869101849 0 0
227.793813970788 41.6136551872862 -24.3693570795366 0 0
199.094318267416 28.2046729808524 -11.5881009444388 0 0
149.520179991109 -7.68839605201903 26.8254940585533 0 0
224.18887819825 -39.6400115031032 -8.53905085523174 0 0
214.705324091831 19.0546417332333 -32.9044609005555 0 0
231.546948293721 13.8396049240527 26.7609168827241 0 0
120.145039669251 -20.1050602556212 1.49277080287531 0 0
229.786796188135 0.608355450732638 -13.2012251129156 0 0
223.245534654733 44.8376356265794 -15.259346155415 0 0
235.783218211532 23.4062304132385 23.8590129098616 0 0
244.339784822877 -10.7648393817822 -9.39255797535185 0 0
60.2520001254819 8.47871085434468 18.1546130667017 0 0
218.654527881994 10.6203158255211 27.7111307236433 0 0
232.302711687876 22.5076197421498 24.963400133299 0 0
-68.672112642942 0.830287151272132 13.9422751235908 0 0
222.835552064191 -23.6318208366195 29.4740818912835 0 0
183.780771764596 -10.6073513714851 -8.29448958254747 0 0
54.5164427591106 1.73637577915151 0.49198046212933 0 0
254.7789257594 19.9136589267576 -7.61572679654619 0 0
224.487011692226 -16.9659933145621 -33.3915363729765 0 0
24.0293328594953 5.85933383541853 12.2958248875417 0 0
216.161886618667 14.809735686271 -32.2222518278341 0 0
203.117752507344 -0.369876792258583 -9.06028497695247 0 0
222.361909529869 -11.2502600073287 32.0910791393669 0 0
229.296434844027 42.7893420437293 -18.8146259037672 0 0
11.5440624353559 -17.3335373496971 1.88171824852822 0 0
220.555532557974 46.5070382024114 -7.46429726605519 0 0
207.726139489544 -5.23689007746913 -12.9759979820955 0 0
-77.8654091124505 -16.2421451492386 -11.0220171370175 0 0
15.9329236718686 -15.490411608621 0.477086975924558 0 0
228.761794801821 -32.0487436940983 14.7635756710578 0 0
206.639395359465 14.469690642989 23.3569864220255 0 0
-13.8237587478762 -21.7518750641395 5.2284521826733 0 0
236.232585753341 31.2571202725401 13.0906631324897 0 0
18.3202458913301 1.45220761551209 23.4173838758065 0 0
-42.9168258586048 -19.1063295183012 21.37345883596 0 0
51.8979812834022 -16.5638582999677 24.2610931141072 0 0
235.891219734999 -24.9765070917817 -32.4808792124349 0 0
135.689332233173 16.5846288608861 13.5017360237835 0 0
3.11620863111642 -9.73996437584656 -3.86008066348958 0 0
243.909641811594 -13.0882201809791 16.6967163405562 0 0
231.926158611618 29.332061417503 17.5365725074201 0 0
230.056122768453 41.5632002346169 -23.1447928893179 0 0
-77.4337520275397 -22.7144418649108 -2.38044327315873 0 0
6.64745868164693 -6.5841414641036 26.4486380989573 0 0
-96.0795929205196 5.48891157848121 0.421659959562085 1 0
47.5613503484017 -9.67502059075117 27.0554250362184 0 0
-25.8214794799075 -19.2467183310307 1.39299820038395 0 0
-49.3838338860977 -23.912559184771 4.58896857833076 0 0
193.240430857249 -28.4218778430722 -6.25146335394634 0 0
233.765533397354 -7.58844225323565 -16.6236191231558 0 0
149.868081025612 12.7900416011077 1.24483580672008 0 0
220.078695365068 38.2614168801238 7.53085294132128 0 0
-58.4065415522755 -24.6141805545293 4.4664620895193 0 0
-35.0670323570198 -21.0967324253655 2.18215152403002 0 0
-2.96312154963406 -0.791070002774026 23.3398249740943 0 0
-51.4939863548507 -24.0088438671673 16.4603952172984 0 0
134.422109069306 -8.64981455520765 26.7800352985995 0 0
215.455055622683 6.11746977080012 -16.2334745615607 0 0
181.430949582706 -16.7644273359723 22.2881749168355 0 0
229.759232119897 -37.2353901564425 -28.8260504547735 0 0
118.412383023448 -0.834725187884762 26.6524507267731 0 0
247.734313001668 11.4178008890698 -12.6870472340665 0 0
180.21267929831 -4.75298618145998 26.2458460613799 0 0
29.6976962157596 -21.1590284944143 6.9026511784659 0 0
201.372531398264 -27.1821669966315 -14.6049083842129 0 0
-91.0319859302876 -6.83044152437652 -12.0499111362025 0 0
-62.3515168224913 -8.71316104006663 22.2193157512977 0 0
73.6823484705149 -12.3803147372647 26.4366942222631 0 0
232.965487219747 21.2097145824955 26.2669157231066 0 0
-72.3032737189071 5.24689163509151 3.94094985904905 0 0
219.745772238528 11.6562110237478 -26.7171645213142 0 0
226.578921066034 2.19871810845329 26.3732671743671 0 0
-58.5007369442358 -19.7596164135598 19.7001283779631 0 0
-97.8352334934383 3.06912421847927 8.16853427668082 1 0
38.3498734221613 -22.8223214208161 12.3053204274004 0 0
226.335370157409 12.1416648781408 -19.8755486628379 0 0
8.89474995811742 -17.1948294092556 24.1998649963779 0 0
48.4013296556141 7.85830248681445 14.6821342441822 0 0
239.768119289028 -37.9337884431506 -15.0482451451087 0 0
232.584300095089 -4.18194803665767 -12.4289838439595 0 0
-34.5471045399685 4.67250723367039 10.6910287549124 0 0
237.421656944132 29.5504403240899 15.6223836171032 0 0
-6.31459819456127 4.23472341183097 5.29284521078589 0 0
198.701422101061 -23.8491201904048 -14.8209276786169 0 0
254.926379899 30.3919302170082 -4.03728129113629 0 0
240.093277665077 39.6041651393106 -3.40365327222083 0 0
244.084223055259 37.5119718530427 -4.98473647644895 0 0
50.7947278559672 5.03059775661343 22.7279133440318 0 0
31.042498213469 -14.0216540446263 25.8655563443046 0 0
-34.4745782218517 3.88992232810957 3.92071242056311 0 0
176.048333431459 15.2166490181827 17.9751968122683 0 0
187.706799440932 15.2580510024518 -8.81582291699613 0 0
211.982754961821 6.63081811875181 23.9104242242809 0 0
244.621237273274 -5.86504758381606 4.01922587434731 0 0
76.2001787883842 4.83511445660929 3.53682615033566 0 0
224.963485785248 13.7661848786248 27.8550523025862 0 0
210.955369298278 -24.2505423808251 25.7029050782372 0 0
194.064894826531 -21.785913180271 17.0854603987732 0 0
209.901188831234 30.964079508779 11.8062532892243 0 0
235.559226210284 42.4296805824016 -6.20916225347096 0 0
-54.3798167052139 -20.5225899752927 19.5084547150705 0 0
193.958199485053 -24.851739456584 -12.4858981182395 0 0
217.499846636265 32.836725179963 13.9344389194256 0 0
239.919576365875 41.3086868660865 -10.7096811307037 0 0
42.9251439978702 3.75591637384531 23.3402923303423 0 0
226.866224338463 6.1880116096984 26.0414231466494 0 0
-72.3444002487296 2.28281833368251 -2.27758498622133 0 0
200.26907644905 -21.6918504190281 -15.9129000833537 0 0
158.242582341516 16.146393927985 16.5488807011275 0 0
248.800153842042 -27.7954416554997 -8.31223085197477 0 0
155.367712392924 -20.0061181989703 14.3904585664081 0 0
-8.31105893269954 1.68757779004746 19.5426297809929 0 0
-27.1800596152311 -8.00951779098716 -6.30669440013601 0 0
230.279124264681 42.0966501661819 -0.352759861452747 0 0
199.100369902374 -9.45897336743778 -11.1569430697443 0 0
229.257979822223 -38.35082933053 -26.0473036103842 0 0
-3.48004793440699 -10.4810205651769 -3.50856795034743 0 0
63.0918954343575 -2.92537636311537 26.7462204100624 0 0
161.912519203108 -16.0662931138557 -6.74175824877968 0 0
59.7569132962145 -15.5347021707145 24.8148708849365 0 0
148.833026059128 -21.0792533735034 3.61899826564836 0 0
-55.1046883982543 4.22898262386205 11.0396797664237 0 0
202.564570751755 -33.3573176272272 -4.43958508251444 0 0
241.536817629961 -8.09793677833588 -18.7091756020365 0 0
222.493480328559 -11.9555360921936 -30.15373419655 0 0
42.0994191683223 6.88306344247368 17.7725558494017 0 0
-65.0577139359313 -8.94742461023241 -9.51754971433285 0 0
195.046323095171 -10.2085807270049 -10.4956289962083 0 0
220.114746002621 33.6225965249588 -38.5073724565401 0 0
226.706203785142 -8.35575149798524 -23.751431105953 0 0
7.64868552483607 1.64896924473447 21.7542611967811 0 0
216.163082987068 25.0154072068952 -35.8803994878452 0 0
44.9648924197148 -4.35082914026021 26.7572077273925 0 0
238.741652500539 28.5268784860837 16.1509109382472 0 0
189.528149218737 17.0919555576233 -9.83658990906353 0 0
-95.2983155161546 0.208495322146291 -8.81192787700591 1 0
114.507891676939 -20.7589152960164 10.039451151656 0 0
-26.6222826361332 -9.88840331679577 25.2223667565573 0 0
210.26854439829 2.35882176481362 -12.6153162111454 0 0
241.215726800674 -3.47426958655034 15.3908044363426 0 0
235.229314898082 -5.79561454890178 24.084253006201 0 0
237.800210052694 38.5021923058667 -31.0775548129308 0 0
63.4884814259134 1.39878298510305 -0.123089787202528 0 0
61.2318565628331 0.677386996948762 -1.55483841618614 0 0
124.859058613487 14.2519162828934 8.06089228284049 0 0
44.4915036748283 7.32838965372586 16.8700217216597 0 0
214.633956433447 -39.5757665715828 -4.38259519887886 0 0
218.06668616336 -5.48783389055965 -18.5282071157851 0 0
1.06681065320204 -4.87180325515564 -6.01927643253376 0 0
166.371382615267 -19.028628967957 -6.36310914402569 0 0
219.229923930024 31.5551383770382 -38.2879004428165 0 0
239.696207617506 -8.99049635738085 21.1361449996317 0 0
101.850582679464 -18.6955512837559 19.924734787622 0 0
142.010682668788 11.2641545205548 1.40282741001696 0 0
-44.0454548771094 -3.33252038483839 21.2497190818877 0 0
221.240612017676 -1.14463245064314 -16.4909977842921 0 0
199.707402407984 14.9046199704071 -12.5612602828855 0 0
199.054994205661 -23.0666826856824 17.3508032614147 0 0
217.59081935306 -28.4492878890177 19.9664429570277 0 0
151.061441613089 -16.4105117381791 21.7474319833596 0 0
131.611403598443 -6.98097297534694 27.0972889187453 0 0
238.582282945329 28.2005696167462 -39.9861228873068 0 0
-85.0566380457728 -2.43118637824493 -9.4856159051002 0 0
-28.6348748105772 0.677470234789592 -1.61920798870335 0 0
67.6377316131861 -20.5141150583003 6.29927536937434 0 0
-2.47459218279051 -21.3455098374373 5.58113630162887 0 0
214.388428984385 4.52316975005391 -14.8863148374124 0 0
-44.7666364721919 4.05798956329677 3.58678042739308 0 0
47.7724431456041 -18.0165859670082 23.2086867492587 0 0
16.5200684746567 0.443407637754557 -1.51097148691085 0 0
247.417422052033 36.7021148264618 -28.0456712483397 0 0
250.781710711621 29.2870360006651 8.13007313806313 0 0
-33.7739339793528 -8.99505006520264 -6.75385953584482 0 0
211.926363674127 -26.9889284136384 20.4616647615557 0 0
247.658585379233 -16.8126056047149 -2.84913457454028 0 0
150.508260861417 -18.4119362257266 18.5983484423266 0 0
249.480978779921 36.1638502455163 -14.2512010328503 0 0
235.268328065732 25.4519606128018 21.6834549494206 0 0
-82.7852449232375 -14.3941605324426 -12.7559593382878 0 0
234.213376911592 -28.2002502245927 19.641874922109 0 0
214.609189907859 18.2498145730685 25.2193474773984 0 0
82.3733154707737 -0.272898603083198 -0.471025098976221 0 0
208.273310577244 18.85612727909 -17.1357913277643 0 0
-7.74894346050446 0.753626924258747 -1.30601614495247 0 0
221.526635650203 -9.66362523246288 -28.6942444996305 0 0
212.472277996574 2.68787671057237 -13.8529591185644 0 0
-2.01170540974566 -16.362279636041 24.4746013360282 0 0
229.723729260796 38.2375069521786 -36.1731877028511 0 0
146.825989837313 12.8542119552022 19.5867818908348 0 0
-87.1038311931537 -17.3069442976708 -12.0606943440494 0 0
231.460187423653 -2.38944297761861 -10.4626429178384 0 0
14.0476932100175 -3.21040960867546 -4.94090249099331 0 0
21.6631039005243 -0.441243634661579 -3.16588009772548 0 0
218.002582686493 37.1961689612243 -28.9882045797888 0 0
194.847872564801 13.0626053617219 21.6018947150776 0 0
248.547890264267 -22.6772119132105 -16.2543388414667 0 0
-57.0379732634223 -7.39450613701313 -8.48940776993815 0 0
-39.7962187482195 4.98850859185551 7.14733162104367 0 0
229.321872785041 25.5685660568714 20.9652713804544 0 0
188.851461283958 26.2550614964707 -0.0461105350883864 0 0
63.1444984464513 6.57869982156763 6.25166912626521 0 0
238.357901546236 -20.9798662370527 26.1683125195826 0 0
184.14810321723 8.24743773762692 22.7731730998954 0 0
250.120311620514 28.0632240338977 10.5385721930081 0 0
-29.582979199642 -16.822413241164 -1.20902488167711 0 0
233.996168224394 39.1189813906697 2.40091708735601 0 0
252.100203610145 34.6105437527341 -22.5368971951031 0 0
69.6952776918573 -13.3225783659068 26.0381408750016 0 0
216.295994290003 -2.30206010853811 -16.4929787295086 0 0
-86.3489239200754 -20.7136413283909 15.8549632660399 0 0
233.39191693246 39.3056970242461 -26.9711421929519 0 0
93.5315505334001 -20.4365387413982 5.06297826608307 0 0
-0.247000604717649 -6.02713825421189 -6.10563970173303 0 0
55.0387845537122 -0.794024956195521 26.087150328374 0 0
157.302442537907 -11.6228806690351 -6.11745539662291 0 0
35.6716998487723 -7.70039869180635 26.9860239362002 0 0
-81.0278253806519 -2.2331265707048 -8.71402100049736 0 0
192.601416644811 26.8459952464474 -7.31435858266509 0 0
34.3372488476748 -11.5017110349387 26.5565699168923 0 0
58.1791393202485 1.31153363206917 25.3932793166828 0 0
221.961404715389 2.23308954217231 -16.7787472712487 0 0
206.506426008644 -23.9253394254824 -25.1236166050185 0 0
186.838864064884 -19.8735035433322 -11.0091771559132 0 0
215.782192663818 -36.4182248322039 -20.4805304142365 0 0
175.982924922728 2.07964057279838 -4.23005538498918 0 0
222.289842057491 -27.0884413868506 -34.0418767749683 0 0
195.966381440934 17.4733722631853 19.1042507501904 0 0
202.219829519394 18.8682922315929 -14.4195250127255 0 0
212.455543889652 23.8484161748051 -23.1048820654039 0 0
224.055905179195 9.12729825054666 -18.0310037003255 0 0
224.125685910426 44.1421708508447 -19.0117267113762 0 0
91.3551761544049 5.11318288797609 3.03421971285992 0 0
118.841394113126 -7.05672410549398 27.1507530575842 0 0
217.430111422497 42.9599953150118 -23.8640171371891 0 0
183.093590330702 23.6521818375528 -1.99741802541223 0 0
5.69685172950377 -16.046402532069 24.7285471599901 0 0
-88.9777101090067 -21.9388267663865 14.4846724628937 0 0
186.854028379394 24.9771652762118 3.97981232219333 0 0
33.9844518154383 -22.1660271218005 8.86205205033765 0 0
75.8537890351681 -20.7718795260243 17.037206768652 0 0
70.8660963067104 9.77802674485946 13.6213871781538 0 0
191.218720381476 -26.9122210359368 -1.50227925904091 0 0
237.580177744658 33.5800295111271 9.84704953859706 0 0
-47.1969694754337 -14.9629211834062 -5.30710363300953 0 0
-66.6781692101851 -19.9597141751453 -4.72462857934742 0 0
221.009473083727 -27.5866702974706 23.131856573455 0 0
223.362208412387 -38.6502598096769 -0.573585363556376 0 0
195.319664537931 -23.1858328158793 14.6952520199085 0 0
229.120564890835 -20.6308082041816 -34.2877887359594 0 0
21.7375414185215 1.09154816771525 24.0318259237315 0 0
188.178873887018 -21.4136500720474 15.2663812515838 0 0
-61.3676823460163 5.22239975759753 5.75415892288313 0 0
84.0932530703678 8.55813824050959 21.3316363304325 0 0
27.8937632413828 -0.220014873064067 25.254738231762 0 0
246.241921563242 6.06171286360761 4.82599570673234 0 0
240.698738504855 6.33041608210378 -6.97774385106392 0 0
-1.16463813414723 4.84075920540372 8.7951178578795 0 0
241.454619516468 36.3131866041403 -35.4772393630694 0 0
63.3151852677697 -19.7247713831971 20.4565054145768 0 0
242.39140798021 -36.3135162704053 -22.1934811873305 0 0
11.8928911015807 1.69511264716651 0.567924504811315 0 0
107.745310219148 -19.2646578450058 0.634695472430915 0 0
245.387025175038 -8.9102206902498 0.625537521356005 0 0
214.19476809081 -40.6199508701547 -9.76334350444579 0 0
6.94213713983869 -21.4832422543225 20.9659657633129 0 0
220.319116878458 -37.7870950980502 0.487182977827281 0 0
243.041119185933 8.1990189934868 -8.64416806317862 0 0
-31.8353445629086 -12.1450190088643 -4.76023234374008 0 0
29.6722730290441 -2.46684144992114 -4.62907848695738 0 0
22.5854241349466 -9.83093166712713 -3.44982658671938 0 0
195.976725602731 3.60191948871821 24.2889415717492 0 0
-77.3179812898062 -3.84239969463813 -9.41502089531816 0 0
119.70548318378 -18.488351229275 19.3479641682372 0 0
54.8126341564487 8.37063722884595 14.676933262487 0 0
233.81941659094 41.2897651077498 -2.30816260013235 0 0
-76.8258717043695 -6.07937831137899 18.9523810946359 0 0
228.860591910301 2.16062497630879 -14.0654875793116 0 0
54.9356886827086 -21.6454574663201 17.0425880888981 0 0
164.112280704453 -8.54972019502841 -5.71899477433617 0 0
218.34355846778 -19.4231988172017 34.0714783491111 0 0
124.558191781859 -0.876816090951689 26.715616769162 0 0
-22.6194689085004 -25.3532507807585 14.5065282522652 0 0
28.9076102857003 -23.4332340794772 13.2738420980761 0 0
85.7768788248815 6.42518341321773 23.136958609493 0 0
211.841972416512 -34.0361213122451 4.58985251480345 0 0
136.01268933029 -14.7320868910563 -5.5630663210879 0 0
177.006654583835 -15.8273309962713 -8.42956522681454 0 0
-59.8295507927054 -15.2470388515199 -7.66712806680428 0 0
185.70461161684 -23.5249987408071 6.59004299570461 0 0
-94.9940582379929 -9.89744525041957 -14.0891717872746 1 0
54.9113161486961 -10.4765639310211 26.9377604127429 0 0
131.544943028827 -20.2158515637781 13.1870262112679 0 0
-76.8051996534275 4.62132594468607 0.960649942181457 0 0
208.151584462428 -26.3687875164971 -26.769733082935 0 0
85.0971580109417 4.16059625356645 2.61995876045217 0 0
225.652543709841 2.38093490964343 -16.1347016607321 0 0
65.2190316052554 -17.9525809038544 22.7505673429683 0 0
87.2520919003692 -6.40098387308438 27.534088603998 0 0
3.68768188929523 3.12428746724531 3.2786682446182 0 0
189.274082386765 -26.4496346260878 -8.22564775912524 0 0
18.7878057527274 -4.62043933577787 26.4135783465984 0 0
199.536861188207 29.9512913231854 -10.6832228426684 0 0
71.1915258845847 -18.8254280944655 2.86529795964925 0 0
243.434413170407 -19.2369318523561 -25.9172166273148 0 0
209.775820583003 -2.1308285833261 27.5443096360988 0 0
242.866418831338 29.7977401049635 -37.4612188404081 0 0
175.166626736507 -18.1873693390381 19.7909262022896 0 0
-88.7631768786024 -25.5439255887576 8.59180084299505 0 0
231.195933284786 32.4825307421354 14.0711951131236 0 0
230.263920310303 -37.4101989939227 1.56016011778666 0 0
-15.8216807354847 4.14829695398124 13.4254679929296 0 0
227.140707590043 38.2144033672645 -35.9516758996551 0 0
215.454229699115 -8.65772134000147 -21.8157045207818 0 0
206.17786015612 -37.1488924171603 -11.7655416886618 0 0
254.036328126247 30.9008805567607 -18.8975937629514 0 0
248.422091414665 14.9999777276548 11.4543383700869 0 0
144.466525980044 -18.7267475677399 -3.05931774456708 0 0
-15.7155961096406 -23.3275129717181 7.3286337328541 0 0
197.753017859155 -4.75520001323001 -8.91087157024407 0 0
91.9157184437736 -11.7344703811174 26.4379095366281 0 0
203.15246454569 -31.0197116987276 -0.470008926981423 0 0
191.375536034547 17.0202378223637 18.3576511684621 0 0
237.927688117783 35.2303141039364 7.01778040453351 0 0
223.447686708461 -19.1790131289681 -34.1878341940976 0 0
246.505788825223 -18.2477292145686 12.553880918894 0 0
237.706570144837 40.1110958688369 -3.17901425791571 0 0
243.845706882082 11.7276387336259 -19.0867085498856 0 0
83.8675743981931 -21.2078328081691 11.945477382181 0 0
-40.445090606048 -15.4038139112158 23.2917155116588 0 0
60.072551357127 -21.0134758507002 8.22533754641126 0 0
-57.6980523665925 -6.94744162255751 22.1486723581906 0 0
0.99283405878384 1.45729667257168 0.0626643561487966 0 0
212.806145588612 -6.10453443083594 29.4276858908517 0 0
236.418765605187 -11.5412054913134 26.0888517866192 0 0
210.683135856769 6.54316344531027 -12.9852310085572 0 0
-36.3860891057179 -7.83461889082467 -7.27073758069772 0 0
-79.1001093424376 -24.5208464619032 1.94689518691478 0 0
201.837944297831 15.2194490927386 -13.0764297244061 0 0
-21.9928728428199 -18.8495651047943 22.5204856488075 0 0
250.119054880716 29.6537434402784 -29.0755547954006 0 0
-34.9428774611661 -23.2028083977481 5.04946865530545 0 0
207.317613685899 3.78164330463342 -11.1839816807789 0 0
217.683636888409 -25.3534958540453 -33.3228387894142 0 0
-76.4432563800633 -8.22201619324404 -10.7638491257736 0 0
103.862920380448 5.38508194768028 23.8814605984718 0 0
-73.8291254853967 -8.56318690758841 -10.5444739449568 0 0
-67.6146486991788 -21.4589400735522 17.4693205411065 0 0
17.0904116815021 -24.004536796949 12.7238591654185 0 0
-56.5016400627246 -18.5993963614591 -3.95317116983408 0 0
236.621530010211 36.7231523092519 5.00165146387919 0 0
233.228936596829 -24.4876120684828 -33.5344223471739 0 0
223.63641231911 9.65743262118333 -30.8504043389152 0 0
34.4519251067906 -18.7449855159695 23.0008567438379 0 0
175.356503424452 -5.13461472479856 26.4113480616346 0 0
172.806219348814 17.0961543658465 16.0347570217739 0 0
-98.2331820898975 5.23824670823911 3.60926775363489 1 0
134.364857503184 -12.2821337979744 -5.47034910185983 0 0
144.60245605321 -12.4946241138904 25.0858415242798 0 0
230.061401937926 -23.6814574489599 -34.3686836042397 0 0
41.1274895466464 6.57821366018767 10.0362295874377 0 0
74.3202915045125 -15.524053742125 24.6888522645549 0 0
-10.461789090165 -22.1579398393295 6.25121243623383 0 0
252.734525763067 34.4163815669895 -9.60868987976444 0 0
233.962667903863 -8.25102860185259 -22.74785639117 0 0
-40.27792332153 -20.8930578535657 20.2331873851646 0 0
213.275267258031 -10.2395463272727 -25.4505829847822 0 0
245.720092701408 11.1717845288195 -20.9880158396244 0 0
236.489197862051 8.60972525565903 -29.979059223977 0 0
168.078478165301 3.68065855600617 -3.22709289550217 0 0
114.513900690304 10.9492904719256 20.5325688232338 0 0
235.464081147542 -35.7151586678095 1.5111125796349 0 0
245.189628904345 -12.6546298938003 -15.3337447233428 0 0
218.606504243087 -9.20430878515205 31.278568106122 0 0
-6.68884768652954 -24.9187572672845 14.788548846491 0 3
221.195676544868 -35.1826086140988 -25.8969968399002 0 0
217.875664307479 46.037886200622 -13.8299757534132 0 0
0.60612948244801 4.17693192764442 5.55524516454576 0 0
8.98823597552706 -23.6244535605433 10.2181847384278 0 0
117.404967079699 -6.38291859128279 -3.40656366852344 0 0
166.472728507208 -5.98387124122091 -5.18575531481182 0 0
205.679440764973 29.7631027735054 -16.971682557728 0 0
244.126755174026 0.665200626978226 5.9193726310598 0 0
251.257396901461 12.7996127574349 -0.55109279844343 0 0
203.629924984527 10.6907562750038 -11.7888174368457 0 0
250.816184920082 31.5738972638848 4.25585953908027 0 0
207.32131669091 20.0530187776531 21.6675390579002 0 0
78.7327046499234 9.25324185687601 9.20322763344744 0 0
145.671332677462 -1.50560649226251 26.6329955087048 0 0
207.073490871731 33.602511353967 -18.6052726696052 0 0
244.799883546526 -21.8049670714546 -24.7232365066503 0 0
200.529345115422 16.4066058111517 -13.5441406372099 0 0
-47.4960156056589 -23.1228635827234 3.48486122372547 0 0
-45.239453783486 -0.919356489636298 18.690300962511 0 0
140.478514753562 -0.193382110243195 -1.68064415873241 0 0
178.868808919315 -23.4324729977158 -1.27803887067579 0 0
-27.062066994484 -0.91625291322441 -3.73026116346011 0 0
168.452529639401 -2.74864880452898 -4.50584298183067 0 0
-59.1505131160104 -25.5596202654042 12.4069722869283 0 0
242.864711874841 10.6993246607958 -26.3798840249742 0 0
211.855164726516 36.7245957008546 4.19861654102933 0 0
135.958372339414 6.67990526128934 23.3339480809054 0 0
183.090819047319 15.4833420898271 18.1968744673076 0 0
-46.7416617434454 -10.7951416671035 -7.93029374415565 0 0
221.128147399744 37.1567934186289 -36.5214849798801 0 0
141.338073402891 -19.6299460266039 -1.34833320531638 0 0
206.553238555862 -27.3242990415465 15.1214621043584 0 0
209.569092234814 8.2402911618105 -12.7040525129825 0 0
143.423283773282 7.64622004062672 0.10120789346738 0 0
-46.0975455743295 -5.96197622145627 -7.26830532729772 0 0
220.608390464853 38.7696245520325 -29.3287573206988 0 0
221.18385394578 -37.8915025878012 -15.4462861505993 0 0
251.644937681003 18.9471681471325 -22.0396437048997 0 0
253.21330749518 16.2685317329565 -11.3839572018735 0 0
-27.3770987790921 -4.55015964124071 -5.9523817486642 0 0
10.6300448215613 -12.9512056079049 -1.51529272158483 0 0
212.653427578481 16.9382153495773 -28.1346311303864 0 0
228.634945643498 11.9770204179085 -26.590336033664 0 0
151.87704293463 -16.2249958020582 -6.09828297209732 0 0
232.835708599076 -2.89002468843891 -8.38378214605692 0 0
167.02064811649 -21.9368847340788 -2.33756417592248 0 0
208.752636598115 3.09177811846762 -11.8084218886839 0 0
247.547787813742 -16.2231984037769 -8.88060772078142 0 0
235.812818793159 32.7139896874828 11.8927810704869 0 0
245.962347059729 -31.3326141771376 -19.2557905966815 0 0
230.257286391777 39.944361696065 -25.4551771606763 0 0
76.8592285028228 -18.9311821091699 20.8993539887387 0 0
216.129964699408 18.1860682601982 -34.1343059821715 0 0
134.0623716675 -5.77451758984782 -3.55251833009907 0 0
204.869762360105 6.59833513566791 23.4376628809053 0 0
236.826001917737 38.4775455509184 -33.1790528698183 0 0
215.210974618047 7.77118399683927 23.5730713631188 0 0
227.764109900779 -34.2932447563838 10.1729623303194 0 0
-47.9708228811046 -25.6561600682542 9.50226102128659 0 0
210.431882099861 41.4248841839226 -15.2739330432709 0 0
241.04794345298 -0.247813958705496 14.7712114306807 0 0
208.985709201572 13.5573305449731 -14.6549093399987 0 0
120.724513574093 -3.24728253220777 -1.91493911065597 0 0
136.875845220529 -20.6467655928794 2.72579895218027 0 0
-90.9392191771772 1.0618706507022 11.4654935380032 0 0
5.36197136744605 0.106833016082939 -1.88314329899822 0 0
239.881820728237 -33.7208343232454 3.97220805622159 0 0
107.829604396113 7.77628387951539 3.52928176924789 0 0
103.431752108885 -13.0192727832803 25.4711152047014 0 0
204.973086062775 -34.9820463840107 -13.468540257714 0 0
181.115026906062 -9.0852785675757 -7.39550580901246 0 0
245.113384106871 -19.379007034767 -23.5433587159954 0 0
48.1344797955086 -22.3728649266155 14.5603447401841 0 0
213.3995295046 4.57608238680925 25.4724009203961 0 0
8.83091924164925 5.07384765838465 9.48697222424297 0 0
36.9416517116508 -1.95472648862984 26.1638953477171 0 0
221.499242744964 12.082043355116 -26.5494454377236 0 0
128.491320137417 15.9273736896875 11.2990187100585 0 0
125.868550167857 4.05441758320763 24.6646040801428 0 0
226.512466991676 4.95269556602233 -15.7538978143049 0 0
-10.2737755250508 4.86924400951054 10.3057791134093 0 0
200.918214969618 -5.13370378346136 -10.3100031633346 0 0
-60.8789782575782 -3.22521537652262 18.9567084780411 0 0
-77.5469818614019 -25.6536199943917 5.98515284211478 0 0
181.398631290825 0.463577097822988 -5.05826966515892 0 0
201.984635088676 32.5953083745517 -11.7387616808262 0 0
237.69686051826 33.241724941455 -39.8545346656271 0 0
219.890087222576 12.1207375704276 -31.9809990888334 0 0
-30.7938783745017 -7.04200808711064 -6.69253362919416 0 0
211.265944419345 -5.22454066553463 -14.3327821111118 0 0
226.69012259641 22.1451660631916 24.0871138411284 0 0
235.488931644501 16.12190093955 -38.3473208413535 0 0
74.0665328964793 8.16934382087069 21.0409900415996 0 0
231.352764542959 -9.76885547332722 29.0799374224612 0 0
244.461472328137 35.0216578809728 2.70774675572196 0 0
110.570024341491 -11.5229254766962 26.0822064202685 0 0
149.742680354706 -1.90639345664731 26.6695021569566 0 0
-83.997480427829 -7.18765430691206 18.6438243438648 0 0
78.2478993346379 -2.8405888626472 26.9450749349407 0 0
237.746742871233 8.77886011137212 -11.5767759833711 0 0
-31.1400659469171 -4.35206614171029 -6.12908900591337 0 0
-41.2347408820357 -12.9342012164983 23.9072523167222 0 0
-26.6109310313144 2.98248961889423 15.6211091026081 0 0
123.044679940325 -3.26872613681613 -1.99647139545152 0 0
97.8973283378837 -18.1236471213379 -0.112740270490045 0 0
214.679108888673 11.5472262651138 -28.1759962380531 0 0
-35.2505374416736 -25.6745070353667 12.1045860883639 0 0
195.958465658085 -29.3448271062634 -4.57336983108472 0 0
253.910366499564 17.5849091356869 -9.50012150267266 0 0
229.444714625918 -16.1685608506996 -33.098580246246 0 0
-78.1344559068442 -24.5130783045671 12.8309138408328 0 0
170.638895517063 2.83929745373371 24.849066854591 0 0
175.327068253898 -1.43115243416047 25.848286334148 0 0
203.838970777104 0.847740247768647 -9.60359057225815 0 0
151.78734705352 7.91596171585033 22.6070579976136 0 0
134.848870766867 -20.8507908244465 8.39403682957042 0 0
-60.7950126165343 -3.47122102604256 -7.82438125444891 0 0
234.20137822752 11.4482386803792 -15.4101615350211 0 0
232.793653836287 11.2554817841206 -27.6954286938148 0 0
125.651063629959 12.9341902354262 18.9558738115005 0 0
240.217708140566 40.0048681642277 -15.3759513748509 0 0
207.38448966748 -1.01654221171351 -10.9974921076185 0 0
30.8540784371517 -6.70757974930576 -5.03680558581624 0 0
224.332179930344 -8.42190169726065 -24.3304460912842 0 0
-77.1079040331827 -24.248484695613 1.28726586034982 0 0
50.1393935977595 7.79166976726088 17.3555629149043 0 0
123.020841483842 -8.62959981201305 -4.37814086989733 0 0
56.2030059423439 -19.2186195973767 4.07607297383294 0 0
12.9735111386859 -22.1410597172205 20.1254518027341 0 0
213.801365488148 -32.3804992366065 9.96100091616107 0 0
223.55604451744 -7.29209236423832 -21.9297165600796 0 0
-22.7438249484302 -21.9912761228083 4.90304253284709 0 0
207.885397205982 -33.1434019032924 -18.9122620581075 0 0
60.9845892921775 -9.67115437279439 -3.26455566843349 0 0
-38.0707031734683 -2.72887590990937 21.4134849518501 0 0
237.581063739133 37.4062921733969 0.839933093059393 0 0
237.028655576786 -19.0241555038782 26.8651626851721 0 0
-67.7613089568365 -25.771910681233 9.30622070940215 0 0
104.066958785471 -1.21799704781036 26.588419641493 0 0
199.104508248733 10.7910787574528 -10.8992426593901 0 0
65.1568056260361 7.64809095993763 7.72500856989409 0 0
170.111014849894 -22.3617902019398 1.52131013950668 0 0
218.270872017469 -0.909196261793491 -16.4034361958205 0 0
232.732466147685 11.0329368831499 -33.8828622697617 0 0
207.157019388146 17.2528845219559 22.9038515776958 0 0
236.093999458734 23.4814484471939 -40.3719743022157 0 0
-92.9015836582579 4.9623402126963 -0.995948052650907 0 0
240.035212402284 14.2481500332028 23.627908687997 0 0
218.789418481467 -14.215479710766 32.8028812469614 0 0
216.751176611788 20.6143147328347 25.0342063047342 0 0
-95.5539474605589 -22.3841333669269 -6.99456101335941 1 0
196.175255489921 -4.90123779731435 -8.46251631625758 0 0
239.461711742107 -3.08816144403504 18.0393537799425 0 0
251.91781134804 33.1517366963671 -25.2340963897362 0 0
225.551408272355 26.974494991377 20.8094421579472 0 0
49.1041661782479 4.04417592006568 3.58136582322387 0 0
-49.7999648644631 -8.23767135668748 -8.07831394189891 0 0
34.3650539757902 -2.64303934343925 -4.81103288810054 0 0
44.7669474788553 -10.2270173422714 26.9551917620532 0 0
118.166558987028 9.91919048655568 3.857428648755 0 0
183.845319045329 24.2625441725309 3.59581318717141 0 0
201.017209463201 21.814644191888 -14.3118246429933 0 0
95.4969609974797 5.31273348114283 2.91558621718422 0 0
-29.1323057859 -3.48900146180855 23.0323898655446 0 0
91.2018163280506 12.0532366666087 15.0803841863527 0 0
28.6857914723395 -17.5700519613207 2.46471467003647 0 0
-2.1194098231976 -18.6214668363632 2.41876981831295 0 0
222.364833020647 45.0742801985515 -3.22129804713624 0 0
52.3976562981006 7.23691376103732 9.13917672980043 0 0
56.7964918411513 -11.8817188353394 -1.76422060704219 0 0
219.535445675619 -31.1365236319025 -32.2882760070335 0 0
167.805328989231 15.030577945326 -1.29208883709125 0 0
237.04128288192 18.6377910382574 -38.9966695391616 0 0
174.482352023724 6.37233217956936 23.4886059697185 0 0
205.549633247337 24.6181580424493 16.7952962664057 0 0
245.481233945909 -15.9996704519869 -19.6053576656145 0 0
-72.2389321581041 -15.9050327511864 20.3085018905563 0 0
236.992837925233 -16.5997807029574 26.7617447076272 0 0
44.9059604582514 -20.4892254851725 20.5728457237686 0 0
233.682337124319 -34.6432178600194 -11.6739888380871 0 0
185.640403653191 15.6731670930632 -7.42672591910255 0 0
-48.7387201815322 2.41268999869081 0.530679821321577 0 0
60.2422251442699 -20.279813862553 19.6853600620305 0 0
35.6251923540711 -22.5309991705599 17.0605512922548 0 0
195.609239189417 -28.3631802888655 -1.95567178988513 0 0
184.327505215055 -24.5210689054066 -1.48348139444115 0 0
206.715400199686 22.0530976847454 20.1533286641567 0 0
-8.35670755735021 -23.2904243626667 18.813031116521 0 0
252.371567958147 30.0974804478942 -24.5290659796995 0 0
-0.435845597787298 -7.95145044317357 26.2808153957847 0 0
218.768857046435 46.066236156696 -6.86133718378154 0 0
-24.4924883778317 -1.07599955931131 -3.96965017053577 0 0
195.918518280466 -13.0782298265781 27.2477744801729 0 0
-62.765311483286 -8.29505608080033 -9.14288301184326 0 0
191.120843254124 -26.9863537300898 -5.82703941282978 0 0
231.780713669347 -30.5915365299414 -32.5734822140472 0 0
210.4832577434 12.6729937874163 23.5974393498729 0 0
119.337623933005 9.74665986563502 21.5968283080994 0 0
214.143652051984 28.3826481108673 -29.055056501057 0 0
0.299107470270119 -18.7918326923728 2.63694811972459 0 0
15.1425963176911 -20.4152301910407 21.8810374982879 0 0
255.411304338305 28.8642447401056 -7.11172567991429 0 0
199.140495568812 -19.0350435489418 24.8184377189228 0 0
221.511662324525 37.7197546815711 -33.9734278231033 0 0
-6.53434650703778 -19.1279490219989 2.90423980192109 0 0
219.905012961313 9.15863386549769 -18.8007050408256 0 0
230.413404329439 -3.65463393413443 -14.9488094102701 0 0
-65.2321958094727 -19.1295954347169 19.4620510828528 0 0
-73.4028147134267 -21.7086239248756 16.5739908905927 0 0
181.738733127599 -21.8764801585852 12.3621570941219 0 0
22.9432469133319 3.70400432946106 21.0190870456877 0 0
96.0870389032244 -2.85282529979481 -1.99073303865013 0 0
250.107124615866 13.2856340611537 -15.4957198063023 0 0
236.114446097304 -8.76801385777147 -25.8479019398178 0 0
204.405805208215 35.7010553429866 -13.6474319499351 0 0
220.849779299531 36.3454690298791 9.68687323275492 0 0
-84.3837716391806 2.85395560834433 -3.56510301364681 0 0
233.757808886874 -7.39420867463822 26.161753275467 0 0
-40.988170323783 -7.63882785405032 -7.45583022389046 0 0
175.899857009298 3.39390720845339 24.5662538313327 0 0
240.136378896229 -32.8709967352284 7.12988282428517 0 0
201.349715484566 -31.4182863947142 -2.83803303668779 0 0
245.597120597198 -26.3561444863768 11.8420906239625 0 0
153.352038133122 17.5927096409606 5.2772995075731 0 0
247.008491314751 -22.8526559603746 7.96381787882472 0 0
222.821221803323 45.6940101915144 -12.0872613797989 0 0
220.363272779061 6.90834924579622 -17.6678494933466 0 0
77.1606818648116 -21.3129604313899 11.887489572647 0 0
246.820392693111 -29.4005094444798 1.74669406950447 0 0
233.143177144379 -1.1511568917051 -6.39520244007384 0 0
226.884806568991 23.1537010422886 -41.3697795394968 0 0
222.01042249199 -37.4052511376907 -17.5058989357689 0 0
32.8276874322737 1.17580330779375 -0.395439433135015 0 0
-10.3671311500768 0.18552678851398 -2.03103782361698 0 0
165.345778420877 5.98847588139451 23.610675440776 0 0
-83.3161926177965 5.00254031516433 1.21883160330033 0 0
207.113444169908 -20.4184786424412 -26.5367231246224 0 0
197.296300207388 29.5374699506468 -8.7553570652075 0 0
-24.656529193802 -8.68126168903306 -5.87306393331453 0 0
182.373566452261 10.52292089101 -4.98209253722012 0 0
141.694463122872 16.3694271424868 15.0097331276504 0 0
240.607256791647 -36.7462570476672 -12.246465846225 0 0
134.13580684536 4.20710824007695 24.527257111487 0 0
249.524518859269 10.3283740894541 -1.52439421569366 0 0
240.671717622157 -14.3876854669165 -26.3202775151781 0 0
220.250562955452 -30.4497038357186 17.9370249553759 0 0
63.0109706597934 6.17541205840606 22.4854126254768 0 0
-76.6138468275568 -20.4107205497897 -6.99164708299973 0 0
191.005583876565 27.1407678987803 -2.06009803105746 0 0
-73.6292915811559 -6.20351076787965 19.4966390969582 0 0
-92.1253796238648 -9.16602591872417 -13.4778703007975 0 0
156.306724747596 -4.82687908335714 26.9290381832738 0 0
204.785005847565 -35.2773805200724 -5.69474023946116 0 0
201.437628603197 29.2370166373258 -12.8200326449765 0 0
235.706680773272 -35.6655785817001 -3.38577769653056 0 0
-20.1068906125254 -13.0164851020738 24.9402237618015 0 0
226.060301613058 45.0666875083252 -11.202990794036 0 0
235.618640408519 -34.3314839814721 -16.8562087043019 0 0
137.842763009981 -5.41147675583544 -3.44692482231142 0 0
-60.4315123468547 -5.91873519656037 21.1498979489973 0 0
213.081469672192 34.1178500965828 -22.9615745961638 0 0
-77.3742902274151 -25.0890587035231 3.778753281818 0 0
-4.85869544968686 1.74754479604912 20.1367575645887 0 0
240.643803498518 8.07609462752156 19.603805328269 0 0
241.775020017646 2.11483312100945 -3.61658593715647 0 0
238.011734685665 -4.16498457892566 20.4347722417519 0 0
247.917797758385 29.9979850838477 9.97811228779016 0 0
203.669345419987 29.7004778353228 -15.0440203593485 0 0
209.782277947414 37.0397352942795 1.93975291079854 0 0
30.6576254146019 -19.607089955463 22.4235051897091 0 0
143.970510584958 -15.5814001715061 22.6860402095721 0 0
215.102484895082 28.6728599493903 -27.10488118581 0 0
173.899480487627 17.6648461903179 -2.03361422279794 0 0
216.643712991843 3.07623907607522 28.2674615557715 0 0
244.428120184374 15.8120268971593 -32.5255609764583 0 0
-64.5350020988145 -3.57459802100232 -8.29781311054491 0 0
209.699355369632 15.6275756323563 -17.165843201813 0 0
230.962416620323 38.794690774596 5.21129140449089 0 0
26.5632050898972 5.85064607354067 15.2456333221856 0 0
205.426367383439 -8.80209763225959 28.9013978868953 0 0
206.68165569068 36.9237250141617 -17.7872897977042 0 0
244.799095250761 35.619683140691 0.703319830444831 0 0
212.515909907283 -34.2123249093464 -21.4925210208923 0 0
-17.5387510698299 -22.1310920916207 5.37695969273675 0 0
-67.9412244806517 -13.4129057425865 21.5575276489182 0 0
-13.4782470577673 -2.9138045848567 -5.18004186811107 0 0
-31.26472665964 -19.552752748283 21.6416740003883 0 0
38.0908952230362 0.451179545771126 25.1973008146022 0 0
1.17478752375081 2.87455086633415 19.0857624258119 0 0
215.469019132477 -28.6247548865996 19.3195115396308 0 0
206.384271150189 -15.835468232042 -20.5031174640221 0 0
-78.5490873604378 4.63703522066324 8.11862197924222 0 0
-39.9614038012137 -18.2040386056495 22.0609614540328 0 0
22.0384182443556 -2.99130734828008 -4.72732825645463 0 0
52.5127488972526 -21.4607418417632 18.0790726987322 0 0
-75.0141117667345 -22.3487506313494 -2.67067350092289 0 0
254.476558346179 27.3967876575075 -18.2649645297668 0 0
-60.3795094161989 -10.5188387135226 22.7185442702063 0 0
156.163003739726 19.0412448223825 8.43909294542062 0 0
-76.9740513574027 2.05165684479869 11.6454762442869 0 0
220.354959306924 12.462833082087 27.8520490299047 0 0
213.575420498048 -35.0360035534039 -20.2048247358779 0 0
230.06424782737 34.0168030085963 12.2222298789241 0 0
164.460975087399 -21.7274145978731 4.88710671022255 0 0
246.315099292772 11.2957582316981 -18.8877822264563 0 0
5.0052577654494 4.87147720802367 9.86785837721241 0 0
205.553839983527 -10.7241741133635 -14.4834182610465 0 0
-69.7981651133138 -21.1216061508223 17.5195993180341 0 0
63.3616158006622 -20.953645201931 8.11008792723196 0 0
162.062564276507 18.1826041591571 3.06297631388633 0 0
245.907003270523 34.3897703192488 -33.487281029863 0 0
242.775199434873 38.0639705354568 -28.7596412524044 0 0
225.567795926613 38.0835919620894 -34.2156305313153 0 0
-25.3101008549926 -24.8286439395628 9.67973681603811 0 0
206.830229341018 -2.71786897723481 -11.4512132107746 0 0
130.247922868298 6.41326037819882 0.912395300268664 0 0
225.396016246407 -26.7618275992983 -34.3174377009581 0 0
