"x" "y" "z" "f" "a"
-13.9813077057877 1.39483670314891 -4.31683686284112 0 0
-66.9719338332485 -0.451595424015429 -5.8846368584775 0 0
-190.08924915203 -27.4050405006543 -27.580282810124 0 0
-83.2804569465238 -22.5323636774141 -0.609992574613012 0 0
-189.366465528299 -2.05567804522555 15.0179877727758 0 0
-215.586306442545 21.6756010474072 -13.334772770065 0 0
-77.0042437044891 4.97370224883252 13.9231468028925 0 0
-89.7797747079764 -12.08996285126 17.6824093242432 0 0
-121.199409537705 5.6646125343666 11.349530116262 0 0
-61.6796179224256 -21.7275043646794 13.7618017518285 0 0
-212.871067641916 -22.3775648309517 -30.0927648305773 0 0
-166.347510259189 1.76786823611019 14.7432075421523 0 0
-12.3183182812431 -12.9009919408544 -2.42443098972935 0 0
-178.130422757471 8.78317030715692 13.4780005446937 0 0
-7.65491610202181 -9.00183649493947 22.3943149144662 0 0
-244.362438473699 22.8888501261219 -7.80317178728609 0 0
-52.4209765704608 4.74775824304331 1.29030229345879 0 0
-197.599468443294 -25.6739394571647 6.18558579754426 0 0
-155.295589898102 -10.5448281123411 -22.7685433964557 0 0
-31.9692654163926 -21.6691051579964 16.1003410346838 0 0
-119.009139775801 -20.9200279212787 5.61312012880657 0 0
-232.096775024595 9.77866837138924 24.8660019200273 0 0
-237.573736406827 21.3486423194204 28.7991715499583 0 0
-219.541564953277 -18.7748242441874 -29.7610633874856 0 0
-52.5015511550553 -23.1492707114077 5.28938684186309 0 0
-193.741688093448 -33.8223257767698 -21.4873674953688 0 0
-119.394868816581 8.58764756153734 0.349056602439244 0 0
-218.596120604527 -8.38173712123438 -31.7032923950101 0 0
-64.1387731755085 0.284346716774476 -5.1287504586071 0 0
-211.098780537464 46.3395355318937 8.20428411697581 0 0
-150.56790434079 -23.6151621692296 -2.24333017141285 0 0
-134.929684149136 -16.0608282529975 9.39866844533998 0 0
-154.645807568573 -23.5125292066275 -11.4391262286414 0 0
-51.0380224113169 5.91226071148218 3.53219912971203 0 0
-57.6887376480735 5.60192775666199 14.2094685541218 0 0
-194.121744335304 1.65011159058727 14.5810540067162 0 0
-196.428587850145 -6.44519088473972 14.9715293633705 0 0
-36.4676913472708 2.30916878435646 18.2222365701384 0 0
-71.3124707797043 1.19217134352592 -4.38787232422788 0 0
-56.627947893884 -8.4929515606753 20.9564227220669 0 0
-203.747955413023 -29.5944501263786 0.394493298338474 0 0
-219.188712097965 12.7222082170513 -9.67691688100447 0 0
-231.206396147002 4.2492367649832 17.500731974881 0 0
-156.1745492684 -17.8338049255243 -20.9081461152541 0 0
-241.530974906495 31.9430529000795 -10.2158753304385 0 0
-210.208577057263 -7.98024722413019 -33.0874701012156 0 0
-55.5488264449291 -8.98215175134594 -8.64924312616308 0 0
-171.927180579944 20.0818508119296 -22.2175998184988 0 0
-150.712357793898 -21.6600402955286 -14.079560666649 0 0
-78.1589183893416 -10.5441863236303 -11.3865130047347 0 0
-169.92058740227 -21.208892036971 4.73948616481279 0 0
-235.6826630888 10.8943039751129 -6.88895599518644 0 0
-181.210658825492 17.0271643725319 5.92454139421513 0 0
-226.929599537207 28.3944934938829 -16.8766347203749 0 0
-84.0435794416829 -19.0177000490914 14.1684375502361 0 0
-158.280948152953 8.1071618070332 11.7776903170294 0 0
-182.295204467716 5.44114265856925 -28.7059682347751 0 0
-205.671348144038 29.2896852550241 18.209008960862 0 0
-116.878766231962 -13.5834641719411 13.5131864775357 0 0
-43.7078381454737 -15.7586595447906 19.9249001552902 0 0
-219.160727038265 40.2348351646092 27.5870565200212 0 0
-173.798772324601 -11.7967391348155 -28.2082477645033 0 0
-82.0628559162664 -7.51923032863598 -10.9087538476305 0 0
-19.5342140396754 -0.827535291738501 -6.52520386703219 0 0
-207.7377075971 40.9568057911267 13.0046864444891 0 0
-179.383930095117 -26.210366006963 -23.3358660982679 0 0
-173.862387126376 20.1632057289448 -21.3842923964577 0 0
-202.533459948788 0.925026898769308 -18.5661577131371 0 0
-198.498643867635 -16.826680884828 10.5351844647753 0 0
-203.833570485422 23.7573248850552 -6.43214247046941 0 0
-191.035675571684 17.2881847086929 -9.15970244113646 0 0
-184.767336805024 21.3554555753061 -3.39898422927836 0 0
-147.597853414283 -15.6763884944801 -19.9291308007557 0 0
-212.236223841731 18.4578675260645 -11.6814400500797 0 0
-112.130871358603 -18.619870463798 -12.2999179799889 0 0
-212.798125236344 28.1163758812184 27.6310677551695 0 0
-10.6590964150124 -9.23244803706922 -4.94402312185608 0 0
-128.111021843877 2.43090771202489 -11.6012370263844 0 0
-155.836577334631 9.1983508825693 -19.521611983215 0 0
-174.18926038143 16.7019822501094 -22.9172022480285 0 0
-171.448380958138 23.0497985606779 -6.8949684477493 0 0
-53.5831881825127 5.73324057772595 14.1262711324457 0 0
-215.723458984212 49.180173476432 10.7085784247657 0 0
-76.4871228609194 -9.22687394944181 19.6599742037767 0 0
-216.996335545632 -9.07125330766751 -12.2443533334601 0 0
-199.822919747554 4.35269515323403 16.2588784600915 0 0
-40.1007699183234 -8.68827375467195 21.6681052860519 0 0
-246.753862474431 13.6037563264121 8.47058070550007 0 0
-205.347901497353 3.03797294049862 17.3091329464204 0 0
-81.5933837567227 -23.2892348887627 2.50854050954333 0 0
-215.400867804536 45.870455618284 -3.37164360735883 0 0
-194.782240271606 10.4643275160581 15.5369394794102 0 0
-221.563748582758 50.9674303470416 10.832983437057 0 0
-222.874581897332 18.8726056870622 30.9045177179149 0 0
-247.158319264719 16.5766452325334 14.9148774539894 0 0
-191.178575618863 22.0516581964357 5.38027739111592 0 0
-182.870135997025 -11.3466935946649 10.3933715013689 0 0
-37.1070405348075 -12.270529855494 -4.65400511742328 0 0
-104.320939008737 -3.03636805492558 -11.5435620058324 0 0
-81.3731271765158 0.792530251593195 -5.2617044962715 0 0
-18.9676183667272 6.14922151385554 5.72451437142986 0 0
-161.900196355775 -25.2548402483895 -3.08992611430652 0 0
-97.0513910058822 -14.7236560396512 15.4485854687764 0 0
-11.0329854496569 -21.1613034675798 16.441236125732 0 0
-209.959512308696 33.3645956479989 24.2691010984681 0 0
-68.6492552753835 -13.1329320786885 -8.65873710033904 0 0
-99.8900186820875 -1.89761081014394 -10.2892580928274 0 0
-1.78614178298181 5.64126357260603 15.7422589551431 1 0
-191.917246730304 -36.737428575931 -7.63988114982491 0 0
-122.77765160046 -0.97524974351418 15.3110167378661 0 0
-15.6122053707697 3.52425117122704 -1.19218085784619 0 0
-248.855958827606 28.5878041742727 -0.528843173498433 0 0
-65.1458470305699 -6.89599425468884 20.3759295999841 0 0
-169.737058553947 19.3113614625596 -3.2625833652628 0 0
-14.4669789803359 -13.3868338809766 -2.18094303500984 0 0
-166.748777094888 -27.0378042961451 -7.72766131572521 0 0
-242.213499697998 44.437086668092 2.35907848544153 0 0
-218.801906858964 -7.80633690380018 5.76103038724832 0 0
-171.281189515851 -4.82254400238032 12.4651029416949 0 0
-218.393764246067 28.9202128852384 31.1967233089537 0 0
-228.314501285483 40.5465657727672 28.2057635385312 0 0
-33.8975886626382 4.99227698685647 1.9007897383917 0 0
-203.082598386561 21.2957887567381 -8.00573308743859 0 0
-13.3956782408711 -12.9883236674689 21.6129937531883 0 0
-246.807451418675 18.7085620217603 -2.28015755374598 0 0
-90.4102331975249 -21.1437793075174 10.780355387437 0 0
-73.4485569641122 -4.48365964931144 19.3531414454522 0 0
-189.112660716272 -33.7444184517373 1.88539088197209 0 0
-39.0570173647572 -23.2034388180483 7.40686755224056 0 0
-188.163884594942 7.81529704778692 -22.8857478260115 0 0
-133.433363996393 -14.9114541629269 -18.2523049272116 0 0
-220.999862114477 50.8224478010436 5.62589524334413 0 0
-211.447353028863 42.5224956415907 20.1354680145785 0 0
-135.563661700306 -16.5552706283269 -17.7194144673942 0 0
-129.135321886864 8.99823822608026 4.88428244570225 0 0
-225.738457278975 9.26604894845191 -2.25556643840041 0 0
-128.96020041681 6.47654450540254 -9.00221696986405 0 0
-208.287440217398 -35.5058194546261 -13.7606356065877 0 0
-157.218111954956 -17.3461503725918 7.06094980124611 0 0
-30.8936374603561 -11.744275913965 -4.54505607548307 0 0
-111.214663819722 -7.34696334089259 -13.7636123385526 0 0
-121.035988526979 8.18680664346507 -1.99876350152075 0 0
-237.160457786657 9.42996776026629 -5.31570110343535 0 0
-185.509013360631 -35.5893204631781 -15.0945085086169 0 0
-93.7302422756974 0.90521907267234 -6.32938461397212 0 0
-191.185924815329 -5.79139101711697 14.4159920026311 0 0
-130.414185232496 8.41452964429987 6.98625159445402 0 0
-183.077875747123 -33.6959988927342 -15.0370022277508 0 0
-55.9683283565937 -16.3062889436829 19.0061865209708 0 0
-8.41912695077535 -19.045278025289 2.06070695398909 0 0
-149.163259485816 -13.4583350743324 9.63661114157513 0 0
-100.464989674434 -0.347131768898382 -8.6585863092143 0 0
-150.80073658031 -22.5687410565554 1.2688392831425 0 0
-209.349974453199 -32.1140575505719 -23.2596704141508 0 0
-211.462231293054 37.0850694319951 -8.77203542037751 0 0
-153.957885805188 -3.40219173527355 -21.1792446748643 0 0
-159.697361485247 19.9681349076957 -18.7713713550115 0 0
-167.046161610615 -26.5703851871984 -12.090823338051 0 0
-51.5559366616619 -21.7780054856359 2.33211737551253 0 0
-240.160335318843 6.45189408934584 10.8235692573146 0 0
-72.2369870903434 -15.2972179279611 18.2379734000119 0 0
-6.75563655736332 3.64785286668604 18.6902987807911 0 0
-177.605279882484 2.55509192179628 -28.8605886372406 0 0
-171.606720876409 11.4151357867405 8.85953554302449 0 0
-160.326131028765 4.84773179766062 13.5462315702929 0 0
-211.478341102375 -23.933028558435 6.3518592396413 0 0
-141.667135037533 3.03599550290444 -15.4422748619447 0 0
-137.459604837362 3.71680380508751 13.5913541438088 0 0
-168.37304802072 20.2249117599506 -5.06119764398072 0 0
-147.285179236514 -15.4362347971407 8.578851529509 0 0
-73.7538316281593 -12.8026647509981 19.2202010796757 0 0
-184.414734048436 6.46892992272203 -28.4599550946877 0 0
-175.063658025649 8.07174641411859 13.8615628759048 0 0
-215.44337053491 -9.31257656910829 -16.5560119731068 0 0
-223.945796940363 2.87223552163917 3.42781307872959 0 0
-227.714555507755 10.8772001249622 -5.29422737921712 0 0
-210.854658086315 41.7353003456649 -4.19693050886717 0 0
-37.4814172743315 -9.21503492109804 -6.55196566104309 0 0
-29.810099016845 -3.35633916849299 21.2755646196035 0 0
-220.320736896731 -9.41292096905722 2.3400704635449 0 0
-197.37924222031 -13.1265327200836 -34.0450396460656 0 0
-247.601109634642 24.2161977342914 18.117540668774 0 0
-12.8157122068475 -19.9688667041552 17.8429045217494 0 0
-238.185769682293 41.8154859270709 -6.93427331065622 0 0
-137.699174381266 10.2846252164891 -1.02748477048981 0 0
-248.596976766769 20.5557782906857 14.0137196788451 0 0
-29.8649370409063 -12.1089987626001 21.5759660309661 0 0
-196.737158894398 7.5657520772628 16.2829465523269 0 0
-101.601021543871 -10.7952657021723 -13.913416328281 0 0
-175.80485152214 -6.61868656483083 12.554960411955 0 0
-206.305858957143 -29.4121485099553 -0.545323165831656 0 0
-48.475114623124 -21.9547076023246 3.03772563488137 0 0
-205.159430132039 -5.43422404308965 15.1448516770341 0 0
-160.447166067355 -14.0721200928017 8.91341066022382 0 0
-185.69049139268 12.982630471841 -15.8768086420339 0 0
-239.090053500775 46.1606315632592 6.12598098375329 0 0
-174.858035179602 23.5586890291894 -17.4190747633586 0 0
-218.775741063804 -10.1779385154131 -31.579302294047 0 0
-7.17148876932728 6.66897968823598 12.8117333836443 0 0
-143.026240562772 -23.0312802917405 -1.7077035022856 0 0
-198.337824753532 -3.63933637813461 -34.1192553787028 0 0
-208.16673341242 -4.29481864887657 -13.3115838600578 0 0
-34.0342970560284 0.990194892080159 19.2323310501183 0 0
-204.740387203038 10.3257406347281 -12.6418835616401 0 0
-28.4928663406478 -7.03655779336507 22.0626002174061 0 0
-150.407966746796 -6.57799142090322 -21.1070606685057 0 0
-186.197150698324 11.8807327798334 -17.4499721776929 0 0
-206.999597064056 -8.53416848805678 -33.5498405891034 0 0
-199.06171263809 -29.9843334152295 2.68749730047359 0 0
-44.1994434171061 -20.263136242246 0.872369715295333 0 0
-208.487419445005 -24.9589688560665 4.50469907121284 0 0
-42.7591293495407 -13.7069892948325 20.7249268112426 0 0
-101.793190451224 -4.37090535420909 17.6771192225233 0 0
-211.221273199587 -33.280027887823 -3.77852661314288 0 0
-172.200758989247 24.7617573870072 -9.04626742371809 0 0
-214.642194969815 -3.52256675265554 -22.396968368202 0 0
-176.58390727477 19.4260199255482 -18.6042453139296 0 0
-70.7825022708971 -23.3968237660037 5.85198211178146 0 0
-38.2502431816221 6.34626464956482 13.2949156035056 0 0
-216.931031054963 10.0543365660044 24.1030133582557 0 0
-84.0422911270688 -3.01812405566592 -9.00334386245446 0 0
-201.594219735303 22.9961766801945 16.2426548057533 0 0
-213.70832791348 -33.3878029982865 -17.2817742925738 0 0
-212.046951764715 -9.62855758299683 -15.8030345860482 0 0
-206.011994297717 -16.8317536797652 -32.9732706751231 0 0
-64.2808114839955 -19.8053425177354 15.957573513001 0 0
-177.363325367173 16.1304213301584 -22.0723209065476 0 0
-152.104599023232 -1.80003358500435 -20.3493779015326 0 0
-238.617622900465 13.1638549400711 -8.57540925973237 0 0
-211.371034303603 37.917435201859 23.8940480504647 0 0
-228.15867402944 20.1094233546629 31.3976968989269 0 0
-55.9267056641233 -4.39917390504075 20.4563950875234 0 0
-166.196258954144 24.2911475050529 -19.0831359665427 0 0
-119.600105606715 -19.5036402642647 7.99776004587059 0 0
-197.737899071381 -21.8719425879227 -31.2137952849493 0 0
-223.564318434748 39.1490211857202 -13.0918261327832 0 0
-89.1213416755821 -23.0616907473035 4.50775055318575 0 0
-163.235180013165 4.61664888014073 -23.3435340310517 0 0
-137.628318566386 -4.86572077685326 14.8731825744173 0 0
-199.66375112755 -16.9143488926856 -33.1256315099507 0 0
-156.855824163764 -2.82716540688669 -21.9816209960982 0 0
-190.715480087368 6.69600211783273 15.4011714785625 0 0
-221.324319608499 0.413020318638183 16.7588377786659 0 0
-216.006366461023 1.31879983770529 -8.02093819913789 0 0
-4.77258747989361 -8.90717917635945 -5.27889535667312 1 0
-218.485180820672 -28.7615162201086 -22.1186905158362 0 0
-226.756852731729 -8.85845119740357 -22.3851402909925 0 0
-170.780600357145 3.97341678479149 -26.3077175370452 0 0
-82.5148256833937 0.665085853252345 17.0894994902756 0 0
-193.507131468427 23.4841045787213 -0.942600216474583 0 0
-196.440045948898 -9.56648507846547 14.6438348626082 0 0
-40.0755992080093 0.607864972268732 19.07592451074 0 0
-88.6542598233376 1.04869914041213 -5.61852349815891 0 0
-206.11566256753 31.8649822283286 2.32592613257938 0 0
-176.931047712804 -0.263090015468603 -28.9803630922363 0 0
-64.7200164816513 -17.0019501038446 -5.28102846668504 0 0
-178.566943067558 20.4441543709029 -12.8189186109036 0 0
-208.793755726836 -26.3791644916325 1.82586699888831 0 0
-169.457317608862 26.0830264249757 -15.4189168082224 0 0
-160.509825365264 -15.976196386328 7.79186674789506 0 0
-111.943094678903 4.61443363171056 -6.20300747860292 0 0
-72.6961443060313 5.87304138048096 1.71034818409102 0 0
-216.578260277993 -20.4692971214576 6.69093107000283 0 0
-229.443576165196 8.51556733337626 -2.60007278539613 0 0
-144.309036255325 10.2946985209121 3.88186708914268 0 0
-54.0414303847261 -2.15794074329145 19.7725910435626 0 0
-196.388245716084 24.7474412476756 1.41266452746003 0 0
-188.532933657568 18.5444893446542 -8.03876455329639 0 0
-220.729093620529 19.9017036517714 30.8869082740375 0 0
-179.40427022587 -9.91224773795298 -29.947542901137 0 0
-250.237797403445 28.5226408609848 7.74111731697455 0 1
-65.1025513525342 4.90452492113904 14.684762345 0 0
-244.119735709895 11.4209043612766 0.976361473040816 0 0
-158.406673124715 -12.6054692567476 -23.8058973102277 0 0
-196.798795530071 5.2984993403231 -27.3867051758941 0 0
-213.332083271352 19.958993281371 27.4061094937447 0 0
-177.406493809627 -20.0103172562829 -28.4044231168706 0 0
-51.9678991276764 -1.6465446018125 -6.77104060183006 0 0
-144.593301843137 -12.7796610342155 -20.4611706472373 0 0
-46.6468813551772 -0.155128028052145 -5.28266657499117 0 0
-209.330866732675 40.9021607195819 1.1921509182505 0 0
-89.968805999962 -13.3080134010873 -12.4312188350855 0 0
-56.6027709184594 6.86034302341777 5.5390070966868 0 0
-196.212665178164 5.44075319012952 -24.4585013463428 0 0
-157.302089428852 15.2688859752342 -5.59441074772918 0 0
-209.971091505628 8.19757451115476 -12.0019102650568 0 0
-99.1067429981647 1.12932894635177 15.9617512429396 0 0
-15.8434035357974 -1.84181886808343 -7.22944036280802 0 0
-225.999034677026 -6.49890985551739 -22.3790685502455 0 0
-119.845989112042 3.19496094898586 -9.69950684169976 0 0
-175.158077075902 9.59701995690909 -25.5792670893982 0 0
-204.402002067822 30.9002538477483 6.31946047833555 0 0
-199.612684925529 -24.9750915191671 -28.6774124028119 0 0
-186.177795574718 -35.8571858171236 -17.688279898212 0 0
-239.692660779193 45.8546754702164 0.353553196035178 0 0
-165.944506534171 -11.8059730955554 10.1380783041499 0 0
-33.8719406492146 -4.85140928832769 21.5829968169884 0 0
-57.288065189521 -6.37012799475275 20.755208048574 0 0
-184.207991111949 -31.2547829815939 -21.8618909588025 0 0
-5.07073026845556 -1.17857967430025 21.5271562328354 0 0
-47.5121707779008 -16.6943505200086 -2.83717263144346 0 0
-193.030569757343 -16.4736037628537 -33.0460268298752 0 0
-28.8242331559412 -15.7453865619387 -1.82237968058316 0 0
-211.081087242333 -17.1778643747736 12.4099274286259 0 0
-211.821597842271 45.8501407611574 14.9272673653795 0 0
-233.18632158332 46.267991738446 18.5746171275673 0 0
-157.857254405739 13.4746698687506 -0.252690496332229 0 0
-220.485999975209 -12.0644022983062 -3.5057716709678 0 0
-150.403421580799 12.7953605114235 -13.3209975327095 0 0
-195.928467620189 9.55548612726894 15.5843140836927 0 0
-13.8339237483686 -18.0562412062993 19.3981317108151 0 0
-126.576938713086 -17.2478420774287 -15.1538298833618 0 0
-224.894396881223 -24.4743542021894 -21.9225802886067 0 0
-217.82528969249 -10.0158998775272 8.3616075071202 0 0
-112.952139865303 -20.8061313165596 7.22550699202838 0 0
-170.043862341837 -1.77489997410396 13.7354513341729 0 0
-216.055983097124 42.8040535157522 24.1185762152992 0 0
-226.689879569038 1.49371915814905 14.290414936411 0 0
-43.029402745397 -19.7328759009618 17.4633239652964 0 0
-220.17544127552 34.347812464265 -14.595457526067 0 0
-198.845814074103 23.9203133731481 -3.26633348967618 0 0
-151.781023247026 -13.8301276098673 -21.4544463629294 0 0
-213.582016812067 -20.5560965363636 -30.9371987221542 0 0
-169.08215327399 -23.1651651385695 2.93719276214791 0 0
-98.8301713561672 0.599373074771498 -7.51215559375844 0 0
-101.653919261927 8.24828359367453 5.58751499796113 0 0
-91.562237222093 -10.1584403446048 -12.9030255516309 0 0
-118.366407296112 -22.3740240989103 -7.91648313575793 0 0
-163.828873075493 3.23235504442134 14.3593483795441 0 0
-180.007702613817 -7.42234260731196 13.4527770812783 0 0
-235.714462001258 28.008283699459 30.3264901697122 0 0
-126.586970189422 -17.0944557236626 9.67736494891323 0 0
-220.598532435681 -2.6761383293804 -20.9937865838204 0 0
-209.132538059797 5.22882702077442 19.750544926339 0 0
-182.946100769332 -17.646161086601 7.21734552222908 0 0
-193.688499353563 9.28457461322335 -16.0508317915926 0 0
-2.12970977581613 -9.15093291959875 -5.10378326269229 1 0
-125.509116370958 2.37892288208625 -11.1073143875361 0 0
-26.7295629629625 5.539279954942 3.41410085698594 0 0
-176.773578731646 -5.44544352393045 13.6234409500692 0 0
-181.447237323738 -11.8976790485425 -30.6514850984601 0 0
-214.478369709897 12.1556375174924 -10.3219208829034 0 0
-38.7753495761491 5.84454230269792 4.03361750285311 0 0
-188.115447087373 -28.7171095748756 4.21838157381092 0 0
-104.148809783065 -7.68387814135059 -12.9430760082411 0 0
-58.2346667966025 -6.51021575986346 -8.69038629755014 0 0
-21.7674553520763 -10.2059780578469 -4.75220169973645 0 0
-225.302360302753 -26.0003675481327 -17.8145942710765 0 0
-64.8573679805846 -1.52995805275514 -6.90294814605913 0 0
-65.8370549205068 7.21243935808375 5.62738984090627 0 0
-178.661300617396 -25.9669012018534 2.7342299661698 0 0
-224.799570332306 44.2247394766213 25.4007992362596 0 0
-207.321167791413 33.5390188614045 -1.29029921537776 0 0
-183.326051404214 12.0171756558407 -23.7984329585145 0 0
-149.126518065364 2.28194946399465 13.5249517774101 0 0
-220.603597420967 0.827187130951423 0.953211858603651 0 0
-103.412452890754 6.70030571723581 -0.527323653608892 0 0
-38.5875550883238 -1.55742685264814 -6.4743947461458 0 0
-119.432119503988 -19.6871092450095 -12.1720487324614 0 0
-22.5616027230179 -16.0383222612642 20.4263659245202 0 0
-192.016089718409 -13.6671164482367 -33.4613448238897 0 0
-206.371098727703 -2.82470776177809 15.9094420281759 0 0
-93.4781349435605 5.71084385449129 11.9057743136667 0 0
-212.778298194881 22.77182673115 26.8550385426068 0 0
-132.554954649017 8.94714819232007 -5.22481706198643 0 0
-189.505593233702 11.2895794349487 -15.6280582580792 0 0
-42.3054263520193 1.70149765226582 18.2677741647924 0 0
-207.369292119163 -21.7023460266942 -31.0428611693313 0 0
-103.698632098589 -22.5934062809634 -4.21285616018291 0 0
-159.650916718497 2.12942496117919 13.7118827933355 0 0
-52.8369896799797 3.40536218248992 -0.973622969243584 0 0
-172.850474441803 -28.7989631587282 -12.1477632056454 0 0
-198.98884065816 -35.5574339016202 -8.6156319062403 0 0
-36.1454563007333 -14.2751411107898 20.7842736756825 0 0
-18.7611335775868 -12.6579987676091 21.6502249909702 0 0
-157.14510258772 -24.375675917957 -10.0801817969119 0 0
-193.19101856674 -33.964156070173 -0.986694471549896 0 0
-112.872376658579 0.706261293863361 15.1538128051244 0 0
-21.2320460926474 4.16934722632287 0.0832498616263233 0 0
-220.460605359198 -8.67568282699096 -1.47550916937299 0 0
-227.285635611179 26.3664090013372 -16.6741649074349 0 0
-110.646522774298 -0.519713573557591 16.1327668540411 0 0
-206.366022431519 36.1398689920094 12.9551935854526 0 0
-10.0490801206287 3.81177460349768 -0.628630793711815 0 0
-249.645839046179 26.1487827567891 1.9634669685478 0 0
-102.077522693905 3.15921669434177 14.2226990906869 0 0
-8.78857169076327 -23.2422566426118 8.3362007976972 0 0
-160.777565543981 -17.4880459205747 -23.7130858347161 0 0
-204.517943678644 27.9475601430254 16.5487139347283 0 0
-214.602273238804 -7.04551472507529 -19.7851804568738 0 0
-211.788618287436 -33.932911563852 -12.6816794826284 0 0
-208.647975214341 2.2717061864827 -12.9449407399665 0 0
-156.469199417511 13.5186809304422 -1.86126690831995 0 0
-159.704021240108 11.4448986486818 4.7104344197162 0 0
-176.999464907509 -17.9390633213916 6.96542666761679 0 0
-208.324327102208 37.1241144515874 -0.173438689868236 0 0
-234.129983343275 48.2832705001325 5.56541506679369 0 0
-132.822323651059 -20.9169045203166 -12.1916387629577 0 0
-147.449074191481 4.64821606067747 12.6077841958613 0 0
-235.676987196178 36.9795259530275 -12.1313911606651 0 0
-96.1694598121918 -0.0223114696286312 -7.67060364348744 0 0
-31.0983121983931 3.32383617529076 -1.39251494947356 0 0
-215.803264109344 18.1826990874784 -12.2066295786882 0 0
-229.509095268356 2.30731560581462 9.12705784849561 0 0
-203.210209638887 -36.0649539016277 -18.6032200221921 0 0
-212.468870500152 29.2908474952193 -11.8760645564817 0 0
-227.551481275606 -9.67397036768754 -20.0862458406019 0 0
-217.439928326606 -3.8828961450846 -6.85873002317628 0 0
-163.630048985912 -18.1576065262754 -24.8648093406421 0 0
-111.64347586506 -22.7747292882586 -0.0368487121363557 0 0
-207.230860525487 10.9201494161817 20.0670583548084 0 0
-205.217632580102 -28.0303340789717 2.29908241077737 0 0
-247.299046579313 36.2402848531067 14.1538306053194 0 0
-158.374855893724 -13.4662025694444 9.24395367176846 0 0
-162.903454499348 13.7020670647837 1.69194908289349 0 0
-211.727737134757 -28.4766176802335 -26.2220871163218 0 0
-143.680871964569 -14.174648066292 9.66520491227277 0 0
-48.4697153473596 -21.1389601210838 15.6622022956941 0 0
-87.3350638573055 -16.3280755739399 15.816538856568 0 0
-162.064171898663 23.8338176864548 -15.3604187010483 0 0
-240.150200582169 40.744388681313 20.5404882263199 0 0
-203.860914020852 -0.679554213540285 -17.9392488395156 0 0
-200.591975521127 23.317765498866 -4.95193841819858 0 0
-207.188864020032 -8.06922528179632 -16.4942266206644 0 0
-15.5244391073253 -20.7062559645776 3.4387149890485 0 0
-182.776128440195 -31.3762426798398 0.569447410176796 0 0
-155.53344620003 -15.2030487061286 8.27887911718049 0 0
-224.834212952253 10.792321269384 -5.16580552439087 0 0
-181.695091690043 18.6710161438281 3.747202203215 0 0
-120.908397150145 -17.8409551615649 9.75523898515149 0 0
-242.616940132222 19.8990006264928 24.41792766802 0 0
-19.7546322773873 -14.8420443339257 -1.83804308365464 0 0
-213.645238804724 48.0517152545865 11.099381876312 0 0
-84.3303653240659 -16.5462874048189 16.1582178502827 0 0
-249.616308579139 31.9922730801396 9.93482752715974 0 0
-147.071121838804 -9.05469167209978 -20.9102650251317 0 0
-89.5433598868057 -0.0933434313391808 17.2926188428066 0 0
-146.957203078149 -20.1141364151006 -16.0427942625419 0 0
-191.709683306986 -31.2594252338214 3.55394252071887 0 0
-139.802567073531 1.40283062337196 -15.6401228317337 0 0
-5.17763839451739 5.94889495879309 15.1688659161447 0 0
-83.1613909542202 -6.51831123249442 19.1441376447468 0 0
-237.33803296023 43.0341056251449 16.0488751209565 0 0
-178.263500431727 -19.7957316055317 6.17904664780196 0 0
-204.10865412789 25.9429295655926 17.5809529321722 0 0
-146.775434045445 -23.6882714762519 -7.30047794021313 0 0
-89.1074332085193 -10.8422501561484 -12.714182760187 0 0
-178.137939359464 4.86924607968699 -28.2901693802427 0 0
-121.671120133933 5.0637526441682 -8.0382603818051 0 0
-142.873367470516 -3.76203939057221 -18.2064034068813 0 0
-190.690198876934 -21.9800752268744 -31.1758963272816 0 0
-213.077147650888 -6.76148032062657 -32.4089910623803 0 0
-193.542783766094 -6.4680789311728 14.5035856534478 0 0
-44.078404364941 3.40350911957593 -0.858471694928267 0 0
-49.5743163229739 -23.3293802947708 10.6796154227808 0 0
-214.557409042724 -27.8508613693113 -25.6361561163705 0 0
-39.8096719632324 -6.56636465959866 -7.73490500063429 0 0
-132.515041142936 9.67573386127053 -0.454095753647353 0 0
-218.630410508224 9.0290226704417 23.9284543722346 0 0
-212.188943246487 -15.2462016236709 11.9378819173187 0 0
-187.556580407166 -16.6927899388956 8.00019153018048 0 0
-199.314319295671 -28.7538223988287 -25.5011908328894 0 0
-127.527085499275 -11.7431588323493 -17.7325034708937 0 0
-189.927551201568 8.38451052098623 -22.5773664636537 0 0
-124.33830596296 5.28538245361401 12.226692895585 0 0
-232.255635649336 12.392323934897 -8.53387340648584 0 0
-239.637733704257 42.6923659470435 16.7051633385807 0 0
-69.148454951929 -11.3352688816941 19.8745570792365 0 0
-185.594793973457 -11.9194970915221 10.4648521819628 0 0
-119.054962623205 -7.08939437734548 15.7551348575573 0 0
-196.42752934833 -2.64289370663028 14.6973432959515 0 0
-113.326811419969 7.04000731823579 -2.12301352670666 0 0
-216.257731452249 -9.35861437121668 -13.9538025553254 0 0
-115.063808663973 -8.55932895622934 -14.6231924697714 0 0
-105.045045162751 -22.7571087741063 -0.651218482993438 0 0
-205.835783498611 7.83407125108023 19.740938052809 0 0
-231.193502321293 46.9983851596435 15.6744704054936 0 0
-141.725971928508 10.0372698137437 -7.56257330820315 0 0
-226.772387748816 39.6079720631011 -13.0200851021154 0 0
-118.42232540918 -22.8476526460957 -4.8714311203736 0 0
-218.26920232726 -1.2482387171622 -26.447923825869 0 0
-164.720046598519 -22.543417990898 -18.9130981544462 0 0
-224.322255276027 12.2287834171115 -6.33899580378466 0 0
-206.647619673274 2.63903824032982 17.9144734104524 0 0
-87.9110340085249 -14.6884974405763 -11.793356909496 0 0
-96.5227390921026 6.35203072236147 -0.268464871009388 0 0
-47.2519840757829 -22.781506864573 12.9164087762673 0 0
-88.2286223865305 -8.01655517895349 18.8142967324575 0 0
-245.136543244776 41.4165753961554 3.10957338066209 0 0
-195.59432707758 -32.9500236776831 -1.85662226185151 0 0
-192.368591628538 -23.3462441780805 5.56335339193095 0 0
-224.139211200104 -5.90470068493415 -18.7205735035337 0 0
-249.923136670512 23.7283765573053 4.76945448674865 0 0
-202.866105856225 -4.6351443826366 15.1863988425597 0 0
-181.527494297951 18.3827414389321 -11.3790815591117 0 0
-220.166884344301 6.38655219865416 -3.96635696786916 0 0
-201.106773084493 7.08131643370176 17.3240866456706 0 0
-106.02060899128 -16.5276587275232 12.9046013193946 0 0
-188.383128265556 17.0790046675999 -9.65455058350249 0 0
-194.982055447446 5.64373198443587 15.804485445341 0 0
-71.5369395439931 -17.4735065624146 -6.25422156121714 0 0
-228.476225785672 37.4959049714464 -14.0486860855535 0 0
-132.122990382294 4.97848121540416 12.617052498691 0 0
-157.62609693676 12.3141964342269 -19.9418508781645 0 0
-164.574269834742 -3.97758158766447 12.2402166014666 0 0
-41.4458654051139 -22.689894371982 5.43543612301511 0 0
-150.555277658115 12.3816672236854 -3.63120800893281 0 0
-27.5710296299381 6.81714264993954 11.5554179210339 0 0
-182.771225559364 -20.3861136955656 -30.022723677285 0 0
-224.379509318689 1.00138129566981 11.0952972759006 0 0
-177.378288331301 19.1367440494122 -17.2125913373629 0 0
-182.946331927536 13.6342123538681 -18.2249222528076 0 0
-167.120425324751 12.3234422599895 6.36625941468956 0 0
-176.054981208264 15.5276764577036 -23.0313105927286 0 0
-171.779929577934 -23.1289647036494 3.40467259493809 0 0
-156.662972580387 11.041105085796 4.58391192059818 0 0
-160.348849895522 -7.39076566180741 -23.8382408867181 0 0
-33.1433079264297 -7.96382704988366 21.9080005844897 0 0
-67.5869422400024 -5.20717507108235 -9.02512116707578 0 0
-79.211265613931 -5.09465778325939 -9.64114840957234 0 0
-125.832433411243 -22.5867062323263 0.749643748962267 0 0
-173.793697072061 16.3396338301412 2.91696605015495 0 0
-209.647283497338 -15.2935113429942 13.3761817109074 0 0
-153.645393081394 9.73341412845675 7.14401523997971 0 0
-134.176653969164 -21.7130617548099 2.78215172426486 0 0
-78.7524719608518 -20.4205783708348 -4.10060394650089 0 0
-130.76534047478 5.92046891569729 -9.97673655401315 0 0
-18.3900051047589 -22.3343714726726 5.55673216721944 0 0
-100.516919225761 -18.8189709325831 11.8071794877691 0 0
-106.597282769329 3.21983239122996 13.9973363179038 0 0
-221.861181561374 -14.6933278842383 -11.287248534847 0 0
-172.46945262613 -10.8411439235731 10.2955499044725 0 0
-149.574231028701 -1.72041443563194 -19.5780589993222 0 0
-36.811258588995 -17.2839233666458 -1.26504297730763 0 0
-45.218735076866 5.06761140701838 2.07506030380532 0 0
-184.817209615322 -21.4538640028183 -30.4737657999508 0 0
-249.231122629296 33.8514618355568 7.05542378915941 0 0
-65.5846799438845 -21.3112857316033 13.8903587376871 0 0
-207.432388932432 -23.2436819940384 8.18794471200736 0 0
-220.549760721196 5.39893382687799 -2.79329939003125 0 0
-99.1767376121548 4.29999757322491 -3.70215673319579 0 0
-208.2518368958 43.3863505435428 10.75732973976 0 0
-174.05391923089 -25.2527947299475 -20.6996046202122 0 0
-64.5128360899234 -23.4709962216187 7.12769655484817 0 0
-181.385004248444 -32.8779809203358 -14.1216140824715 0 0
-150.165757320908 -23.8078702863444 -8.1527996910359 0 0
-180.0503246091 20.243099021324 -9.71327249740328 0 0
-214.038138607735 -18.0781768767325 -31.8674452154575 0 0
-179.474375932339 -9.57808489607115 11.2564502617449 0 0
-226.385282875682 16.7833541808776 -11.9727673673681 0 0
-6.88224993035248 4.78509365403431 1.64534505986066 0 0
-216.919537330785 -28.2032800376334 -23.9543748433323 0 0
-220.538955154629 -13.8078933043159 -30.1014266642693 0 0
-12.147777692996 6.90124437252583 11.6299948248414 0 0
-162.491087141195 -13.5394474362737 -24.7674743870213 0 0
-217.83081647956 19.6643984719208 29.9120625139644 0 0
-45.8862848409825 -18.9420668139741 -0.830414931973876 0 0
-236.02878302685 3.84352429082069 6.87987582850145 0 0
-243.646562626203 15.5397694860913 21.0111764408056 0 0
-29.9863597936807 -21.7064523694466 4.27342854163456 0 0
-78.8532899608174 -8.89775968865868 19.4509879923698 0 0
-4.36784105598491 -22.9223161156782 7.56858148238913 1 0
-68.514349867589 -19.8825363907294 -3.01715638366039 0 0
-102.344215766263 -12.3891537943579 15.8723218524137 0 0
-119.713959267879 -4.95819279566716 -13.8330589783485 0 0
-97.9861620825297 -1.8822648929139 -9.686235860741 0 0
-159.860769336633 15.4244321637729 -20.7438304227204 0 0
-198.556784892276 25.1118374092443 -0.274532699819506 0 0
-225.31672449999 -5.32033357696066 -20.1996328281432 0 0
-212.445995885269 15.6915734962052 24.0246250290479 0 0
-174.214645862537 10.9606328942473 -24.9120472270831 0 0
-162.780454588248 16.7339253016342 -21.852869919449 0 0
-184.737078576331 11.1617952686923 -24.4816910075573 0 0
-3.50450308145585 -1.50285133988299 -6.72915521419869 1 0
-51.5666917805747 -7.54256511280534 -8.7820828022386 0 0
-109.580175891711 1.31788744362046 15.0789108708241 0 0
-77.4123682791499 -23.2858928991563 6.65565425857526 0 0
-24.988886021456 -23.2505756657052 12.531629996012 0 0
-41.3923177084131 1.78731976181474 -3.25467922660861 0 0
-197.972022173918 -22.7262658483681 6.43497811507513 0 0
-198.146713512411 -1.79210294979039 14.8392647902511 0 0
-226.039151785641 36.2955539286632 -14.595248832695 0 0
-217.418871525538 -17.9698105722122 6.78122670529079 0 0
-161.755169842859 -24.4027203766255 -13.5278312828867 0 0
-216.76824077604 -20.29133565301 -30.5206862820318 0 0
-206.547665948332 14.6144577740677 -11.5616045648817 0 0
-182.197149983658 -14.7225101248283 -30.6114377684834 0 0
-218.723782666192 -31.1315451627507 -4.57767126625848 0 0
-190.943449528432 4.77439062555967 15.260671956836 0 0
-13.0262100308408 -8.73087573779205 -5.23817420800846 0 0
-224.204779390292 -12.5893398243274 -15.652844959263 0 0
-17.6776535401328 -19.3493809899105 18.5059609301428 0 0
-91.3412626890181 -23.0168416514293 1.22185631276754 0 0
-219.328378559684 -4.8548571093459 5.34791531504362 0 0
-76.1081650683393 0.754832832245962 17.3694462027133 0 0
-225.256103479994 -26.7669351957921 -14.8673716409294 0 0
-195.928637975558 -22.1715686852721 6.1989153611436 0 0
-175.179995052634 20.5921588412863 -20.2675745136232 0 0
-55.2309426980447 -5.63839756894143 -8.35482412537337 0 0
-203.088472743563 -22.4824038206534 -30.8483377038724 0 0
-192.850607891172 5.77505390184111 -29.0310100242957 0 0
-71.4824423260989 -10.4759716183869 -10.363265315377 0 0
-169.89472637719 8.2654478717366 13.2686806718789 0 0
-145.811613779849 -21.734994023461 -12.6806544253022 0 0
-138.594615237419 -18.6875738003018 -16.0726202489354 0 0
-235.695103032063 43.1680283907815 -7.45380844981625 0 0
-210.777499594875 -0.385829180216426 17.9418790195228 0 0
-229.84855487889 40.7316624535957 -11.9075210679788 0 0
-232.975031620522 30.2003226280627 -15.2569968902548 0 0
-150.284401641014 -5.4217054320917 13.5794952351002 0 0
-172.836069874759 18.3478598244709 -22.5585247260573 0 0
-209.561956935314 -14.9671460988528 -33.0906341445332 0 0
-206.934243592988 -6.52938548275205 15.070769609736 0 0
-149.860462492695 -18.9458496651999 5.90743464854405 0 0
-106.548481505063 -19.3794014617647 -11.0433396979603 0 0
-239.663050047632 9.05203247497069 -3.23760742524409 0 0
-239.237982100445 44.0689911627463 12.2583737547572 0 0
-96.6118862513108 -6.31130341317883 18.0900442770018 0 0
-73.1131249860924 3.89716351765941 15.2306150780433 0 0
-168.434718587806 -16.014221880299 7.95647752319043 0 0
-7.72004445572011 -21.2380538222207 16.2591418179984 0 0
-238.081570383464 6.27707202423125 0.523813421514656 0 0
-170.384810292464 -25.4154526106599 -17.9958659036596 0 0
-244.011871829512 17.2279183416851 -5.78661958695591 0 0
-212.472697471581 13.5670731311856 23.2741842377587 0 0
-211.517472030843 -1.77570462601968 -29.6010551245145 0 0
-81.5629206956167 -19.0363594938056 14.5377989536944 0 0
-197.188650180132 -29.0948077257045 -25.4385754004308 0 0
-235.019806733172 24.9326306232477 30.6369882466352 0 0
-246.502566556237 33.9132084148164 18.5118096123798 0 0
-39.246679343629 -4.08599370636049 -7.2227865865677 0 0
-48.8861724420066 4.10459211344159 0.243267856938387 0 0
-186.84720626017 0.0925817832509287 14.6790510519994 0 0
-244.384074691832 39.4329885852836 -2.13356697748766 0 0
-7.95906375396122 1.49351683626402 -4.45224405924767 0 0
-124.368576611259 -21.8337007153224 3.19206424487377 0 0
-163.366474180984 8.68377558400062 -22.9552221318858 0 0
-211.38776603643 -25.1322901980747 3.41032466555738 0 0
-167.888676799646 -19.5953556657022 5.73229174506675 0 0
-154.451855955981 -1.15771191802243 13.3726608634236 0 0
-99.6480321055103 -4.10767417468757 -11.2509623915511 0 0
-207.620921514723 -7.36612034259969 -19.3008806063206 0 0
-241.160233441404 41.1972984350136 17.9900031854432 0 0
-170.812739447083 23.5928794346688 -20.5823396377615 0 0
-77.9836399404537 -15.670575577358 17.4493094344253 0 0
-102.95315793235 1.16656235642738 -7.80256887384529 0 0
-134.035484071279 -11.4460462892074 12.3814842335406 0 0
-177.843155179412 -3.94163405079137 14.7401460089739 0 0
-195.102471309632 5.40180980897885 -28.7686908651153 0 0
-184.558350074513 -23.1362156538229 -29.405826644666 0 0
-9.21468225245605 -10.149505581711 -4.23827547290838 0 0
-214.139766230985 -10.3566251301888 11.8524633278094 0 0
-62.8753999599898 -21.2959944458673 -0.166673727998701 0 0
-216.047393808642 8.6534481843669 -9.18856870536033 0 0
-170.507568030881 -7.439560912534 -27.2676664763322 0 0
-202.250864619705 -10.4753676831374 -34.2084390138815 0 0
-162.793751242655 -6.59844686191429 -24.5217735792852 0 0
-225.037945638396 -6.58000037791607 -24.9653588408462 0 0
-191.603884767477 11.2507623600943 -14.878286655001 0 0
-94.6402078591463 -9.55484264362207 -12.6718533532025 0 0
-87.9676890232881 1.9032866277761 15.9925161271052 0 0
-154.728429272846 -1.37525253310475 -21.0080449797305 0 0
-216.997683603574 1.94915532184361 19.6617970341045 0 0
-127.128462757711 -7.66733962075674 -15.8142270595958 0 0
-89.0047700775215 -1.63997976811361 -8.22786990955336 0 0
-171.712186888289 11.2636310074346 -24.9511084795154 0 0
-234.234083031435 35.1682718820715 29.1660536804505 0 0
-215.222032017832 45.6121133436858 20.1136904446255 0 0
-149.537060337025 9.48202968743128 -15.643313356004 0 0
-172.262446932543 -6.21933571892005 12.0557921054105 0 0
-217.859940728936 -5.89435753309823 -7.60774187013932 0 0
-183.990404622171 -28.9534463929504 3.16059734943552 0 0
-44.1364893732513 -17.9008819465048 18.7838429833039 0 0
-108.886036509205 -7.20932286298852 17.1336777033558 0 0
-142.479737556539 -11.50741125335 -20.5944291543332 0 0
-236.769743280536 30.8599930087831 -13.7364903339199 0 0
-32.0097635832035 -1.50768919700603 20.6034181659121 0 0
-138.64129385853 -22.8026376995929 -8.86062633527328 0 0
-133.989185956092 -0.63113794394362 14.9018641509358 0 0
-19.8862308851293 5.16497102670147 2.53181858404311 0 0
-211.302392025029 7.82103402505658 20.8111305023465 0 0
-71.5071452348768 7.63469928992094 7.56257731636536 0 0
-163.732319940113 6.65211750454412 -23.1698160141525 0 0
-147.539918825036 -11.7613538973817 10.941772755689 0 0
-0.950609779171685 -18.7279487985612 18.7029496826486 1 0
-190.83266552201 -29.8577344380107 -25.9239528688385 0 0
-155.338005084765 9.38301651255901 8.73958071695608 0 0
-79.8807858803711 -22.1043343048381 -1.40427412584283 0 0
-95.0509122702954 -22.9490069589565 0.939884915299046 0 0
-3.59596532317153 -19.8394423832947 2.93046720861068 1 0
-217.649183240569 3.72682021771973 -4.94470677288251 0 0
-159.720654897047 -18.8405950180261 -21.2746778716336 0 0
-207.544751250829 30.7509634164665 -3.9040426340201 0 0
-155.228316425628 12.9085791631982 -18.5867162243261 0 0
-41.5387971722654 -8.3808149070769 -7.37026625834087 0 0
-16.1532952688788 3.19817582984277 18.3967129136619 0 0
-167.906203850699 17.9199612604426 -2.31223048317917 0 0
-198.229644698618 16.2360897775196 -10.1250962888709 0 0
-154.083837828374 -3.96824152856516 13.2177109264918 0 0
-156.683659391585 -20.8390130966997 -18.0716480485725 0 0
-192.828592348426 15.9336129019189 13.3758105872227 0 0
-19.4763548256605 3.18193503563353 -1.82971069980113 0 0
-211.170250551804 40.4747483671168 -5.48276199235811 0 0
-235.400935974812 40.920896318135 24.8525078449658 0 0
-80.3163747667506 -2.80899730136114 -8.69777949670151 0 0
-12.3478719096487 5.45274886797405 3.24548389231652 0 0
-239.548218440972 19.9412297733889 -11.2397812181502 0 0
-185.07772856726 10.0140912918875 -26.0054203949265 0 0
-231.150678389332 19.7051542213991 -14.6758613055601 0 0
-86.1158944887759 5.98352222536802 0.403521268681994 0 0
-237.772108971057 18.979287110458 28.017983098239 0 0
-205.272093610474 -2.87668077547971 -17.3175528542292 0 0
-152.40491090951 4.2201690865759 12.7212525130887 0 0
-229.229520971552 10.2166956553961 25.9930529067867 0 0
-46.7952447383564 -8.73820524136251 -7.54253036655041 0 0
-198.847033062698 -35.8346006750841 -19.3692513452031 0 0
-174.885046614068 2.73422513298894 15.9332494073717 0 0
-184.100169489279 -26.4227108472766 3.74060554506746 0 0
-182.052472125554 -22.2437633983486 -29.1322744846902 0 0
-104.210146300461 -20.664185011356 -9.32996611213355 0 0
-185.278980762675 4.66496721167063 -29.5908778919971 0 0
-98.4080350308308 -22.1387233087584 -4.8512024563607 0 0
-67.8491422109042 -2.22587722037891 -7.77465260573236 0 0
-206.176884874355 -35.4365814366725 -19.1493114278613 0 0
-248.117956498725 36.1154823036875 3.0823074675738 0 0
-90.6276672127906 -8.03450247217086 -11.8605202908189 0 0
-219.316569959174 -0.729961758714693 15.7676594918226 0 0
-168.420611973567 24.1678017369585 -19.9905437841513 0 0
-167.811106583623 13.3341706418387 4.82804135431068 0 0
-214.818764161794 -21.6424010403983 7.73074218554292 0 0
-2.74329254079253 0.775166794640857 20.7147272124671 1 0
-134.821190501251 3.70440884983435 13.4457122361061 0 0
-247.437961344765 16.083047354696 2.40967619437522 0 0
-201.933334935893 26.6433731803426 -0.141273650535335 0 0
-10.1363790540896 -22.5299384550376 14.1462999095338 0 0
-122.584982565246 -13.766363396957 12.5533308482402 0 0
-111.182498413005 -16.3099760538472 -13.5441327318594 0 0
-176.033454749376 22.9983663391973 -11.9332006561331 0 0
-60.5726071646259 -2.91295475859574 19.6200529915293 0 0
-174.778730292094 -10.5709311683996 10.2629526253344 0 0
-181.264301578454 -23.6580244275796 4.42891981525517 0 0
-61.2122990307502 -17.3434367750449 18.1446478873219 0 0
-48.2508251586383 -14.0632276163438 -4.67046702664709 0 0
-240.58762478798 14.5563727420859 -7.68027419554756 0 0
-155.265664790065 15.6718093305287 -17.3887719037899 0 0
-151.506874294957 -0.700946960445715 13.6024153753841 0 0
-220.921273488634 -28.0819039349963 -1.84455232649653 0 0
-187.414861599655 -27.1439279943381 -27.1809275558617 0 0
-196.600103472644 -0.142103470043911 14.4997700702295 0 0
-215.251078952789 2.91507529177365 20.1677703911284 0 0
-224.966816339148 -25.5700915327101 -20.022872229399 0 0
-217.257894741117 -0.626716269153498 17.1602799229474 0 0
-219.493175078103 4.47289217475016 -3.70665943057245 0 0
-164.435053428613 11.0708552797491 7.60436638035188 0 0
-218.428428111074 45.6695465990757 -5.8924738722542 0 0
-208.483837066707 42.7504001947748 5.16830185965525 0 0
-95.5679639318627 -10.9410744555951 17.3326486375852 0 0
-10.1064814053055 -11.7814879379891 -3.08683207426356 0 0
-234.577852983228 42.816740375488 23.762122698986 0 0
-219.782884731955 -1.20497291334089 -0.482393351442377 0 0
-192.398774070892 2.76382550975341 14.8694097788332 0 0
-187.543536029372 10.1333845224153 -20.4614207384754 0 0
-224.547410249857 -15.7110566534407 -12.9527194420897 0 0
-40.5325310860794 6.43819589716191 5.95459590835394 0 0
-152.256210006713 10.2522594990849 5.35857041410872 0 0
-223.020592703402 49.798498576535 16.537203511763 0 0
-172.766018717627 14.6042234918525 3.85354764878744 0 0
-179.426058996277 1.2453920518252 15.6786516786926 0 0
-222.649975716468 -28.3148281738957 -6.74634886235955 0 0
-182.767821286065 -21.6112504909159 5.67264948189738 0 0
-154.239511354186 -12.8790526819304 -22.6622406017045 0 0
-70.9383762135181 -22.8510935116183 9.86133949237521 0 0
-141.857800728673 0.613872366400358 -16.7032065452183 0 0
-212.243112537829 3.45941776894916 19.7912769076639 0 0
-67.8275984726573 -23.2292896882206 8.80506893158759 0 0
-177.529559544679 -31.2769455849236 -8.98144739226789 0 0
-213.953009008799 40.7008854720557 -8.07578442026001 0 0
-170.466588459297 -23.7336645385814 -19.8931395858133 0 0
-204.202429489534 -14.8413716651609 15.0908792519167 0 0
-161.538909166576 -19.0260838642658 5.90270319077873 0 0
-134.931954013691 -23.2654527799931 -6.24576634101096 0 0
-202.730509461408 8.96405388185989 18.6540216755887 0 0
-207.829898513668 36.1309986082509 19.9659783787322 0 0
-176.084577823972 -21.5495256489087 -26.8391230734191 0 0
-185.766039274479 -24.8052460760874 4.6858743208681 0 0
-196.828176882726 5.31221405610732 -19.3639982843276 0 0
-69.7582360645687 0.0346611501255395 18.1399318454817 0 0
-110.087983128166 5.41799323611298 11.8720169248852 0 0
-205.685123051156 -3.63783072260972 -19.9628509546804 0 0
-126.946346118011 8.18312799676938 -4.24680963599976 0 0
-164.422951022423 -2.14984962743488 12.7954503134717 0 0
-168.020742282296 -5.51169200656769 -26.3732933984103 0 0
-86.6484057523281 -21.8309406175158 -2.96817378419879 0 0
-114.45239105744 8.22489137752576 6.83398707687521 0 0
-228.488134357503 2.86429433270167 5.85596095881348 0 0
-178.582489440375 -28.1004258343478 1.17615061286905 0 0
-173.124569407916 10.4952718572399 10.6664637245313 0 0
-15.382457751908 5.83455205245549 15.0711272691613 0 0
-196.90020900464 -17.9835007371715 9.0734175541835 0 0
-212.900269844473 17.309720105581 25.6243805324267 0 0
-128.545781467589 9.20636384639027 -0.696853440467581 0 0
-180.103244430598 -31.3708619875699 -16.469171166356 0 0
-212.795765140304 45.8080647628174 16.8686799608885 0 0
-44.1568798582665 -23.3309015462141 7.45773603018261 0 0
-10.8361183663514 -0.606780802582184 -6.53120291398815 0 0
-209.73937737555 41.8939528499278 18.6938749546811 0 0
-56.4054860008859 -11.1865114583996 20.8106178883331 0 0
-103.104863268555 -20.2069874492871 9.92128610627511 0 0
-13.6989877906557 6.11899803118341 5.46738826123752 0 0
-140.245675176086 -10.6551868391475 12.3292762001404 0 0
-148.408525205632 -13.4233386252648 -20.8865405546406 0 0
-178.887111987292 18.5918337808541 2.42463293892946 0 0
-154.124242914495 -15.3531678390013 -21.7073764803108 0 0
-225.278639409358 20.8081500217968 -14.0594855267937 0 0
-168.426311414392 24.4839087788162 -8.9574993582728 0 0
-169.06698045967 -10.3085221486426 -26.540459943854 0 0
-126.962036946974 3.79086898109541 13.5873114552565 0 0
-124.822239270916 6.78341715224659 -6.44369568405557 0 0
-213.195845490891 -22.9901114243005 7.36927323764634 0 0
-180.396992142358 -17.1474426597932 7.32874168376579 0 0
-194.723278186316 -17.8669357423104 8.70249952625319 0 0
-208.694805275655 41.8244534979502 16.0686708197781 0 0
-33.6827152826433 -23.4414827483985 9.20632147452759 0 0
-133.461767748258 -2.22374413593054 -15.3728248061966 0 0
-191.897910020084 13.0434453242659 -13.0961828734952 0 0
-136.0980791519 -6.44789580427949 14.5552901407818 0 0
-225.160667979629 4.56760588284266 1.43241604910999 0 0
-98.6288741481189 7.05849014130574 0.988017573178272 0 0
-222.887379829435 29.8008175854306 32.1051643745102 0 0
-10.3233557557312 -7.21983275514302 22.4854542970114 0 0
