"x" "y" "z" "f" "a"
175.273456020638 28.6059205351156 3.14318588828221 0 0
-38.0284256517102 14.9073105110004 -14.1344723674267 0 0
-60.3161004782237 -6.1371732638158 -1.86452161061482 0 0
89.8133424731112 7.2228025728051 -21.9113474364143 0 0
21.864233598705 -9.18153490236696 -15.9165648423434 0 0
179.164958487635 25.908202926553 -3.73719719517714 0 0
172.269551260617 -36.0827701585046 2.45126677643768 0 0
173.357225221424 30.0191982765028 5.85003104831032 0 0
97.5779228039617 -13.2444943843281 -0.557802148654799 0 0
-63.2341986540328 0.705112358085164 6.78701382669252 0 0
-7.01475466912528 -3.7996464230829 -0.131509313701193 0 0
145.242412958226 -20.7715369986543 11.0850494249311 0 0
166.512055310398 33.2408424091294 11.2650618019538 0 0
42.4914019700098 1.16858143556369 -21.875607958542 0 0
83.9077009456678 16.4272101730973 -11.6169989218792 0 0
32.6798894735039 13.6331570353101 -14.7295945986478 0 0
45.6093490627891 -7.42315547181789 -19.4656259346883 0 0
168.450767246707 -2.09552296463992 10.2466002557885 0 0
188.44032548325 -21.0752542542783 13.8453274475158 0 0
-5.83926325870977 10.2414946259811 -18.9666756092577 0 0
85.8475636231338 7.02702328674131 -21.9216662373187 0 0
124.698371489543 6.66169800791923 8.84839624093157 0 0
151.638862245508 27.2570541278256 -6.41600715729827 0 0
87.6119550213492 9.96486934620048 5.46503657357257 0 0
175.562920688357 -35.8314092577565 6.15575803372045 0 0
-40.977489972032 1.71116742994191 6.03017680902714 0 0
182.695099501378 -27.1224527559561 26.4922818281147 0 0
177.947297749961 -0.545735314066007 5.17311094118531 0 0
178.816234544093 30.1443541798948 11.6797016264097 0 0
105.03198235587 -4.92398322431189 4.64412257052711 0 0
16.2298569921863 -7.00405592340449 -18.5119978690409 0 0
144.688739803852 24.0963529690375 13.0256030383706 0 0
80.5849703721975 -15.1180890800935 -7.84822087061991 0 0
-62.7215193020493 -7.00477588269966 -6.44599448978522 0 0
95.6511671385872 17.4476276805526 -3.39142663318197 0 0
41.63870678746 2.86984454346941 6.01550240448395 0 0
178.209936254911 -13.3876902144221 24.4384716384809 0 0
68.4997359933547 -5.50958848364321 -20.9231112547017 0 0
144.049224440079 14.7866803239651 16.5804614624811 0 0
133.757636579369 20.9595732222601 5.18295656388149 0 0
150.941406777347 -29.5342495643808 -3.22334621849285 0 0
147.419409498929 -11.2129393923365 12.4157524956697 0 0
106.948193583396 11.4216166128855 7.53532363454802 0 0
151.254128605964 -33.1727255382988 8.01281933654591 0 0
172.798240715805 -35.5234179215805 24.696645807076 0 0
160.16275065867 0.680104587546701 -20.2893641238572 0 0
140.997952805473 23.0111451422828 -10.1196499499892 0 0
8.06027549690215 10.0858816209288 -19.3214392460553 0 0
155.727490272024 34.3435432676863 16.1331707439255 0 0
184.808651934596 -11.1029983715371 -3.61981381194159 0 0
138.709594006593 -17.2878926061653 9.4195517838144 0 0
-65.4657648770786 -4.76888365010331 0.735197027624985 0 0
-93.0828699969663 5.32313528302739 11.2745233322587 0 0
174.290192150849 -18.733482736567 -14.9548088503095 0 0
5.68848390457378 -7.76997756611722 -16.5969383021461 0 0
98.0877838477715 -7.72564714747916 -20.3664071292095 0 0
-20.5715610111828 -3.6203985208983 -0.140310165091465 0 0
125.133114509008 17.5913631626139 -17.4617556862648 0 0
12.7115795434308 -2.48898163587128 -20.8197100668548 0 0
179.065191750954 10.633151364616 13.7337114452084 0 0
-116.759746355809 8.91708948097475 -10.7205093787611 1 0
153.019509564695 -31.9062248122247 0.352681182684673 0 0
-24.6061775491318 15.8584605580965 -7.19140318321295 0 0
133.489618685372 -16.6810617399138 6.34072706981519 0 0
166.786690158113 -22.7776376278963 -14.7175174194763 0 0
163.857724446311 -1.68760953781687 -21.0466836145358 0 0
35.0470216876796 7.07495660305039 2.57501476443547 0 0
107.643220490766 15.398712088453 -17.352667780644 0 0
158.04491436884 22.794034947008 -22.7819892806692 0 0
157.042593877714 -10.7676953758031 16.0169494509795 0 0
84.0158117950705 -15.222828383022 -11.779618949874 0 0
122.428979306001 19.1553669024399 -13.4763140017301 0 0
135.04117992012 22.1183217399114 -8.12784702096912 0 0
-114.783558961938 -0.323713253334156 13.1779886409265 1 0
110.214090187701 7.39427681714845 -22.0665742578277 0 0
56.891028108961 -10.7846109169902 -5.17716218933064 0 0
15.6057770696519 12.496508865209 -17.1478612706538 0 0
75.9457384833021 16.3001046968652 -8.16994742642652 0 0
91.6893336798893 7.55997911637017 6.6987088114101 0 0
173.452142646117 -7.80685839866882 -20.3807278538034 0 0
-111.09678232193 3.64667877991065 13.5214027992772 0 0
-60.9931523559205 -6.7996126993051 -9.72804218246727 0 0
187.271775407357 -17.6128044496984 13.8574106662359 0 0
-55.6332920851825 -6.68540556535308 -12.3654577413924 0 0
141.697626562459 -23.448741930056 6.4103298679416 0 0
37.0521131879655 14.5593534499692 -10.9947460627664 0 0
175.088731034185 14.9306836330168 26.5223414591387 0 0
148.945736841472 26.8558326221022 0.843450396668541 0 0
-32.916317907174 1.54116945095489 -20.4618538721002 0 0
-29.2861536586031 -0.094584237346443 4.72242495733196 0 0
99.4763179031098 -11.3849110830126 1.04405958885724 0 0
138.104089923673 -3.97002181060599 8.38417512079421 0 0
108.684104225407 18.9015046057786 -7.08304461084638 0 0
85.6996682551575 13.2981649415091 2.92285465523045 0 0
77.0817708495573 -14.0427123054637 -5.85896568399777 0 0
-116.131539753832 -8.68303260463474 -0.302241852698731 1 0
187.492917196988 -29.8840982213508 5.68332142833135 0 0
183.875113880394 -30.2609299259562 4.40256471094638 0 0
139.647047499906 16.8212014309292 -21.215608960833 0 0
177.744295502083 13.1579260551924 21.1115867229897 0 0
127.677391810053 19.7131168493643 4.72450634754577 0 0
147.772076107695 -6.8589226206141 11.1687552470968 0 0
-36.7985495543451 -7.69860673957264 -7.34409390241356 0 0
106.170031104842 -0.370682195187461 5.75357477348265 0 0
-99.8884113249431 16.8717255319086 -2.78757089506373 0 0
185.254710415991 -16.0666972157008 17.2482018832525 0 0
165.3552899679 -0.10106464114019 -19.8866523673384 0 0
66.6291084912204 7.92898363169872 3.9556833737816 0 0
161.042404250151 25.8600098534373 29.1322650386666 0 0
130.561057309236 14.9710103765634 -20.8471083373447 0 0
112.951816371468 -9.71541003882199 3.64792219270867 0 0
-17.0377776040953 15.862222860259 -7.38056023439526 0 0
72.6542721705148 10.0605190792123 -19.9644463963543 0 0
-65.8846030096989 16.4724774527238 -2.09627272197587 0 0
18.7193491786169 -2.0499430393872 3.95029123638336 0 0
-109.505791171492 -3.36978671232785 10.3868023686017 0 0
130.877053986397 -9.00167451298588 6.44169336854322 0 0
-62.1228389955222 11.7058396325445 6.22319065909325 0 0
154.87509933886 -24.9196086904511 21.0254677589937 0 0
150.313468072877 26.9087148119689 -5.04115111697362 0 0
154.119333959581 -22.0554131448286 21.1488578663055 0 0
184.71038783109 -9.92591702232796 -0.0363714428709379 0 0
102.436538507243 10.929967721652 7.10081861787234 0 0
-53.5840890206868 -6.04423862970543 -2.16961278466984 0 0
159.573193147264 34.4580398140316 12.8964592861632 0 0
-20.9691193387226 13.7913290590878 -15.9658927570542 0 0
159.037403233686 -36.1879096661664 1.55812366872476 0 0
179.342878857465 -23.9933800857323 29.3760169891251 0 0
57.8382110893654 -3.2395192481238 3.95486760172973 0 0
158.185335656102 25.1487865644113 29.2289154683305 0 0
25.7403591890169 14.4403998317581 -7.09043661410983 0 0
171.058949186534 12.6777942012219 -16.9987377213116 0 0
-112.850460644371 -8.27498786352725 4.20376537851738 1 0
166.095266224895 30.0599111412584 19.3380861127543 0 0
63.1150017806613 10.7958816711358 -19.1974913176558 0 0
133.872051843146 20.1761251673079 7.13727182819147 0 0
189.323986570288 -27.3769330246443 12.691102468469 0 0
82.9439926768615 0.222270080533924 -22.4589922310402 0 0
167.812291659448 24.4384620635917 -20.6115816831962 0 0
67.5552707312924 1.58155259202571 -22.3270589028899 0 0
36.4131164712377 11.61577855192 -1.36644686095675 0 0
93.167739345596 -16.6004545156016 -9.03489230803905 0 0
146.788497389404 -1.78958551689301 10.8279995456097 0 0
44.741660757472 -3.22924729420625 -21.2482662841686 0 0
153.881892784686 26.4212671869761 -12.2899872212745 0 0
148.468872827293 23.8635810999615 -14.7807502048537 0 0
165.712573210592 -6.89368480986854 13.6536281545846 0 0
74.7701080384337 -14.2767874395021 -7.6413473078358 0 0
7.15328762358642 -8.97667436098541 -13.6971580844479 0 0
-0.920863033652162 10.1605990916796 -0.546311765155861 0 0
66.1621487098832 10.4484631072793 2.37783701719072 0 0
23.9662515693955 -2.66560597879352 -20.9631122338591 0 0
177.818449529213 24.1542813847125 -10.6003108729779 0 0
50.0615744375796 6.87226797655659 -20.9992265283955 0 0
-84.5120492134016 -1.38682703159598 -15.2864366485369 0 0
159.814461115746 6.10589714647109 25.3573709618355 0 0
175.692272685443 -13.3455307770892 26.342372267029 0 0
49.1994043189967 -6.69018286728658 0.0223463629680993 0 0
10.711687259754 8.06237239332164 1.1232677596101 0 0
37.3017673239574 7.1543806889014 2.53770860006189 0 0
129.884909063036 -0.127647203702468 -21.7702469801791 0 0
175.024904494303 -27.2038217253046 -7.41583257657063 0 0
12.6170918688128 -2.9147658594206 3.57393882454662 0 0
182.007223856892 17.7621923974254 6.5983651621244 0 0
19.1649460357518 8.3588464483308 1.04376330172311 0 0
150.585184632729 2.49920670894328 -19.935771802679 0 0
167.973878646277 -35.0701747830514 -0.905074800319914 0 0
151.737318124109 -30.8455805765665 0.426544548987732 0 0
-40.6344945000092 -2.52333939277083 2.02990223864895 0 0
71.5198092818655 -4.55239452623229 2.72580067219437 0 0
-68.1927752535358 -0.77351836853319 6.22268858417686 0 0
133.325787276747 -17.1710140676448 -15.190287848973 0 0
97.8906785380315 -3.33435569138801 4.68813148359918 0 0
71.7458268000474 13.3509710223069 -16.841141427667 0 0
185.570794911824 -24.1293574140381 -5.18240846005576 0 0
58.5312645500289 14.9248194475802 -6.35426817171422 0 0
74.5276585506481 16.0931273665543 -6.19117990397431 0 0
180.948722515894 25.0905603178321 -0.339890268664917 0 0
104.804991486852 -11.0624652317843 2.00201976364655 0 0
167.739647836339 31.0861034845773 16.4225388077211 0 0
-61.1729062289735 -7.04212219677127 -4.20444643357326 0 0
28.600061450825 -7.1403435384288 -3.67952574627875 0 0
83.1071210904782 -15.4471388866701 -8.06238822668376 0 0
-63.824254224164 2.35688850828229 7.3482592517035 0 0
55.6832243952658 -1.99160504563783 4.47628431761438 0 0
119.202952323129 19.8797158846015 -2.17082195417908 0 0
176.183371878151 28.7411409779819 24.8350008879028 0 0
-105.926276546173 17.8280125124586 2.05622511539157 0 0
93.5588347546048 2.86545240367959 6.2162354384986 0 0
174.710953296467 9.51933559060482 -12.118612928471 0 0
82.5394098313877 15.0482752912169 -15.0023092097647 0 0
-71.5029624881336 11.9217517093543 8.66568360506321 0 0
-18.0552069956706 -6.10616373363135 -3.86824095275444 0 0
172.370740591521 27.1898742649036 -7.34988762121652 0 0
159.045439155483 26.6124467157428 -14.5754429364551 0 0
69.0958387049353 11.4016261916891 2.04061301292903 0 0
21.4863123557933 13.7300453756826 -4.91636364613142 0 0
170.256226008954 16.4545109430281 -19.4146790748945 0 0
118.390744342584 17.3766052937186 -16.39159035671 0 0
174.403537305559 16.5559928994254 28.0715362237748 0 0
113.410318558955 -4.07097747078736 5.42265642828638 0 0
75.8106873210358 7.47360945339361 -21.3853530460305 0 0
63.9042179043201 6.97626857739229 -21.2422288835376 0 0
-14.066897573996 -0.166605257463299 4.89449637499683 0 0
161.366369712133 5.59667658881222 23.6294418703289 0 0
-97.76401775994 -6.75577559997623 -3.57727290557206 0 0
187.957083007593 -25.8113279307483 -1.0864997430027 0 0
165.650608992469 -37.282590923576 9.15671653323988 0 0
84.6431180672175 16.877164260169 -9.2012023083406 0 0
-56.520561432898 0.923284594480425 6.93949913104649 0 0
-62.2453475381115 2.14949081576423 7.30979776360301 0 0
-72.3414740107278 3.86631614127348 8.42926914116647 0 0
-114.371678420287 -8.77909645078162 0.819594928386997 1 0
-112.178232971094 5.43053709547453 13.6777496381175 0 0
116.134646665836 -5.27911881417122 -21.1988755192927 0 0
181.9592738964 -33.3919674701404 23.1106942211347 0 0
172.12811376419 2.78986044795711 10.2212657986067 0 0
-84.2804141022492 10.1341578706908 11.5719400575181 0 0
-59.7972891373713 -5.28442385085701 -14.8180295352302 0 0
150.694059369768 -0.271143166028951 12.6019100681493 0 0
-3.11978088759689 -2.4823318839575 2.8834390405887 0 0
-86.6406085926449 -3.51230553043982 5.00003217669324 0 0
-8.49078494589371 15.1358710882408 -5.99736839651293 0 0
88.2944292590896 14.2984319576516 2.31986783383812 0 0
63.2713818102407 -1.85198290418327 -21.9976680610905 0 0
159.18110626898 33.2267792381581 9.57632836916726 0 0
69.8114395303615 2.52290217550531 5.46667248171838 0 0
168.032569607196 -35.6513062440845 20.9578380539465 0 0
99.4696928498695 -5.12898820671507 -21.2633073397469 0 0
167.75944268427 -16.231084568456 -19.0227531413779 0 0
142.770772973435 -3.00488664875981 -21.0225891707534 0 0
168.96661922009 6.19904190556122 22.1198970094711 0 0
169.251830591368 17.6842179139076 -20.4554857142973 0 0
183.618385686368 -30.2126423610135 24.8253831803484 0 0
155.479998313121 -13.8345286367964 17.3813913310133 0 0
-60.0095321570243 2.73549768193517 7.5523166238336 0 0
-21.699725366574 13.7249932883952 -3.09411393903012 0 0
-88.0472625833815 1.12546740803585 9.01704986728167 0 0
-109.770399146922 13.981513307995 13.6502370723423 0 0
-50.033196938989 12.4690056957199 2.07062638920912 0 0
-38.7580416169014 8.83820792340332 -18.8798359478986 0 0
49.7107166757645 -11.9617733876961 -12.2853975390467 0 0
171.387300688464 -28.944225908129 -7.53950331592905 0 0
80.6429709184623 -12.1602101995889 -2.40054628928406 0 0
95.7933644367248 -3.27005911244769 4.57409837529163 0 0
79.0081499170244 -10.0053888526531 -0.686690458487648 0 0
147.742862175565 -28.0302886148792 5.15449492681816 0 0
128.90699873307 -20.097686802326 -0.157143929954705 0 0
-11.0539393218962 -0.1364053087868 4.78351452236077 0 0
71.5435336601972 -1.44047249114791 -22.1169490367632 0 0
164.1839136082 -28.6542629758972 -9.81327100000357 0 0
172.311138846921 29.4593485236683 2.68609512911509 0 0
104.522711733837 11.9190261186913 -20.137670307587 0 0
148.226107957884 16.9762394938377 20.8888624078252 0 0
145.390846590978 6.93134512216965 13.4602883605308 0 0
143.966560231633 -2.68737310019789 9.94809445576799 0 0
186.520733030754 -13.3062453570675 4.53166072308799 0 0
72.2008332130677 6.58344986225307 5.08266554178726 0 0
85.3764402014219 -5.14765567295114 3.16787508925443 0 0
38.8191452754328 3.94827091877913 4.86146172441755 0 0
-104.991095944241 11.1160967994209 -11.0326503531281 0 0
112.102051545038 -7.60159506835656 -20.380583541095 0 0
-65.0754478956935 -5.7679112396994 -12.8626331028723 0 0
161.023350888337 28.6463001843795 -6.02905897389789 0 0
154.81499962521 -0.115169948704517 14.9710337659761 0 0
149.457631426192 7.72155375269516 -20.2643591328873 0 0
-27.8121780040895 -8.01826644058403 -10.9736081300373 0 0
179.020640193298 27.8572175104101 3.31365926343141 0 0
-2.55479722318766 -5.6689595386653 -18.7698352188705 0 0
82.7792247695062 -6.42205551931892 -20.7795397623437 0 0
21.5644791167703 8.51440490220594 0.801692896473334 0 0
137.65208748224 -5.33197191797133 7.63604179112614 0 0
169.735312491538 5.22272663897059 16.2356100948987 0 0
-71.0684335268423 1.0295126771373 7.32169939188777 0 0
55.9151667248588 -8.16717925110409 -19.1769862062813 0 0
-30.6332334557382 11.1756075611213 0.39300264514912 0 0
82.270601476806 4.57613206058012 6.55568007063834 0 0
108.292321379422 -16.0544334105585 -1.52316069865841 0 0
26.34107641674 -9.56198712500495 -15.7386085960408 0 0
130.482867663348 -19.3454573926922 2.60272035570048 0 0
138.512971582413 0.279036939566708 -21.3596563357193 0 0
-115.327712493982 -7.18951674518965 -4.26056913085439 1 0
140.362419448048 22.2391246404834 -12.2877694470515 0 0
173.982143144994 28.3067578309571 27.5891935709289 0 0
129.699252440458 21.1408088151536 -8.05992319751277 0 0
114.20026775606 19.4263986369662 -7.82022079434673 0 0
54.0767400123095 -11.7383722579946 -7.94508811153447 0 0
122.260762694549 -5.84999378115205 5.6524574472953 0 0
178.824378696384 -32.6125567526972 2.99584274604146 0 0
102.140702341774 15.7321094585456 3.18582148311619 0 0
-115.280015122243 -3.68735252167255 -9.68503063765749 1 0
171.825536414805 30.6751010875317 6.09487974774654 0 0
69.8259076876676 9.02762002357627 3.74001929611441 0 0
141.234927232196 -5.20650863270781 -20.8432375446943 0 0
21.1750097647241 5.46040542975782 3.09719901290283 0 0
131.914105141019 -20.3051047598103 -10.1535685540183 0 0
11.4827379884264 3.39727115281029 5.68482127881141 0 0
175.801291719026 3.41301430721342 -9.51826551491074 0 0
135.960181266416 20.5644296205921 8.13673466286811 0 0
13.3575441013638 15.1921131114777 -8.53879933476655 0 0
-104.409972285698 16.3801634787373 9.66615359104244 0 0
-33.0039210596054 5.43418242590257 6.3768973373835 0 0
154.083932104534 28.5401851272298 -2.91235580984694 0 0
144.098846570677 -23.026693615878 -10.5495775808134 0 0
138.331850077255 22.6924524780191 -8.66606600676634 0 0
163.766910915315 -33.2909807948259 28.250134206141 0 0
86.8931279608362 -15.449254718144 -6.15180830803491 0 0
68.4977648906554 5.58142344505941 -21.7197140493213 0 0
184.89484897822 -13.0480337331521 -6.49336841538419 0 0
34.5290208811894 2.57268576941128 -21.6134948033757 0 0
-5.5506404186921 15.1480010306981 -13.7896685735371 0 0
151.416616392424 13.7751906330304 26.2655692369764 0 0
146.87748720781 8.13547511631963 14.9710559477397 0 0
170.513094587452 -19.7776858562694 -15.9465028416519 0 0
109.201274378311 11.7406693996713 8.08112989514519 0 0
-115.127448012663 16.705188733961 11.9283014637177 1 0
-9.10759545295568 9.61827823798975 -19.3952134407313 0 0
155.27457947157 31.1183327150959 19.1217386523323 0 0
-84.5556556572077 13.6085824323166 -11.0132360209094 0 0
-76.9053869928749 -3.5589309953483 3.52397288297425 0 0
165.242134233699 -34.5119989231254 27.7847987846674 0 0
136.261687223374 22.3254533578332 -7.51921453298455 0 0
131.118884274579 8.21124476841259 10.1168985862197 0 0
-22.6554651589747 -8.06860912020996 -10.510887809647 0 0
47.0569372958633 -10.3340557902752 -16.667447356178 0 0
72.707166356332 4.63409201400457 5.75932971435734 0 0
134.351603158678 -21.2269245920133 -8.88920836488544 0 0
-102.986783713503 5.339518757566 12.4185318206878 0 0
80.7938989831883 6.5948386947526 -21.9377118652686 0 0
178.781464171158 6.40485639733515 0.778077131274685 0 0
133.426068683273 22.1551138039878 -3.9071183358005 0 0
67.4734907380809 -6.74545549792239 1.0675884448485 0 0
173.469985534368 -11.8514478005436 20.3669018032848 0 0
-77.4969824576838 17.0211522688668 -2.90799094483155 0 0
147.382706586043 27.0047534619169 12.9990941378135 0 0
147.6097983763 24.9173332290374 -10.4099108690763 0 0
-81.6469022405489 13.1050034350121 9.64374954983374 0 0
163.775862099431 -23.4911901719084 30.3759677481218 0 0
-83.6137396689344 -6.74134758040857 -4.2681481583494 0 0
124.207010844936 14.1171918035626 -20.5914464003645 0 0
-89.2286152523123 6.21611738690866 -15.4860220573801 0 0
-71.9566203698959 5.70006628918148 9.18569951705208 0 0
127.322366848079 -6.64679578957564 6.07967897334897 0 0
-26.0922477072757 1.7575847819152 5.57514493766452 0 0
181.398596086302 16.6849062393741 11.1395143035442 0 0
-90.1641522163081 2.48043105408932 9.83403810670543 0 0
186.345649119084 -28.6244561845876 1.96618009252357 0 0
166.709799050005 -37.0426044433554 7.1679016821117 0 0
145.743068385452 25.6301304311571 1.97037544161164 0 0
39.8142211731476 -1.16087825182625 -21.5877992971977 0 0
-7.75570084345297 4.41376011997237 -20.8973294646385 0 0
158.64426310324 1.05352693899983 -19.5935233834398 0 0
5.25967849507908 6.38425283613357 -20.8234933334925 0 0
174.764443367332 -16.9053704690442 29.6073105551384 0 0
141.706596355483 1.05077309262535 10.2551377666305 0 0
143.086606709894 -18.9823921533017 -14.8269199498237 0 0
153.978211173559 -2.43200978365171 -20.4105368824772 0 0
72.2587297513939 -6.21537038463666 -20.6303148397023 0 0
-4.61088716971964 -5.08225764315987 -19.1621994124835 0 0
100.150168409962 6.14980436693736 7.2977978829155 0 0
-21.7527657403493 10.6047462705817 0.138998581482315 0 0
-114.061631259624 17.4475786153604 9.42374672156185 1 0
153.212394516664 9.44846961457189 25.8827528454988 0 0
167.171885464512 24.1709785909884 32.2126233883561 0 0
154.52530597696 -29.4239221369623 -7.05271372293841 0 0
147.210996392396 -27.35664642357 7.13835727881831 0 0
3.31309887151766 0.0640652941000312 4.75976839729633 0 0
158.695417199373 -31.9008562429395 21.4732020770098 0 0
177.513686518544 -9.69640168166679 -18.0249784586644 0 0
163.133606214364 13.394023536254 -21.6776404963539 0 0
149.948791083909 -29.5397268093893 0.607474867235739 0 0
-47.754595210111 15.910088012421 -11.5037985538702 0 0
161.068329286378 -34.4625160128138 22.6997584140829 0 0
67.1797553130068 5.40687041796602 5.23143526872848 0 0
-104.4100635402 1.68675880460039 11.5796223096447 0 0
159.345831870527 15.943285622656 31.6029057636836 0 0
174.81849149431 -2.48237281572735 -15.2040993536466 0 0
127.356811938523 -18.3139331698483 -13.0030301358719 0 0
-21.5361878715375 1.10027559503193 -20.7654432217415 0 0
146.46073702065 4.84143277669772 -18.4347973037154 0 0
-108.258827411856 17.9656475209887 2.5377742699843 0 0
-53.9685026762803 16.5189771775751 -4.79145920511774 0 0
-16.1300709619672 8.74570609224952 -19.5673462413531 0 0
145.946958356933 23.2981511006695 17.2802748078722 0 0
143.663867450775 -7.68381666418197 10.3212730241346 0 0
82.8810878857746 -4.38868626084173 3.39577036683048 0 0
28.9033930244949 0.276372434303841 -21.5833833484857 0 0
179.048297398827 -15.8096104031645 -16.0579591179772 0 0
-25.218326937781 -4.07360810675392 -0.612217644735742 0 0
111.470606102603 15.9880013278093 -17.1389692079129 0 0
-11.6260193387458 14.8951242078126 -14.3120197548641 0 0
-2.264619777004 15.5878320255943 -8.07979365677031 0 0
-73.0784540273952 -3.79379803744712 2.73820201132901 0 0
-100.012629691021 -7.00719121118228 -1.9301497499919 0 0
-99.9525082631122 -6.33759896357676 4.56826357891943 0 0
150.728180175088 26.7056803932084 -7.70679212207359 0 0
136.622194714074 13.4570015410577 12.4095623618414 0 0
46.549667613867 -5.26977579152799 -20.5622701451429 0 0
182.054391822785 17.8482573121046 -0.171298425007263 0 0
-3.61187744280194 4.88236346098637 4.20619808668097 0 0
179.372449984084 -15.2195503336342 25.538482116426 0 0
-13.9311745447226 -8.27941459622181 -11.5244277282316 0 0
141.257457699688 -20.4695341436549 9.45897324017018 0 0
-69.2311537744594 -6.6962418618979 -7.59468929154751 0 0
-55.2742648038747 12.4129879599996 3.33257401472397 0 0
-28.2569300613235 -7.45615134936925 -6.07747211379189 0 0
161.045581675453 -2.92983445073507 14.6765018359592 0 0
-99.2830659866204 -6.97394294959083 0.57031369341815 0 0
164.163235623568 -11.5661956963672 -21.3518470250701 0 0
119.245063239766 10.1122062145044 8.84539301874369 0 0
155.077682952171 5.22234934740322 -19.9427272648543 0 0
119.448436081094 -13.5449344044183 -17.4878650189036 0 0
161.690231519633 -15.2722474232906 -20.5867855667393 0 0
23.454576885235 13.0862732204372 -3.90115748198005 0 0
81.9432213924227 -5.9498136948987 2.44784255124598 0 0
107.020831605307 16.8528565580125 2.62491874523619 0 0
-28.8162427632011 4.33163273618582 6.10230982320035 0 0
164.104681660145 3.9334432531941 18.106129366478 0 0
-97.5493100805445 -3.91082543647583 -11.3265188333946 0 0
158.167519600723 -36.9750643302326 7.74560125919454 0 0
169.856105890235 -36.0269534753115 15.1387457716872 0 0
174.351485542678 7.33530761211869 -11.6084471529432 0 0
140.32687356432 -8.40357602409771 9.75058898380192 0 0
-60.6236367380339 5.2160097205785 -18.859192123665 0 0
-64.2685897890136 10.6670624257409 8.07323223467648 0 0
-83.4026565786123 16.4948931970367 4.22415611507904 0 0
110.177612317678 4.56495132874011 -22.4203847495244 0 0
179.670554487533 24.3610264088179 -6.06914758657873 0 0
-81.702446145429 -0.5468150880918 -16.0785179887056 0 0
-99.1163289792225 -3.12430396747268 -12.0361224883746 0 0
80.497318925234 1.59064817715881 -22.5617790528397 0 0
180.272324117921 -5.05513162930334 -10.0489777028669 0 0
47.424996183769 13.9664956693834 -13.4464750535772 0 0
175.902459735226 27.9194217881074 1.46784314438096 0 0
121.13729242882 11.3312385610189 -21.5556570874346 0 0
148.976046274563 9.36320075308718 -20.6423479918322 0 0
79.1341905190084 10.1546023236524 4.31588912791298 0 0
-29.8715277498445 7.5499093176508 3.78746370873845 0 0
86.7046730115492 10.0180579134405 -20.4592265553273 0 0
142.529898184977 -17.7997959583893 11.0836325042414 0 0
69.7084576210191 0.0761957508957279 -22.3124141487863 0 0
-102.219822580485 -7.18746745772887 -0.817581498093254 0 0
20.0053911167748 -3.15127049220582 3.09189832545432 0 0
167.646923610485 -13.1771183650962 23.656169176621 0 0
14.8037402864346 14.633830259791 -6.19426489099381 0 0
-10.8243740342535 1.89501122657415 5.66628805874635 0 0
2.25723988264913 9.52870759431183 -19.4840233748489 0 0
-87.1756633737573 4.88238008497933 10.1478963355579 0 0
-13.1156739267099 -5.88064165254297 -17.912077229359 0 0
110.617342675555 -10.0312112484751 -19.2942164119555 0 0
-85.5234662875909 -5.60257286451383 -9.18116436701791 0 0
-46.9162454973799 -7.52286296874185 -6.92471005926358 0 0
105.833749843623 -17.7704426428214 -5.99341027424567 0 0
7.11907880142948 -3.46228461294522 -20.3904992799589 0 0
-51.1734536977155 -7.35557806016539 -6.2910473876077 0 0
7.71102267596672 -6.10349255065174 -18.8386969351691 0 0
176.486742691 25.7264225228968 27.2153588374699 0 0
150.569430868531 -30.3822311551729 10.616302715688 0 0
187.483360114116 -22.162587379991 17.8612346215553 0 0
157.039375272752 7.902922941631 26.5273824861507 0 0
137.148565011617 -18.8234807262384 -13.8599572214269 0 0
153.973026067515 -32.9134615793264 1.1098095165191 0 0
185.20129630542 -16.8498382444604 -8.83601399235756 0 0
90.6798084738085 15.2751518663662 1.33322565789175 0 0
-48.668488936765 -7.61103964492058 -11.044576116012 0 0
117.858600086465 -8.07093392397945 4.66918695354933 0 0
98.5721179502184 -15.9409295775425 -3.65439132336518 0 0
-77.0558393880353 -2.03049152940376 -15.9596130564313 0 0
104.390251510446 18.3930575494933 -8.90194047459909 0 0
74.1235374249586 -0.883463137700868 -22.2208408039761 0 0
74.5574595589848 -4.86473276171478 -21.2638972323979 0 0
-68.2906341757876 9.62420021456031 -16.6118237556332 0 0
87.7541772850702 -15.8644746376298 -10.5263213588011 0 0
158.680045279907 8.74113515863371 -21.0460903705582 0 0
185.583595710219 -29.7687705279372 3.73534485411786 0 0
155.232291009212 8.90170923476271 26.7671664290368 0 0
176.260259451137 12.1379734039007 22.8990592160582 0 0
-89.6019943832049 0.77235324117889 9.07224600538244 0 0
140.684616486902 21.0892967933199 -15.5521151395634 0 0
78.1181362201146 -4.83847521112461 2.88126482385157 0 0
135.659094170307 21.3167078292742 6.09104407942641 0 0
-93.7647689426689 -4.68765968650786 -10.4226957084338 0 0
171.171881795449 28.0266016436085 -3.70731162387332 0 0
22.1010349524406 15.2301069465143 -9.64201518936421 0 0
177.007609852059 26.7787704734819 -6.33053970318013 0 0
115.754091235433 -5.53223126486042 5.1676997010879 0 0
81.949867937852 -15.3526672209139 -10.2087992435099 0 0
74.7726449631618 4.9326142930607 5.76824039802671 0 0
-113.397090943037 15.2152319683297 -6.22913790694016 1 0
12.2057263891203 3.57244845471334 -21.2368444529229 0 0
182.930074919801 -22.269932872199 -8.05473704355949 0 0
123.790882489115 20.5931105357682 -3.80534526359416 0 0
169.204570077531 20.3504879400036 -21.0104724968986 0 0
-88.5815980707896 7.77463769181394 11.6433974858661 0 0
156.836864082119 -28.8767143436277 18.430494370046 0 0
136.317735847594 -8.44227032975329 -20.2175380837496 0 0
-7.46763171459639 11.9064609840069 -17.9705684514857 0 0
-105.120719328047 -0.976359735780537 10.5890575129271 0 0
43.2404305495017 1.3086867973139 5.46450975973007 0 0
152.218455776478 28.6096394628894 1.59925683926949 0 0
144.907648235288 14.9371024927638 -21.811728467239 0 0
168.252291993515 -36.4847379359049 7.80484384765414 0 0
-13.4525202479969 5.06151925304017 4.699798916912 0 0
181.891754126082 -7.57792023611624 -10.1207902907694 0 0
-106.871892538333 -2.42864270868138 10.2796829492459 0 0
133.305385837856 -19.9137458349164 3.59990016664577 0 0
173.57777540927 -21.1825903600975 31.2605380855596 0 0
-98.7553767440225 7.57617792672094 12.7134231359607 0 0
41.6739744073332 -5.72598106699071 -0.07517856288068 0 0
-114.369640467346 7.22888400838928 14.0916529969301 1 0
189.179871868256 -20.2457949106057 6.98262074242493 0 0
185.180693840115 -11.0554006694068 -1.55051357464434 0 0
-116.161801988458 -4.99024586479113 11.4340429585474 1 0
168.842936366235 -9.7061308448706 -22.8256039852346 0 0
164.809332025139 -6.61312701379339 -22.3018261882728 0 0
-109.343939887258 15.7290238707423 -5.58751581498024 0 0
-78.8189368925196 -2.95455529985414 4.54744277266557 0 0
86.5035346802633 -14.3701115396104 -4.00045433962787 0 0
34.9441436605229 -10.9004484801281 -11.9518740130607 0 0
161.289614893811 26.9632700601526 27.1278888766701 0 0
86.4055963408581 4.86117196001162 6.63770519390161 0 0
159.524733214902 30.3894779812397 22.4080141746918 0 0
14.2137612345163 4.15794539133418 4.72160084162795 0 0
159.632927585949 -34.6823535181135 -1.31831419308718 0 0
175.803567377156 26.9162915251447 -2.94798877917369 0 0
-74.3931058359127 11.6440865694275 -14.3919338488577 0 0
108.550000804407 -1.12331428895502 -22.0410491671574 0 0
135.722963619447 -22.3872256264321 -2.81140827340923 0 0
9.43162757329044 10.572869550237 -0.926460670683311 0 0
-46.814164894137 15.2529543863428 -2.82387890847812 0 0
149.576896259714 18.4643979470021 23.0574122589706 0 0
138.912033395579 -7.6576555732564 9.00785683127913 0 0
-61.6624673880153 16.6716110475403 -3.71437509231965 0 0
119.80981278781 -10.5997909218857 4.16418366299064 0 0
185.560451581916 -12.6809488605336 9.40790055075798 0 0
101.212148440247 -15.5368936880506 -14.1891413381881 0 0
171.24870454721 31.7486203285593 9.62539836947697 0 0
-112.212195358423 17.6181693472797 8.29581420801342 0 0
18.8708912290647 1.7394612117988 5.57013570082504 0 0
157.572607265854 15.4769877884441 -23.2577719414674 0 0
-70.9806269732362 13.4747489337449 6.26288746667935 0 0
-28.1273811872259 9.66809003806959 -18.867158482002 0 0
-86.8857444018738 13.5209993599941 -10.8979467629652 0 0
96.3934524345526 15.9506062113728 1.39483596002701 0 0
152.241405752943 -6.95322254853616 -20.8986025851559 0 0
161.603046935366 -35.0962854187496 -1.26051915613401 0 0
184.60704037154 -16.7833070001495 19.683744443186 0 0
156.090839017541 24.3999169725346 29.3738834830791 0 0
-57.1882004957571 7.9583269752933 8.25118831799479 0 0
138.770361985024 -23.2907943360673 2.50329985619639 0 0
-88.850848232067 10.3964138644057 -13.6571642659842 0 0
21.9701565521205 -3.70279480679921 -20.6563534595094 0 0
-107.659491220231 0.50570196477664 -12.5554611901769 0 0
158.104817375827 -4.56398497467297 -20.7380868274077 0 0
170.37231636739 -34.2033009432743 29.6726537043047 0 0
66.9825369034504 -7.91072814852138 -19.700586574268 0 0
146.986318294432 15.7323355277069 -21.9519167718747 0 0
124.041395814315 -12.125004696615 -18.5034265013346 0 0
62.5458365026423 -6.12862706411547 -20.4744339758906 0 0
47.7139343785697 -6.78136485223048 -19.8938327836836 0 0
152.320449406461 23.4264794006768 25.4102696968737 0 0
-2.33463259854059 5.36465831986085 -20.8028431821136 0 0
167.459888680684 -26.0457775549747 31.6031332700962 0 0
-112.687814909589 17.26854912955 -2.08627040725527 1 0
131.188720410537 20.9061125410027 -11.0724211750716 0 0
139.570516544571 -12.2421574429741 10.3595856160915 0 0
122.725178386158 4.65100652215211 8.16199389192119 0 0
22.4290288974892 14.377505651193 -14.6965434707365 0 0
110.107619154736 -13.1718566651562 -17.3283897107146 0 0
132.731638992961 10.4739823898815 -22.150177945734 0 0
126.603223259395 -0.844827233216003 -21.7822643849859 0 0
165.014793866529 24.6505847173669 -21.4191326659523 0 0
-49.0473260894087 3.25187807921779 -19.7854402674609 0 0
32.7650288828817 1.50298016696659 5.52890693978899 0 0
169.646610424316 5.0062000396979 -15.3944302823064 0 0
171.436088573239 14.3092545339944 29.5115871127962 0 0
181.20500803657 -5.53945866837904 -5.13647100988855 0 0
180.919960321495 16.1354267345847 15.0235810299846 0 0
-51.0865861446581 -3.71294323057726 -17.5404255900193 0 0
161.339186994743 30.9743116725877 1.51137512570987 0 0
98.2830324771835 17.9157907409812 -6.66751529796043 0 0
168.368308053928 29.1989720013943 -2.01185987433773 0 0
160.965679811834 4.57193211247038 20.530787828709 0 0
188.617607006033 -18.096635105185 5.74307003960975 0 0
122.392913714594 -18.5692198655398 -11.3592765167592 0 0
166.841523203703 -6.76964576577388 -22.4049208516336 0 0
125.805280983966 20.3800937551038 -10.0237284212587 0 0
181.487805912997 -10.9221682147323 13.5077749454694 0 0
-104.214050464938 -3.1513812271498 9.27192487147517 0 0
150.129772358577 3.81984470774709 14.028693753599 0 0
17.2865739184126 8.30847199114467 1.20138097571922 0 0
9.69334134061479 15.5760201154134 -10.9692526217592 0 0
41.0734185609821 -9.28123199286209 -5.77603734324266 0 0
-98.7928155330915 13.3312855474637 -9.7396071219681 0 0
146.821178557803 23.2219879021527 18.9916775030523 0 0
184.844863956935 -20.0531940655825 22.3973370706276 0 0
124.699615702418 -9.10942248383988 5.29563787153158 0 0
177.953096271253 -7.29369994657209 10.3684859927371 0 0
88.4022591619202 -8.52574801975101 1.38746820605511 0 0
164.699527561709 26.2313140777449 30.349709425103 0 0
164.068529520972 -36.29809915209 1.38415272744555 0 0
154.041150800666 -0.734398796365091 -20.3903260284445 0 0
189.018048475326 -21.6838748780728 0.971252297126642 0 0
-80.0298957417956 7.0013035276765 10.2674357196662 0 0
181.275039230558 20.9488871465114 16.2143998688089 0 0
181.446042952549 15.7357240821495 8.6425434244415 0 0
-108.773355383524 -3.58526647347822 -10.2891949581496 0 0
183.630519690078 -12.8876828154667 -9.82050131825885 0 0
88.2737079096124 -12.9287685874415 -1.88372056500241 0 0
172.438658764444 2.13455835487379 8.52359324114711 0 0
129.5458865223 20.2084079081031 4.33696693676338 0 0
171.828784231018 4.43493120928017 -13.5752519236065 0 0
111.494653477319 17.8261901960445 -13.9188433843183 0 0
-61.4551438515853 -3.27953955484608 2.69574562673401 0 0
172.959854427522 28.7414165136305 24.2589869910234 0 0
165.050620331377 -36.8528352711744 16.9232975841638 0 0
164.724713818923 17.5221195313417 32.5220733470948 0 0
-17.2569426664058 3.23988276411055 -20.8649357345675 0 0
-8.43397942074896 -8.11451447133299 -7.68365252786393 0 0
71.8452276987287 15.9740266822781 -8.51537545199381 0 0
-87.6016901745978 -4.81101882604574 3.31266612867522 0 0
178.63115365127 -9.20241625218346 -16.8223603667787 0 0
104.76373069328 -12.4798409592694 -17.6914164190695 0 0
126.135961747549 -4.90383299350386 -21.2687011486881 0 0
-103.091869418532 -1.86394080378185 9.75158873663583 0 0
-112.743243290369 3.14204843639277 13.457789585129 1 0
146.412544840942 -27.0429597131306 -1.2531278754156 0 0
184.106641623727 -9.10136210123865 -1.12965273890581 0 0
138.631151900071 5.68639743393444 -21.5468785693558 0 0
13.903936801065 11.4039333096378 -18.1057289518342 0 0
18.302584749107 -4.87201348878893 -0.801700234331469 0 0
129.073486488562 21.4695309356407 -2.68652174047867 0 0
158.748660615622 6.31953606593529 -20.2763820476299 0 0
166.714541351507 -12.1621190529544 25.4140142992184 0 0
173.17424872052 28.7242532921951 0.619467574500416 0 0
64.3054871895565 14.6740497198902 -13.7076456700707 0 0
140.230944054029 -21.6037086397999 -11.1152891286227 0 0
173.253922127452 -1.02106920729418 7.52054959179707 0 0
117.873167136843 13.4604527944986 8.64875578469842 0 0
20.3619479008819 -5.17593752369069 -1.18124723090498 0 0
170.572024940061 -13.1215201781034 21.9934504391303 0 0
-9.13583738014252 0.340969312358794 5.04617389913511 0 0
-113.245149009572 10.0387683275882 -10.7668488101878 1 0
181.54315069489 -22.927405990126 27.5345225020473 0 0
-25.0314889310513 -7.86005187618439 -11.927573994456 0 0
85.9602312519631 -0.301174515436433 4.93305295795803 0 0
178.739896618553 30.5022119721938 14.3869243374272 0 0
101.549753157803 7.9386793813813 7.64557974019318 0 0
123.517246967447 -10.6582061039648 4.78326452588974 0 0
147.115806701462 5.35556832618254 -18.3494891075566 0 0
5.9200202284245 15.664044796947 -10.9352689844248 0 0
158.323843976072 3.42061300398836 -19.5147530976801 0 0
158.474759445335 32.9307288314483 19.0995287411691 0 0
-58.9112160869832 -0.947050380516102 -18.4485894000717 0 0
-113.124819920969 17.998079697424 0.79235317783112 1 0
29.8101519288639 14.9041530749902 -9.79811800455989 0 0
-93.066849932236 9.88373988992618 -13.4286003098663 0 0
168.054354734177 -27.248338325287 -10.3889024982433 0 0
49.5288513384182 -2.91923295527886 4.1197944094624 0 0
-41.1394202626236 15.947669756792 -11.6203329854292 0 0
127.682463682297 -8.84945897738751 5.82244968656176 0 0
-98.6628979738999 9.60647206917705 -12.8806691244159 0 0
178.985378354145 -19.0670489626332 -12.5287487084238 0 0
-97.7970119558076 2.3523911706042 10.7901610338753 0 0
111.203145782495 -5.4849225269796 -21.0980675582097 0 0
155.152981394804 -30.6589524612852 17.2544498163086 0 0
156.804218449309 -15.2045281993864 23.6025466120006 0 0
-73.1412820015418 15.6132497304685 -9.68084402468239 0 0
139.187534059598 15.3190388602106 -21.6914182590911 0 0
-40.6605177777307 16.2610832943266 -6.98765479648509 0 0
93.6944982433767 17.1076689496334 -11.5548373955519 0 0
111.5162599894 -18.1393528055848 -4.93548391968756 0 0
157.44187984073 -37.604143947984 10.9219837665532 0 0
115.036866425025 7.75954860302648 -22.1241289695626 0 0
5.58572473468398 -4.13958077047436 0.0271873431958402 0 0
181.344090525567 14.188421235059 2.92434504489126 0 0
-96.9739104379183 -6.71659044940902 0.968741534959213 0 0
142.214709959997 23.8292455260149 -6.13170597242146 0 0
171.322430984079 31.7835882972212 11.2755221673623 0 0
138.924567263908 -12.884273743154 9.56233314976799 0 0
59.3614986526953 11.2475882064221 -18.6758590282846 0 0
170.316625952821 5.82076364654576 19.0172257944406 0 0
82.1912889639193 -4.51327530276765 -21.411926479612 0 0
90.0152077263211 1.34397566467322 -22.7079908221404 0 0
-106.126520322833 5.90192887922942 -12.9368468541533 0 0
-2.0452553861205 -4.00752979044829 -0.256879898621641 0 0
-104.612343897211 -7.29173056597199 -1.04238425304936 0 0
-71.2973961754467 -2.94737953508088 3.80296990610281 0 0
127.626548059821 17.6379437380071 -17.9705065030547 0 0
-68.733286610659 -3.31266915764872 3.12648907062129 0 0
116.160850795379 16.3773380615128 -17.4873760796202 0 0
158.475146013114 20.9554427578136 31.8044474443244 0 0
185.067115283806 -33.0100034443825 19.4551927039449 0 0
106.967062317759 -6.58365007884737 4.1487968193491 0 0
93.6096684714916 -3.21286908132621 4.55063834036541 0 0
121.847776664625 16.7585954477251 -17.9649270450952 0 0
124.642260204537 4.84591951886728 8.37778422529295 0 0
143.430665649242 8.25225776932693 13.4160792774489 0 0
159.094650459069 -33.949481628828 19.5671408935326 0 0
114.933260905661 13.5123683401847 -19.9779516692093 0 0
68.5894489175442 -10.075421055095 -2.02454865661067 0 0
180.912376255191 23.262496417707 -3.57958457792864 0 0
100.877488623209 0.778272876301678 5.8489335848628 0 0
100.956853252062 -15.3975055987003 -2.17380242326715 0 0
163.399804590782 26.954590174879 27.7352883994463 0 0
133.13917269988 -3.04552636475456 -21.3962948403938 0 0
78.7775077440136 0.489234799581193 -22.4017348616593 0 0
-8.29443492844898 -8.42575790672805 -12.847475121709 0 0
81.0082045841527 4.29876857711363 -22.5190859664412 0 0
-115.860876047213 -0.29982979991293 -11.1920850705869 1 0
172.117854393846 18.8322038740737 -18.8485744653631 0 0
179.754343888609 -19.1062331524107 27.9963181830105 0 0
-28.6014619023595 -6.17241080273836 -16.4375250911735 0 0
151.188647961022 -24.440275621426 14.6220537383646 0 0
159.294343561357 28.2498852802442 -7.44992278032649 0 0
107.748239981623 -14.5918638297657 -15.9467491241546 0 0
121.606517853978 -18.5837016394584 -1.54591505581095 0 0
-51.6184336812338 -5.46669731719783 -15.4943643252177 0 0
107.229963671529 10.1929092761547 -21.0796009469517 0 0
-88.3084410975962 -0.784171563052793 8.14954093734304 0 0
172.722638053636 26.6298177208953 -12.5405940203449 0 0
154.882872159979 -4.8126588767526 -20.6300620874746 0 0
17.9241164807192 15.4272323889264 -11.3184605797444 0 0
144.313665658611 -19.9798379994439 -14.1083036445178 0 0
156.081687707101 26.4169131107575 -13.8126779817932 0 0
59.1983262649602 -8.66644637979837 -1.65341076478421 0 0
-13.3047266744112 -2.51163017712922 1.73858185976875 0 0
168.765962177271 3.80987091666603 14.0030858522474 0 0
150.925715451529 -14.3882959294524 -19.2105883947362 0 0
10.5819165022052 6.52577082212616 2.06003733512014 0 0
178.418175225609 -10.8887084559184 18.4078379429114 0 0
180.897377598943 22.4050878122765 18.4341016775301 0 0
139.466821310702 22.7216503422854 -9.87870694305738 0 0
-30.3832798159736 5.89573528170884 -20.2916187122193 0 0
176.205003042469 29.5334367783577 23.2482604069392 0 0
126.260525654518 5.63715371560391 8.768085212177 0 0
167.298627070299 31.5798535203061 4.99474795683169 0 0
156.157738908781 10.290243460857 28.1010416640331 0 0
145.222395426136 -8.53896347605909 10.8066636654264 0 0
-55.9701859209967 3.98318246776644 -19.3245088324015 0 0
155.010123322994 -14.5289321864394 19.095078121812 0 0
148.774555897277 -29.1664907636853 6.20066572454801 0 0
158.391152878807 -35.1867637520441 -0.201749781975354 0 0
-93.6405904424906 15.8715025303544 8.74862655584678 0 0
48.4487381937167 14.1825758472615 -5.22067025585799 0 0
175.787774854323 8.17608928720703 -10.0654651440451 0 0
146.4212572186 -8.33434265063327 -20.4521718185626 0 0
181.169363883472 19.1245843464678 16.2613474311723 0 0
181.033126133721 13.1785223714204 5.48029074730721 0 0
120.609854717953 -19.2987338333153 -5.99547573700216 0 0
17.2357846430785 -8.73199917444212 -16.2081661982324 0 0
153.096451422866 -27.226361448568 16.7012328962417 0 0
28.4880045145543 2.8780579466746 -21.5081128978391 0 0
-101.917645602894 16.6434853806955 -3.52922574143569 0 0
156.060471672666 30.0063949782155 20.1903735655559 0 0
9.74749807911215 -3.96509786909114 1.12564747664167 0 0
128.390780658892 2.35483996538164 -22.0024896117443 0 0
168.938845520051 -6.15380638732668 11.749618076945 0 0
144.089407972478 -3.73239331213814 -20.9186431926608 0 0
-49.7812947837887 4.36149667304598 7.27801676149275 0 0
-91.522175929421 -6.70618525797782 -0.701127866334109 0 0
-65.8255193502028 -0.125682198348071 6.54954334669881 0 0
-69.3183394557238 11.9449792151991 8.21642175424409 0 0
161.112770241642 33.2694728654256 8.9615479601192 0 0
61.9397251637853 15.3560199649486 -8.77748254650842 0 0
151.145404909912 -25.5868035886185 -10.5441615498298 0 0
55.9491365033227 -12.2790811642513 -13.4142295640377 0 0
-34.4681288671198 14.6555087554659 -3.48693632554044 0 0
121.597323181319 -11.2272857855486 4.24614987073794 0 0
166.01356926189 -24.2347313328331 -13.4745063401255 0 0
33.4777224786732 -3.53078910008764 2.95222940981909 0 0
34.6719433234657 14.6999563011994 -10.7360041997298 0 0
144.678981149478 -7.69133631194249 9.91707873633808 0 0
-36.6336365918549 6.226630823337 6.56694364171843 0 0
31.8401822549879 -10.6678119943201 -12.3738697889115 0 0
148.164625104257 24.4139903405228 20.3789628713132 0 0
150.975260874642 17.958445609779 25.4660439010073 0 0
166.797668963521 1.61670946615872 13.217435286398 0 0
182.1438372744 24.9423903780318 8.52020795465161 0 0
146.774670852546 -20.7967958000401 -14.2708119108057 0 0
86.3254329200967 16.0114183989064 -1.47064048227686 0 0
144.767314317524 -25.4136448434868 -5.9509006840811 0 0
118.706491110349 -11.3982972615774 -18.7369324639864 0 0
166.049190138041 -21.5578326508095 -15.9052686782286 0 0
104.078255739584 7.21908577284094 7.64223215757832 0 0
-94.2421898420025 16.6418832347884 -3.45024725789721 0 0
16.9470039135523 15.0817442235156 -13.989689959182 0 0
95.8382552074735 -8.44829267089034 -20.0392435313277 0 0
135.538244783004 11.9054996427763 11.9706826128569 0 0
-16.4779845551689 8.97567564309036 1.10466079613087 0 0
-98.3783474116049 1.39069982106083 -14.1233885875392 0 0
178.997514278848 11.908133663825 15.9876568775698 0 0
-94.6579662036456 -6.61873633793589 -4.50984357139881 0 0
177.074332312383 20.3247022605362 -13.6221672583673 0 0
172.173781290742 -35.4591012878014 26.5477652321155 0 0
-52.3577930561952 -6.50772115130575 -13.7576843195723 0 0
174.097398764921 29.2751318548446 22.1078991502764 0 0
-16.1985934677393 -5.42012146570014 -2.82745502133575 0 0
133.671100832439 1.15568057358807 -21.6632143151602 0 0
-66.4043436051294 -1.25838859185769 5.55588418928739 0 0
-17.9205319722229 4.88065892853417 5.41015950800561 0 0
-97.5532891420636 11.7737001684948 -11.4180727912194 0 0
177.148105946651 -15.8621909483115 -17.089894355742 0 0
187.097944260463 -23.5877492029148 -4.35331584646646 0 0
144.364750448726 -12.5774019754929 11.9755949044062 0 0
35.1609640537568 12.5318301818666 -16.4267995740515 0 0
110.743101926349 13.3641641574943 7.79919919089987 0 0
111.75063161482 -18.3862280849837 -8.07171343510215 0 0
142.617912748295 1.57697719812889 -20.9321137696571 0 0
140.360887377592 6.59344960850435 -21.1734430126773 0 0
-102.100392825222 -6.91736936459727 3.72713710063407 0 0
-89.3733941801291 -6.57559880395593 -0.395296652075907 0 0
121.418212572981 15.45009849296 7.7883617827234 0 0
172.730154740774 -22.2487047954356 -12.6726916362881 0 0
-94.8075375570014 17.0109564615985 -1.85398011779405 0 0
-26.1778220256826 3.85350383973245 -20.6964534747445 0 0
140.444373488013 -6.55454001717981 9.38851379563493 0 0
-56.3977905731278 0.237046340986368 -18.9247373660877 0 0
-9.52176530171774 5.27951694784655 4.06894529722751 0 0
-82.3804277118189 7.84641585362933 10.6547761272175 0 0
135.967731375741 21.6661906249649 -11.1897917817186 0 0
-36.0838193727512 -0.746385635844825 4.74524028237739 0 0
-97.9319067082072 17.2818696506878 -0.774647945109221 0 0
169.136728469436 -11.8723688538355 17.1763567551164 0 0
38.3182791013885 -8.45025657867503 -4.74280650322647 0 0
-101.592037622684 -3.06752706842349 -11.7025572048569 0 0
139.437708548087 -23.0873206676571 -6.98511989941644 0 0
157.968924246009 1.0228588452783 16.6163854033594 0 0
83.905653631936 2.00311724197356 5.63319228071496 0 0
106.820154095444 18.7281990146571 -4.31533262117736 0 0
145.041450882837 -25.5110378552803 6.63148259573222 0 0
23.2896687936865 6.97110172251992 1.89085189919499 0 0
116.838654996832 7.75775307320253 8.31071937077543 0 0
-116.018257768743 -6.69524632562333 9.90531658243922 1 0
78.967698738193 14.9412111225941 -0.964423684795448 0 0
154.80492977279 23.5275403443834 -19.8059021103511 0 0
121.201142941513 -8.65639848549615 -20.0698234646521 0 0
152.666149452992 -21.4173153826499 -15.5005550092161 0 0
152.2256030154 4.76431049605551 -19.8420668191589 0 0
96.4210748119137 16.5214121866643 -13.826718382605 0 0
115.632741076147 -0.403004318289911 -22.1137430872619 0 0
-95.9570476585721 2.41072250766094 10.508683043229 0 0
