"x" "y" "z" "f" "a"
166.613474236278 -7.83338730295635 -19.7520882321195 0 0
196.871559614987 -18.0319470306609 -7.16631417809249 0 0
180.003108281251 25.9004898952026 29.9810048753995 0 0
170.684484859918 13.2501491957128 14.3945996871251 0 0
170.737100120032 -30.0998004176903 20.0448549170735 0 0
110.396336640614 4.03809260138181 3.08479766753173 0 0
187.384610723782 12.2550785887932 15.4262565153046 0 0
164.635385772641 10.1351150958976 -19.7286284138555 0 0
105.954813362169 16.2877907939609 -10.1488922745956 0 0
53.0566864539882 -5.38037845173301 -23.4519490566083 0 0
-50.3420604802042 -20.0271996896525 -8.01416644391585 0 0
-106.306571973902 -13.813134711779 11.9013876502632 0 0
168.694172673609 11.5798468275016 12.35967110164 0 0
163.274241925283 29.7406344425766 0.518460333694759 0 0
108.447045996437 -6.23668072040473 6.5098395569018 0 0
20.6517742131604 -17.4070858039672 -14.8470880984075 0 0
30.5515302607672 -15.021466461415 -5.29284188506015 0 0
-102.499720583651 2.05992752583278 3.17396737203511 0 0
178.668992289128 -22.4110029112413 35.8066941730352 0 0
181.45474203897 -5.91335251104173 24.1715935727859 0 0
10.4270669609643 8.22206992720396 -11.9318281747592 0 0
162.221362456575 -25.485247703762 -4.21129953178669 0 0
-81.3749924386351 -3.65581391675669 -18.1220367257525 0 0
-45.7970327543708 -5.43626920842606 -22.1016306287164 0 0
196.735807939263 35.0798487928138 22.1414355223583 0 0
-101.987912482017 0.11377449755699 5.10292989529228 0 0
-21.2147190212408 2.89311965338196 -19.7074354780686 0 0
85.3683414864794 -16.6230248703191 -4.65643409525522 0 0
125.279663423465 3.93038935210644 4.29813045814874 0 0
40.1095573308145 -2.94484275266276 -23.5887614031881 0 0
197.129082321322 -24.7596373452779 12.2404472670087 0 0
85.9718267331328 -11.467837403893 3.50328546832466 0 0
30.2060427109308 -11.3508597333289 -1.54774364925384 0 0
-116.142783531205 5.74530100694812 -4.01437806491301 0 0
-73.4034216597154 -14.9093996704502 -17.3919320030502 0 0
186.998756120608 13.5809570892891 -21.4299697401098 0 0
195.288091813902 32.6269618884006 26.5549793838743 0 0
184.871369400822 -31.4236793901197 12.3636773470769 0 0
50.7507030439933 10.218513816612 -9.74140251349218 0 0
204.279500032265 20.8194183996423 14.5534251094088 0 0
158.06974776468 -24.6643152711847 11.4593590579632 0 0
7.01225282461286 -7.28995739038824 0.815953541408688 0 0
185.504304030338 -20.6389263482225 -21.2918367594396 0 0
166.757131512348 15.2288038800341 10.45246794941 0 0
157.921203191739 -7.98976194980463 -19.6649372869169 0 0
197.562204619616 16.9442758309837 -12.6903225147135 0 0
103.355360089429 7.22402189394831 -21.9946954645247 0 0
186.625494456175 -24.6332536220265 -15.9837312074502 0 0
-66.0308316388334 -13.5950631993591 -18.9235293775612 0 0
113.862691001106 -16.1798648342736 -14.3525766536482 0 0
167.552137573261 16.8580891119722 11.1143588817204 0 0
185.527215032961 29.3365062913847 -9.19074428623196 0 0
180.545297376673 19.6023049717752 -19.049879201516 0 0
178.318355581614 30.8177906858806 -9.46723154857585 0 0
176.478422491729 29.4799394646445 -11.0400946192924 0 0
-67.5345544333883 0.790820733154058 0.469959427720505 0 0
173.223002733521 -2.28660223275905 18.9039743029603 0 0
72.6142379943762 -13.1763038462093 -18.8028370937595 0 0
178.878521453266 18.0710795823503 28.0684911722056 0 0
-67.0740129764637 7.1941728940122 -7.88084166175452 0 0
191.354214957995 30.8353672383724 -4.95490385416216 0 0
177.247195771278 7.64759345004076 15.6911814092781 0 0
-18.3043795644379 -18.8386988644695 -12.0155639802161 0 0
62.9860402090827 -6.63784848600073 3.74906059515992 0 0
-110.40373816685 -5.11303805067089 -14.0500805630498 0 0
-60.1023229197571 -0.576799117734557 -19.1435759451153 0 0
144.418881639707 1.57952092667388 -20.4515016771463 0 0
157.935363168521 17.5776396730964 6.83301902649277 0 0
177.120914274418 -0.529528860055015 17.067908642312 0 0
3.86437843655534 -6.46179329415147 -23.461815871134 0 0
-64.2551202056412 -12.002624715064 4.56678654171477 0 0
96.6600569830918 -16.5780860656103 -0.505371334054832 0 0
-80.382255290697 1.15168643406462 0.966698262336459 0 0
196.60278588485 34.9642613740537 14.1301597037542 0 0
-68.0519916699616 -10.0086582972616 6.2341616987758 0 0
173.354261830867 34.6358204097754 14.4436155764761 0 0
148.554810591788 -22.247665742423 1.08295114325773 0 0
181.916536442555 9.21557921695697 -22.5400924779992 0 0
132.556254294887 -19.3972098355163 3.25555190742615 0 0
151.427029175611 -17.0828236790419 13.1223717632745 0 0
156.95885225941 17.8626426472474 5.92628780343459 0 0
167.682112106514 -32.2989190404095 16.1100911756246 0 0
143.683192347907 -21.3088003520438 1.82456712519149 0 0
-122.590202094251 -10.8923553077534 14.8518687577655 1 0
51.8394535738448 1.83488470956214 0.673191779728462 0 0
-97.2894224742779 -2.80969385597053 6.63234687857115 0 0
107.456971771584 16.4606183563357 -11.8474888714261 0 0
126.754189283613 -0.49187808971641 6.05451839738751 0 0
-11.3658920255211 7.95618229091311 -11.8169862803159 0 0
184.465896129448 13.5885476362714 17.5820103111117 0 0
34.6389172594024 9.47426748419465 -11.8848031127777 0 0
185.084567168285 15.003220180105 27.5523220082158 0 0
140.045165263974 19.0487965407296 -2.60232178446193 0 0
147.277644146832 20.6058038254847 -0.884814159024504 0 0
-82.7127530656386 6.01661030518148 -4.04878822042568 0 0
-114.426452318057 -22.8819565859778 2.21120456013392 0 0
-107.630243944928 -9.53894402140328 -15.0520895885426 0 0
-116.668477115784 -15.858622998986 14.2879846871386 0 0
-3.53227146861524 -5.18313424556745 2.67196416287321 0 0
-118.830574929558 -18.9552571853137 11.9347053960825 0 0
196.669479705193 -13.87677164229 11.1297315498813 0 0
143.546285472341 -11.7697687886672 -19.9879560826847 0 0
2.37668973994205 -14.2279266920251 -4.80878204391473 0 0
77.3446590187904 -3.21235686596904 -23.6808964642951 0 0
-42.0917065262421 -17.148799414609 -4.75594943350449 0 0
37.2331940739951 -14.7467836865662 -18.9034077590012 0 0
78.3420142581208 -14.1706475668265 -17.2034269235174 0 0
121.759031863149 -18.3888132348401 -7.97805753957602 0 0
70.0173159484885 -14.3450017893567 -17.2587139196967 0 0
128.168492178984 8.09870568607614 -21.2196505160018 0 0
53.4858566935447 -1.41741546428024 2.61538660927655 0 0
178.643178808744 -30.4800080964698 2.52757277808881 0 0
20.7287994155347 -8.29961991898894 0.125717991797607 0 0
82.9612402972893 -4.15544723365904 -23.5483615191704 0 0
-42.4796775429165 -6.85498177895235 4.24035173866765 0 0
-122.566149420505 6.11630647924278 1.97313757633487 1 0
182.719378214671 38.4727774289704 7.89007195418273 0 0
-75.5171722107034 -13.1045600890143 -18.3248612430861 0 0
156.735238965676 -1.35233411305682 -19.3182115611708 0 0
198.769537161247 34.4255757012989 13.1990505272202 0 0
173.862820320323 7.14597868301709 15.7679065696241 0 0
187.293532020574 18.4980301633187 -17.6752075248924 0 0
157.113445288209 -16.0600440365818 -18.7218297888493 0 0
189.361388161937 -25.8971022334847 -10.5498579337942 0 0
-8.84834976596615 7.92664585084063 -11.639239356625 0 0
36.2250969367399 -0.314904004873513 1.77544567068487 0 0
9.11255997871793 -6.02119104572126 -23.4933911942406 0 0
180.643165702795 -20.5678066135886 -23.8781638593796 0 0
187.819564307589 -21.6918271562461 34.3612111319248 0 0
100.419817339314 -14.2639576273361 -16.8071011595069 0 0
174.263184100096 34.8192954978364 -2.52963566334703 0 0
-107.369378562867 -11.1569505257252 13.5131806969446 0 0
191.947814931972 7.71155090431132 10.523226934881 0 0
-7.06050490503641 -18.5003040321778 -13.6839918163976 0 0
171.269451721563 -31.6034298016415 18.5679382208623 0 0
168.534359937923 1.21232053029268 15.4546359746958 0 0
-90.1826421716168 -4.01725086126438 6.22544632802673 0 0
178.334639226177 33.7556544018283 26.9159601165135 0 0
-117.595099073605 -23.0882810112867 0.0600596323267261 0 0
124.880549422938 6.40132999863654 3.25187998352224 0 0
-39.0779988947132 7.55061383966282 -11.5309008963601 0 0
197.718177959581 31.5828944252071 4.39568035681052 0 0
187.931952726145 8.68067555041993 -21.4754399179023 0 0
77.431340932509 12.7973100503664 -15.2833093959264 0 0
-14.8671297550181 1.68916666965625 -20.9578418695586 0 0
37.0769848687098 -10.7362460305366 -22.0428164797701 0 0
-90.1806539151412 -9.80290700760462 10.3829525591545 0 0
128.594239108585 15.0582324377908 -2.07210588617659 0 0
-95.5105147183756 -15.2780757246337 6.95197141570164 0 0
95.0989867105616 -11.4882648905458 -20.0744688782537 0 0
-31.1170714688043 -5.57256050100238 -22.8004113364785 0 0
123.477210115579 -12.5601121815686 8.13396613075008 0 0
165.881002266842 -9.34356763665081 -19.9926413911147 0 0
109.929003448818 -3.20866488566945 6.20193361162005 0 0
8.79173928934461 1.16889675242304 0.468803078726105 0 0
160.607006508242 -19.3367956817744 17.926287342669 0 0
-22.3090302113235 -10.5296482002467 -22.4212905666445 0 0
-102.108935751686 5.85570640156616 -4.61535323386914 0 0
99.3640845615728 -16.2862211018364 -12.5822195939176 0 0
93.6989013166651 12.954191923749 -17.579669777004 0 0
-58.4377594998867 0.0676764038762134 0.51788235600155 0 0
91.5132792886838 -17.1254482775672 -5.18405773890998 0 0
172.378784520309 -26.2454506058105 29.1973141563258 0 0
185.808375277205 -27.6810846418829 -4.17380359527395 0 0
-110.598616887915 -0.40307965952586 -11.9945976987928 0 0
-58.3294850946757 7.13967383503401 -6.8856541020201 0 0
163.045944853335 1.0329779944606 12.3749932432737 0 0
165.075826777295 -1.63116600055903 -18.6268317228439 0 0
93.7924952121416 -8.67982729698267 -22.0708191095181 0 0
167.387272069038 -21.7351778118725 -17.2569902489213 0 0
51.4229094346255 -14.3909474476196 -3.52657947904506 0 0
57.3780743517322 1.95600996017856 0.648470876384692 0 0
167.091226589124 -22.0029445606206 28.2502622743149 0 0
193.836357066573 -27.6862748806201 9.55008227623314 0 0
80.2116118333388 -15.2574770694126 -15.0612783306243 0 0
50.3227974693905 3.64044521449859 -1.18584249903706 0 0
177.221616003003 18.0750701094477 27.1285287334379 0 0
-27.3456745874228 -11.9238021600811 -21.7521205194831 0 0
110.002549501062 16.8192345910367 -11.0032458107677 0 0
178.996586796147 1.22799157253149 15.2829989214538 0 0
166.68064557968 34.0380132383573 6.59989580531034 0 0
201.096350298808 26.47236352571 -0.998267576036446 0 0
129.192979371031 -2.93755070386547 7.01938714090329 0 0
164.540538710905 0.642588732978596 13.0866859709593 0 0
158.376102208623 -5.88090414745785 -18.9344803232543 0 0
200.755853381371 10.8453009359448 -4.45172292432972 0 0
41.4297531221705 2.11037435784511 0.303485597946873 0 0
167.610865860022 -26.7014415978042 -5.17363556528204 0 0
57.2397034979745 -1.32306143618268 -23.6039352591328 0 0
5.98769450562704 -7.90489347426352 -23.3158467922139 0 0
114.429630043817 -1.68704809337091 5.85185427799085 0 0
-25.3274659682651 -11.6553987559183 -1.54705816894171 0 0
90.2901080420758 -13.1146120120648 -18.4342587072719 0 0
193.540611023709 12.2466856022551 16.593343556882 0 0
148.986076712639 -2.37233872058909 9.27697672828728 0 0
54.258204348939 6.87189466050677 -20.6544718103191 0 0
187.118065614812 -23.7099262427411 -17.5849980990152 0 0
165.326289940656 -12.2726326919417 21.0429166190664 0 0
188.667950863715 13.9943606033858 20.2610744188077 0 0
197.102271815001 6.55777109095936 -11.7512989038715 0 0
173.256794178315 30.0896405514298 23.6682321677017 0 0
172.2421467334 29.0245269603762 22.748716660828 0 0
178.146014452849 36.9521976068724 0.197662164100736 0 0
125.321897785057 -6.48811682718627 7.54679002091787 0 0
-91.378911300955 -17.4432549247233 4.90745729049877 0 0
-25.3477041872213 -1.23780741044908 1.81150385760713 0 0
-32.220418645297 -2.93009095676383 -22.3203143807188 0 0
48.359333301783 -16.8579193808199 -12.8191262463484 0 0
-9.77063158212768 7.27915567659086 -9.12105076461795 0 0
61.1471176231777 5.29160136758567 -21.9640989893561 0 0
170.240653236655 30.3053759669175 15.2255885889009 0 0
-47.6229864049372 -3.50808507331222 3.02213011365421 0 0
194.692872048073 34.319130702959 25.4997753566952 0 0
42.2592706900924 0.460182651060933 1.45202468927205 0 0
167.051075664365 -0.596697250652251 15.2306373542344 0 0
-57.9065519032387 3.27275705560369 -16.0471009295492 0 0
-115.90200234027 -10.0650626107913 12.9336801406095 0 0
88.878955565908 -6.597760678251 -22.9566514025908 0 0
-68.8150904967442 1.12421298331013 -16.7988408340983 0 0
-40.3141612705774 -6.59889328222281 -22.4605778892382 0 0
172.274435010726 18.2337460286464 22.7435297448449 0 0
23.814357674689 -5.37148341388367 -23.5700207890277 0 0
165.936099608332 3.91743535877371 12.787630772935 0 0
172.120469297872 -25.3748144702083 -12.648306276976 0 0
31.8820051687023 9.31798988442729 -11.9460132256316 0 0
199.434885927617 28.437383539585 0.821369085704598 0 0
123.666504806819 -8.14051904877682 -21.7495439471463 0 0
75.6906378605506 -15.946426962956 -3.90773029907599 0 0
203.143229932126 13.4960478382906 4.89847970396329 0 0
194.164547675716 -25.4055060528601 -5.90273369671384 0 0
47.7788136979755 5.77423559947275 -21.1196862238355 0 0
136.787176081856 -20.2685033505775 3.12585294607194 0 0
124.183722975601 11.2718685737342 -20.0662358502008 0 0
-87.3131413339385 -21.0133166996649 -9.30411801379422 0 0
-12.0624515680002 0.689837437028042 -0.784713354076147 0 0
164.718318407038 -28.89029305313 8.47903208514307 0 0
186.342766147494 -8.24314444352263 -16.6312430510662 0 0
48.9170185020599 -0.838524376477001 2.28860527678216 0 0
189.369706179954 37.2853820137646 13.2195432211837 0 0
184.717298426999 37.3189062808811 1.67069958554452 0 0
168.12914403071 -29.4662365673336 19.4741028560556 0 0
121.385132097131 9.68182074860473 1.11079991751216 0 0
103.208829166273 14.7045138490465 -6.63122990498954 0 0
163.498404938384 -26.7687422378301 2.40967418294411 0 0
184.791807398028 37.8591389906591 8.08128372355922 0 0
43.1697689775417 9.94988399895701 -11.0559469864863 0 0
-117.487838840021 -22.9301514907424 2.70514036182599 0 0
-94.1681418364118 -19.4768766901073 -11.1706560848872 0 0
158.434634782003 -8.80587681336183 14.2485483800459 0 0
107.858660850811 -15.8176838599985 3.31158916644603 0 0
170.959688942174 26.9309586067048 18.8611070188935 0 0
198.184312256512 5.99287400376068 -7.55826621641167 0 0
66.6669962633305 -5.93202521830553 4.70794691052412 0 0
197.253826746795 24.5909984494467 27.634702667812 0 0
88.9133200259208 10.0229364475821 -20.2878242243604 0 0
-86.0917845370277 -22.2204499528024 -6.57067430586151 0 0
194.268631589656 23.7952852838108 -9.89124628665199 0 0
180.544819267716 -8.30820334547075 31.4573540233463 0 0
188.6233670278 5.4585358014173 -18.5577763025414 0 0
72.0954848019729 -13.7455312070435 -0.123100223148634 0 0
192.595978006469 -25.6468539195368 -7.69008743344993 0 0
160.780861803659 24.7014434920169 4.75570656689001 0 0
170.683523495588 -28.8782282373535 23.9892935677864 0 0
116.670612655423 -18.3450120221973 -5.87191978269321 0 0
111.117718184447 -8.9537387922667 6.83717617458508 0 0
189.608581697629 -18.2395506537919 -18.10863180458 0 0
84.6530844873927 -1.5555356795407 -23.6723531397395 0 0
-21.6390484534675 -6.79679092602578 2.4721694271589 0 0
171.494101795206 19.7612355287032 -18.2854147265818 0 0
160.195112310371 2.8178611896471 -19.1443384246619 0 0
-83.1372777054144 -13.4303841149714 -17.2455808941548 0 0
165.222089367924 0.280821135042573 -18.7956043892372 0 0
122.829357014008 9.31649175212415 -20.8926753591251 0 0
186.948712532134 -6.62880620338963 -15.2338023149778 0 0
183.581884349362 -27.5068633212939 -6.59003703411334 0 0
-98.2814888023756 -4.02226970415192 7.40786671533568 0 0
161.53332991483 4.03521032170516 -19.0463614551576 0 0
131.918412417867 -17.1065709858363 -14.0828549028006 0 0
-65.7349562393061 -10.1989108419423 5.74612499911672 0 0
-73.7771633712141 -9.7323242608033 6.59216723999119 0 0
195.163600727671 -2.8831495537073 -1.86018623064292 0 0
174.16271210236 -27.3878540950811 27.5364874137687 0 0
200.679035979305 18.5160970071072 -8.90421856520165 0 0
182.426340586567 -1.69869007289092 15.3304532336417 0 0
114.226192558771 -6.93291828897738 -22.3301333257934 0 0
157.6319567847 -23.6821716280057 -6.63563869154669 0 0
92.978345697928 -9.69680144843729 5.17313898408189 0 0
26.4747176489011 -17.1837494062817 -14.9585386821294 0 0
107.764360744515 -13.5213984526274 5.5604159584588 0 0
195.821583178508 -28.0919955785979 18.3912919905043 0 0
78.4243194511452 -1.50037298537381 -23.7000562250659 0 0
165.712830394966 6.79235820357084 -19.6641540584825 0 0
-3.44801009429434 -13.0638300993988 -3.34166643384374 0 0
150.071893364969 -16.7812047253524 -16.892400023317 0 0
-20.214615192381 -10.5804213440303 -0.924916812389778 0 0
102.230976674846 0.327839883974869 -23.3471506349247 0 0
47.9396423096629 -10.8616455154705 -0.282128859292141 0 0
166.031293414192 -31.2955423881804 12.7497818260833 0 0
-69.2617610724711 4.7143217391907 -3.05652323841718 0 0
167.325050966702 -30.7067966900327 17.8564324768032 0 0
116.852093351659 9.10843846628544 0.845774458947912 0 0
196.672698563695 -25.1751032689121 6.3082379206548 0 0
-1.43800510756012 -18.0210547968985 -11.6868766733198 0 0
-69.1374998496499 -6.74528636720221 -20.319561908628 0 0
194.415744314247 20.7489333295505 29.1568232298679 0 0
-49.1976050923497 -17.5938100217924 -16.3718172295074 0 0
-56.2664061690623 7.32705586523153 -7.40281991574526 0 0
14.9001078434031 -6.96582997022826 1.01626666691694 0 0
164.146315024005 -29.7682418245908 12.1976307762989 0 0
-101.157526657186 5.55361644338943 -6.96766927844615 0 0
-106.553584563241 -5.21579232635264 9.27661884447489 0 0
186.91740404058 14.4142968904948 26.6052123288518 0 0
134.647871304688 -20.0327484840577 -1.81872219329343 0 0
185.969249593356 12.1803918791123 15.4814407858152 0 0
134.29374334851 1.6216145293878 5.92780791531572 0 0
-2.9307483766349 2.01835687436729 -1.7983239723459 0 0
129.747002937183 -5.01668233634194 7.5473599274094 0 0
163.070898181984 -8.7546833590354 -19.7592107670875 0 0
-116.079363526826 0.873447638934146 -10.8381207069563 0 0
197.12799992735 -15.6571123271174 9.88369438996631 0 0
194.454382764115 6.61244337064583 -15.6910524096517 0 0
-95.141858277626 -5.72926531889845 7.59508159512565 0 0
113.682712615101 -1.84390008165281 -22.9358022447047 0 0
63.5980056957993 -16.3102176636346 -13.5837537706687 0 0
142.939470424323 -14.8243723294909 10.4441125623835 0 0
195.269186483932 35.4654744912853 10.7833747227932 0 0
12.9269555513899 -6.62723936256726 1.27288787621465 0 0
173.845850797022 -33.1583451166264 18.6024211269944 0 0
163.089394208206 29.2177908007652 2.85695309486743 0 0
151.081884827389 -13.5167935019834 -19.3240621336266 0 0
188.316493512279 -26.0272626337921 -8.75090400371755 0 0
31.6110111629161 -16.5024551796714 -16.6206173857666 0 0
140.813755831565 21.1500933900798 -7.38667366808402 0 0
123.299216740368 -18.6955952789164 0.709657132398776 0 0
101.218770549795 9.16233451728602 -1.26885204082372 0 0
202.591482919278 30.8972421720942 10.4036384825936 0 0
186.106336412758 -0.374288520013065 -16.0951224512078 0 0
174.722428829068 31.9430035118639 24.8250128207859 0 0
-13.7399018732754 -5.75306144599526 -23.3291468675174 0 0
125.997995602814 14.3731332510697 -1.9613484748296 0 0
-109.780775380233 -2.41617576210299 -13.2077826145888 0 0
167.031918641413 14.122859553819 -19.7031833086589 0 0
-124.092676334358 -5.9321291145721 14.3493500557597 1 0
177.094241664472 0.761726235723467 15.9232466909019 0 0
177.939264931863 -19.7972188601932 -24.6379835849125 0 0
164.895003211841 -12.9607207551794 -20.6673681697081 0 0
42.0065467216463 -0.571798568157995 -23.3320794371408 0 0
-107.932724091092 -14.7629541729582 11.8562065814412 0 0
121.750217199427 -16.7910815893818 5.0817969013824 0 0
119.400258963927 16.3792137111292 -5.67365714104981 0 0
127.624320815335 -12.9265379091767 8.38913541731148 0 0
-10.4153740524089 1.62407673811107 -21.309629433628 0 0
189.264052215103 36.427143133924 19.4643276759647 0 0
127.20997412049 15.1778167222195 -17.5140203592439 0 0
174.337798022545 -23.4406262266306 33.9729783821266 0 0
-97.4081546969694 -22.5064150694772 -1.01565371787613 0 0
189.88710048247 10.8209857776502 13.2801799045453 0 0
-24.3732260509095 2.19314741576212 -2.22808519213811 0 0
-1.84560187153035 0.000758816784045186 0.604665549530307 0 0
172.369730168952 -5.48790282825619 25.0146530984739 0 0
156.872012134769 5.38902719218552 8.82950978207179 0 0
39.4727732241291 8.88493626354126 -8.71950583061421 0 0
36.748548866385 3.36764258151619 -1.62733217181697 0 0
-14.286251195787 -2.59277415793754 2.36666776303788 0 0
192.984635774807 -9.62582196045759 -10.1439387960524 0 0
179.83366373725 -13.749454180222 -22.0400936543204 0 0
86.610365561021 12.2550802899678 -6.5561830423049 0 0
89.3182487751078 -16.9074810992174 -4.31266396777433 0 0
15.9702761136783 -17.8107417660569 -12.7073342187903 0 0
159.557187859077 -26.1863407465992 10.1927912842946 0 0
190.793361576389 35.1197545372094 1.80723637539277 0 0
-41.3499475147864 -18.7985482443488 -7.02130711669862 0 0
164.056919640937 -31.1509839793139 14.2910393800199 0 0
204.490288513624 23.3861275941272 15.0150966553505 0 0
191.758309004102 36.9547080311618 13.1944261988018 0 0
186.623490202746 21.3296169245914 31.2734799596764 0 0
170.042846409257 21.9465258946623 16.7990436169813 0 0
147.221026197932 -18.92735931224 -12.9246931842925 0 0
-44.4737006810867 -0.397699407831808 -20.4691293123144 0 0
95.5409515705157 -9.90800896987468 5.32815960791305 0 0
155.707154223071 0.0543901794168025 -19.1433262331301 0 0
169.693961057246 -14.1481060333346 31.9294942228101 0 0
197.577006082277 -21.8470449173397 5.74886263263566 0 0
117.457881935233 14.041726000358 -3.21337110335702 0 0
48.0337944890912 9.74043418585465 -16.4443521249735 0 0
124.289923591658 15.2326820494088 -3.2532426712319 0 0
77.1364368272144 -1.25138509804214 3.546496236647 0 0
171.114311235069 15.9914777139275 17.1401661717667 0 0
152.976769522579 6.85359035543083 -19.9054148000773 0 0
14.2390241682825 1.23643296337522 0.374939798124286 0 0
-10.4596366604653 3.4577965664001 -19.7866725791086 0 0
191.274275139318 -3.20943719655379 9.92532703473822 0 0
-52.5878951492074 0.297789014043913 0.068015656143422 0 0
129.878391301561 18.3847279791778 -6.19308320883733 0 0
198.488034123642 25.6052575902532 -4.91468871381925 0 0
14.0765752760171 8.14938475597395 -14.7987437040817 0 0
-86.7755483012804 -19.541431648805 -11.8966946013999 0 0
135.941162068961 -19.6497866207972 -6.71256796605085 0 0
-107.251587766435 -13.895848177556 -14.0663505987043 0 0
107.946849644814 -11.0157130574723 -20.5933969612541 0 0
-82.3661610156657 -1.97489099079704 -17.1867627615301 0 0
160.161144612876 7.28712573622149 -19.5956186216498 0 0
45.2712343418814 8.85904558256934 -17.7372506343631 0 0
186.770900581197 -4.41311130936368 -14.9353195715053 0 0
23.1453818463633 -13.9310375451567 -20.1451467733483 0 0
131.959085618046 -11.0031499635471 -20.5477244565897 0 0
103.1383349058 9.76626410837545 -20.8319445589446 0 0
-47.8763320469489 3.56869074673416 -2.87746555824463 0 0
30.6144967716567 -1.68919142566071 2.4678413619512 0 0
41.8441954567675 4.47857907756172 -21.6759457583301 0 0
141.290389001713 20.3643257067437 -12.2150592013317 0 0
188.392336616033 -20.2956603766696 -19.3897083331437 0 0
-37.6628887741564 -11.4529075375925 -0.17888852833582 0 0
187.610534689906 -25.6724673724354 -11.2331678168371 0 0
168.129584281392 -11.2092468533999 29.0316398971075 0 0
193.292564011335 -13.3368010022585 26.3307238511811 0 0
44.2045319554904 -13.9058901026562 -3.28209485072471 0 0
126.434546604346 1.72020517678829 5.2048602111247 0 0
-108.464813555356 -11.3620833429349 -14.715213832081 0 0
183.551055231745 -27.7321109301217 33.6501256471106 0 0
146.493611450217 -18.146400185156 -14.4314454099284 0 0
86.0200384586975 -13.3105964314577 -18.260590757358 0 0
117.928684631971 -18.5436301110809 -3.8097317003969 0 0
204.841784447444 24.891922500239 0.360923922437958 0 0
166.026627939257 -14.4648649514665 26.8258238195964 0 0
166.104744004702 -29.1244758823819 7.43574506505477 0 0
172.93994790178 -10.0745527891161 32.3103739761743 0 0
162.756804347293 2.00819535396719 -18.6943358191044 0 0
-84.5094590000169 -4.61143178375528 5.80054362943026 0 0
203.963330742647 17.7217423037445 11.6636766990094 0 0
200.561184649791 32.6231207107622 15.515235420579 0 0
-11.8908295973467 -8.36381128509247 0.305068179596344 0 0
102.059344141217 -4.41966223190802 -23.268576245042 0 0
109.136539130684 2.64223340702358 -22.9356015157418 0 0
144.760585290265 -11.5774220934364 10.9802247253495 0 0
192.746083465595 34.3536576482912 2.24639055950107 0 0
-84.9340897873551 -19.7732072872366 1.14767651709256 0 0
140.057141433901 -15.7410690128578 -17.0259932120937 0 0
180.702282219984 10.4397228797519 -22.2696090936347 0 0
-88.7342325490342 -18.1128794032173 3.97683651435069 0 0
171.946076468464 -6.33527403269558 27.2975859069647 0 0
-76.7295997421106 -14.1477445634002 5.85347993826585 0 0
167.070465035488 -11.0903169474009 -20.6535664999866 0 0
86.4688518091305 -8.07567257667761 -22.4107294999349 0 0
67.6467060491044 8.5015993197505 -20.1328810929315 0 0
186.634345904134 3.62939477451829 -18.0500131928265 0 0
139.775136451019 -11.4833642862355 9.99091597870645 0 0
-50.10769366197 -16.2721973931394 -18.0361931326413 0 0
178.713744290689 9.98890838680028 -21.6645619075588 0 0
204.206257305112 29.4875149040428 8.02580686050723 0 0
155.046377735245 -20.3771753995357 -12.9597121649533 0 0
114.618525435659 8.57538689130434 0.858533650293823 0 0
194.35303171194 1.07288151706393 7.53578388348521 0 0
-34.8021611403912 -4.44642401850607 -22.5053449208674 0 0
146.789377289557 2.84037849149272 7.19323242029612 0 0
103.121883526513 15.9773431772539 -10.6790250521558 0 0
161.372605375064 -27.2468226264571 12.4213234364146 0 0
58.379444714892 2.83690349703325 -22.8464270957732 0 0
-85.6748088211528 -4.42302007767087 -17.8161865480744 0 0
195.09193234776 35.4355721564178 7.96324772423796 0 0
152.077304106127 -14.8511918101417 13.6909353722931 0 0
156.419422608639 0.774654303457266 10.1652623034613 0 0
165.930879118614 -29.2022382023727 18.5788219831542 0 0
181.584410555166 35.3459001424371 23.9449278016055 0 0
164.530097293351 -25.997649694774 -5.16803576024356 0 0
173.279893332713 -5.20188170519461 23.1836680804616 0 0
-54.1863120923934 6.55704104126063 -5.98887783304095 0 0
197.638445464185 30.8054976917093 1.74781858506448 0 0
-8.74368443315746 -12.0981245856382 -21.8288654789761 0 0
153.780270715896 -9.08628264465656 -20.079487132791 0 0
162.370017097613 -15.4088694895073 -20.134895093582 0 0
-54.3581818563593 -19.1310070590853 -5.08158933998549 0 0
187.80050572862 -29.2170367744586 31.5732167332414 0 0
-101.952420284929 -19.9515879484826 -9.93823121002096 0 0
-54.876663847027 -20.2408452446304 -7.38833458631472 0 0
182.950493961051 7.479542784513 13.5459155829658 0 0
50.1664120803607 -1.24118283010988 -23.5213433612016 0 0
177.880835972866 -13.4175421337574 -22.6141789671342 0 0
157.446508284917 -23.2179753289222 13.0416333089122 0 0
109.013362187032 -17.7750284344356 -7.68782152006643 0 0
158.61554865583 -25.1333018722478 6.52211971799779 0 0
-42.3682432731669 -4.35065352207543 -22.1244736132378 0 0
64.4361444980752 2.16015398232219 -23.0945835782342 0 0
-124.744441801271 -9.37646422418575 14.8772493663732 1 0
-59.8282057465591 1.45610617216521 -17.7588801061059 0 0
-56.8297281141672 -2.08312379297034 2.02967052690481 0 0
-59.4743780454442 -3.55065689059376 -20.6475952127222 0 0
-72.2720754818894 0.911662775744986 -16.4799017712905 0 0
180.044320277571 -5.36464098665973 23.0824923788897 0 0
130.210598866644 9.54912355060314 -20.7013939345364 0 0
198.047617353607 -20.7602451124097 4.06612589315642 0 0
-97.8490723928762 -5.09319528132076 -16.0455698300831 0 0
157.71393746658 26.4805594355334 -6.39875026217926 0 0
-47.155918081261 -1.97205438830134 1.97863492113448 0 0
195.089412431247 8.77904655230576 -16.6058618430352 0 0
160.200631606237 -16.5236169032147 -19.2055646931099 0 0
200.675173401928 28.0381514586894 1.34561732063525 0 0
-78.5590484280636 -13.7967792799188 -17.5758378202928 0 0
173.292795084326 -18.2636045101468 -23.956186081206 0 0
174.355072838322 36.5705149808765 1.47854049665162 0 0
150.925028024091 -6.1284266515784 -20.0669422287031 0 0
164.429168333635 30.7438357709253 1.46767091767944 0 0
93.5187984985569 -13.625038015389 -17.6406082456855 0 0
17.5374628945693 -11.9521685929399 -21.7855876105965 0 0
64.384856506367 5.7422335088843 -21.8486068224998 0 0
201.849983648201 11.4710068873375 4.81519720008263 0 0
138.005363122276 -19.8260976712104 -7.06832327880803 0 0
167.729508586791 -17.6320132907176 30.2783531876758 0 0
-107.30736561521 -17.4516975060965 8.05876121552784 0 0
179.00039983113 35.6361300368366 23.3661385650503 0 0
189.83840517378 13.7890446787866 25.6942495302088 0 0
64.3144679834292 -14.1411149983553 -17.8736975614337 0 0
-30.5614862481693 -17.8037128520244 -7.06240840236096 0 0
109.53610972153 15.7126524623825 -15.1139048206654 0 0
-35.3945545570065 3.77109605914523 -17.9476832213536 0 0
-107.99549107652 -19.7561519439236 6.00393305927224 0 0
-39.9202555178624 -12.7413239812316 -0.966663967133057 0 0
199.557246013482 18.3528317902176 22.9112441896793 0 0
-59.1205308949209 -14.9889706741323 0.219309872587784 0 0
82.0425151704827 9.07781237398769 -20.603977029927 0 0
58.1606632592211 7.62477341345206 -5.01276147861153 0 0
-52.392380215553 5.70320879068066 -13.4334600677393 0 0
175.172496549976 -16.270406814325 -24.150071554323 0 0
197.825743281162 12.9528659465843 -14.316586889564 0 0
98.4000943035857 1.76042282601599 3.30762440118893 0 0
-82.2965048890064 5.81601923138754 -9.02410380435254 0 0
182.144234912532 30.6458822530428 -8.3717384291775 0 0
20.8449612625474 6.78010015996456 -18.5026329044264 0 0
-85.7225697300938 -2.54021247703217 -17.0350428679366 0 0
72.4458913079162 -10.5944402543821 -21.0711940778396 0 0
112.118571351013 -15.0547128927665 4.99956536500985 0 0
155.385728377314 17.770659898408 5.19857970117512 0 0
188.769745053428 15.6054161393982 27.9760430251689 0 0
192.847783650012 4.41690535624189 8.79672893238867 0 0
57.8639540069671 -13.2853792964176 -19.3150825537221 0 0
-96.3499314717692 -10.5309619289212 -16.3553067403324 0 0
-57.0000949952542 6.11713971751974 -5.11096111750154 0 0
147.955009259938 5.16528792794618 -20.2759555254304 0 0
-73.4599357927367 -16.389960996186 2.20298821757588 0 0
17.7929136594271 3.07745445351045 -2.16571463370122 0 0
73.6553346764975 -15.0599846265107 -1.81128263677703 0 0
175.424165494625 32.3493024951842 -7.21700669669087 0 0
64.5958971076281 -15.0420209865825 -3.45761205970647 0 0
163.107852634425 16.933622029491 -17.9678000395162 0 0
170.359309434899 -5.59087222279526 23.7218244127228 0 0
118.908795628926 -18.2652784473768 -7.6062216976733 0 0
167.08516267886 -9.76986300158504 -20.2931594074872 0 0
174.337347258184 37.9747758242935 7.24699007958286 0 0
-75.2129946866136 -21.826575347617 -7.55263202136482 0 0
170.360122795607 -28.4856167111841 -0.833313768484277 0 0
177.898249750197 2.63860866229279 -18.9498735565866 0 0
197.258692385868 -19.6883871190959 13.7687204877997 0 0
66.8845853015808 2.79101515908408 -22.9951999266128 0 0
194.507650525428 -29.2474557783548 21.1005944770881 0 0
168.327415022463 12.3962486442173 11.5828392095439 0 0
47.2079918417255 -0.3894478337794 -23.3778384306795 0 0
136.422785785236 -19.0544759041054 -9.74366359412237 0 0
-112.027012744211 1.47598711576779 -10.5842200801516 0 0
147.502856074938 10.9485483848711 4.72174484052716 0 0
182.287888376991 0.491371570119398 13.2057244980408 0 0
81.7785659211074 -16.595258075936 -9.08405912434559 0 0
203.26584624425 22.9983337537535 -3.79706101874893 0 0
123.913681828666 -16.8134246395978 5.55922874063563 0 0
148.099965402088 -17.5794561495944 -15.5956588611889 0 0
160.981127153473 -23.9509474537332 -9.10669048358841 0 0
150.10291869224 -4.56061639472613 10.2835189331283 0 0
74.8440826907848 12.5045927358051 -15.374094659768 0 0
1.73210087331573 -7.67885010315924 0.61690899344089 0 0
55.378683080228 -14.6323325118616 -17.9036102946684 0 0
19.2004746298255 5.17275985212278 -20.0575494229181 0 0
194.331288946795 -1.66889188295643 -6.3668738443351 0 0
89.5985176024816 8.89533897565618 -2.29371343382483 0 0
158.226083388642 11.8037584523318 7.5745508228397 0 0
178.101454067524 -5.45595333202849 -19.7232143521401 0 0
12.913533768901 0.657985948397645 1.76519318405337 0 0
-22.2918780453973 -16.4692213431013 -18.9395874497889 0 0
183.13887473639 14.1108594006419 -21.4253074200888 0 0
171.076586401341 35.8853914694572 8.36444752144047 0 0
-16.6662866429246 1.95463181646358 -20.6829126023219 0 0
-38.2451913002496 6.2050580575284 -14.7425364064468 0 0
-21.5787242641387 -0.369068504321326 -21.9288864100414 0 0
101.031668754493 -1.96539756199955 -23.4443066302771 0 0
184.755097495194 -0.496311423595431 10.0605160570436 0 0
181.758220467438 25.7604702571445 -14.3427539318758 0 0
-92.6705702326703 6.05939838395437 -4.03651422665335 0 0
63.5661610154528 -2.6365731897768 3.61789727500462 0 0
129.171198490428 -19.4113893086898 -3.1600080463753 0 0
150.047144871622 -10.280824749421 12.1835535442563 0 0
147.377597258475 -16.2442785306216 11.570841708353 0 0
185.463181719694 25.5876505652662 -13.2587928476085 0 0
70.8229619213333 6.61455247017359 -2.64179350773522 0 0
198.91639473242 33.6182076814319 11.3339943265145 0 0
182.754415716385 4.89447631127871 12.6333957586946 0 0
184.275098213501 35.0698767842667 28.1496477788416 0 0
51.0640613193864 -16.5504257799247 -14.5568782679132 0 0
169.839139619206 -6.13221551224646 -19.966826160905 0 0
61.7421592719002 11.2009216391226 -9.92289415668206 0 0
-0.983295599191772 -14.4686231852066 -20.4328042573788 0 0
86.5114853987111 8.11237687069861 -21.3983128296282 0 0
184.305031132424 -7.0247452511034 28.057483299267 0 0
180.535555882024 33.6698727991833 -5.1893797138684 0 0
173.483101285107 9.29224387166427 16.093444373503 0 0
78.388441048048 -15.7608866305364 -13.66616717317 0 0
193.826889977753 -18.5840848084924 28.3680620194486 0 0
147.625516901097 -14.5234177757493 -18.6135224097961 0 0
109.282023802914 -10.8183082003313 6.83136691168657 0 0
193.397655683679 -7.35048443370455 15.5752758423948 0 0
183.154402021641 -23.2292995183319 35.695750367196 0 0
-102.283393718378 -0.991476641539043 -13.6626154439344 0 0
159.503216259702 10.8194265212653 7.91271744803761 0 0
39.6820269432382 7.35107120732569 -19.290615113058 0 0
186.082394123475 -28.1649106679667 -1.92827511416446 0 0
179.390764678462 -16.0109820754506 -23.0492769441315 0 0
-64.0496977042617 -0.528354204883148 1.26840982971724 0 0
164.97514706464 -8.20787278624456 -19.7234707470658 0 0
200.06571773162 13.5933191410831 -11.2628841741509 0 0
-28.2064188750966 -0.49572926670394 1.10348963665823 0 0
-79.2931410279917 5.85886850615713 -9.36133413111891 0 0
-61.1678575182687 -2.29681981560167 -20.0209011697378 0 0
202.664722783169 15.0055471609973 -3.10075413442267 0 0
166.054932977627 23.4903285384797 9.48725239961732 0 0
151.330968037348 -21.1920964424767 10.6182275437875 0 0
64.4181937271236 11.5444724194225 -10.2718422593764 0 0
-117.32888860657 -21.5568704406572 -6.07489294118328 0 0
195.915708819697 -8.26424326873613 9.36269702382925 0 0
157.257410139676 -11.0439208706369 14.9001487352813 0 0
195.297199888584 -8.00914682877198 -3.11002488833451 0 0
120.253295163367 12.7797130598163 -1.63185376063402 0 0
60.0009423395123 2.84324354045642 0.197869387386235 0 0
85.2215998495433 5.41401179449405 0.0738967473545083 0 0
137.100519549779 -15.4347175519163 -17.2200172509823 0 0
-123.228759677496 2.43399060024696 9.49182202416773 1 0
-27.2026975003814 -6.81347463766829 2.91466060771863 0 0
-20.1418888851012 1.46427926162528 -20.9020929367513 0 0
154.723437078958 -3.70937807532278 11.1237104219088 0 0
192.933118981651 18.4691762076776 28.9025098228654 0 0
174.44864303323 -25.4834335034966 31.3402202800366 0 0
161.730861397748 21.2903164312896 7.39183666479383 0 0
-26.4692014288318 6.86212741926171 -7.92777072420621 0 0
-122.065580596107 -9.1806760288267 -12.9985563024239 1 0
88.966775388264 7.36486045656945 -1.04024549639715 0 0
-63.1999685404197 -10.0122541104373 5.3858079754755 0 0
181.141066742998 -22.1915696521167 -22.739911220397 0 0
81.1442443084555 12.3221284050572 -7.91759416228749 0 0
-17.2776408351639 0.231451514991322 -21.7995776656157 0 0
62.5795462898449 10.1190576906492 -18.0040710915107 0 0
185.121100774385 20.0382078604627 30.7322081543529 0 0
166.870881574067 -12.6466076074514 27.863247212441 0 0
165.369349713192 14.1761844764732 9.53504674102913 0 0
183.438787906193 -32.0998393634622 13.0599956755156 0 0
42.8735993039871 6.93889853658133 -19.8926362186363 0 0
146.059713569928 11.5139269751441 4.07774630543919 0 0
97.35509398045 -1.65322699324391 -23.5288206589503 0 0
197.966072185319 32.1192710820968 5.86281048142727 0 0
-84.7032967929357 -15.0207821829786 -16.0744829745155 0 0
180.718175084363 0.188687993287018 14.9048699240128 0 0
199.200961772131 25.9418033280212 25.3826156975309 0 0
172.18997676706 -33.3284997617674 17.5530853018791 0 0
-78.35142848463 -2.94622537293008 4.14298998365938 0 0
-93.4608059454851 -9.93906734394651 10.9438676117574 0 0
-114.918570254187 -13.6224430557233 14.3252918747016 0 0
172.152706919589 -23.4685534173014 32.7043695924596 0 0
108.381572183427 -14.2169436312521 -17.3314005976273 0 0
2.19625875392883 -12.8017620212887 -21.4988576092172 0 0
160.657241834116 18.7735100429412 7.9873140533558 0 0
164.233414483972 -2.81221206076755 -18.7220248132765 0 0
-97.8265066246586 -13.9055385690768 -15.1836665147683 0 0
87.2622195263545 -16.8264209604011 -5.29016898330477 0 0
-87.6637798568894 4.72457314289661 -9.91436926857163 0 0
173.688057316817 15.8698995814969 21.1119615525807 0 0
181.167702231903 15.3698404044079 -20.989904072095 0 0
187.567899980619 35.4353192266094 23.5108668508939 0 0
118.455881693607 1.60764661108802 4.75663000592416 0 0
196.923043180845 15.4605011465125 22.9445366320268 0 0
-45.3510472724105 -8.12823557190381 -22.218373211986 0 0
165.810256172804 -27.4516366749469 1.20763413615125 0 0
-91.0653062796898 -12.600196138827 8.56579186883313 0 0
35.7053033652709 -12.72527227342 -2.39798704328439 0 0
-27.9152127541007 -19.0833269147512 -12.3663308003212 0 0
203.769218951685 31.2339819311451 11.8452541328237 0 0
31.7560211217829 -17.0890603308113 -11.9066211660447 0 0
130.103179173462 3.16892411569269 4.99114327454592 0 0
-116.925704383114 -0.891177543023846 -11.5756500555135 0 0
117.281975631497 11.986037480867 -1.43805657567835 0 0
170.306970928746 35.2456623583691 2.18935284477239 0 0
142.582280412333 -4.1069454654203 8.73402879079701 0 0
-0.0820857088569862 5.65237372035599 -18.4427851769308 0 0
-87.8978482949523 0.496246150848137 2.16595118272348 0 0
173.682251096761 27.7498877728556 24.6734015519508 0 0
86.1541932106324 13.9101670493015 -14.1744496540279 0 0
48.3922609222634 9.34095759131501 -8.20354321994832 0 0
-75.2456802178517 -19.5040145456657 -12.8171135570716 0 0
201.324931712003 13.266579433054 -7.39296631706846 0 0
165.187955277037 -21.7084997346637 -16.0854692098321 0 0
167.495509606567 -10.6910644329168 27.8185543518083 0 0
81.9064037333799 5.90580118777165 -0.495797030276308 0 0
165.853388390564 -4.97070697684865 15.7100197409688 0 0
197.280417562565 -22.1510094609048 11.3223518769423 0 0
-10.1951904304245 -10.6107702433281 -1.26641584369761 0 0
68.0683460256605 0.26400044913459 2.16831090723748 0 0
165.330109237623 30.5423531824311 -3.86049200972949 0 0
103.313433178101 3.08468935274457 -23.0906191371093 0 0
197.252938781694 8.08172997214272 -13.0810351562169 0 0
202.994683951637 16.8963403334646 -3.65572253065614 0 0
170.410579646768 -32.0978254411038 11.9923471407496 0 0
43.265472270874 6.88597883271821 -5.40524001694714 0 0
160.920655821818 12.6276834080283 8.47685345947164 0 0
65.410934161384 -4.39157761321346 4.47010407153984 0 0
175.998794560101 -33.2318355846702 12.5845704147151 0 0
91.7982420595927 13.5750426424174 -16.3366065015067 0 0
-114.1086443128 -12.051102282147 14.4109375674236 0 0
-49.057669433018 0.904317816692029 -19.2706287181687 0 0
59.3553721379716 -1.93932957939492 -23.6900104376858 0 0
71.3229516396873 10.8142509085056 -18.0044308219567 0 0
195.815547559916 -19.7028972316048 -9.89101400815129 0 0
6.37897954234759 -5.09706357396892 -23.5155435089392 0 0
-43.6691766852975 -5.77111318726311 3.72847870854334 0 0
197.033068501381 -18.3790110578605 16.5391747386693 0 0
-47.7195588810125 -19.4344447589987 -6.98818694326152 0 0
-93.5768056428415 -18.2854922720496 -12.645765900116 0 0
166.787947405051 -10.8889956351419 26.3558218514196 0 0
-60.699719675469 -20.0918583035051 -12.5354653815175 0 0
59.357763018323 9.84775507885739 -7.61823094263711 0 0
-91.8258648847482 -5.59077593465828 7.06863538405737 0 0
-47.9876555664088 -3.84267088703535 -21.6551179262202 0 0
195.579879803798 28.6643529374913 -4.55555728442249 0 0
-100.99651812917 -12.2434158057242 -15.3191902807718 0 0
88.0264157726319 3.88272256603959 1.35169825038976 0 0
138.333380715502 1.51710627643958 6.41720934718673 0 0
129.613727711671 16.0121237577207 -16.7942380975873 0 0
177.459499650324 -28.531739820078 26.0629418563438 0 0
191.453230118886 16.218131701757 27.6131602753447 0 0
147.346336494028 18.0896026257751 0.871235228486142 0 0
151.204188020695 7.27750496084505 6.75015182306949 0 0
-19.4874004643827 -6.3647911196609 2.6980781234853 0 0
81.7936701611476 -15.4754967595092 -1.13678048476322 0 0
197.187357104327 -22.464965803885 13.9764792447066 0 0
175.35207987468 28.0467856155563 26.3665523964165 0 0
181.711798532611 8.73827802881058 14.7290967251517 0 0
-0.965538607835612 7.3277876121166 -16.1078486169388 0 0
-88.5093533240489 -15.2047101460015 6.14946732871159 0 0
-15.4598547521356 4.03061274634856 -19.0751104256099 0 0
-23.7483497177023 0.970954936067398 -21.0228984881126 0 0
-17.9936092804261 2.46658336065729 -2.75307179774682 0 0
176.805531103689 -6.03441663185505 26.5647174770561 0 0
171.47835223495 -7.86233053110069 28.9838732056967 0 0
174.149517493658 15.9193295964679 22.4813862346817 0 0
129.957999828159 9.73224430964102 2.05994206381723 0 0
-65.2025717305887 -6.6138736806617 -20.7199874242647 0 0
197.39566497475 11.9436818866151 16.0610079088216 0 0
-67.7319030271639 -11.5225512333285 5.85565542120486 0 0
124.790163155883 16.5500198753932 -4.71010271109262 0 0
193.004560706005 6.7048016789708 -17.2175577721641 0 0
187.866781084941 -13.5528420836674 33.2097136640771 0 0
-76.2477496940797 -8.08880665311108 6.2424347633509 0 0
150.365406626891 22.989242659205 -10.0852640916084 0 0
178.531484710519 26.680960524918 29.0909569242729 0 0
15.9334983223525 6.20911118370811 -18.8716923024201 0 0
152.828798449133 -21.441632456987 -9.43620919265526 0 0
14.6360689222033 0.202431851011777 1.48300421812361 0 0
90.6848655976345 -8.44750331629638 -22.2363158559717 0 0
-44.9420340874362 -10.4726232469649 1.70794927837136 0 0
182.494529819046 -11.8851299333474 34.5609168718733 0 0
-62.30685935432 -5.04933903272013 -20.7591067297413 0 0
-24.3523166643179 0.3051486359318 -0.19842329011673 0 0
178.405679507666 -32.0302007197523 20.2083412482618 0 0
-122.90953502366 -6.50589097705277 -12.4712651065241 1 0
40.9418539366068 -2.95433943229502 3.13480739555727 0 0
34.2012268444287 -15.3584725513429 -18.4016912886953 0 0
198.174429802196 10.1653929590947 -12.4941653731757 0 0
-78.8830213341599 6.60655489505193 -6.39441348830862 0 0
194.372827763787 21.8916147409948 -11.0143893431467 0 0
167.681324137541 9.91034258078122 -20.0809568840513 0 0
185.076838383917 -24.1585495363461 -17.5007156614543 0 0
104.131528883251 -14.9956494489921 -15.814606197084 0 0
184.187074686266 7.56215136226189 12.7025932582761 0 0
160.123809227527 -25.5273358835863 4.07659032209732 0 0
-20.0353905937757 -2.47768848392033 -22.736863576067 0 0
-52.9157622556459 -20.2748562526987 -8.14938133433536 0 0
176.579209326801 36.4467543639258 -0.405838136839481 0 0
-29.8205674577951 -16.3416822160714 -18.7739163684552 0 0
-32.2242229174136 0.334744797974237 -0.350648346715785 0 0
204.824113943911 26.5065736514329 1.88371260721755 0 0
63.4562544598921 -10.9563131045973 -21.0300499878543 0 0
152.502289696083 -18.9068412712798 -14.4517777455265 0 0
182.880510930511 29.4822496423226 30.4196225949183 0 0
103.067618211372 -17.6052513621839 -4.15299471899476 0 0
46.1734352080486 -5.4870273337253 3.46032782005898 0 0
159.4426156329 27.5687936175138 -4.47341013984276 0 0
95.6786293460816 1.11562680788086 3.45959465426347 0 0
165.266117482307 -27.5196597808781 2.93108306941092 0 0
165.163618833617 19.9898491132985 9.71512727183166 0 0
-61.2921553005374 -18.6673758225665 -14.266977881288 0 0
117.657538131575 9.81546426675014 -20.7743564302428 0 0
-50.0175728485895 -18.552225803679 -5.12647544774766 0 0
173.810128896187 -12.2967904532452 34.0132145386394 0 0
198.577204163912 20.7509233389535 25.5985396885214 0 0
195.743749799101 5.80515387844131 8.91109313364724 0 0
-88.573168051175 4.28776890173235 -1.33935188529587 0 0
-106.814949652987 -0.865393244147819 7.26298311530621 0 0
91.0342606265429 3.92812559495963 1.63358096726629 0 0
-97.7423541263047 2.78442195019337 -11.3003289810318 0 0
-112.866647053526 -22.0883771969716 3.8609625245539 0 0
106.514992107792 -16.5897043852914 1.67227483755058 0 0
-46.8098363478172 -17.9612627764545 -4.93418453282578 0 0
196.367504581985 9.16668688088755 11.6198402057758 0 0
146.471249805223 22.6728162297847 -7.24894140768053 0 0
-60.327585264662 6.29268252455059 -5.13889305454549 0 0
-27.2252297365815 -15.0755880072786 -4.27490042379227 0 0
-40.1241284461154 -14.479332356461 -20.0327736773573 0 0
172.987181888812 15.7359840364388 19.6856539126127 0 0
158.941992612361 2.27737407887911 10.3232839703706 0 0
174.652268143254 3.02334665155924 15.8157668270345 0 0
-18.5179167960995 -3.79217973964032 2.89872168161226 0 0
-84.3848900095284 -2.37759366014803 4.53054349763136 0 0
144.847811877196 -17.747206000324 -14.8009638101993 0 0
-59.9691610060024 -9.2670020013411 -21.0683304886044 0 0
3.18182533775971 -14.9158633128006 -20.0798899687543 0 0
-81.0964994710198 -22.0815208977175 -6.51629271687632 0 0
174.409960628824 -27.4290805253249 -7.97724301876496 0 0
-46.8621083383474 -15.4177337764414 -2.41414613514219 0 0
138.759495349651 19.6821545375122 -12.9673470224519 0 0
-96.1131474863091 4.11531438536534 -9.8532827922386 0 0
102.708741153624 12.7497445595486 -18.5575338317887 0 0
-115.325142433954 -21.903722603157 4.8177737648195 0 0
108.621239806328 -17.1329223936945 0.97442714021156 0 0
0.610805794287539 4.15066409141584 -3.98591083386072 0 0
-90.8332326170299 -1.33934382831013 4.35910461691581 0 0
166.914577398395 -12.7642700828728 -21.2146900220492 0 0
201.847230350368 25.4015424280218 -2.14902023203604 0 0
101.587667045404 -7.37559207161936 -22.5709615701261 0 0
188.838682074009 37.2538429750137 8.82255942292151 0 0
22.0480901257003 -0.736909691007511 1.94034904794561 0 0
-39.0145588391293 -16.8538101346246 -4.82758290396203 0 0
195.330319244937 -1.0002952199426 4.03106756886965 0 0
97.8316905526953 -10.9601246673364 -20.5376252240426 0 0
171.645681699129 -19.3114240633188 -22.1062764572785 0 0
190.396268095197 12.861866703257 17.069986980389 0 0
187.379095370204 -27.9125719596351 -0.96346788427841 0 0
