"x" "y" "z" "f" "a"
-205.276349417879 -32.1599762887988 0.0796844126447237 0 0
-223.254569891589 49.4774223583005 -8.51192644211871 0 0
-193.443269145492 -10.6362143780315 12.7442808639181 0 0
-175.550570558952 -38.517197277626 7.60991954090759 0 0
-199.055307290388 35.9395463169221 18.4762820091903 0 0
3.33526516509847 -14.8340593709823 -11.5609068053228 0 0
-205.764800773142 45.6423771383651 15.8232668900867 0 0
-82.309392602231 -5.59089475852865 4.44489683395954 0 0
-153.707204391016 19.2093749245114 19.2813682581462 0 0
14.1710823355451 8.49742577303572 -29.7745579178712 0 0
117.511589978529 3.95039692798699 -28.0517317729244 0 0
49.1897963619706 8.11529125402155 -1.77785074909353 0 0
76.2131008655507 15.65060911896 -24.8647862444432 0 0
-108.552686121793 -10.7841916724808 -20.4292462231489 0 0
-156.923208646196 1.95311543491165 24.6200013451479 0 0
-161.21183909003 3.7369959085683 -12.9858378085487 0 0
76.4573469151914 4.92421706063246 1.70050636919917 0 0
123.858798809531 2.81122167961055 4.37411874594614 0 0
-68.3573279112312 8.03453175156999 -21.091076709949 0 0
35.0638629177784 4.77050778798718 -0.502029863054571 0 0
-218.100798092165 5.14104570826935 -8.78272054822081 0 0
-138.838264060326 -4.45820582833997 -15.2865637000755 0 0
65.728871606081 3.69513196992224 -30.414084446502 0 0
-123.313389751645 -2.71232615081719 11.4784936459612 0 0
-137.383005628663 -4.00015828283985 16.9642323370338 0 0
117.613883888567 -7.51441001768704 4.25454119283818 0 0
-2.34096361623593 -12.5995168566189 -7.97539355407432 0 0
82.3831588081162 -2.19241172104503 -30.1262537183625 0 0
73.9736899710036 -13.6551467469441 -22.7288856715268 0 0
47.6336113734502 -7.74590976657121 -2.78958855636354 0 0
40.9240994459888 -1.73120558372231 1.02981623452262 0 0
124.618142429612 17.9870263526891 -21.5112327525371 0 0
54.7360866090865 2.29706276313533 1.06346061300293 0 0
-224.034156845813 50.6915590619437 4.48189104623185 0 0
-189.583509916572 11.1794158808958 -13.6811764796408 0 0
-3.01134334488588 12.3100193191944 -24.130959717423 0 0
-21.5987714399958 0.764840800762092 0.102665840503269 0 0
-135.605887461953 3.03677656284404 -13.1481046722142 0 0
122.40068128216 20.3446412637232 -19.4259342041192 0 0
124.143341469437 -18.4615059411667 -5.78814707743803 0 0
-31.2475008263231 3.59080956074386 -30.2310360336958 0 0
-231.565523542497 42.2038008163173 6.21006281353625 0 0
-198.605782743428 -36.0648045998314 7.43097466887369 0 0
-64.2154175211374 6.70670314171203 -24.1390693030345 0 0
-184.942279028869 -6.42629632676078 25.8903667086125 0 0
-53.3680344368064 -16.6229386979095 -6.80724159257591 0 0
-61.7199216085673 -0.0822661040720661 1.99231141140502 0 0
-190.317297141734 -27.9221395412511 24.4955483817152 0 0
-177.760201973207 -34.7263861874692 -0.0139381459369318 0 0
-14.1182186355329 -16.391728105828 -12.7666929947408 0 0
-44.7513798558457 -4.90964825364446 2.96227562539941 0 0
121.813051087448 -0.698135103011785 -28.7302042415506 0 0
-228.59847893425 46.0617809059289 6.30613192214003 0 0
-192.705813643015 -8.66639773047945 -13.7303285889784 0 0
-62.2767443080919 -8.25349546887846 1.89485300944826 0 0
58.2108575505551 12.6763984360048 -6.65416628606844 0 0
-140.739189086438 7.02851663833992 15.2248770986959 0 0
-119.70408601852 -21.0091734720817 -9.88262631491214 0 0
-168.624927481195 14.6447149328018 21.9001955550246 0 0
15.2474177084558 13.8151197045092 -23.9670573817387 0 0
-215.740950036658 51.7447988684763 0.7412827888298 0 0
-228.131907664777 38.7026647331709 -16.5808209530485 0 0
-205.790481862579 -19.9243867038257 -9.87509254271959 0 0
-56.913274478368 3.77886335278769 -27.7190560492862 0 0
-137.826206404401 -20.2558269026792 15.8125729729131 0 0
-196.632183483735 -38.8679616110379 5.35969217094052 0 0
-181.18167600894 -5.27342160177155 -11.9014242147434 0 0
-128.254407430318 10.1214462288585 -4.12151930516272 0 0
-30.0807188352794 -4.61289203783287 2.30301520944115 0 0
-43.8945560393638 11.1382028436897 -11.393375058257 0 0
-214.244211703161 -24.012897314008 4.06531932513148 0 0
-93.3103548820095 -21.3448767524024 -3.77650541770928 0 0
-92.4208160429169 0.0159900318780447 4.55560154145727 0 0
14.0947391468617 5.41558706017126 -2.17051916888308 0 0
139.027381321704 -9.62973444897483 6.22675230115279 1 0
-189.177678686153 -37.9344594597172 3.77412906419389 0 0
38.1440748943081 12.6575469249022 -27.4850360847354 0 0
-115.616590487976 -1.37760224132351 -19.4287795624873 0 0
-29.1110017730626 4.63799226721032 -1.72554306208817 0 0
-1.20920215005748 -5.46120234609832 -2.2805344486124 0 0
-199.673004431399 -14.0098517486961 17.3878606674721 0 0
-3.3911526987071 10.8419716728758 -26.9743044323216 0 0
-177.130927931503 -0.139683981688998 21.5895695773579 0 0
-57.0558594058978 -18.5850035465926 -8.96853216191499 0 0
-188.628453638549 27.8161028949074 3.50530388986134 0 0
41.0100828450507 -14.9697933732984 -12.788174866241 0 0
-105.524247261453 1.34954608582228 -20.3660906712528 0 0
-51.8159462457931 -15.1138373425129 -5.35585035371089 0 0
7.16536853899703 -14.259707071804 -10.7176217978551 0 0
-164.397930173087 -27.1082204473456 -0.72246247545343 0 0
-203.037188520877 5.00028608513559 12.462466423689 0 0
-170.370177096202 6.12765782606891 -12.7540659469187 0 0
-34.8631297840575 -1.82633646770011 1.14242405046952 0 0
-156.574855541414 -4.25915451437041 -11.153296198791 0 0
-90.0124742316572 -7.74000691189434 5.58517963735893 0 0
-125.426345342759 -22.1768318849543 -6.93333206069892 0 0
-173.171152341316 -30.5615391738683 -0.249079847088926 0 0
-200.366299889935 -31.5157621877913 21.4369252867811 0 0
130.881176274456 -16.2441040789651 -18.9527615208398 0 0
-196.26715676257 47.6477008946066 -0.800687976609683 0 0
14.010924155023 12.9792562616536 -25.5772582573793 0 0
-83.2597835955295 -20.0352890984464 -4.180972319323 0 0
62.7573006997071 -14.7983933779781 -9.92560016291345 0 0
84.5829675174781 -0.385485008639907 -30.1270027391072 0 0
71.6904410224043 12.7000551770698 -4.77826907730903 0 0
-154.865437550947 19.724218320107 14.815667022111 0 0
-108.013210876906 -17.902186286453 9.32088042810897 0 0
-125.548387087919 -23.3846416943788 5.63878687795625 0 0
-191.565127732872 -13.6762498892854 -10.0127241225169 0 0
-58.2729776363616 6.43848208036617 -3.54735967922192 0 0
-187.95506616731 -7.84355592905179 -12.9297938005431 0 0
-179.311130884648 -4.93000710737299 -13.1605412028752 0 0
-161.115902118801 5.41156254760193 -13.1454119058969 0 0
-181.867159596897 -1.64990119956678 20.733278501642 0 0
-202.685028144788 23.5230141867779 20.1398793725963 0 0
-174.24701165457 -20.4926097026037 -7.16803753870999 0 0
18.6031678749038 13.1500919745162 -25.9741816742731 0 0
115.80231625235 -9.92445462129868 -26.2831115743788 0 0
-194.821475141999 34.6870966290354 10.1269426361831 0 0
-40.514274074464 5.37798990524809 -3.06170155083063 0 0
-92.2768606633905 -21.9137462075996 -6.94029727614666 0 0
-104.331085910552 -12.4749726973108 11.9256943135656 0 0
-170.359826599737 -28.8794599679191 22.7154541951629 0 0
-200.214872909283 26.0714621176006 -20.4109776769367 0 0
-113.244621074712 8.52589253611919 -10.5594997260902 0 0
-186.948085056688 -40.2928506652141 6.41210368326537 0 0
-154.699047838913 14.885435965379 25.1374521383412 0 0
-55.8600181939854 8.22249780547543 -5.72516830537573 0 0
-158.845205825098 16.3125532429189 12.1258551728869 0 0
-203.695763767047 10.5387531956624 15.0031959616465 0 0
138.70843490038 -19.2888999489656 -2.75805310303007 1 0
31.2939225083447 15.8137743425186 -20.1622871955829 0 0
-48.5470983587865 0.137458544684475 1.93148534178164 0 0
-216.841475646909 44.3732651914107 17.5162481473947 0 0
-229.668692397152 14.745691738294 -8.08054280121927 0 0
21.9687037357236 5.86461024198633 -1.76064056038942 0 0
-209.186915728092 -23.5940194552154 25.2241302859633 0 0
-182.131097254481 -28.2538608848378 -5.37558906683413 0 0
-181.572821552717 20.4642308073474 10.1099408239739 0 0
-145.442578523278 10.6427238462539 18.1488469016626 0 0
-35.8156079531051 -0.296029846302311 -30.6933652048533 0 0
-181.907820047694 -39.1553075874033 10.6289799047595 0 0
-123.49360747632 -17.2912560777619 15.8224547880928 0 0
-231.739650956639 15.7792844158656 0.0257097513922633 0 0
-159.517445119911 -23.9075172088158 -4.10944851183466 0 0
-174.271205882169 -30.267898756278 22.6461600638278 0 0
-205.97222276399 51.5253159875758 7.49401713542364 0 0
48.468136945997 9.53880801423 -28.9989782545697 0 0
-211.081426749756 -12.8285360011723 15.1527513330451 0 0
101.168058010537 12.9668577238111 -1.0103363084395 0 0
-22.2316546597699 -14.8049410858936 -9.22645565516594 0 0
-142.352973516898 -24.9645975265757 0.724478124085064 0 0
-207.242287793779 -28.4390448694855 20.9141894215206 0 0
-186.580542459288 -18.3104275710876 29.675601662822 0 0
-217.566911831833 40.0387421493562 -22.1475013731409 0 0
59.3288620945697 17.1841811626068 -13.2921389888853 0 0
-205.204484851453 48.8274869528722 -13.6271254732357 0 0
99.3654491425919 -16.7565073572821 -13.6352799626422 0 0
-24.112365126907 12.3590442661564 -17.6268773537065 0 0
-89.8486851440372 9.99481339357628 -9.02981844323902 0 0
73.4439726818423 6.55302667872027 -29.3097159975922 0 0
-169.814529506238 -25.0555054033844 24.5991402147834 0 0
-216.339613149527 8.80506249849687 3.66390652887854 0 0
-95.0751910003608 5.57470646222859 -18.727077587174 0 0
-99.1536831940727 -8.15042675289581 7.07237450130141 0 0
-222.748732375347 8.67803539043513 6.02022237094914 0 0
-97.7966573266947 -5.58698136179298 6.42344240732724 0 0
85.6867777954901 -9.54718631028439 -0.349468760767509 0 0
25.9118653567634 -14.9022399472909 -13.0048103224783 0 0
-160.519376007121 -20.0957339174266 24.9568994577087 0 0
43.5685158666674 1.53507614149216 -31.1017019882676 0 0
-21.7989262125158 7.7817987207719 -28.606659522659 0 0
-197.857614002177 38.8956345462991 16.4096913994588 0 0
-67.2530147386216 -11.9878868782907 -26.5968067780872 0 0
-193.664210474416 37.0332042694069 5.06650249918566 0 0
14.7296412685195 -15.012408583101 -12.8360913627062 0 0
-209.355002652196 7.20990168838627 8.4764125629727 0 0
-208.319012360143 53.6807395032567 2.415770792524 0 0
-47.7201822173921 -1.89967431782489 1.71077181578875 0 0
7.8667030275016 6.43563514722911 1.22305838717101 0 0
-227.095140023341 10.9030331024261 -4.12277191595211 0 0
-225.129108755657 15.6154478709315 13.4943537828934 0 0
-212.337440650747 50.5829164351921 -12.7061892305889 0 0
-120.303697714944 9.75479879954694 -5.12883151540327 0 0
56.9347033803423 5.74319004459837 0.862141049327647 0 0
-144.321556276569 10.9381875311175 14.8307336737798 0 0
51.6830266442676 -4.56495991011017 -0.486080543665417 0 0
20.7369130361866 7.89676055933114 -30.0892379615732 0 0
-215.582692631518 -24.0270349264771 16.4315203906892 0 0
-136.387030460159 4.37020959530617 -11.8545329723461 0 0
-198.647731680284 -27.7421669266378 25.4554791073332 0 0
-163.242194006793 2.98431169005176 -13.1269026589498 0 0
-173.6740187673 -12.6888073886448 27.8521023332213 0 0
-206.518522938317 14.4401940773192 18.1009809944146 0 0
111.533709968482 20.2339742800221 -20.1083499824157 0 0
-212.471028489829 -12.9686073169261 3.97402931274247 0 0
-191.492358208923 31.8471374242149 -5.34542923985917 0 0
-3.99123030680936 10.3002861953503 -8.65139602912321 0 0
-190.38974831168 8.11381870671095 -13.425772881099 0 0
-30.2621022869698 12.2090156026768 -17.2827156652701 0 0
-106.773268093642 8.77416846627746 -11.2409605763305 0 0
7.97767411414192 8.30980916057963 -29.7702561686592 0 0
124.138563059388 1.58323310998251 -28.2571444364887 0 0
21.2588756679989 -11.6597006080875 -7.41770345593287 0 0
2.33365537813951 13.0041719830287 -23.2791448845161 0 0
-186.370222851457 -4.83419621247954 -14.9125124808566 0 0
-204.135125673334 45.3042851215193 -17.2461839677904 0 0
-94.7235839860483 -18.9554345514392 1.87417850465862 0 0
-190.585838667867 26.9809884190628 -8.5799876449075 0 0
24.9836853475563 9.28841220951698 -5.83954011432902 0 0
-201.273219567857 -11.4202836987014 14.4524898448975 0 0
-150.078385688163 13.3664858592335 10.9071365281754 0 0
-81.0132982005161 -18.7653838490437 -2.62042255547964 0 0
-218.015241246583 21.1342146341446 -22.7781514173649 0 0
-191.492165200629 -13.6891406559468 29.3576335721603 0 0
-46.6819154924796 11.437760666862 -17.8460342704711 0 0
-190.894951646719 -4.96415095014381 15.4871179099856 0 0
-194.010929456456 -17.6258863065683 -8.85808517335401 0 0
-136.556188830638 -6.2533446992268 17.1007164742864 0 0
-194.166399242839 45.0134405573358 3.40763203889057 0 0
-63.5658351677817 -13.4688431422233 -26.0860027059959 0 0
-205.191333095945 33.0619101906816 21.8885737939757 0 0
-208.697769951741 -26.8663206292827 21.2408386222651 0 0
9.82196720043332 -11.2934451383504 -7.06043067586766 0 0
48.7032774395272 16.3820300509518 -23.6102879084504 0 0
-137.144604502358 6.84980947662075 10.1935092403311 0 0
-215.418396461288 12.5568405231174 15.9535292517607 0 0
-109.274420201934 -15.2821979195487 10.7092855289555 0 0
-10.9264486340686 10.734327343237 -26.124635411433 0 0
-161.761442310837 -13.7424000254793 25.5358401324186 0 0
-86.5795638512275 2.32064094100882 -23.5746918198563 0 0
-20.2761076497498 -16.4419539697794 -11.9395775653009 0 0
104.523466773901 -10.4436745777116 1.46789981958236 0 0
-120.518340239906 -16.4674929392688 16.0225215694018 0 0
-27.7691947673654 11.5325149049134 -21.6176919925602 0 0
-119.348738108666 -17.4932403788958 -14.5157970366585 0 0
26.3623378370974 14.0357489356653 -25.3977690719822 0 0
-44.9476250091762 -16.3384525742153 -24.7482254220117 0 0
19.4929955897846 10.2290961999253 -7.37535925169398 0 0
-132.24454940066 5.87586500353404 -10.9187559206607 0 0
-205.593453677168 10.1618717155504 -18.732784198951 0 0
-153.728224049793 -23.5828038187176 19.5742379787536 0 0
-144.122198328299 -0.529882421410938 -13.1394481667059 0 0
68.3164071648836 -8.42555243224524 -28.3873733509542 0 0
18.1544340790042 -6.97140208527217 -3.53848793163059 0 0
-200.070340929993 49.6268780934279 -6.38216976756881 0 0
50.6954777824001 14.1191148484492 -26.2527414312443 0 0
-165.757292813802 -16.3488005350038 -8.92838988846631 0 0
-87.871922075623 -22.0670821855949 -10.6168039567925 0 0
2.61019529560959 -16.7424176583388 -17.3871537451334 0 0
-197.881433625927 30.850352559454 -17.5927350024353 0 0
-35.7693014064364 0.0289103395324081 0.790009121143057 0 0
-209.446330354235 19.5240908791758 20.6745068631495 0 0
-143.589226744226 5.03331046205837 -10.6842398577533 0 0
-229.417451856909 34.2206177087696 14.9981416238884 0 0
-229.945298458696 13.5078620120847 -0.376498559474676 0 0
-219.542461726471 33.6412638945906 -23.653883453367 0 0
-209.699738119465 54.035294697958 -2.93728289886194 0 0
-172.128066057331 4.90846560773869 -12.8760509843547 0 0
-9.36014872012304 5.6346959614571 -2.20054753782827 0 0
61.4773053400332 -12.3017255237729 -5.58288153693545 0 0
-11.1913145655208 7.69117846657979 -0.2877343619808 0 0
-149.905512869901 -23.9183231388887 14.8663234306187 0 0
-210.608497997095 13.0650278980831 15.5047703130221 0 0
-139.287082784789 10.5831899034404 -4.39054378312019 0 0
35.0688308634139 16.0586604163293 -18.2930265642026 0 0
-14.738241254922 11.9729554889009 -12.8639117242774 0 0
-197.131279200041 26.9008111686108 -17.5069767323822 0 0
-87.0325937878954 -7.75913578379188 -24.999656797158 0 0
-23.9474075744981 -13.2108239632477 -7.38523947518652 0 0
-184.496555590286 -30.1874865640418 22.1372745158148 0 0
-212.772792114582 13.3090605181924 15.605886160933 0 0
-192.155138272776 40.1868922529407 -8.24832547672739 0 0
-212.782893453156 12.8049747561939 12.2533052421113 0 0
-150.921562518391 18.5111085769052 17.6034231263627 0 0
-210.383939470537 -22.3043812877218 28.5611633819419 0 0
-216.621855272287 -25.4051623876831 14.7702263459285 0 0
126.819668724739 -18.3377589984732 -3.8668413884148 0 0
-107.442868662745 -12.1141651252912 12.20996316476 0 0
-81.8553111932152 5.34001993586767 -22.0211434269542 0 0
-206.664067916788 41.2824289006432 19.3813412610905 0 0
-120.5800742373 -23.6053232634526 0.908658758268832 0 0
-186.561347217237 26.5257440199435 4.06795598551114 0 0
-203.827127427435 19.3452287465167 19.3354160574725 0 0
-206.887758477529 53.3757939672981 0.469788209072295 0 0
-187.983102748071 -17.856632290677 -7.67603929563219 0 0
-212.581779914222 -23.7177624155485 -0.697912763776752 0 0
-175.325687446222 -35.9404073490283 15.2114531515973 0 0
-81.4994190161126 9.87236972020448 -14.4401211861033 0 0
-127.291096613045 -19.2236677046363 13.444746992065 0 0
-102.995155101048 -17.038249423474 9.14997675184434 0 0
-215.379612459185 11.0214864185777 6.91391370099736 0 0
-107.805956734911 -0.423854231240042 7.00748962726383 0 0
50.6580999816595 -10.6159893503634 -4.82168800459674 0 0
71.9252004426011 18.6872079082638 -12.7247699304795 0 0
114.895083010965 11.3466384265897 1.37204399385894 0 0
113.942364680866 -15.8855792708845 -1.58331644479557 0 0
-60.5189480289917 -16.056287959662 -4.62194410750506 0 0
86.4404668203395 -13.101330489649 -3.31701336544748 0 0
-95.1949976411949 -20.4312222973508 -15.1875182032218 0 0
92.2716600978177 -15.9456422414577 -17.1012540783389 0 0
-153.742984010628 12.3942410408022 -0.80266442108166 0 0
50.3514690655909 -0.758805991049601 -31.0443235205958 0 0
-59.9424198724421 -2.62273159844892 1.80640271594736 0 0
44.8233713542276 -15.3531616321569 -15.27730016716 0 0
-226.783132919209 28.8690288785812 -20.0622972039994 0 0
-165.197552525547 1.66366045746192 24.9301906343925 0 0
14.160635062616 -15.7843787014357 -15.2303939982865 0 0
127.517907566096 24.0602530457871 -12.1504059444196 0 0
-212.864904851711 -28.1123707282759 9.00020698190847 0 0
59.7545810067845 14.5819169870255 -9.04802252473984 0 0
-125.254514505181 -23.5101803404504 -3.17973935779163 0 0
55.8263921454481 16.8490139626685 -13.4310929272726 0 0
121.039609172196 -6.31610443587038 5.30459087093055 0 0
54.1577523847294 -13.991030888936 -23.4341822835303 0 0
126.685928582179 21.1551909253406 -2.2746067925686 0 0
103.53716775864 22.5984653846561 -11.8554848468492 0 0
45.8860090668019 -9.4964147584375 -4.21431458892008 0 0
-116.776017786523 9.6299232011602 -5.93666066881435 0 0
-195.108296715552 37.95050097234 -14.4926700848102 0 0
-213.119426150438 -13.9300114932539 6.102138987652 0 0
-190.241113793946 -7.1449281735953 21.8646420577486 0 0
-211.865849175813 -27.7253082891842 16.1779724314979 0 0
-175.837337886019 19.2529816846436 -1.86012199969771 0 0
-192.213094158651 -32.823587056818 18.969355159751 0 0
-219.991230908342 52.156290973144 1.17758547437302 0 0
-186.560987453281 24.9817607342347 -5.74642174942325 0 0
16.2311280882058 7.35802939895942 1.12319709331438 0 0
-199.769876989681 -22.5310318837608 -9.85286194563836 0 0
-161.084375157197 -28.300297878091 6.98401390083128 0 0
-199.44101809346 -34.6491590062128 7.8648242243346 0 0
-152.338139755859 3.21786101199578 -11.2244861382856 0 0
11.6726077812482 -2.13551140594668 1.01976962761335 0 0
-159.251308048949 1.11951999230396 24.7719794463262 0 0
-163.670084623144 -27.2604186215957 16.6929568796308 0 0
-206.955715140982 31.7174912901381 -24.2181249053828 0 0
-211.879778928989 -11.8614018178213 19.0359269872526 0 0
-165.884543929666 -25.9411105752051 -2.93880889233492 0 0
134.803471561043 8.10119255655437 -25.418406015537 1 0
-190.104771007838 4.65775976394828 -12.7769251674673 0 0
-196.482720790767 -4.08693862110523 12.6883691078237 0 0
-221.096542656637 40.8654187852854 18.187202814625 0 0
31.8181916865064 -15.0330600920244 -22.8809734522345 0 0
-76.0833245895644 10.3988706475356 -10.5678790187403 0 0
-170.63113637804 -1.26299809986713 24.8584058742496 0 0
-214.866944749763 7.05904490135301 1.96352464664611 0 0
-111.829792331595 7.80103843689457 -12.1374967064289 0 0
-200.400484397314 -33.456858738125 1.14198247839094 0 0
-213.707740148285 7.34870662927079 4.20855416343132 0 0
10.941048622919 -15.9961640027302 -15.5720942003874 0 0
-115.073673631531 -23.1484145724727 -3.61294782193414 0 0
-228.086050935845 44.8433857236114 -11.3113456249529 0 0
-211.854334725911 37.1397765727934 21.7943962847429 0 0
42.8288039573274 -12.5681422335201 -7.37084149575486 0 0
-27.2190059503777 3.89274691260168 0.823328518262987 0 0
-108.944104524337 9.01999256688814 -3.30900103260064 0 0
17.5238789675431 -13.384829965722 -9.66473909198527 0 0
62.8682608204102 9.32660157608761 -2.92252724598458 0 0
-164.376454308596 -4.78373743981596 -10.1101999698232 0 0
-166.059189299593 6.85728156472266 -13.3594177253751 0 0
-206.669441385548 -33.0873467139584 7.93598647299102 0 0
-153.739092254254 18.2499454055745 13.0226040329198 0 0
-160.745857313956 1.8269489547824 -12.6076791649005 0 0
-47.6704146298185 -12.5594586814361 -27.748717939596 0 0
-78.5226059264686 0.324477466639953 -25.8649143652371 0 0
-131.758067581715 -22.8891496734652 9.03254070452138 0 0
130.05651005071 2.73934026420231 5.09291235984549 0 0
-194.898425720061 -38.5531688483551 7.05898718293262 0 0
-122.394874034729 -16.3008346842473 16.5437477619321 0 0
-206.629050303124 -23.5254141349822 28.6886903465059 0 0
78.1137820319461 15.9080735966737 -7.0865139938869 0 0
-224.999531309609 48.8012698328043 1.17256282236238 0 0
-209.336195920118 13.9186130826952 18.5864915955209 0 0
-232.568446377867 20.3634442862181 7.59775648285198 0 0
-87.0888954836337 -15.5472025974739 3.1144244266532 0 0
-196.034214838922 -11.1942261339945 23.2550363563526 0 0
-48.2006230385982 -11.9229478524631 -3.07488905936409 0 0
-120.845844042207 7.97316095101735 2.84244833694617 0 0
-193.770988390012 -9.53517452361169 -12.9096006997622 0 0
82.3697136241927 -15.2967271742094 -18.8532196725384 0 0
-87.5048790922043 -19.9448880424555 -16.792154385741 0 0
-213.272682697933 48.6962740846303 -15.6267722881469 0 0
-211.03303701059 -12.3703963159258 10.8551448198021 0 0
78.3335304226604 3.00512283641594 -30.0544951074212 0 0
-180.056881115637 4.89774179705842 16.9452689398965 0 0
-193.109154034926 27.8472714973168 8.83776040783224 0 0
-206.440685432277 8.34560436803197 12.4268209774979 0 0
-205.935175732231 38.5801079044044 20.4902508172892 0 0
-206.875708191233 -32.5831992742041 1.23628406826007 0 0
-44.3189094955394 2.73413302300957 1.61562815853722 0 0
-15.7373518457434 -15.3355525663237 -10.6249187124884 0 0
-151.172101887694 0.652485656637685 22.9676498426628 0 0
21.534328462247 6.7748182536776 -3.43918256636621 0 0
55.2619536309108 14.7051688670761 -9.9916774146143 0 0
6.01371321985035 -11.1363749431706 -29.1563321352135 0 0
-151.699819494688 -22.1013097613107 -5.76082748959072 0 0
-209.702885311419 6.15284195378429 6.78002333907708 0 0
-65.1449095443403 2.0846144173779 -27.3454705954781 0 0
132.682061372261 23.564025903916 -13.9010331115928 0 0
-9.0967907661516 -4.47067563188759 -1.02176659477186 0 0
-29.3009267938628 4.95260512779021 0.38525922729769 0 0
-195.142762895328 16.3651267727864 -16.6900915180033 0 0
96.1121760756197 16.0784953613539 -3.65597699648783 0 0
41.2443349334092 0.188817483244476 -31.262063901786 0 0
-98.9842155435639 -13.7411036996958 -21.02717341329 0 0
-116.972479363815 -6.91139238555499 -19.4620066140647 0 0
-213.107600889377 4.4293741978077 -13.561706039274 0 0
-105.520806074413 9.64321859323576 -7.88410482083794 0 0
46.8118386307279 6.85566154218117 -1.60285496321585 0 0
-213.264143895295 -28.3768336515201 4.77223577051764 0 0
-34.9330604816939 -6.68990448234464 -30.4501632197458 0 0
-230.72121981874 37.8350222816563 11.9497822830307 0 0
67.7254417708121 -2.05444149071619 -30.5650632755722 0 0
135.481530740685 -3.48279580306928 6.0393036858526 1 0
-121.327726024603 -15.0161512422882 -16.0240797968334 0 0
-185.078956913064 -22.9072510464181 27.609122688524 0 0
47.1854361788402 -14.4956769571308 -22.9084841630106 0 0
104.675783222353 17.4962442487466 -3.25837715687063 0 0
-177.065927107838 -4.70068803291549 -11.8451577948297 0 0
-164.325341558633 4.0768014736366 25.0383352800362 0 0
-208.107826300722 -23.3136340027546 27.3282209139901 0 0
-182.238384894911 -31.9213411808957 -5.9089946436931 0 0
7.38922389805317 -0.866800284734529 1.7134949963644 0 0
-163.799553284778 11.6700488325518 25.7804759384741 0 0
-12.7959311020987 11.4163148797468 -11.204747457863 0 0
-187.009058968183 -31.3576702898573 -5.75093195022718 0 0
-115.608843595445 -19.6790591752912 8.52910525560533 0 0
91.2745689078744 -10.2023485560806 -26.4661876126764 0 0
81.9886155172629 -1.93226885585614 2.71133468058794 0 0
17.5724790610354 7.09309583079599 -30.4477015725439 0 0
76.4683438976147 -14.633818037335 -20.7981046836445 0 0
-29.7422173900861 7.47596201229908 -5.30156159016727 0 0
-108.425954788797 9.55453289697068 -7.3918177674267 0 0
-218.369597465451 51.3532820875586 9.62223090370001 0 0
-14.5120346369085 12.3143515020427 -21.490842869781 0 0
-107.833210879263 -21.5142308730031 2.48811473185634 0 0
-211.666205598129 -23.8980206438256 -4.40535969425014 0 0
-183.921017870778 -0.346539817641264 18.5412300429204 0 0
-146.654855436011 -22.4496424041415 -5.32453063565454 0 0
-219.059185553312 51.8934764598116 4.58206782278405 0 0
-50.0751656452762 2.10359227146412 2.48088137452097 0 0
99.7453062839587 0.910073823683643 3.04239979536886 0 0
-206.554766615829 -31.4648780889838 13.2238008825449 0 0
57.3338891616548 17.6385775525379 -14.9672944081467 0 0
35.819251358469 -2.9909286302584 -0.336015476559674 0 0
-206.738078049612 52.8655934858319 6.46617928296455 0 0
-169.414795854766 13.8000490021918 -8.12833913908178 0 0
-196.666908738475 43.3838212595055 11.7229569163538 0 0
-169.629092643673 -0.430523556933897 -12.7627423336761 0 0
9.3168308594392 5.74561030696236 -1.75305997811879 0 0
-144.643446724074 -21.4151241973282 21.2700793596917 0 0
-162.351335674901 12.9964933150309 -6.73785488575595 0 0
-37.2169564668751 6.46845996500702 -28.3268902697082 0 0
109.82942097303 -4.5057555762088 4.30014551891693 0 0
10.0794506296502 10.8490102009695 -28.0701374263964 0 0
-192.379913783753 18.1426153695146 14.1909792944366 0 0
-181.085466306971 -9.11660395936301 -9.68199871789166 0 0
-200.221721158507 17.3147919332049 16.4815049603725 0 0
-221.463162602165 42.8202553881843 16.7727982397576 0 0
-75.3580800894059 10.5196326959882 -13.411088427424 0 0
-135.748819853644 -15.1814509951676 -13.5457522942889 0 0
-197.549107627089 -35.39183438391 12.9773663451652 0 0
95.117482576894 13.2318493526198 -1.85154782532373 0 0
84.7173020537041 -16.2275970089471 -12.5224048767042 0 0
-85.1533882698445 -3.16165083016676 -25.3239039092393 0 0
-216.341420871331 49.3578342823761 -14.2579080357852 0 0
-167.034116330533 10.5241810499869 23.4246905985066 0 0
-163.334592933118 -20.2235530882958 25.2847371202586 0 0
133.037121414871 -19.1816221522778 -5.6349739509678 0 0
-43.3410578533387 11.2512982970721 -19.2631179591656 0 0
-168.137454447998 12.5599744787087 22.3312983799465 0 0
-221.473178246236 50.7829506251219 -6.24736844255358 0 0
-46.2927900411668 5.97505892128809 -3.49602514444387 0 0
-217.041194324104 -16.2710735802684 10.5495371852579 0 0
-49.8138267081345 -8.4399692857148 -0.327027766463824 0 0
67.0412441046395 -6.88786933299455 -0.577491632590502 0 0
-221.183919073878 9.86270483731143 -13.3709658352561 0 0
-215.400211869887 36.4551759418986 21.75326330932 0 0
-8.86559659520336 7.07007793981591 -4.38058133137184 0 0
-153.886570384442 12.61600162278 3.65431368483741 0 0
119.568226940134 23.4663140398193 -13.3298776334318 0 0
-72.9128779932135 -10.2207638267382 2.85694526732089 0 0
101.994473186375 -3.04019608062127 3.86530227390927 0 0
-209.21503651876 -28.8267444167689 17.6571798773206 0 0
-1.33717768810203 3.00157446498228 0.284523426965389 0 0
-177.268257713851 -7.95322617041747 -10.0866905118771 0 0
-199.493395051484 -11.2278624287051 13.5151482403493 0 0
-171.397319349865 -18.3703832472039 27.3702778153339 0 0
-190.618017991179 -5.66716284397204 -15.4500289133293 0 0
-209.709133285187 4.19793484522615 -15.4242441957403 0 0
-125.805621168034 -12.9490401384211 15.0693994004299 0 0
79.4675929357624 4.73065621834736 1.4879115076317 0 0
-36.6208894142378 -18.7886270992036 -18.1457226465469 0 0
-203.492852465528 50.8612528893771 -8.12874555071193 0 0
-20.0460240021061 11.9491923287264 -13.3245092425971 0 0
131.215481552716 6.59252312654281 -26.4022768404196 0 0
-65.2999019284241 -18.3944884400507 -6.28588282142166 0 0
-7.92956950645113 -5.9507214142496 -2.38078742361046 0 0
-155.566173579169 -9.60528612723939 24.1313846196013 0 0
98.563336062745 12.4938009687462 -25.8966779500245 0 0
-152.404790526437 9.44188989202924 -8.45693988976309 0 0
-183.02494265188 -35.3946796947207 -0.989795065457691 0 0
-129.743037771528 -8.87693533622738 14.9000884724575 0 0
-175.849943079229 3.14426989686529 -12.8142755514569 0 0
-24.1104908913237 -3.50660249733118 -31.1371901632758 0 0
-214.940485195247 -15.9942460580307 20.5850914573384 0 0
130.942158799613 13.3326755750902 -23.6271353196425 0 0
-5.24773821094206 12.7173222656872 -14.9273453447469 0 0
-83.9199010363308 -11.2041285020258 5.13384778559908 0 0
95.1310823647121 -16.4012833896887 -8.53864110020916 0 0
-166.030690707517 -28.1417830708638 16.5554882473569 0 0
74.1711282834186 19.8551628966933 -16.133920990682 0 0
-159.303248432803 0.775054321077897 -11.3633159181821 0 0
-32.2921096373533 11.9319458221931 -19.0697614133484 0 0
-170.200632474096 -29.1907775059207 -0.278987555258407 0 0
120.699907904178 -10.8855877841277 3.34663174841382 0 0
-169.447122324473 1.5793785353248 -12.7518046422349 0 0
131.693513570741 19.4098404584634 0.250456037811101 0 0
-194.846704261996 -11.4142917098982 18.7965723735369 0 0
-210.53553829011 -10.642941946149 20.7823689075952 0 0
-202.116214870534 -13.267978113065 17.8629992150376 0 0
-113.683000910956 7.49026567770349 0.907933151280508 0 0
-207.432177793338 43.7820183487535 18.0148146561196 0 0
-89.7421116961346 -12.0493319803542 -23.4250252891073 0 0
-179.366244885629 17.091313397259 -8.96384693610961 0 0
99.2632937659348 -2.58425304686395 3.76814081818999 0 0
-123.08893867822 -16.7788588724911 13.3279224243785 0 0
-11.0862524378509 12.8375889798147 -19.8291965927835 0 0
-193.368330267724 -21.8227375711459 28.6928379941096 0 0
-221.189980692012 51.3622982613254 2.60621090236357 0 0
-212.201686351702 -27.6077015354069 1.96019391381385 0 0
-63.8952155773551 -11.4975928097905 0.0657289559106855 0 0
-205.344550895628 -34.0515620348968 2.88433908199232 0 0
-146.419432613014 -13.0475390071968 22.8850892849233 0 0
-97.0186330503072 -19.3163094522364 -16.4654566833075 0 0
-28.2309845551614 -16.8477992493613 -11.5243811729646 0 0
-182.934858792978 23.4570552154966 -2.16924558553371 0 0
-177.938135271673 -0.844518747052404 -14.3788176628219 0 0
61.8895041893221 -13.8014043985074 -23.0739929029825 0 0
-48.8656959376376 -14.5265962039035 -5.30419028314591 0 0
-186.206045357868 -26.1369188732594 -6.55498553337207 0 0
46.8459191370727 7.81378378955363 -3.0851865278572 0 0
97.5697986829888 18.5854369766808 -5.67974983722717 0 0
-76.5312496240733 -6.93248575178617 4.49397891602454 0 0
-131.698588877507 -20.6411762539378 -8.67146058659024 0 0
-206.434770577834 18.510275483114 19.8894789096507 0 0
-136.889481161385 -11.9619534142069 18.8947763977727 0 0
-208.678885249018 -9.32152860540412 6.41017600011062 0 0
-93.3674910346345 9.59688437200591 -6.37830908940227 0 0
44.8456098030416 10.6093891574416 -6.0393650969022 0 0
110.345935526552 -11.8879597932816 1.38637077400912 0 0
89.0615148769697 12.915759695055 -26.0951683793289 0 0
107.519062439979 7.81390450607577 -27.19860016342 0 0
-171.511149249361 15.5259791128089 17.0830025992151 0 0
33.9678988402018 14.2420094543968 -25.6228100324068 0 0
126.224528396009 18.9186795739238 -0.515544437555018 0 0
-233.189144233895 33.3911981360925 -12.0999952764315 0 0
-198.193875394419 28.4521802517955 -18.227109682096 0 0
-210.204285740055 -10.5069802906072 5.41035056649491 0 0
-68.9941993726065 -5.17095665439334 -27.8192557333002 0 0
3.06943687529559 13.50424142536 -17.1460724941984 0 0
-52.1178367938798 -19.1768341318025 -11.7944245136016 0 0
-224.705149207382 49.3896794527316 5.67118336684251 0 0
-18.7072688630591 5.80113109018358 -0.533817419613762 0 0
-200.471027079583 39.9672536728713 17.6423314060856 0 0
-172.667346431248 -2.71390377044284 25.2910636937382 0 0
-193.726855604518 -7.87554088963161 -15.7755849164907 0 0
-46.6165762750865 -17.3561152402281 -9.32948598943203 0 0
-121.15231955248 -17.3413501222426 13.3213620372334 0 0
-108.681402661154 2.70867543204559 5.43144547819236 0 0
-211.851590819081 2.69833830147004 -12.0765298766931 0 0
-212.82948007602 -28.4041283450277 12.8732476263489 0 0
66.4559883786187 10.7920299288985 -3.70565810521999 0 0
-57.3334603911432 -4.67769484079962 -29.1617456835356 0 0
112.089661363174 -8.41050022020177 3.16995946319987 0 0
112.218726547104 3.87018121223411 3.37720725959218 0 0
56.5617954127043 0.210103731916767 1.58587881228788 0 0
-114.061785069211 -7.95738838995003 -19.9202034227957 0 0
-214.760453690909 -13.5926202959156 21.3820215778933 0 0
-169.863358605705 -30.154308222447 15.3097238846233 0 0
-149.917278023822 16.6975937257016 10.706338095446 0 0
34.6561126298464 -14.7882070365293 -23.159005855722 0 0
47.5183976845218 5.01217472480216 0.503102729735451 0 0
11.8928056925978 7.35003929878786 1.25896268538785 0 0
-16.4902146428679 12.2620718336749 -14.1484955323072 0 0
-70.7989081611077 -21.09627426691 -12.8725182152949 0 0
-200.460596528204 24.2287686899537 18.7094276748727 0 0
81.8198475694656 -7.18864250922669 -28.7509397057538 0 0
132.438539075858 7.8214030777425 5.06172165300282 0 0
-208.069196330717 53.1573403780001 4.91649090747934 0 0
-122.007042503386 5.83637377979602 5.39247455496347 0 0
4.74315495035773 -6.94704565540485 -3.54191102276843 0 0
-27.0558104060677 9.57618040041035 -25.933705269552 0 0
-126.048366321567 9.88273577820029 -5.32188678520446 0 0
-178.890827651813 0.203001728436888 19.3210718148797 0 0
-168.391079211764 -6.94613702139849 -10.2587611230528 0 0
-150.364310719876 -18.2674389380962 25.1419828054831 0 0
-218.029736785997 -24.3751712505339 11.3222394383426 0 0
101.431614194413 -11.9568792902654 0.0873135393001443 0 0
-216.923727669707 6.07305994186344 -2.83037421565624 0 0
-215.852455486342 -17.4302849365548 17.3163814632415 0 0
-224.714959116223 48.8258299851165 -0.885334581581465 0 0
-210.128446060948 -10.9766640829714 28.938511160438 0 0
-105.964487191074 -22.7186972641123 -4.41824319308241 0 0
-171.856539133594 -9.88325175604168 26.8697847280941 0 0
-187.346916166132 19.4219535282963 11.9484795649602 0 0
-212.382546977518 -30.1550873974469 4.37403781096216 0 0
24.003377330002 -3.60523443163866 -1.03577346201392 0 0
-157.804327348886 -24.9134223433322 18.831823284736 0 0
29.2922087762151 -10.3722376852558 -5.86254431947472 0 0
-173.227247047417 -2.10991568258745 -12.8698220111807 0 0
-210.809644992752 -14.9462157215413 -5.01773176323247 0 0
134.965415978944 16.8526132726739 2.82285140276402 1 0
-208.674345088634 -25.8759093365781 26.304666239404 0 0
115.016209325236 6.73467843553133 -27.2349351562402 0 0
-34.7960729316159 10.0462229022053 -8.71192046477336 0 0
-19.7040903589341 4.81613053358665 -1.86969607449672 0 0
-183.154996429734 -40.7127564672235 3.36245314522719 0 0
-134.167551725047 -17.1676591222725 18.3057250952591 0 0
-195.151354958529 -36.5777264647289 10.855311831527 0 0
-146.270427791441 0.53555296069055 20.3166664922736 0 0
-114.029185788175 -9.24276377751736 10.7295167314623 0 0
-161.155196357263 -2.00646735950311 -10.5725517641769 0 0
138.277284393387 25.1770328400644 -8.55858293605289 1 0
-170.659227192142 -30.652397836246 20.274250925393 0 0
-170.80813823443 13.4353068902564 19.3799241513611 0 0
-152.034396150697 -14.4246844842758 -11.2202912967007 0 0
44.0369529266864 7.06043121319144 0.376790133023397 0 0
-219.606413054051 10.1163030420688 7.83842488393018 0 0
-229.069116169147 37.66004512425 13.9825475639547 0 0
-205.962982063843 -18.6217974918618 -12.0011634048706 0 0
45.6264368073321 16.8047592665121 -16.4143730166803 0 0
-42.7125107374964 1.28638571273166 -30.0070924934298 0 0
-223.969453510816 21.9984182240553 18.4960026272172 0 0
-161.06286246243 10.1296922912289 -11.4618513386948 0 0
24.7321740899135 2.0897449798153 -31.3985875276534 0 0
-165.541900744785 -28.4427519423105 1.83792319315209 0 0
-42.7003660901306 3.57882154137334 1.34319516079412 0 0
-202.093561066088 -12.6591236957412 -16.0225292946042 0 0
-139.266692571678 -25.2303612395574 4.95096016231201 0 0
-221.048817079525 8.7846353547033 7.51232760358393 0 0
-32.4964928514811 0.330181469951751 -30.7901888621446 0 0
-18.513711191142 -0.570920214381977 -31.305812963327 0 0
-159.160589261447 2.70230648971484 -12.3035154236608 0 0
-165.157963116512 -26.2089109361593 22.6539732249842 0 0
-41.4705518812841 -5.87184667831294 1.60577364000918 0 0
-66.5362838274808 -1.28400946460739 1.95999252596392 0 0
63.7723793908755 -5.23423433625501 0.19419317493799 0 0
-206.862024448871 -10.8653196430283 13.6072980490769 0 0
107.101963648612 22.8963586079379 -13.0334607077056 0 0
-208.405221461249 -25.4563075827555 24.4524627346097 0 0
99.3147725091044 3.97425780182497 2.45477908087744 0 0
-182.589154696942 -19.0002088766042 -7.41235653372744 0 0
-154.746453422333 15.0566094831083 10.9724239316019 0 0
-143.771435635207 -7.73179568608602 20.1177477234873 0 0
77.5727843182428 -12.4971654155532 -3.90375612565873 0 0
-162.60613695482 18.1851817116643 14.3842217087755 0 0
-139.327821104449 -17.9422597854961 21.0170841259523 0 0
-28.1964380557398 -1.32364502605848 0.903602139517623 0 0
-218.970883080092 30.1757073329552 -24.0921205621995 0 0
20.2702001165021 -6.04883633650201 -30.9667431596544 0 0
-114.736066596509 -13.0104580690157 12.5800750367145 0 0
-90.1355642024545 7.82520594709183 -3.1414228528054 0 0
-136.747392518984 -24.7195799941205 1.11825412404716 0 0
-14.417068402988 -0.709188498523967 0.426497284991265 0 0
17.2552906833124 13.8935404777474 -24.320859146449 0 0
-209.021787977117 -0.409650581854925 2.88981384216991 0 0
-111.798907212826 -19.8416525849455 7.25191770259533 0 0
-22.0684163180978 -9.31249767950719 -4.25633783503103 0 0
-205.096139786726 -25.5899128236137 -7.51189712350548 0 0
-206.411025149227 21.935012800935 -22.7330991416686 0 0
-137.275677220096 7.90923388918132 -8.28466273090445 0 0
-192.204372274951 -39.9184230018058 6.07333990023671 0 0
-176.98946312344 -16.7093751104694 -7.93445781596229 0 0
-135.252215793094 -0.818139187851971 -15.2835844416075 0 0
84.4152440258848 9.28573454307094 -27.763495011362 0 0
-118.876123408867 -16.6585827248779 15.7250619800987 0 0
-4.32117185858277 -2.44302186083869 0.762153070366864 0 0
-208.706553956122 -27.972003969835 -3.30361537132005 0 0
-158.79090792579 15.2895438587284 10.2850147276575 0 0
114.334669838296 -2.80259244024279 -29.0732528294467 0 0
-109.209058624436 7.30809782251801 -13.4686438200893 0 0
-221.512139872721 49.4910172232976 -10.99633404614 0 0
-26.1514293238769 8.25748155012341 -6.07681978924325 0 0
-2.50979993412348 -2.48494438728499 1.0880998868865 0 0
-235.463565107526 35.8818218721267 0.240625045999281 0 0
-72.9637642148279 1.54959580822531 0.928387510496761 0 0
28.5551492236815 15.5125836799365 -19.0966728464267 0 0
-44.7253944356745 11.6748432186294 -16.8119857415691 0 0
-139.058011274998 -9.97954619619996 18.9403633910596 0 0
-76.6980896221828 -9.90017950678862 -26.1505132018086 0 0
-216.427231337204 7.84192952956908 0.627877299894837 0 0
59.8524962304199 18.2703695995995 -15.9803535669129 0 0
-87.8365139439726 -0.389018827653059 -24.4067652089262 0 0
-191.544694202163 29.4620143179569 4.74132273794326 0 0
-33.5801294958422 -11.9910143517376 -28.700642949518 0 0
-27.9550417031867 -18.3260754576218 -17.1543388733656 0 0
-177.753281229536 -30.4549776180998 -3.00877932826805 0 0
-135.321772293308 -14.7670280483795 20.5084139319114 0 0
-188.320731770506 8.98452797983184 -13.1720235448771 0 0
-211.538259611963 -19.9901204547559 24.1071868354202 0 0
-203.152211438688 2.32824945344765 -14.5283446284923 0 0
-13.5031085923635 6.96850714834647 1.68421606199764 0 0
-193.961080442376 5.17150254128085 -13.3074371522543 0 0
68.7771850689273 12.0957620719168 -4.63151651329456 0 0
-175.002127870375 -4.47154365583721 -11.9391616036569 0 0
-7.12714247097315 4.04097479719813 -31.0370301976813 0 0
-212.154534186256 19.1961356844452 -22.6796560564706 0 0
36.3636997675367 4.4038346831896 -30.7707009565057 0 0
-227.688443464923 47.612564266406 -4.23601186728063 0 0
-213.656485953727 -14.0293867234514 15.7100000840371 0 0
-60.3385549223847 -7.85850173661999 -28.5178120885687 0 0
97.9341115056084 9.50500520147009 -27.0952158892938 0 0
-208.918580742152 -13.4059608597141 -5.70259591662992 0 0
-179.34889866589 -3.73592142716568 24.2704129624397 0 0
-209.544674301802 -19.2858206281388 29.6285430291873 0 0
-63.1512655154722 -2.0183203774352 1.9391811486996 0 0
-196.191074559607 12.5961900337221 -16.0301544229767 0 0
34.633209045479 9.28967339677884 -5.31670542364347 0 0
-197.064248720625 -0.425872810921669 13.4275334484193 0 0
79.1392778951447 19.3589769774201 -20.4188796945296 0 0
-209.257847893714 -10.0259403145114 22.330000072406 0 0
-14.1215334361651 2.9586890065547 -31.069328275955 0 0
-109.696522159087 -14.9186366442573 13.6086764643778 0 0
-59.4278337110347 -20.0608461942392 -16.2177779706328 0 0
13.5102389188929 -12.9094708381318 -27.5170074970193 0 0
-56.8594808089042 0.683683489513402 2.96217573518967 0 0
-149.545804373479 9.11168818072204 -7.85734428622299 0 0
-162.478121687033 1.52636253168497 -12.9164050121216 0 0
-183.563940119905 -1.91025200030504 -14.8443680895904 0 0
-189.6324519752 -14.2303448273942 -9.15329092769599 0 0
134.3463049636 23.9369052958321 -13.0495339192164 1 0
-210.236500856311 -3.88304709851741 -6.46537991714528 0 0
-150.042722206165 -21.6430385802862 20.4681431041513 0 0
-144.340235294802 11.5747735277671 -0.885286299853121 0 0
-61.8309419310084 -1.34480652940643 -28.5828783748842 0 0
133.928917557215 -8.12531678120918 6.16987002982321 0 0
-223.584490097478 8.22762124530613 -7.38413032584341 0 0
41.2708693446695 -5.18154471033874 -1.60369534747647 0 0
-227.39535373033 39.764228368789 14.4202774602017 0 0
-66.8164332868415 -16.9696051299322 -4.03496722238496 0 0
-48.8490811518087 4.80089120294228 0.0325930853434789 0 0
117.171294902087 7.34235713707935 2.98414093654834 0 0
-198.921427813872 -28.1320231136832 -5.52943573976893 0 0
-164.145651048823 15.5095990010657 4.84325620553875 0 0
-209.572677700293 -7.9032567689511 -4.14796509923545 0 0
131.730427896235 -8.7390489454297 -27.0382309861442 0 0
-192.502761163792 12.2580546469512 15.2031677437075 0 0
-183.451768888131 -1.34228348786758 19.9770678816377 0 0
-130.266885786177 -12.8158742609383 16.3842232647447 0 0
-153.377287301125 -6.75220660667978 -12.0469993495531 0 0
-77.9433784472005 3.20610803194418 0.296815193014406 0 0
-117.154824697489 -16.6164070644538 14.2611944028999 0 0
-212.239650419583 16.8919019098377 19.8341584885757 0 0
127.350195719139 -18.5353659737215 -11.2497040940617 0 0
-7.01765376623817 4.48444418236151 0.9127460525966 0 0
-196.413382209413 -8.80282988885381 11.4494762407899 0 0
-198.506941198039 14.1909904747872 15.8432972837304 0 0
-145.029370318517 6.8847409070318 19.020113206969 0 0
-190.036262846034 -33.4251434302511 -0.885617962945761 0 0
61.2091981221781 -3.69214459481078 0.960581476375832 0 0
79.3731906311695 20.2157418487874 -17.4197045533637 0 0
-197.419071005937 -36.3805592960671 3.54530740821845 0 0
-14.6977918881616 5.32635300567231 -2.3737346399095 0 0
138.19628292522 -19.618600170089 -4.98749354593689 1 0
-49.9536799932294 4.40543873564564 -28.278582982105 0 0
-196.672607901471 30.8685053921179 12.5112022867731 0 0
-164.623219323644 2.19958402532692 -13.2529193581017 0 0
59.3731143740129 4.69033156882202 -30.2924226113263 0 0
-142.288778109633 -11.6235089272979 21.1588240187496 0 0
-3.82461380661307 4.40084735083588 -31.002273945014 0 0
-119.109010008182 -13.1015804529082 13.5142362798464 0 0
1.17427509359639 -16.1022486328766 -23.2076953367108 0 0
-235.909597275203 28.1426099170888 2.70570410025854 0 0
-66.7409154629245 10.9629190646678 -13.5247040766504 0 0
138.57617880803 -18.5075679896859 -0.445206311473905 1 0
35.3805907562134 2.21314679447331 -31.1064435950069 0 0
33.5588315999324 2.79558573105548 -31.0744594470952 0 0
92.2246361544127 14.28792247208 -2.95540677146579 0 0
-133.218674383582 9.84495445843489 -5.96259362477843 0 0
9.82324153285936 -1.89055595795113 1.63894812454843 0 0
71.7914973349586 4.60305907899892 1.38505582256233 0 0
114.528178611768 15.7339875202864 -0.522849765639471 0 0
132.102331194076 24.4142669286987 -11.4588617075017 0 0
4.85680347158757 -2.86367217079394 0.415064436157643 0 0
22.8051044702732 8.36613678848625 -4.89860501866724 0 0
40.6603010693218 -15.2445164679994 -20.772016538294 0 0
86.8873906959903 18.8136790175085 -8.51355331060143 0 0
-139.739802783293 9.67874823891877 4.82901468808691 0 0
-183.030717082303 -21.8031864696878 -6.97430009468384 0 0
-2.69140031433147 -15.6299442620655 -24.8396649160349 0 0
-122.515294032964 -20.4472693868219 10.0409321379342 0 0
-201.342224305903 23.2933821997754 19.6842603592652 0 0
-101.307498449869 0.00988350926137359 -21.8471600701671 0 0
-181.406892555178 -35.7482048063379 -1.12218591805952 0 0
-171.717197508017 -9.39083439095021 -9.59292701463373 0 0
-106.133483414647 4.69561911649916 -17.4091514529149 0 0
-212.387501490858 -29.3656410429048 3.02967772963425 0 0
-76.9754150361397 -5.38362430554166 -26.6978265423595 0 0
-212.846719247698 -12.5319539646686 5.80375559969077 0 0
45.1912103354731 10.7526957006073 -28.5527502161281 0 0
-155.508972233763 -12.6656464021485 24.888385783819 0 0
14.6168260779281 3.1297425587274 0.388731160488425 0 0
-193.239819060514 -10.8756763749995 -13.3577420097649 0 0
-193.429988287989 -23.3576307068717 -8.28713750146244 0 0
-185.701868830336 -35.6627520190036 -0.0593370653196062 0 0
56.5467957763112 -1.79217174178687 1.63772289050086 0 0
-94.3643497371887 -1.2349597637651 -23.4606335428164 0 0
-59.8002158466873 -4.80869685816507 -28.8860335610716 0 0
35.9236138056447 13.8566234940535 -26.2272335640532 0 0
-167.771501961343 5.59525068211011 -13.4465812870676 0 0
-74.4703225147496 -14.8243909208249 0.0324505898715809 0 0
-132.93496555575 4.49354807366244 10.5482945709526 0 0
-195.898757507315 6.17725035103998 -14.0096225593041 0 0
-148.989127590546 -22.7835654246235 -4.81930617475899 0 0
-229.903371622082 43.8473722852043 -9.74443344570433 0 0
-144.654714494457 -23.5062183576662 12.6299914300878 0 0
132.627932706489 21.766897486738 -1.45238772045362 0 0
71.1291763406391 18.2286585789395 -22.0644854289579 0 0
138.617346220991 -4.09113015853284 6.39423374535749 1 0
-34.0312549501812 9.48650221219636 -25.0482295867747 0 0
63.6546573685446 -3.39122508048119 -30.4485449963291 0 0
51.0851991468147 17.6384428937438 -19.495866944693 0 0
38.6154158060816 6.41992340198728 -2.01086033204763 0 0
-201.078246321331 7.53415338563287 14.2000255741522 0 0
-200.522272744451 39.8538557170659 -18.9961152965536 0 0
110.958522626668 6.95284533131983 2.51224606256301 0 0
-188.382064556625 -39.7864256473054 8.18564150597571 0 0
-151.750151789711 10.3957010965266 -6.59417171459295 0 0
-43.179560751587 -16.302111202957 -8.45918960725638 0 0
-216.879248654166 -17.2863889407513 6.43771989654272 0 0
-195.172162479733 -9.85107445425932 26.8094047677517 0 0
