"x" "y" "z" "f" "a"
-107.957282539116 0.545151898066202 11.3079989399678 0 0
-93.2949630755573 7.34602878519784 11.7409585903433 0 0
-52.0688012229965 14.3736229419273 2.06908494127956 0 0
66.4344923090936 -6.89012198213526 -0.431548971663458 0 0
-147.269658111741 0.710717571393124 21.0887279674891 0 0
-56.271560939728 18.339926779955 -3.02030584838586 0 0
39.3611102661618 5.01668906933481 4.00334798510346 0 0
-170.667597478374 -32.441726939691 -1.21191740505788 0 0
13.942680765218 14.5760988582398 -15.0770094194781 0 0
-151.580110433388 -0.247715038500329 -8.36904155564637 0 0
-139.190944803514 6.4832427797778 20.746947752219 0 0
-162.803197570468 -2.63770655748609 -9.40816716088386 0 0
-171.530371224482 24.1756022573918 19.7903737974051 0 0
-119.203828908058 19.9021832341967 7.68331370626458 0 0
-94.8110369327031 18.0969290178817 -6.20438424360681 0 0
-20.8114860506509 0.855302382387207 3.00855899859622 0 0
-65.848000601632 18.5277984442792 -1.39182434410891 0 0
-185.609762063144 17.0443947642808 20.5305435822748 0 0
-134.045326959469 9.66340179675503 20.0388447345905 0 0
-14.3038545800772 -4.37307704325148 -2.02684460680025 0 0
-179.113259406379 9.06961810941757 -7.37017858365999 0 0
-168.590979688168 30.8919533995934 10.4965195034205 0 0
40.3456941836392 -8.6987513600391 -4.37516223237329 0 0
-124.802785389855 12.884696594569 18.775701151803 0 0
-152.129658659131 11.9564140850726 23.9509885272348 0 0
-160.350753103634 29.3609910660602 13.1632702018645 0 0
-99.8665294847977 -3.87272660494489 3.99928553337378 0 0
-125.804352459311 19.1706739524257 12.3191346331899 0 0
50.419839548471 0.879111374539743 -20.3503064846415 0 0
-117.304236658465 5.0233344977813 -8.92679877613666 0 0
-188.114092223104 19.6864760669639 13.317894152877 0 0
-27.5217593530066 -1.66489352831008 0.838832458060911 0 0
-160.376029948218 -4.3962009391847 11.9451468300822 0 0
18.2764826504642 14.6967822049314 -14.1145380682423 0 0
-36.3008369182994 18.2117433080767 -5.70333183637229 0 0
-29.9333751893051 2.31450690665469 4.93466186403188 0 0
-132.088663034078 -11.7633104375063 16.8578378672751 0 0
-173.836278034193 24.5721709504898 19.2943382630457 0 0
-168.578753211268 7.88304648656204 14.5755820068084 0 0
-184.163390005212 -3.36534541732184 -9.48235246235828 0 0
-193.683005387205 -41.2231913482983 1.1574083477624 0 0
-168.532270685544 -0.085739877183077 10.6196441069673 0 0
-174.942025602684 22.2008648808245 21.0205242919611 0 0
-179.265101847932 20.4686944162784 -5.40265219238216 0 0
-175.307762627215 -26.8785371985425 9.21096402816075 0 0
-184.593964916217 -30.0018404665539 13.9413939590637 0 0
-204.215180585965 -29.9614756717804 -3.63400821107744 0 0
-151.282612595126 -3.22595081096225 18.3473701113121 0 0
-173.824908974383 8.8347150960916 6.87001747663233 0 0
-66.3873041389666 0.416695867514756 4.94418028560467 0 0
-132.417721428621 11.6119777261063 -6.54909611418759 0 0
-191.630058909454 -11.7072406334422 8.61574882996768 0 0
-28.6369415124472 -0.500790457253279 -17.1521597495052 0 0
-154.104585166174 20.9163834000701 21.5960434771883 0 0
-159.980744619 30.2983611330297 11.6905048544928 0 0
-54.0598425784724 -0.769422791815682 -14.4143090829455 0 0
45.6776576113409 5.60323661410903 3.77740784190486 0 0
-126.530899526743 -5.087200827442 -5.4673465116576 0 0
-136.267178228691 -9.83685060719843 -2.90716826408928 0 0
48.5079751092597 -8.96013153505961 -3.89466243706805 0 0
72.7915009115646 12.3875033116535 -9.79639143709399 0 0
-47.7911359983373 -4.01149579238358 -11.4039600333288 0 0
-77.3417726834183 14.5758144365277 -12.4118319502123 0 0
-129.468999115837 21.454906840732 3.96555218931378 0 0
-177.283313946095 3.8946378609212 4.92462792479599 0 0
-105.977586976929 0.946676923258102 11.1499806637598 0 0
-146.423899449149 -13.2685614127481 12.7636557995271 0 0
-179.088835100078 -1.56907122010717 -12.5961944164268 0 0
-153.172932441858 29.4136850079333 3.73253842339172 0 0
-177.498581198048 -4.3415791230887 -15.4140402479203 0 0
-171.161112749592 21.3768734265356 21.4898369248488 0 0
-22.1904324468863 1.08089429493546 -18.5346845806471 0 0
-86.234898384726 -4.1463344156998 0.917897141980589 0 0
-201.497020449432 -16.3212970684571 -11.9774837299657 0 0
-196.211593939153 -33.3994550585061 -17.3879199238278 0 0
58.0208816910337 11.7258251248658 -4.30330660864223 0 0
-135.984318976789 -10.0564633957948 21.4038192518747 0 0
-132.003739901922 -5.15971208441764 -6.87290192504593 0 0
-37.6183540954706 11.5328424459773 2.80653439091666 0 0
3.91356654543924 13.463685348737 -17.2272788559164 0 0
-140.925146655123 -11.5603106534221 6.8487478868863 0 0
20.783163905142 7.07744116820176 -19.6730785428526 0 0
-172.833723041048 17.6852771475323 22.7249404525014 0 0
-79.8699268005511 11.1461232597646 10.6386182266954 0 0
-159.652264111564 4.5231361656027 21.1647809626406 0 0
-177.208609047267 -2.24681405531146 -13.1862086434743 0 0
69.2328913008323 -5.51771266336987 -18.3615205569287 0 0
-157.680175946308 28.3689217627364 14.5346482068922 0 0
-198.737952421666 -24.9049306717294 -18.4184076518149 0 0
-17.6548754363296 -1.9282021537217 0.719028403995834 0 0
-13.5918475438737 15.4199920897475 -5.24011472555226 0 0
21.6227973425738 0.907942591468878 4.22271356519852 0 0
11.1320104845527 -6.89058077837042 -13.9332664402405 0 0
-169.865696787078 19.2720123814033 22.3361251752608 0 0
-61.4080627625006 1.69460627186018 6.4049615309251 0 0
-190.868050785814 -7.70810938210982 -0.673350566869689 0 0
-67.7530323619215 17.2723990922327 1.91355995634359 0 0
-59.7577031354078 12.1048127363365 -15.1220006557581 0 0
-70.2010320730436 13.6075535830423 7.3421909039748 0 0
-180.603111512134 -8.70252219103405 -17.4891827185765 0 0
77.8922991668441 11.5507286798679 -2.4512461238557 1 0
-59.5555354511363 19.6693744245944 -7.85102617387681 0 0
-144.305605729296 14.6066035106578 21.4826602487434 0 0
65.103765084465 -2.62257945636952 -19.8333721659097 0 0
-105.93486252743 5.23762738927467 -10.4611448495044 0 0
-137.102431116132 17.9574486717696 19.5213006079961 0 0
-168.125072016629 6.63894135183623 12.9903944749622 0 0
-16.4099337399057 4.57530922707959 5.55553712004718 0 0
-94.671424667629 2.18794105931205 -11.1801310074747 0 0
-129.08914588542 5.89920909917219 18.1173237237498 0 0
53.3423957730732 2.88864072152407 -20.3223645037741 0 0
-47.3780189208569 -5.23584180930816 -5.88615272212292 0 0
-53.5720411081166 5.41263095314761 7.49211260067125 0 0
-182.544480900483 -8.3803603864438 8.02556101877009 0 0
-157.117697015487 -15.0222212780111 -4.91275543536513 0 0
-172.87407150064 23.87244475228 -4.23849733256771 0 0
-180.178284052652 -32.2153187300044 12.3629374362132 0 0
-186.001852196515 10.9483826520102 15.6466689573995 0 0
-176.440744232192 -37.4025125467556 6.9727317984058 0 0
67.7648233000706 -7.26174008628456 -16.9146786680642 0 0
-10.1909973380631 3.29808954001875 -19.6681198812232 0 0
-189.162383555957 -10.3958823501317 5.01648987074001 0 0
-162.578504706637 32.5703493381395 5.61846757452093 0 0
3.35407417605856 13.105355269479 -4.12915546708619 0 0
-132.469737842447 -8.76294838340294 -1.55734349932373 0 0
54.7771389252436 8.8461437145931 -18.5499774641382 0 0
-38.2644243154324 2.17554686211343 4.90140302259679 0 0
-64.5406201715483 1.23190432234448 5.92454115574829 0 0
-171.776076298995 9.66891951366484 18.1584463880928 0 0
-112.851770432676 2.34946126066914 13.4439076456299 0 0
-172.704422400677 -21.9145169397214 7.0346080624871 0 0
-91.7416906101283 14.0026170938674 -10.050000541839 0 0
-201.054697720152 -35.0929497467821 -9.05797164111218 0 0
-151.642085634397 -6.46702931873887 14.2670358594287 0 0
38.1405392795357 2.92066656828273 4.15779863633725 0 0
27.8323706017864 14.5206549587102 -12.7166130105043 0 0
-89.8812480674484 3.43248663873487 -12.2519101734559 0 0
-129.71783653121 14.8734375313946 19.5969920038104 0 0
-181.350546868642 10.7973934135282 18.7068054090286 0 0
-125.595909554556 3.76001771494624 16.9714167268616 0 0
-146.116761959865 6.78795497137359 22.6819028358822 0 0
-107.875829834663 15.5310090381557 12.9634973879926 0 0
-90.0912264439387 7.6697082037818 -12.4685138634431 0 0
-91.9658193173819 18.9662478727139 4.87704655692304 0 0
-172.802258454416 -19.1480453378989 -18.422663556355 0 0
-132.034176872016 -0.23743451010511 18.821469644971 0 0
-188.816501967404 -37.8233371004654 -17.7595019524567 0 0
56.6119836907803 -2.37491545420016 -19.6760030480979 0 0
-138.70188281228 17.7744979333338 19.6269865111649 0 0
-44.5237923959417 8.93561055052266 7.34547868227817 0 0
-49.2364175230336 18.9504405877573 -11.1688692577139 0 0
-78.0352930201456 -2.94466557897919 1.50587489201466 0 0
-75.5618594735876 9.54545209708936 -14.0808804529631 0 0
34.883805041377 1.98472352441538 -20.2300792127197 0 0
-132.876744399729 14.3527535108834 20.1263146662628 0 0
39.8792612851124 2.71403030100144 -20.2753477677598 0 0
-151.212993219163 8.12364392372399 24.1572768515707 0 0
-63.7026122306365 3.5061679944012 -15.7063430727672 0 0
-86.65179885179 -1.74533477271705 -8.23455605339412 0 0
40.5977663137592 8.55530961593306 0.431999022291665 0 0
-125.678461230083 9.75571580445377 -7.38433222781661 0 0
8.63919395754614 7.50253095770045 1.96462887827196 0 0
-140.447306736949 13.4938068222602 20.9516456497631 0 0
55.2251181094964 -4.13610530322396 1.07816750120611 0 0
-170.596646033917 -16.8646665582966 -15.2234931064313 0 0
-178.386486655479 18.8659375038024 -6.19350007611087 0 0
-149.538531254187 8.28528496127489 23.792394832006 0 0
3.04317355311814 -2.86785107427314 -17.5012784687449 0 0
-12.5212701240202 -3.3901781461682 -0.598106574704533 0 0
-144.488415755762 -3.35769712260115 -8.59443458657253 0 0
-130.032710937068 8.79646102222986 -7.03288576701337 0 0
-53.5129454416023 -4.34047863222535 -9.48360011873455 0 0
-40.0968700178047 15.4142641883596 -15.2677591419516 0 0
-71.013817607566 0.807957722764372 6.06791961357928 0 0
-107.843395060732 -5.1919703205011 3.82787273287851 0 0
-151.581272065693 27.5173165582786 13.1038672565555 0 0
-202.136543850752 -16.6758489879597 2.24619933942458 0 0
-71.370362822842 -3.34546532613807 0.0412508115517623 0 0
-137.06819036979 22.7339046366655 2.92771786564147 0 0
-143.737718644153 22.645557165809 -1.84817689330612 0 0
-53.0311800490519 6.57772737352878 -17.1221629438996 0 0
72.8895308146231 -6.09957220891154 0.637168410173997 0 0
-57.068943705593 -3.83800818638489 -2.42156970889662 0 0
-205.018395725295 -23.2871699766079 -5.94166491145451 0 0
-32.9155581180972 6.13786870453739 6.56489160083784 0 0
-130.422089877176 -1.41499696929236 18.516587703061 0 0
-182.501063052885 11.6163395545582 -0.795508134760441 0 0
-138.213014251437 19.2323038871139 -4.14078371046658 0 0
-163.296388990327 2.93298388960922 15.4374166587565 0 0
-10.9587918687243 15.8136618711242 -6.48851172026523 0 0
17.3960066856079 10.1658654010578 -1.04324607741911 0 0
-42.0035473122592 4.46426067182107 -17.9880821183856 0 0
-178.371935998174 -3.1870610850361 -14.513187993761 0 0
-178.24937070317 23.2792159500115 20.0402973384859 0 0
-138.480156427007 11.8214980856741 20.8433038992275 0 0
-192.443225806116 -10.5308347218851 6.36220294297093 0 0
29.5049547163735 7.36976107869365 -19.4317014825105 0 0
-180.663486663807 -2.0846024456046 4.1090033936052 0 0
-176.541666273431 -41.1708225213469 -0.21933805920325 0 0
-83.6481838693439 18.7004216153629 3.33193760864285 0 0
-51.2751557645526 -4.68661334955475 -9.1236092748148 0 0
-179.741736574266 24.8643830507595 -2.90724100611713 0 0
-184.419434632648 -40.645491003931 6.04535338420054 0 0
-171.016840478535 6.07552826180544 9.94190190812939 0 0
-173.72844394862 16.3759207792153 22.8529879531033 0 0
-1.51387488509193 -6.89799262927036 -6.42910664455225 0 0
27.8599699888435 -8.6837964405515 -11.2266843410724 0 0
-175.089420461917 -39.8550179340172 1.09481272623433 0 0
-58.6995768946324 -3.53619674611546 -1.78548247966296 0 0
-179.507843577196 26.7298001139841 6.23423527433886 0 0
-100.652233021956 10.1382732625666 13.7431584137454 0 0
63.8767448848038 -10.6387178860621 -7.41283286081497 0 0
35.3057283155979 -6.96975931094162 -2.36730580102477 0 0
0.561233738150413 7.25065398861821 3.00738804640871 0 0
-130.476006259641 21.1893791791424 8.94415557546441 0 0
33.4640167613556 4.74459315300684 -20.0389022277557 0 0
-186.350172544206 11.6245502873531 14.0681744941942 0 0
-81.3307282360076 0.817311771186037 -12.136797363046 0 0
-131.633311230761 -9.21571031810942 0.790080325866301 0 0
-149.666484285369 -13.6003423905367 4.26443301211346 0 0
-168.707386276721 29.4107075206645 12.9826778014222 0 0
11.9857840714469 7.7078428240089 1.59777920082326 0 0
-204.706686879852 -26.8684045689401 -1.59683650519261 0 0
-44.9636272248445 11.1485576354858 4.82879665028991 0 0
-110.848464167832 18.1789697433048 -4.07452653989277 0 0
-173.721802867253 -37.9830597318076 -11.8345698127478 0 0
-46.0534620018074 4.32658734064847 -17.59974942311 0 0
-40.1447313303922 8.50989949015952 -17.8506554805399 0 0
-15.6567587307219 12.9986682487194 -1.93203514585887 0 0
-52.6794886106182 -1.19680677527034 1.86855440292136 0 0
-185.412596807561 -4.1287743145763 -13.4759385127181 0 0
-39.6653749038313 -0.0392386262362532 2.25192482097431 0 0
-28.0613352149297 2.36890814965578 4.93352111538452 0 0
-106.463925854962 5.35397725841 12.804039078666 0 0
-186.456327451374 -11.8972486308822 -19.6303621614342 0 0
-190.590005636332 -6.40739975482058 -5.10072924469437 0 0
-131.998173649837 19.6480353560406 14.30117654986 0 0
-169.747533787027 10.1347650288364 13.3289415383809 0 0
-104.39659425862 -2.30460303864336 7.64455216299524 0 0
-94.2406726009645 19.2154610850936 -4.47987939534816 0 0
-190.640930684876 -17.283954441363 13.145303330107 0 0
-180.87022360121 5.23930928150889 -5.24806226374179 0 0
-88.6165887563685 -4.89165904636693 -0.754575146803813 0 0
42.4995332878141 -1.62458322456068 -19.5554166581792 0 0
-65.0097844405844 19.7326044509036 -6.00164629097813 0 0
75.5684040186971 9.40837325627657 -17.380635159065 1 0
-33.5964297690545 -3.09186962854445 -1.40666725978678 0 0
-173.014769979962 -22.2774499138279 -19.2472659609644 0 0
26.7687174817242 -2.40508955992877 -18.7237482008581 0 0
-93.6439859649316 9.54724410798826 -11.6592801245411 0 0
-145.070198590009 25.3333940336773 9.70667995161728 0 0
-168.039835538467 24.8159477669321 -3.73372384875812 0 0
45.0837155125308 -6.92011327682713 -1.63620002313485 0 0
-155.290317002445 4.68244121180132 -9.27656237523672 0 0
-177.169239571645 -7.04740031228483 -16.2189701007404 0 0
-17.9758080100491 15.9184600711359 -15.6580429263382 0 0
-171.050825394132 12.1563670623376 13.969236632432 0 0
-140.042301230467 18.1733527801914 -5.04619227367581 0 0
52.7248134159129 7.43539814950044 -19.3964664077588 0 0
-185.948126320515 22.9408830159486 1.53746790219723 0 0
-116.681550841852 19.9526567241516 6.7920971385637 0 0
-101.837890046758 5.64733457569975 12.2364583523442 0 0
-139.596162345093 0.416310678347354 20.6703004621092 0 0
-186.859959307441 -41.6085030477372 -1.6065130718856 0 0
-194.697557273505 -42.4187457481754 -2.48657949346942 0 0
-164.312531593076 2.40584507895366 13.5495668089379 0 0
-172.155860038187 -34.0040834947753 3.07073127422569 0 0
-162.724138877368 -11.544015907579 7.75951096321529 0 0
-164.201033171056 3.98999658571411 16.3374235651626 0 0
-186.967122409008 -5.8173232702865 -0.486246972503787 0 0
-183.785369651 -14.5847614645268 12.4400132943521 0 0
-193.982085419107 -5.73999944444576 -6.86785133713725 0 0
-111.502118456761 4.30470675655931 13.7774921471665 0 0
-172.764337076245 -25.7015899305596 5.65093436096681 0 0
-181.282010962753 -3.95961480413171 4.27647123886739 0 0
-8.05526695950324 12.7832901980357 -17.5938923993709 0 0
31.0517476046083 6.42794956892579 2.86316384273538 0 0
72.4478769867875 -4.17906454450104 2.20157790214853 0 0
24.7754945261899 5.953807809498 3.79023304240544 0 0
-175.198788419674 -28.2423478169833 10.8956234180416 0 0
-97.3265421382077 11.7274887242166 -10.5571551947438 0 0
-129.933393921386 15.9385290656396 -5.74611193173651 0 0
-199.658105441086 -36.4411109354094 1.5167367990084 0 0
-179.955688550228 -30.2042128761805 -21.9086373538891 0 0
-179.892944346432 10.9235682304184 19.3731480248142 0 0
-193.794504887212 -40.0236935093792 3.56719130905776 0 0
-195.879341085659 -23.4919538888331 11.9188511856163 0 0
-145.198987905395 -12.0924186953032 18.8837595720847 0 0
-86.6881066379471 19.1386241057149 -5.29396424422363 0 0
-48.6679521701483 7.340657176052 7.76274780606603 0 0
-39.6754957622299 1.07626944723324 3.52256322259373 0 0
-113.590856743602 -2.14638282402451 -5.79590423292338 0 0
-171.711880654116 -21.3491445199655 -17.6431474467468 0 0
-3.56777869200733 0.754843383466873 3.52054801665504 0 0
-89.084606387048 18.4084934286216 -6.24819371373392 0 0
-115.73203446883 12.0689374154576 17.9638330772111 0 0
-147.940967806715 21.0444463706515 -4.54142880048939 0 0
33.5190026271738 -7.66333229587615 -14.3561307760953 0 0
-88.63733305097 6.17091161050317 11.1456461935136 0 0
-109.275195656667 5.49445902797908 13.5284366470008 0 0
-111.175139207361 11.4310706050869 16.605760924005 0 0
61.48990416494 7.95318002338981 1.50449438497376 0 0
-93.2325519571078 19.9843436262795 2.809326821396 0 0
-15.6104266880123 -0.809649400502498 1.52956762603286 0 0
-105.110761230704 -0.38102473664342 -7.76816852910137 0 0
67.4323308407419 -4.02268879189648 1.93984917886656 0 0
-187.276552817885 -9.44593819293493 4.83990501611269 0 0
-185.858169705716 -14.9365830497342 12.8307824494482 0 0
-185.112801670193 15.3285913682669 0.729582854506964 0 0
-171.722298230815 24.8873234641433 -3.30687374243987 0 0
-127.97608253442 -6.04090446433718 -5.23237285051107 0 0
-104.328631546034 -5.3757017496874 1.66612856369538 0 0
70.0082025051742 3.11784342339936 -20.5231073992191 0 0
-50.2087341566822 5.55930322881771 7.32838215288008 0 0
-167.118089750921 5.87670553304178 12.1762304214139 0 0
-36.7572559722055 6.1706750345202 6.86672635331134 0 0
-178.649271278529 6.06315477348501 -8.14939575916573 0 0
-146.481841130434 -7.52005365768505 19.3865826002313 0 0
-136.478262454023 11.0425399676274 -6.29490104130351 0 0
-201.764670822846 -17.7498810227092 4.08598333284662 0 0
-140.555173227699 -5.61867546326763 -8.2324881683774 0 0
65.0437893648621 -3.91996039170406 1.75325446240143 0 0
-56.1682840108908 15.4067661787207 -14.2448023230922 0 0
9.88461299225563 -7.68866013730075 -12.4826099330596 0 0
-181.510553538613 5.93871899685817 -3.21384805737915 0 0
65.871945100099 -6.18327401385756 -17.7410459379447 0 0
-148.010230906701 14.5938615870567 22.4343781966633 0 0
-19.3379725735285 -5.03190037825011 -3.75106753967425 0 0
-98.3549649052204 7.84543924229701 12.6318270863681 0 0
-174.014063212032 -20.2365323589481 8.77009729778418 0 0
-58.2962497657235 0.539890634475591 -14.8085106869604 0 0
74.253200545226 11.7382348459502 -14.233488522834 0 0
-184.676374247972 11.4247224328059 13.7954310855684 0 0
-121.013667352306 9.47273680640575 17.0061589864743 0 0
-199.210308698548 -20.4223736113141 8.82668281886901 0 0
-182.049351463115 -42.4784493877176 -10.5128394077529 0 0
-166.779565463822 3.81762718126121 12.9779326564772 0 0
-186.384318046363 -41.8975914738374 4.47322859806945 0 0
-188.486640431015 -12.5101669352533 9.56175290347023 0 0
41.3451714597191 6.83885569812494 2.12661512268243 0 0
-93.0242684140993 17.4500399047657 -7.0106265838654 0 0
-181.744968182869 -16.7019666949904 13.0216942020186 0 0
15.5695754907083 10.7207873967037 -1.59491167768782 0 0
-150.424278995167 13.5740747083892 -6.3070154542252 0 0
-178.790802056449 -32.312136400601 -20.6205353854705 0 0
-188.002469361044 -15.2114338901233 12.754984017615 0 0
-4.40101505945437 5.87933471347576 -19.7335713522502 0 0
-160.287815816431 31.2577916949898 -0.597039487741607 0 0
30.6218884641664 3.29329816171267 -20.1884508845962 0 0
-139.880055664159 21.5324678174907 14.8900766584399 0 0
-189.26920949208 19.1257853980294 9.6537427326718 0 0
-115.406621571086 18.9092396962881 -2.57716719683519 0 0
-133.031933311667 -7.99409382138756 20.1760789475803 0 0
-178.397061322656 -42.4146697558614 -2.28838033141322 0 0
-49.9627805550639 19.5598832856843 -8.54157670781619 0 0
-80.7307938084398 6.78719929101448 10.4008677752915 0 0
-203.914747211666 -27.9762656269296 -9.74544881105444 0 0
-187.749581878304 -39.9327647654125 -14.8632215027649 0 0
-74.6260398011964 15.3765468272472 6.42094852615628 0 0
-120.011397130938 14.8317971931153 17.0052989057395 0 0
-173.064120694747 27.8368174977951 -2.48830868891082 0 0
-103.983170355991 18.5896710055018 -4.13438697717742 0 0
-46.7140910039161 -2.66406449239662 -0.769429684955207 0 0
-66.9735495072478 11.4864139133229 -14.5371703015919 0 0
-117.817781159579 1.66683103774156 14.5637772814356 0 0
-191.305493701378 -9.3453052708851 -16.1055154633975 0 0
-64.3268090257165 18.0808290289939 -0.485632979720246 0 0
-78.7248139038311 6.91165548369556 10.1506662622593 0 0
-186.520715577 -4.43807691711774 -9.84862784643903 0 0
-29.4083534635784 11.6479017178035 -17.4817441435255 0 0
-171.497768163096 -17.8101403815132 7.55173766998132 0 0
-168.053436561817 11.4816606629626 23.7386042871062 0 0
13.2965146237229 5.47268865081301 4.31813217294664 0 0
-13.3412517766457 -6.42856601328204 -10.696692168481 0 0
-39.5315874591165 3.39675441302309 6.12716248037595 0 0
-88.3936185052254 16.7234300921721 -8.38379046988677 0 0
-179.69751865243 -34.7880254573928 10.8430603787952 0 0
-45.2112396213686 3.73940746165826 6.66683473810228 0 0
37.571315537161 -6.29041749797793 -1.54240082143966 0 0
-152.104309002364 -0.339287513741649 19.5129416897051 0 0
-187.030518210963 -41.3159833712267 -5.22710180026829 0 0
-167.661492207032 -16.1127146622342 6.69022749961433 0 0
-62.3951304309314 19.6299907706458 -7.82610029580615 0 0
32.7733200310638 10.807923114602 -2.31622884607129 0 0
-112.590464821749 12.3916770134341 16.9367657449568 0 0
60.6356994370334 5.03921458177269 3.66777009146215 0 0
-5.12028353147183 4.38092938679257 -19.8237247077436 0 0
-112.561184567311 -5.34088826504876 4.87165889271716 0 0
-182.266754760114 10.6869629620408 19.8449503128376 0 0
-180.038864387444 -39.2028048986676 6.99401104184161 0 0
-56.8196357537194 6.4782720480483 8.02563277541403 0 0
-195.342739803188 -9.82309863518791 -13.4895470069406 0 0
-88.132506809573 19.3358191939607 2.89058127470794 0 0
15.7468982723984 13.8373682626058 -6.45219790005402 0 0
25.5677950217016 -6.73990332252392 -14.8378196242233 0 0
50.0838770896858 -9.94541584306204 -10.3220913663068 0 0
-189.161281029484 14.2949244684678 13.1499834316845 0 0
-12.088130165458 6.30279956780848 5.5022220861381 0 0
-35.6692045272704 16.9861650003479 -3.72207257835035 0 0
-126.237982067705 19.6837758947993 -1.9363002146985 0 0
-48.1973080182267 3.41841928454581 6.60544023112113 0 0
-17.7599497790326 -4.16636879520169 -1.83516819757694 0 0
-150.061110477548 27.3744990068816 1.38664442354184 0 0
30.3033389026515 -1.46958907808764 2.7678470423347 0 0
2.94633664441953 14.1720880510179 -5.57284000135601 0 0
-184.840353447724 23.7891047103037 3.50051279182182 0 0
-174.897527450054 -16.0937355878766 9.68703067952449 0 0
-189.500923217694 -38.3029128160336 8.31289994949156 0 0
-159.965814522586 17.8807357432369 -6.99294863579755 0 0
43.4746875357078 11.0962200977526 -2.83302651025753 0 0
-86.6577845401105 5.02176936073769 -12.9263744936866 0 0
-67.9128810819264 16.4166960669194 3.24174860725797 0 0
-148.903664674919 5.35438413764983 22.823777418448 0 0
-27.0847718897889 8.25726414672509 -18.607987361422 0 0
-5.68575734187971 0.744345448411154 3.41756163476216 0 0
-57.7902761867377 17.8678348346218 -1.66137248607247 0 0
-83.445350536118 -0.358271676952587 -10.5777568123226 0 0
-180.337710900067 8.60934521965548 -5.78443390313519 0 0
-154.818584661975 2.68712604459287 21.5405673323534 0 0
-177.894924020043 -37.0236649445781 8.28927430964027 0 0
-143.75447001705 -11.4213735565732 -0.862043290384036 0 0
40.6042753945274 -2.78503939101965 -18.9382353389057 0 0
-142.386083522668 -15.3227579379348 17.3782847037125 0 0
-120.181481015867 10.9032005587892 17.5893538947282 0 0
25.0265315537005 -1.21865655172647 -19.2564937543714 0 0
43.1039869009801 -8.93368360652978 -12.8094695387436 0 0
-173.23816045489 -33.5429121196502 -16.3865135038955 0 0
-183.464395102672 13.2759119705749 -1.44306881481331 0 0
-149.505926148736 19.419567269284 20.9324637103284 0 0
-17.167870465241 -3.37482528064512 -0.689076582542697 0 0
-86.644464236825 2.22346298010893 -12.2892772261906 0 0
-134.032454729834 5.89258669001904 19.3353417805483 0 0
71.5445618712066 6.3685948457141 3.31887022662271 0 0
-144.481368812541 23.6482860018302 13.80712185628 0 0
-134.130883012773 13.0120528374457 20.2421739800756 0 0
-7.92005209675138 0.306030005358553 -18.9596096109985 0 0
-68.8625343419664 -3.10699985607284 -0.0501321366396009 0 0
-155.344029597724 31.2768332625817 7.93029263429936 0 0
-96.8277672959687 7.96605800556451 12.5815899113923 0 0
-55.8349226332325 -4.35757762102426 -9.14028988033468 0 0
-190.458327463873 -10.6202043064844 5.45814961237327 0 0
-92.0268197659267 16.4423091128239 -8.06140757685456 0 0
-107.488333324631 -5.19105501012011 -3.0101230240106 0 0
11.4566475471603 13.5698905530592 -16.7163421865376 0 0
-112.201903141885 3.4084978324658 -9.48213759094775 0 0
-158.713389227377 -12.4824537708232 -7.83901120053383 0 0
19.2812550578607 4.81236502292518 4.42401263016963 0 0
-182.247822392473 12.7905418836791 8.39942558431658 0 0
-201.493955944315 -33.1327487845046 -11.1810944328287 0 0
-165.686445286658 20.2199965481261 22.2525514023654 0 0
-160.02041707281 0.307065566625971 -9.9302770559487 0 0
-14.0533776494486 -4.39578676576526 -15.620477183374 0 0
-8.11175511591548 -3.30855061807463 -0.446036015038131 0 0
-20.570482704759 -5.82877709280872 -6.11849613371221 0 0
-152.124964275727 22.8775809761886 19.4191954879695 0 0
-172.102405603573 -12.3796811070059 -14.5284410756653 0 0
-191.21484164362 -42.4118550759402 1.1270099652999 0 0
63.2118899049065 -10.7130928072165 -11.3552618714961 0 0
-173.480486170109 -39.034866396036 -0.0900175353926379 0 0
-137.982763482828 7.74959733162045 20.65427251844 0 0
-76.014168326338 4.37626814627794 -14.2770371275901 0 0
-189.413047854546 -11.1454063998932 6.15446675258562 0 0
-107.203887342758 12.8936523058641 14.5972449782904 0 0
-182.513782109339 -39.5713332026371 7.35783879208391 0 0
-18.9909641000438 -0.347060849214538 1.91107685585046 0 0
-199.09651576467 -10.8945318948824 -8.51292014505722 0 0
-53.2862716180792 1.70686625314425 -15.9696403702194 0 0
-115.775867489796 -5.98148492617237 -2.76578123948575 0 0
46.2150991443445 13.4870462584438 -10.556996340469 0 0
-156.004277065067 15.4925188156137 23.7093709056873 0 0
-108.586476465303 12.6372348361965 15.3901711332952 0 0
-123.614957243667 -6.38826570373375 5.41854459493574 0 0
-45.8263420063925 6.31194279025119 -17.7898187775926 0 0
-200.81370958404 -24.1220498158997 -16.1366780742648 0 0
-164.793430062015 16.3748717616777 -8.61823029059244 0 0
27.7674700264268 0.56924145469015 4.35708257267014 0 0
-195.142557148311 -6.63009824183749 -7.3813642988416 0 0
-1.7945239660887 7.90691380705714 2.47616657835944 0 0
-40.2401912155896 -3.5213472692583 -13.2748135552993 0 0
6.14922257723615 15.3157732819042 -8.31106090019007 0 0
-171.689176674919 -15.9995427556 -16.2382273955386 0 0
-198.360316842036 -34.57504669163 6.03806478615172 0 0
-128.364091080265 4.08692906044714 17.7552758982428 0 0
-180.537027231232 -1.01161308561905 -10.703806798304 0 0
-183.578129240777 13.5048048279243 0.754874416350701 0 0
-141.584405633655 20.0277910311567 -3.92133184501574 0 0
-203.724153124007 -23.2260055089004 -11.2743550139554 0 0
77.4302518606235 8.50430173180587 -18.1814778585834 1 0
-154.261468623338 8.53551070358492 -8.34821117386161 0 0
-97.3448201839999 -0.186819316496298 -8.75896711765031 0 0
-46.102044772806 19.2850759078956 -10.4656078743096 0 0
-150.166635058046 2.42481055677848 -8.00657705758801 0 0
35.3489440383925 -3.44189109187867 0.796708405319695 0 0
61.0662485315336 -6.02009367290905 -17.6413101519905 0 0
-184.731016943512 18.0125815621513 -3.55220343058799 0 0
-66.4755033560362 -4.49029698845761 -3.63470366298613 0 0
-155.203511692727 27.9551344992788 14.8293232422403 0 0
-200.483416362536 -12.4371043333118 0.0390838340059746 0 0
-143.075106140684 -15.5279726689575 11.6451352522109 0 0
-121.320646052857 14.528010072891 18.0306122352134 0 0
-183.149586110054 12.4797381644746 -3.36758860199946 0 0
-164.652066628988 30.3233630566846 10.8762658206924 0 0
-89.9502905724108 20.0723082164748 -2.31799777511257 0 0
-56.6091117232761 8.9775158069615 8.8800070585191 0 0
-177.157552000107 23.2304733802407 -4.4818233369531 0 0
24.277958099471 -7.83166100763455 -4.53861523407575 0 0
-27.6910215905168 4.90983136561761 6.18900446685839 0 0
-99.0882352878552 12.4178709336139 -10.0021771538639 0 0
-129.66716134728 9.49547855523996 18.7164453652075 0 0
-24.9400096718591 6.96762502754923 6.11542349703335 0 0
-157.1459883913 17.1283280102079 23.3766837634082 0 0
-53.6969874033856 15.781120820004 0.740071190786684 0 0
-111.803481803563 19.1263328681876 -2.17119929002644 0 0
71.8416737514004 -11.1346632860765 -7.33976855245142 0 0
52.4410872965506 -3.82641575092633 -18.7714232449194 0 0
-151.00354073789 14.9352404482295 -6.09299225768059 0 0
29.7073824257328 4.96973597315573 4.18714299683285 0 0
50.7632247293774 3.89948992903361 3.87564046679493 0 0
25.6993220990083 8.22576264422282 -19.2856666559018 0 0
-175.336123651144 -9.44847869644331 -16.658357067941 0 0
15.2509083234711 8.94718122909427 0.311409319649479 0 0
8.35688841874587 15.238557924945 -8.54002465044353 0 0
-171.960528830963 13.6382176878656 -12.1714607475926 0 0
40.814944012326 4.72426401101298 4.11246976577513 0 0
-114.075290034798 1.43706050034437 -8.60688395695142 0 0
-67.7566765771836 1.17775261182282 -14.270117644157 0 0
-174.48540789438 10.5734687438489 20.2564934767232 0 0
-186.107115197905 11.5134687035792 21.035564610506 0 0
-49.2511422663669 -1.13111901625279 1.79387099607322 0 0
-43.9377336178994 3.16629632041341 6.08439919916716 0 0
-57.8974935991603 10.9563589271408 -15.7524644944348 0 0
-151.302968076354 28.4400854029899 8.7731942342976 0 0
52.7918097362721 0.603372306817399 -20.3342936823305 0 0
-98.4334299737904 20.0752480944842 0.762301113973294 0 0
-165.04837397433 16.2155769329709 24.0246079730836 0 0
-169.957545940965 25.4690276576764 18.7376286593269 0 0
7.86230849314755 -7.26221663434838 -13.3119909589513 0 0
-134.389489498756 19.4470553181689 16.2129093344514 0 0
-115.480266469677 16.1555331108831 14.3567135530029 0 0
-193.40002448844 -11.1452839395098 7.80324703405793 0 0
-174.100238573863 12.4602374138157 -12.2738873288278 0 0
45.2720723714188 1.43150866812829 -20.3121139743716 0 0
-101.692971817645 7.48543959795235 13.0551219624279 0 0
-30.9550144137494 13.8371706383735 -16.5007942322807 0 0
71.5046747302754 3.93420214848747 -20.4072831438836 0 0
-73.7726995429958 11.2035413937236 -13.9231192094188 0 0
-22.0365129996936 -3.31801448820916 -15.7765303504788 0 0
-185.92643822974 -7.5377783764369 -16.577509624397 0 0
16.1051984034392 6.74109441199135 2.44781705882514 0 0
-172.464550565611 -27.5112127258375 -18.3411986089535 0 0
-197.027801824346 -8.50150048793919 -7.69760744888562 0 0
-180.06089976318 -15.4433392274604 12.1974379003848 0 0
-181.674006707411 -2.65325447513901 -13.5928913961644 0 0
-20.1083203363839 15.9564514267203 -15.6204961201138 0 0
-162.715118762553 9.20202589759127 -10.5725853314952 0 0
-174.548690034577 -32.3048810581392 9.91291668707375 0 0
-106.796435736276 -0.551497645740442 10.1303650024508 0 0
-170.971596325288 13.6897754317586 10.5496850074012 0 0
-189.491556221367 -41.4508615595059 -11.696584022402 0 0
-183.948366078775 -11.9583586149858 10.4564320321679 0 0
36.1799392399524 0.499401856151534 4.13726706523951 0 0
-185.30588044379 -3.93106055605774 -10.3819540081672 0 0
-2.35115605164383 7.87568863900716 -19.3326207019018 0 0
-35.4755206814988 4.03262333607963 6.46530608379752 0 0
-122.407663073548 20.4145657504004 1.56034904801453 0 0
-7.88851177171186 -1.51317345262668 -17.8748059327804 0 0
-27.5828243527708 17.5825718610344 -13.1796738677279 0 0
-116.17331429259 2.77565684557744 14.5076847030784 0 0
10.6088931245967 11.7065750804845 -2.65976961531587 0 0
-178.401238196104 11.0237888241594 18.7253163871698 0 0
-170.847018648196 -36.6791415099163 -1.2652448377263 0 0
-27.6984706807536 -5.39685154317035 -5.073080023709 0 0
-174.297864313644 -8.41361698482733 -16.3419515193135 0 0
45.8076102898672 -9.57703354043069 -5.57572627082251 0 0
-193.228787614748 -21.3128082629115 -21.8528107387457 0 0
-93.0372424467183 0.0274169411423515 8.12709294730742 0 0
23.6471117267487 -3.57067121753998 0.480507715096913 0 0
3.21369498582363 14.9642709922002 -15.859336773408 0 0
-147.3600795252 18.9727470803896 20.5054491459995 0 0
-175.502958138115 13.6197957011139 13.0745118949383 0 0
-179.34762528878 17.6700611948076 -6.72266359829776 0 0
-139.519592800062 22.8811443096566 1.15841061941902 0 0
-123.393954670184 2.49212350935147 -8.12619808886317 0 0
-157.156621091473 -4.62483401873424 12.940457031342 0 0
78.2461457418246 -2.25924744844785 -20.0668917643109 1 0
-8.11739553449528 4.28217702121628 -19.7422277312813 0 0
-2.92013282168129 -2.91032139470381 0.132418114728536 0 0
63.0811094555295 10.1843090944273 -17.2973729217427 0 0
21.8008802481453 -0.793688191640993 -19.3803042666169 0 0
-142.42136324465 -7.03296845436899 -7.67963087537684 0 0
76.683602279111 -1.31545408303643 -20.3402809268637 1 0
-166.288755530536 -1.81651760768355 -10.6288853062599 0 0
-97.450382267902 -4.79003354172194 1.49598381130614 0 0
-190.958828365635 -23.6537628781721 -22.8031383405781 0 0
-101.611039227381 -0.427262042637091 -8.04864286171202 0 0
-38.47620013711 2.06504927103666 -17.6520973960857 0 0
-118.314190255464 20.2789582318933 2.08894845041858 0 0
0.404102934332693 -7.14534615646883 -7.0488375879886 0 0
-17.1985374887801 3.7173597662911 -19.4746495486558 0 0
9.25551978813084 -6.08133347542683 -14.8584989164184 0 0
-96.7789437800612 17.3778196947981 8.415056732836 0 0
-116.036917754506 -6.79767167687001 -0.756031979792555 0 0
-20.5372218490421 4.21239851050952 -19.3770154941774 0 0
10.7675726462166 12.0533514192376 -17.8154307356042 0 0
-108.966994312964 0.360858257503504 -8.20734777504985 0 0
-131.951432876169 1.92924595663615 18.5656589955139 0 0
-84.2594968629599 -1.03171253853676 5.6816842837598 0 0
-66.3591861796176 -0.0886391857647781 -13.4216700389297 0 0
40.675384385092 12.2959192063857 -5.55338352708073 0 0
-155.626730953197 1.16206096446441 18.8792581259745 0 0
-141.301429678262 19.4767321213684 18.7264468933843 0 0
-4.77717288343182 13.1510150570035 -3.14907918663482 0 0
-129.722602717012 18.8713100177646 15.5842618033286 0 0
-23.0925020502102 -1.17930498451698 1.32258631007032 0 0
-170.26175397395 -1.54373506370512 -11.3342764732525 0 0
-146.138699667324 21.9687954847336 -3.60266779217436 0 0
75.5433772193797 -10.9228652987288 -12.1017820015857 1 0
58.663932060866 -0.353639532743323 3.08427602982111 0 0
-189.04660713733 -6.18458010815743 -3.55721942034806 0 0
-66.8475240994154 18.4016537104297 -10.087535527827 0 0
-90.3067982284275 6.52562283084909 11.3128128538714 0 0
-170.103515654482 8.50064348145676 -12.6046706630609 0 0
-89.1010782646695 8.09412917722396 11.8595731244412 0 0
-111.472189585894 16.0607956235135 13.5380056890622 0 0
-196.937383175879 -29.0475498011593 10.3336831915647 0 0
64.1100163375847 9.11483990582226 0.48759134092975 0 0
-167.726959241866 19.556062417653 22.4342151912216 0 0
-61.884224472881 2.8573833576871 7.36297742709664 0 0
-170.933338754829 -31.2196389887641 -0.212381260843701 0 0
-72.3673912187445 12.7092303350734 -13.5130938353333 0 0
-177.122301438157 25.7232723982581 17.4743984069105 0 0
-91.5148888543304 0.110567267357763 -9.85195905838255 0 0
-165.609453868461 5.9632514034932 18.825302387939 0 0
-2.25811716052928 10.557233723934 -18.5853201475503 0 0
-160.144287602171 -16.6027670359201 3.76173736756887 0 0
-78.7036368927844 0.408987911098649 -12.1985082225728 0 0
26.648459996181 10.064026191174 -18.7310495438856 0 0
-176.814911681281 11.7299955155837 7.79159835059844 0 0
-165.915043447038 28.5178731427013 -2.02422502110838 0 0
-3.53250133483043 10.7257169344909 -0.282363897020337 0 0
-33.4559497441245 9.1685358542128 -18.0503283283864 0 0
-63.2393857083767 1.93302273677777 -15.1941799970962 0 0
-122.316978909224 -6.7086768729954 -2.68714815032124 0 0
-177.947108641742 27.1676763367554 2.66789906770975 0 0
-172.576900478845 -10.0994269611157 -15.6488457304244 0 0
-122.616706129833 -3.78190984252163 12.8298483954871 0 0
-121.254930173165 19.8009833316872 -0.760127780122728 0 0
-186.530093303368 -10.8675126940837 7.90814470231909 0 0
-6.07771611329423 14.3482080853959 -4.61529873116801 0 0
-69.4767535412509 17.3769428154729 2.14318973539584 0 0
-160.890587267487 25.7622002612978 -4.89221147752984 0 0
-173.167285649776 10.8384632121723 -12.8225722407593 0 0
-178.630508740394 -23.4800455614191 -22.5146190049903 0 0
-35.0077255895999 -5.33729920888581 -5.48810624527838 0 0
-184.206531626771 -43.2008259479037 -1.72941062859276 0 0
-53.1329932568045 -2.4082255171435 -12.9712592151299 0 0
27.334706652611 3.71520530012813 4.38619230604 0 0
-181.868332799418 -43.5048602992546 0.518839127356262 0 0
-159.414395228345 31.8379155522626 8.14895157701274 0 0
-179.385887765496 -4.90492684778296 7.63121812197351 0 0
-187.778935792115 -23.1336623625794 -23.3719710236263 0 0
-131.697306741573 -8.51752753297365 9.72725608441744 0 0
-188.521937498573 15.5515086503687 5.87631407885249 0 0
-135.795738620231 2.81203527855739 19.6351251719846 0 0
-55.229966779553 16.4999797525681 0.0703279541382578 0 0
-164.647155078453 32.7454708833215 3.75153221189435 0 0
-173.191003909289 3.03841372871969 9.25153346598865 0 0
-151.524555783757 26.4381700957869 14.9040205860349 0 0
9.17416867767432 3.43429380092558 4.49531955506063 0 0
-174.674060700039 -0.112997435904339 -11.8078759285579 0 0
-128.600210363487 7.25159361823626 -7.28160986682426 0 0
-176.287632525653 -10.8364438320999 10.1703232509045 0 0
-170.45194525502 9.94341340610232 9.15428907228986 0 0
-173.996920936541 28.8774460261848 12.5427665952698 0 0
-182.959517726287 21.3581046161177 -3.12268985817616 0 0
54.0222507652648 -8.75512798078986 -14.3942276526172 0 0
-110.526876382759 13.2781904813215 15.7345577609312 0 0
-157.560994587945 32.0852035469407 4.25681399059756 0 0
-132.004163252088 9.09555065953238 -6.82387818747504 0 0
-127.390559470406 1.86445190425181 -7.66878318469657 0 0
-34.8220355052367 -5.73948236132505 -8.09869187771199 0 0
-140.461673534409 21.0073451420034 -2.72637492672178 0 0
-12.286372438301 7.89514658773506 3.60296630714138 0 0
-82.0225960568754 -5.04266879707233 -3.30907224275319 0 0
-88.4679626677345 9.6185101841964 -12.3877779564986 0 0
-61.2992341853903 19.215741623897 -9.68014823286867 0 0
-183.334999364637 -15.4756944010012 -21.6792542667873 0 0
-44.3584359811009 -5.37110984374812 -8.28435238563503 0 0
-83.0840960646802 7.19311313425649 -13.4661872227063 0 0
-27.2512053141157 13.8596205830111 -1.30833905348827 0 0
44.7013601297488 -9.54986159444855 -10.6230623985503 0 0
-167.628367883368 22.4004908341993 -6.77421398191069 0 0
-35.2019316168891 12.3512270948479 -17.0631248295268 0 0
-159.923853089537 3.21827511845834 -10.3245866087372 0 0
25.3489817587856 14.6150385371889 -12.9126060496954 0 0
-197.290100337912 -8.45321362383685 -5.62649719567672 0 0
-177.235388675698 -30.1896664541087 -20.9579761596859 0 0
-123.610968711663 11.3392252528589 18.200144505147 0 0
-170.680241070589 -9.14782769713065 -13.5271742435744 0 0
-19.518179602564 -5.43931044576151 -12.7090037542854 0 0
-106.042204446439 18.3625594544709 8.83382233096098 0 0
-188.287325507515 -10.92976874397 6.82958652873481 0 0
-193.981717312319 -35.4947848639351 -17.4237397331729 0 0
-139.846884732767 -10.2906135394331 -2.93157318000542 0 0
-47.5662107694867 -1.71267289117357 0.906344903222013 0 0
-171.82534308677 11.5210192416532 15.5315746094086 0 0
-175.533647742958 17.5434032048073 -7.89958986645634 0 0
-184.944476101496 -5.87283167313284 -15.4816830164594 0 0
-93.5851277883442 0.917616481245854 -10.4127233684802 0 0
-93.7122776379242 -4.28522540997471 2.03588616953681 0 0
-64.699783898633 5.48628853014359 8.64873138212434 0 0
-182.227284006189 -13.5194289121535 -20.710311322494 0 0
74.996285766535 11.3386242348738 -2.11972878393259 1 0
-37.0949037586823 14.6127535464448 -16.0860533816538 0 0
-47.8057934184212 19.5257042231499 -9.03986692489987 0 0
67.8027824989346 11.1096679713336 -2.2374899011292 0 0
-123.140358894515 -2.29427654235795 -5.85101558950853 0 0
-157.502466947773 -7.98113548149206 10.2961788410472 0 0
-132.259299039468 20.9828917216613 -0.128048416896846 0 0
-143.724196693629 -12.126950105955 6.20157758584084 0 0
3.67183984773209 15.8189033702687 -9.57226435452923 0 0
-125.916815995363 15.4253543509603 -6.14026909305846 0 0
75.4172151049401 -8.62868510488204 -1.49734838051489 1 0
-150.903531302774 23.4166763231911 18.0136450638674 0 0
-52.7410225693975 1.80942999895092 5.47275660797514 0 0
-14.917165781183 5.66427647337633 -19.5166605135046 0 0
-76.5986557690084 -4.40703620012347 -6.13356707792822 0 0
-0.689094410290096 7.41264866638227 -19.4828226069271 0 0
-118.993319698671 9.13179331300676 16.6592908897557 0 0
-169.694077398314 -27.946035135513 -1.4037793363769 0 0
-11.3213367447151 14.8401159799867 -16.2857568992511 0 0
-180.220942875234 -36.3702747008074 9.87794111501474 0 0
-145.918730616078 -1.65370293274666 -8.72059489298137 0 0
31.8043201656008 9.36557621915449 -18.9310449958774 0 0
-74.9943078486263 13.1059162363925 -13.0900857414287 0 0
-166.582807187766 8.19510066159276 -11.5906811038241 0 0
-174.376209082886 13.1757359235851 14.1941360877546 0 0
-189.201570600833 -41.9932227183271 -0.467899457295114 0 0
-170.188325351259 22.8947557159811 20.5039995924126 0 0
-55.3960269784593 5.40262436383225 -16.8662321471116 0 0
-145.21344193184 -14.0957503227831 11.5256408328678 0 0
-177.981591114305 -21.0375068806348 12.8411461232702 0 0
-179.967450408418 -38.6459395393342 -15.9363488974842 0 0
67.9153481392638 -5.53467341987152 0.615645967190808 0 0
20.8988923900325 -1.94316455442364 1.98040101877214 0 0
-7.52334700606598 6.25262217646158 5.2057584930293 0 0
-193.596587374418 -28.9387379308736 12.4452643972031 0 0
-149.024303612025 27.3776761141334 7.30099400625486 0 0
19.0630818576322 7.83720098695057 1.31636481575344 0 0
-3.50794786567141 14.7341037891862 -5.48811862354833 0 0
72.7272175902648 -2.04481966290386 2.67892584900102 0 0
-162.524295793289 31.2098727297086 -0.352214760927164 0 0
25.2664165762595 0.95162382041678 -19.9947594324993 0 0
-20.5209756920415 7.39179946008828 5.3993635131328 0 0
-146.760412910127 16.6617644027278 -5.6434974705119 0 0
-110.369556945819 9.67975229154065 15.6284665555481 0 0
42.2870369270783 -9.58598666008436 -9.76607381518312 0 0
51.21319616013 2.33904959393293 3.95356907296518 0 0
-114.203000154595 17.1202066723704 12.4834125382894 0 0
12.0929983176629 1.30786758469617 4.30700000854185 0 0
65.9763188886281 -9.46506229611164 -3.51185506199972 0 0
-154.424753624306 30.0137073109592 10.7814218070531 0 0
-115.316931582659 -4.13010610157874 7.06854644515408 0 0
-14.8639118764819 17.2806283315587 -12.5437470334729 0 0
-113.929759282906 20.1681200148281 1.19914638291065 0 0
-74.4887948711259 17.4162471533388 3.43365904610399 0 0
-121.917401400354 -1.533385194576 14.5732782540142 0 0
-157.712164909981 31.1081741865005 -0.282475006961154 0 0
68.3717442936979 8.83951644338455 -18.3557439589126 0 0
-175.158482954818 -11.8622780282793 -17.7174133879656 0 0
-146.057127489184 13.7951574999556 22.140725633114 0 0
-186.539571658432 -38.5789899580274 8.65670877900752 0 0
79.2437084873373 6.16439464963393 3.88514151834236 1 0
-92.232224354695 -3.13308638441739 3.47480736761765 0 0
-173.91458490179 -14.8169925102175 -18.1393523123708 0 0
-148.473002714988 -9.53804704439929 14.4275316185297 0 0
-60.2967703185695 -4.27560773406451 -3.23977921533249 0 0
23.7727074129227 12.771739733886 -17.121787636085 0 0
55.8387896789072 4.234716803249 3.7944837825754 0 0
-112.517034386665 5.61598213090389 -9.52942704456121 0 0
-188.445263011439 17.865101667123 14.702617566339 0 0
-99.983117605999 19.8899003678238 3.11544247067174 0 0
20.4218666604824 6.45374079389077 2.99603236314924 0 0
-35.0066948030884 10.1797938858425 -17.674466877544 0 0
-143.851074987888 6.72064772823099 -6.12907775028116 0 0
-72.9280577242445 18.7210308522076 -0.15191005901496 0 0
-169.766053731669 9.87993301248848 11.1782395725532 0 0
-186.245936864848 -9.76915057881539 5.91836917821117 0 0
-124.457904041921 19.180310944471 -2.72999807035902 0 0
-194.35048828836 -26.9780424237131 12.5588594570544 0 0
-179.125493161305 10.7839545880266 -7.70036062569737 0 0
-189.001835273559 20.2527557563574 11.3640517096227 0 0
-154.976384026518 24.350067997205 19.2216695411971 0 0
-163.467426112749 26.1061356300981 18.0976621527846 0 0
-188.495720254454 -40.6141920763482 -13.3444059803942 0 0
-65.3891740536953 1.6860605308768 -14.8024506476718 0 0
57.0097363931554 -6.28072437068312 -0.540505701539824 0 0
-177.514488570748 -12.7425307734266 -18.5690806222453 0 0
-68.2388789137841 15.4437559415389 -12.9339695590822 0 0
21.534137276365 1.25114881858378 -20.0051637454626 0 0
-114.456892431375 14.0580274877055 16.1716817586141 0 0
59.0345904856854 -10.5090971074163 -10.6158850242483 0 0
-40.6835510162117 19.1899427320957 -8.3099313915816 0 0
-155.530967089494 2.58560972993917 -9.36192915099842 0 0
-111.577683517699 8.56492090206986 15.5819887057498 0 0
-13.5995978245125 12.3314907631682 -1.28638043586309 0 0
16.3449062225219 14.2494645577119 -15.3970652821538 0 0
-169.868110986192 -29.8770678242161 -2.38560481653763 0 0
-96.0439750906299 5.65695162757096 -11.7152307519184 0 0
-166.662273632196 -21.7371168287781 -7.68842639669676 0 0
-47.2958363726428 -4.63441198547988 -3.8877568723436 0 0
57.4378569604983 -5.66014106787322 -17.7727223891272 0 0
-176.120839961575 -20.3536320966464 -21.2866954258016 0 0
21.9943355479137 -2.37603677064867 0.583515415955222 0 0
-141.071804313827 -1.57025795631331 20.9169220324206 0 0
69.0607066118694 1.13802287509388 3.25704780805694 0 0
-195.32626326805 -11.5317509777259 6.7705197478322 0 0
18.0262941365526 14.0668476147834 -7.267027966478 0 0
-101.508454674937 3.18725698210875 11.553355524313 0 0
-152.124497422713 1.55780125054272 -8.88823205255343 0 0
15.741045744877 -3.92298801280301 0.163810929815596 0 0
-127.096256450781 4.78231709473471 -7.65655736373101 0 0
4.38037003418417 11.9068194792323 -2.48039200940285 0 0
-186.943455810151 -7.42951217851004 2.97353731062839 0 0
-92.4714928945079 20.1516183152774 -1.52308848290302 0 0
-41.4877309610975 -5.25552459779078 -5.34623120439626 0 0
-88.0544031782145 3.68790145623582 -12.5556122637763 0 0
-69.8827118550319 1.72494731310754 7.29227831932833 0 0
-188.348893330261 12.6487440806688 14.1888491174384 0 0
-7.90727234531832 15.599925873179 -15.3336097515301 0 0
16.9380077521812 6.21611138217319 -19.8441369564987 0 0
-190.226691403194 -38.9080292279011 -16.0657921402154 0 0
-184.081588287846 -40.8168048478676 -13.5873888918512 0 0
-40.9852653353105 -1.53573394372049 -15.425848175235 0 0
