"x" "y" "z" "f" "a"
-119.002924104903 19.7583369238428 3.13181304372256 0 0
-220.515264223902 -21.0014471889134 20.0652903449103 0 0
-152.226129829548 21.9469125085168 -11.1201927110782 0 0
-182.736122516748 26.8473008972199 6.59514613914624 0 0
-198.393157186537 24.0070865454301 -22.2707059507177 0 0
87.7662889016527 9.99728058752275 -2.76396044061671 0 0
49.1913971057766 3.68960848347425 -4.41491696503906 0 0
-141.846282028556 -0.438266654802998 7.97750916978023 0 0
-190.183131996878 -33.4589661150342 0.48848258370167 0 0
71.8826996410734 6.11516690072143 19.8268825912309 0 0
-226.936562464269 -22.1204898459086 14.4080680035607 0 0
-66.1011091226624 -5.97589445421622 10.4368318573632 0 0
107.411704421987 -1.15078333725791 20.5941610173499 0 0
-204.49734073301 6.55409293723835 2.9616932340908 0 0
55.8562254812409 6.49494815720949 20.033573355344 0 0
-145.101628886831 -5.75338654012969 2.84405992889301 0 0
-192.174655740276 18.3212209802147 -23.9250765751195 0 0
-193.93665362379 0.90848236730424 -11.2282080579219 0 0
-150.396604974036 2.49724590364368 8.08411636312911 0 0
-214.402886577171 -42.4779188932849 9.41137131022355 0 0
50.0525961526904 -2.15999869913251 -3.54769700828318 0 0
-122.961723436064 0.000198054615722606 -8.33991165330916 0 0
102.094762234053 12.9418755246249 10.4343536714047 0 0
99.6774163484333 -1.56800697159454 20.6448546586113 0 0
123.959425043675 -10.4393701501349 -2.1941568138451 0 0
-88.000144899124 14.128999679463 14.6979097739858 0 0
115.370462908522 13.9735280871949 -0.17076992585537 0 0
112.99403132908 3.14947338962024 20.5996969332598 0 0
-118.268868974409 4.82697194680523 12.5482512413527 0 0
-203.470879608526 32.1167617990718 2.07749046065763 0 0
-5.89928291476365 11.6419299840402 6.21288296344172 0 0
-195.768192020415 -29.1188253443897 16.179794646647 0 0
126.21719761348 14.3414090328294 -2.97580911640451 0 0
27.1699381813279 -10.3308805051268 16.1915809849577 0 0
-226.50282540304 -14.1464327518487 -8.70988655748353 0 0
133.702728048216 0.0592148806465084 19.9491118559443 1 0
-158.890700921576 19.3271809832618 -18.4550633869389 0 0
101.36521973325 13.4196562640242 5.16934854433459 0 0
133.123548478965 15.4720441059877 -2.40216536228236 1 0
120.218633527644 2.18307440897531 -5.01857049349943 0 0
124.949180154647 13.2619252643157 13.5667496421068 0 0
-196.54179668985 -31.3099857084833 16.2403989251174 0 0
-158.948859495525 -11.9864133568135 -19.5690138466075 0 0
-60.2826668825433 -7.17327329524819 8.41721139814207 0 0
-228.092629112388 -14.7416419007564 -6.50532916526565 0 0
-175.531965888346 -12.9475552331256 -5.50800961165479 0 0
-217.159285909276 -43.1437204586671 4.18405000554256 0 0
107.68878003252 -17.0371857025992 11.7839627774045 0 0
53.6686381905739 9.34942458436759 2.26861976522543 0 0
-202.168839029091 31.203202312619 -9.61393383958251 0 0
129.10640512437 12.4729072755675 -6.42225364417524 0 0
-221.436906469796 -41.0171042500826 -1.05414734893468 0 0
-209.442323585416 -42.5014501239134 -8.72090593258124 0 0
0.799402738388381 -8.2272507283208 17.4708739362266 0 0
94.2087750399615 -7.56967240175795 -1.56625412971591 0 0
-77.4882428138861 -6.62937654311163 8.72496206116694 0 0
10.6076461165964 -3.8420655428529 -3.27426471555657 0 0
-115.262892690274 -4.95464821107344 -0.635019610907851 0 0
-128.999047146897 9.20675570223992 11.448886418568 0 0
-61.2895119616262 -2.55675971060184 -0.933999100456188 0 0
113.953468792969 14.0653396020636 7.37799563551764 0 0
-222.075975510944 -23.247193567251 -16.6774651103793 0 0
127.806239063889 -11.7511467209705 -2.14489839963782 0 0
-33.5991419018267 0.430842958351743 21.3318917117289 0 0
-114.362682081747 1.44598891985432 11.8561523318458 0 0
103.104269070375 -12.718979115298 16.0127452376302 0 0
65.6746106722601 9.55004762664513 1.0449334636626 0 0
-186.851540157282 -20.2435523366982 -2.97053086358807 0 0
-209.480963250792 -42.9446382823134 -2.90549884608165 0 0
-40.0836697144774 -2.03859623057363 -2.9524993740346 0 0
-222.057767049621 -40.9023637012934 3.45301090098369 0 0
-207.423761435914 1.57962776715268 5.12968303892122 0 0
-146.778414162372 -8.80045036660723 -10.9393245826383 0 0
-111.449699855993 18.5489849362176 -3.56638979040987 0 0
-180.28827918838 -15.7101642013994 -3.7686741544224 0 0
4.02907169921875 -6.51058660694501 4.46871112783944 0 0
20.5462784989154 11.7549063176869 7.48192446088089 0 0
-186.214659225708 32.6398125257102 -14.2077611820002 0 0
-158.779803249252 12.1999513697647 7.74907503543531 0 0
-208.817939488502 -44.1978801407713 -1.12288512241492 0 0
-151.003193279418 -1.51254436272259 7.95348660067963 0 0
-188.951249667554 -28.248928409682 2.9865546263577 0 0
-131.631922800858 7.23015571606548 -13.2998599861989 0 0
-231.310070052812 -20.4477656918668 -1.41989435008726 0 0
-19.0288151683439 -1.52418136274834 -4.36006147770693 0 0
131.710117057888 -8.52675664198279 17.3453957287891 1 0
-131.354109760091 15.2394973556867 9.01032683231863 0 0
-70.0303252586889 -3.65454263392712 0.475558420603582 0 0
-134.636541084974 11.2837120863427 -14.9404697886836 0 0
37.4605389227169 6.49661782393475 0.242229009860651 0 0
-200.096760414042 -4.47271797462445 -10.9003197905114 0 0
37.0830812834406 12.2431106071926 15.2640555642637 0 0
-218.021556783331 -27.8879675100784 20.8474390936271 0 0
131.437789247525 10.6773312514953 -7.21663654778989 1 0
-26.9139217262552 -3.01217295947443 -2.56341090100669 0 0
68.2688059961138 -10.6907013349722 3.55241626392497 0 0
-197.219643379138 -1.71321824666777 -10.8309474371636 0 0
-200.745149845462 -39.1456014004741 -10.9481218511569 0 0
-146.615883006374 14.3702039692989 -17.4824069100295 0 0
-225.604117299816 -26.123399317385 -13.656471015787 0 0
-82.6996706040438 -2.05491081317735 14.1050956845531 0 0
71.1070199467055 -9.77448901642569 18.1145341665798 0 0
128.558916363958 -15.5999027252864 13.9461400957139 0 0
-148.183098838798 10.8824256746777 -16.8739054257621 0 0
-210.856682139921 -32.6595289968693 20.8346677058553 0 0
128.450319037568 5.18439566638158 -6.19897380369125 0 0
119.5818046555 6.69277523174438 -6.32892598390166 0 0
42.6234271754346 -6.29493033094379 0.878371929847274 0 0
-205.173538804587 24.8523473782612 -18.5037879683729 0 0
118.612803730643 14.5033930443389 2.16839130506305 0 0
-190.512722396529 10.4328540667819 14.3284283885196 0 0
-58.5749872105745 18.0576298097316 9.20513164015591 0 0
84.3331752755872 5.42341519465583 20.0412624939023 0 0
-8.87270569788832 3.16513790447913 -3.77261373009797 0 0
-98.5968582503522 7.82083035796504 15.9517300836568 0 0
106.913427185448 -16.8801544919961 4.46635003763848 0 0
78.6457888469706 11.8154697558459 12.3953359322828 0 0
-213.681154602148 -20.9738853014917 22.4379661136007 0 0
-205.746306897924 -33.6680523770322 -17.387965377032 0 0
-22.3041295564339 4.50386675653663 -2.93334354040861 0 0
-139.879974655839 20.9721849603581 -0.256566092591411 0 0
12.5389914495636 -6.13858031779082 2.4147683760459 0 0
-12.9122757647071 14.8247397802048 10.2611058366796 0 0
32.119431647564 6.53211644090036 0.616114153657563 0 0
-182.412150406763 36.8289993848573 -3.90009252446497 0 0
-201.909063531925 -42.8125494975835 7.65249101871653 0 0
-208.167378625446 27.9765702518173 -10.3164556432922 0 0
-186.853921385651 32.4097609319604 2.16060135581842 0 0
-18.2241284701304 -3.23223278634023 -2.87346785464977 0 0
-192.677726913045 -25.3927362533385 -8.27146971368741 0 0
-195.33218069588 -22.2214309743404 14.7583895311161 0 0
-103.831738470933 18.6990932329354 0.824184318809452 0 0
-200.682070759621 30.9478372768233 5.30065878805846 0 0
-186.314423640841 28.0383349052643 -19.5562954242246 0 0
124.650521868214 -15.2016044831104 0.0112941783464457 0 0
60.3948663233312 -6.53865141601141 -0.742565410535221 0 0
125.283741476377 3.27978761143183 20.5753189243762 0 0
123.741845374049 -5.35049894228344 18.8197744035033 0 0
-167.672878915478 8.33660832704275 7.68641070062779 0 0
-166.442013994316 17.9602055952441 -19.8240370260726 0 0
6.69844035937921 -9.36644242586175 15.5192121555105 0 0
-36.2485636774206 -6.88282249916265 6.89839393774327 0 0
-187.330241128559 8.42577845821068 -21.1119930105847 0 0
-8.97065378350979 11.7412402485055 19.3146303260613 0 0
82.0487120059963 -5.16736295406415 19.9934836810457 0 0
-116.746366813395 18.0235603901592 7.96297707359849 0 0
-176.649497749108 24.2474337979728 -20.4006886339373 0 0
-67.5178861170687 10.3215629920032 -3.41378652938827 0 0
83.8072418253268 8.69245399537185 17.680295330817 0 0
-198.718461169317 14.5576976683663 -8.57000497595823 0 0
-200.434597597106 32.7689355839387 -6.64585345236563 0 0
-103.483634524271 18.5202469547923 8.58369435626199 0 0
-191.215859051761 30.7199070531008 4.08955864205389 0 0
-209.936995278162 -37.0654430933632 -15.8033757501367 0 0
9.97813863546782 1.38176528626327 -4.57840075586117 0 0
23.4388630905949 -4.50810995145283 -1.80913018943069 0 0
100.040456183051 -14.1423658858617 14.8667626639972 0 0
-222.70761913847 -6.90095275731994 6.70162003922843 0 0
-224.42397428073 -20.0691561365246 16.9941261599675 0 0
-169.542660572003 28.5067034523376 -5.40732882274027 0 0
-48.0019510420653 7.44707609427508 -2.51803151751131 0 0
127.708839574346 12.4981068626819 15.4905076317184 0 0
45.5586983788142 9.29176369822623 2.91924280497083 0 0
-61.167487786184 14.0066240007983 2.65651264702453 0 0
-210.525391750062 -5.99433831831644 -6.50462737549651 0 0
-201.938863304468 11.9154295069423 7.46698807655979 0 0
6.13646063800227 11.070430339079 5.98304055058053 0 0
-161.886744977 14.9817054754807 7.42239357448769 0 0
-191.823876300418 -4.99593835677693 11.1348815964244 0 0
-230.576503374313 -29.2231713772826 5.50507200225085 0 0
101.436204719032 -12.2784831915237 0.576965490338624 0 0
-190.814445661556 -32.102065718149 7.45549356379307 0 0
-138.868984057196 20.4272893976179 -8.61189031048896 0 0
-170.019002177812 -3.27840155084224 8.46956024769754 0 0
-201.998865170806 -38.5446235547034 -12.6375284252428 0 0
-88.3435651581528 17.9373458612893 2.34413028776325 0 0
-161.75298412806 -15.6462223838902 -10.9618099627037 0 0
106.836721782076 13.6572691795463 7.17845358872884 0 0
127.297147852952 -1.05345033828567 -4.47660323054432 0 0
21.6445218075627 -1.00747034781444 21.786266747212 0 0
27.8417765782699 8.87338403905325 19.9069284667056 0 0
-208.572361458962 -35.1997730742811 -16.9402204864549 0 0
-191.979500425109 34.0831864190116 -1.08244608037306 0 0
107.009121712501 2.55328385780293 -4.90304035717013 0 0
-140.510253744254 -5.37954327103646 -4.45331653900993 0 0
-190.107317077983 -32.1077824753468 -0.0609648090690003 0 0
-164.480136091351 -13.7806425975214 -15.1359383374107 0 0
-203.624830867214 13.9632039937697 4.09851989851928 0 0
-189.786768996135 -23.3966971885222 5.28474805576984 0 0
-201.522106755651 21.2583100245544 12.4872409773712 0 0
-35.3028069937689 10.471417247836 2.547393973248 0 0
-158.256155452922 0.521404538171472 8.46185804266983 0 0
-20.976859181348 -2.47072751232966 -3.66809161431173 0 0
88.5069336841718 1.6531163201632 21.054087656013 0 0
-182.622360281558 23.9411241456405 6.54277255752856 0 0
-149.325016884689 22.2030045031597 -1.68805513214897 0 0
-31.814455995812 4.21259723815436 -4.25415463385629 0 0
-190.460033473018 -33.881684649472 -1.14516780038487 0 0
-173.481172162834 4.00474022842965 9.17092949215102 0 0
121.452512915551 -19.088653656794 6.69976118139909 0 0
-163.691676442734 -13.1643065379157 -17.5946267198756 0 0
-170.718177754553 -10.5070638540265 -8.86627686538065 0 0
30.492706988145 7.27160052323739 20.5080985094733 0 0
-33.5146582664268 9.92932265419314 2.19660927302402 0 0
-148.675991533059 2.81035075011599 8.22382919150022 0 0
-204.087504858536 30.1047961331039 -11.6889058394168 0 0
-52.5931084816062 8.29493813659554 -2.45455131772799 0 0
75.4486020198616 11.6056580280351 3.2833489508512 0 0
127.794607760316 -4.22208858667115 19.000706303387 0 0
-206.232644470208 2.67708425819016 5.60372103572635 0 0
-180.628930415253 3.42398576984987 9.90686424836131 0 0
60.9183230896565 -8.15899531652718 1.29171519319445 0 0
-41.0779710307298 -6.86025942280322 10.8562811312299 0 0
99.506004787418 3.79646075109734 20.4698372092854 0 0
-103.938810569779 -5.6751565900613 6.93003014514965 0 0
-154.625971759758 -15.1661910619197 -16.5665038592078 0 0
94.7140258461432 -16.8230196962906 8.51518812300021 0 0
-202.171030936332 -20.5233526043384 -17.9224175005924 0 0
88.5206532206893 -10.5356679195465 17.4838984991145 0 0
-86.7231628203947 1.69759251185989 -5.82862825453226 0 0
-41.3361381776784 8.94030965517132 20.2142841740634 0 0
12.8442358563458 -4.81069210296325 -1.80191624188637 0 0
-47.2118834650085 -7.22425931924284 7.33092498582982 0 0
-202.33613276157 15.5400668034833 -7.60024848561394 0 0
-148.462735372862 -6.13011342694124 -16.0394251530243 0 0
-188.603210009398 -27.7926943471844 -2.64527501945124 0 0
87.091306907692 12.0667320646512 1.9625731742179 0 0
-151.934675150648 22.3162010106784 -0.613469737545264 0 0
0.563548725513337 -9.26336117244697 12.8511963202138 0 0
-76.2463651181033 -6.85859048642103 4.083608281514 0 0
18.6482434337607 -10.3695381958546 13.7176642026696 0 0
89.9367783192634 -4.48056181429117 -2.41593602865135 0 0
-163.977619963464 -5.67944218118479 7.48042922173212 0 0
-155.983636175544 10.529945225428 -18.4127842285019 0 0
-155.721154130168 22.9764344323967 -0.889729912113228 0 0
-191.40594408952 -31.4004111975863 9.51274594529501 0 0
120.875393475814 13.5664458477882 11.8762817518554 0 0
-56.3432376525778 -2.91511248993586 -0.577089080280967 0 0
28.115846163977 -2.25189578610119 21.4887385147849 0 0
-197.769975519755 -30.1034837162415 17.6905686590469 0 0
-113.065833498185 -2.74002614743643 -3.88118189370137 0 0
-103.707712306487 0.909401997742063 13.4187661233129 0 0
90.5078196442369 3.77727822079906 20.5911755849221 0 0
-54.718190300292 -6.42478646287469 4.44343360994601 0 0
-92.3359109217335 14.2500941277785 -6.22508014980925 0 0
-109.735119753443 2.43931815263729 -8.5255575954388 0 0
-56.0958113444228 7.96005695529541 19.9486268294349 0 0
-119.45613216614 -4.41384558947979 6.45593622935019 0 0
-84.221577530284 -6.41442923943792 8.28654471941173 0 0
-148.815547940142 -10.9459829506243 -13.515185989 0 0
-209.025389887397 -40.5447882499666 -12.6001891509559 0 0
-150.451198539906 21.1287441077304 -12.0043355361733 0 0
-177.223918675966 8.10609017298804 9.24631953469545 0 0
28.3806586399628 -8.0559897688702 4.35783452764477 0 0
-93.1975368360113 -2.24699675103984 12.0741155020165 0 0
-197.384821465332 -13.5493117615679 -13.2792479373898 0 0
-196.126354379824 5.11194283555208 -10.1704311522748 0 0
68.8233941244211 12.0806873453991 9.53207084354435 0 0
-153.822119066291 2.69399415964585 -17.9935963359164 0 0
58.2482319776982 -12.3083336196925 15.474404163376 0 0
-165.106080348405 -9.47414838047025 2.69685870386086 0 0
-161.796410285137 -12.5890897116055 -18.9394392906259 0 0
-181.196561771035 9.49450154523134 -23.9481223866562 0 0
-78.3860225218585 -6.68498503451508 3.41579293596611 0 0
102.685778515646 5.43257951775799 -5.64689757094902 0 0
-197.743181143306 21.3201485754715 -23.5078729598506 0 0
-41.1003012090127 14.4025251853756 17.3591337947699 0 0
110.878841687187 3.66243079384778 20.5774143799004 0 0
-223.698993559343 -9.96331954502971 -9.41052934554195 0 0
-173.667954410758 29.0064276855948 -15.2858768615906 0 0
-182.058179356356 35.374591289659 -1.19015548163958 0 0
-217.585166255995 -42.3825248964441 5.71909278928373 0 0
-54.48496444289 9.54233276481232 -1.2645192030592 0 0
-187.935544736872 1.94585885330654 10.3246801520198 0 0
-199.925961130556 23.0012893729397 12.3387815464104 0 0
0.393160265563743 14.2335319021141 16.2211203644613 0 0
-158.653490695204 -8.47438940729127 1.11308910587415 0 0
-167.200545265361 27.5414622588507 -6.81715564552078 0 0
-164.306438167795 -0.688665258721906 8.73983847504488 0 0
117.470780810666 2.55752714301494 20.6068028914195 0 0
-135.469651434987 13.8560004408932 9.56967643681807 0 0
-39.0347327311743 2.95996991465696 21.297460403791 0 0
-196.673397667516 18.7555484895067 -24.0188993043093 0 0
45.5464645796635 -12.4164721564536 13.0818069173359 0 0
-94.8086957004392 3.13048056393033 -7.20073847928016 0 0
-112.585728550949 -5.3654097267527 6.01034700541848 0 0
-160.737003451109 9.75969002664097 -19.8275734733165 0 0
115.668341645824 -15.3789496956577 1.40115704786578 0 0
-187.274689896229 31.4898124927135 3.69195261477682 0 0
-165.094237894355 -13.5725029366708 -13.4255147931003 0 0
2.44070095370172 -9.41359279615511 13.8982721790256 0 0
-224.709527184826 -8.94425038789025 8.20755668390868 0 0
-191.63719758324 26.9911571999868 -20.3425868443516 0 0
-182.575536100671 30.0875664428545 6.79554927254287 0 0
-204.772731912174 5.29032761702379 1.83136180653495 0 0
-190.928170235483 -31.0289240148384 -5.44637886146107 0 0
-188.667293948615 -22.3822714481088 3.34811616127402 0 0
-209.30100772221 -12.8342331917045 -17.1589625388717 0 0
-181.820344476721 31.1725137319027 -16.9037457833034 0 0
-193.68743989444 28.0624130435794 -19.5767832681354 0 0
-191.953481563257 -8.61280629970033 -10.8803624859387 0 0
78.0107682461271 -7.71087525787341 -0.725074723167407 0 0
85.0969959247058 2.2439573005446 20.9926675939677 0 0
-143.04571889264 -5.63027134289551 -8.49007035219515 0 0
-112.43126700251 16.0206770698293 -8.86872521994482 0 0
-195.083707754094 -19.6792113302038 13.8009954308717 0 0
134.070780794148 -6.2087299616325 18.0002437527342 1 0
84.0728588139043 8.07922298677833 -4.27684412182316 0 0
-196.560588083612 16.3496934249628 -13.7406530780691 0 0
32.0141594985961 9.6971893640938 4.00304494952544 0 0
-94.8965086675693 18.0830143278705 10.1515825252561 0 0
19.6201829344166 -3.88974808955272 -2.94048224878718 0 0
-133.177858732937 -6.16547780208716 0.752559552449496 0 0
80.5586951316754 5.4776556449841 -5.64918519250568 0 0
-206.916544907859 -44.3686761440537 -5.53269231148627 0 0
-163.926237771341 -9.68711316175328 -17.8628689742222 0 0
70.7690436891993 -11.3559136967674 3.91750487701346 0 0
-180.451883499732 33.8289062086663 -13.8155310358484 0 0
121.421389953119 12.4332766698597 14.6676102195042 0 0
-117.276894608876 1.52649610059117 -9.45291143426431 0 0
-63.2908338323678 -3.89045570596103 14.7115676201591 0 0
-203.82600606763 -45.2633308232552 -1.73154702331662 0 0
112.669197366636 7.55279820666066 -6.2210260026995 0 0
-157.258223486791 5.14552289756908 -18.8979600220856 0 0
-165.384535592209 26.66426367129 -5.87868460321992 0 0
131.212267867777 6.86444738289786 -6.78128693456577 1 0
-194.595026706818 -26.9018845574353 15.2642947338129 0 0
-148.835284971236 -7.68621427449613 -7.44336978623529 0 0
-228.704123743296 -29.8814309240712 -8.12629448902961 0 0
46.909249638785 -0.945316415421268 -4.39847586553738 0 0
123.708675755596 11.1629761820973 16.8556081528466 0 0
126.484553184487 11.2212475403276 -6.77074660767355 0 0
109.045211958479 13.8900468380155 4.23536741864475 0 0
98.181687931996 11.18332692703 -3.03727942494622 0 0
44.5059594120562 -5.31862553027099 -1.30371953240006 0 0
-198.461665905904 16.18802526071 -13.9935949964979 0 0
-198.982411479427 32.240425541151 3.59093919600587 0 0
-108.986322438008 1.29149670510332 12.6878741173779 0 0
-67.3463244316942 18.3074752982281 11.354487425892 0 0
129.956272947713 -2.32055066667637 19.4892594293629 1 0
-173.51005380528 -10.3672083203128 5.30701637995142 0 0
-173.789846889508 -4.67663240235293 -12.4678992524536 0 0
-220.617626064303 -6.57697131588694 -6.35386679272923 0 0
-88.6285622258477 18.7570184165896 4.57863577381548 0 0
-147.791704767548 10.4972508140574 8.82341475618319 0 0
8.75658404616959 9.66768660074492 4.09931133833713 0 0
-144.281266511169 4.92422968385336 -15.540338093121 0 0
-4.59366197762159 2.57678613077764 -4.51864751910332 0 0
-214.942769715212 -4.79136480968556 3.40215409018757 0 0
58.9992462452945 -3.54879959864872 20.8459716435506 0 0
123.555242374699 -17.5184208748106 11.871235396117 0 0
-68.1811179727108 3.39675265521622 -5.32939256216355 0 0
-49.9864069026557 1.20642796917006 20.3795424431959 0 0
-67.0494544631431 17.2514498563174 5.59178135078128 0 0
33.7850001473637 -8.68056743414876 5.10832055109695 0 0
-194.085402857492 -9.24990414511259 12.1429868557211 0 0
-209.023949247891 22.3813577181134 -15.9298817281631 0 0
-176.44665801615 32.4974600935227 -12.4027223709973 0 0
-111.181668052279 2.94254353816817 -8.86699146556673 0 0
110.298419635435 13.580617496679 9.31548494274292 0 0
16.7092386860281 -1.66317532671117 -4.68066242490069 0 0
-3.81203785027709 13.0771037038475 8.32557056541427 0 0
-191.008703567922 -16.2774965778011 -9.14981030033347 0 0
-201.779778314179 14.6762540361637 6.53149992376235 0 0
-185.297998087904 36.7776815447293 -3.7711304206705 0 0
25.6099529259664 1.75756153326285 -4.36301016846513 0 0
133.613601013111 -12.1165849133035 -2.54275946798024 1 0
-192.990111969663 -6.45256558484644 -11.2475153701463 0 0
66.432876474797 8.37433975719581 -0.692249478800752 0 0
45.3430962186854 -1.99704516476426 -3.85755751520357 0 0
-178.374946370048 15.8726365896368 -23.5600374943239 0 0
-78.3065642444843 -1.86424031179205 -1.79430088392201 0 0
102.361838830105 3.03759505574129 -4.98973368178663 0 0
52.1084110380548 7.05543364868838 19.7975630186532 0 0
-87.3655989106677 16.3819820368661 12.6975760115715 0 0
-123.893418879362 2.57158346454746 10.921187992386 0 0
-194.611652306839 -36.3307768736351 -7.11653988540233 0 0
-179.009875664619 33.3973587573363 1.81919560339262 0 0
-138.19389500647 -5.72811140401771 -2.0493827941073 0 0
-115.759975342385 5.2837747424363 -10.363284658393 0 0
-195.221580207316 -30.4319859012887 15.172708818166 0 0
-54.1919654139324 17.3231208832514 8.15357537191264 0 0
-199.345817063842 34.4939194036143 -0.29846167721007 0 0
5.85712923944132 -1.34159394108716 -4.68099411699115 0 0
-206.809182525397 -7.68672259209312 -11.3696729672124 0 0
52.5739759425722 -12.8475729264223 13.4638084938635 0 0
-198.4449800363 31.0671358118407 5.12459586683542 0 0
-224.254120201117 -11.5483608115212 12.2695332964804 0 0
96.7027411349645 12.1240248084992 -0.857940277173431 0 0
-220.726415420654 -17.779478484422 -16.2448258802833 0 0
-206.15446937305 2.76951566077522 2.94325304305094 0 0
-168.281659201341 -2.38862981206081 8.86298101730644 0 0
-157.827320721599 5.8910852388842 7.57569927118521 0 0
-224.69448171692 -24.8336834800563 16.9148244987393 0 0
-203.392256481364 -6.932295615572 -11.5191881023434 0 0
125.043681682828 -12.9036998006652 -1.47782302485137 0 0
-68.40286294957 -2.82328242194124 15.4216370189404 0 0
6.20537380212119 -6.15041212863655 3.38349692026141 0 0
-152.080924897281 -11.3705753016353 -8.96237093423853 0 0
-103.019219052984 -2.12997169425713 10.9096993752877 0 0
-229.39643067203 -18.0037430128372 9.30225200679261 0 0
-207.283619045907 -1.41875498283064 10.8551748473457 0 0
-104.841525450216 -4.07464901625368 8.84556741921225 0 0
74.4216991458433 4.3801014736454 -5.58569487834882 0 0
-229.37841385295 -20.4632658296466 -7.84642900845132 0 0
112.427987041814 -16.6076885873769 12.7102564796386 0 0
-135.278061123523 -5.751220465198 -1.34476895687253 0 0
-47.1756102176602 5.60893147876673 -4.72334543519583 0 0
-135.244459910977 6.34800266567073 -13.7502595020574 0 0
-132.358389869065 14.897744568371 -14.614767501845 0 0
-50.0941319783902 -3.75323773829256 17.7060931035701 0 0
-226.203769686118 -12.429665065262 10.4696854308965 0 0
-24.2663736461228 15.6894721649943 15.7820996279982 0 0
-172.807912188712 20.2905625792034 6.4077439034736 0 0
-194.358666347824 31.0004063688027 -15.818782500963 0 0
-131.272951869153 -5.4474125685844 4.36199705596273 0 0
-168.059256079629 20.0467428565675 5.97330717376441 0 0
46.7347885768893 -1.20837637113994 21.6043598344283 0 0
-223.449853659233 -32.8003016295424 14.831836987431 0 0
117.066082109133 -18.7641470425026 7.17685044728391 0 0
79.2608520685793 -5.49190591505241 19.9549868513665 0 0
-128.615009821985 18.2013872152658 6.23347763783983 0 0
-179.448796101 20.5807019740235 -22.7457876421845 0 0
-230.433532240424 -16.4374230806692 3.63559834119367 0 0
128.427878214592 3.25880807298504 -5.6124193429896 0 0
-145.906947841133 2.84892483849042 -15.8782914115172 0 0
99.7352276518308 13.2188758555504 7.86565430478304 0 0
-148.536844261701 20.808517665311 -11.6406255143066 0 0
129.157568519259 -10.6848420501544 16.6742129175426 0 0
29.3157914602699 12.3158206998314 10.7237608323823 0 0
-162.184995992494 19.2974725645199 5.72899950828897 0 0
-100.187839591772 19.1775425336555 3.24322069497604 0 0
-214.357082272312 -43.65907409183 8.03308471184769 0 0
-90.8186767717684 4.49354906961017 -7.23952935464195 0 0
-191.670197351196 20.6304001604756 11.4977503265772 0 0
-126.573437018288 -6.0044461166817 2.24703895705041 0 0
93.0820438023497 5.83964716636938 19.7884518626573 0 0
-36.5442527624276 -6.29507624617055 15.6752571734465 0 0
-31.4727737621282 7.67843294398611 0.196765421852897 0 0
-69.9867719962993 13.3347552266457 -0.511143412104631 0 0
34.9587109517393 -10.7296291199376 16.2270185782067 0 0
-209.216885665346 -18.136296434801 22.2230349393221 0 0
-199.098912720513 6.80152530550982 -6.8099341945315 0 0
67.3943881888446 -7.84732126188009 0.346875372769762 0 0
-192.486299957019 -14.1331429181358 11.5167011586398 0 0
-144.105460914023 2.82184790961383 8.56923112114185 0 0
-197.470131444003 -11.7600932491467 14.0724050860131 0 0
-150.434993020429 -1.63881124560473 -16.8912105094397 0 0
107.060382336454 6.91102849940018 -6.03787172686247 0 0
67.0090442526715 -7.9709980151263 19.1368846901371 0 0
-217.582036794467 -22.6425092886781 21.5491490120635 0 0
-188.797070481657 3.13238627599411 -12.6502533606618 0 0
-78.9844349544681 0.510243205830264 16.9909698252487 0 0
122.367960429462 0.288839620920042 -4.57953945255867 0 0
-78.1225816614389 13.7018641093049 16.2130765600711 0 0
-197.503400137319 12.2945130396875 13.0113858333555 0 0
103.91343598609 -8.53266261943734 18.1980283860594 0 0
80.7363180417339 8.72139596161891 17.6551568760302 0 0
-204.630288905903 -45.5249472734857 4.0251853287728 0 0
-216.461167733265 -41.0232157481599 -10.5580644183591 0 0
-148.815646406184 -9.27347741878763 -9.57243733242604 0 0
19.991056673744 13.3255928252752 14.3988591434336 0 0
-126.801802896924 2.09922007898001 10.3091675263248 0 0
-6.17095822486888 10.2482887409681 20.078756968972 0 0
-0.254563031105179 -2.18602329622332 21.7066054406193 0 0
-198.865812733323 12.7959438433176 11.7930692562476 0 0
41.1590401205529 -11.328479742534 15.6893831515869 0 0
-207.725794948289 29.0642957342291 0.656681178207662 0 0
129.314405060519 -2.20221601825277 -4.29889325210333 0 0
-197.142456734924 16.2437749872264 -15.3164376189553 0 0
33.5533657041236 -3.75876788000861 -3.27901852837152 0 0
-213.891576986887 -10.5303699818212 -14.9127151192527 0 0
-119.943723501331 1.11004854945889 10.8503832539035 0 0
-198.42091727021 -22.8478880130382 -16.1607634677858 0 0
-205.040203828831 -3.49020871629111 -7.62457056171059 0 0
-161.987918047404 -7.13585791963744 -19.4313698950904 0 0
-27.2584484460561 5.73292443833471 -1.82760631355681 0 0
-36.1246667158957 6.60449359643774 -1.77734196797944 0 0
39.0722412210917 10.8566136313329 6.05365396571895 0 0
-173.421915005042 6.23889491510562 8.8318220725148 0 0
-197.67115615208 -23.7646351220617 18.22957594827 0 0
-217.009770053133 -5.22276779009194 8.80852338916455 0 0
-108.739269672033 19.240939904835 7.08594848217819 0 0
-172.321916233791 27.9676657208571 0.437401524159646 0 0
-33.9428664094981 10.1798867593204 20.037302253804 0 0
-105.364848177258 16.6978595966916 10.6282495903659 0 0
105.30683705493 -13.9904910367237 1.61129185097178 0 0
-105.136279909381 6.87364204941792 -9.6003294375647 0 0
102.562317027262 13.4084410999988 7.54213852373506 0 0
-158.238853365344 14.0745009111404 -18.8275908276372 0 0
-56.5771836338085 1.16623409978792 -4.44779583415253 0 0
-214.449588238863 -14.3250751314537 -17.8507012761294 0 0
-183.246010597428 36.3863914566012 -8.88573670530614 0 0
117.608749276811 0.257671700775378 -4.43557689198575 0 0
-209.707720596084 -1.09324990583292 7.80867168143375 0 0
-189.540394008547 5.32278047731428 -12.8961551275493 0 0
-64.0125380190429 -2.68986845935382 16.5088443431599 0 0
-147.775114680085 -5.9868516985041 2.79543359519845 0 0
-192.898166841379 9.66977538661006 -20.4076211263547 0 0
-85.287450977577 18.9257045818059 6.09777836722059 0 0
-222.578868873899 -39.8886485002548 7.50477666019663 0 0
104.807451729683 7.8831055421924 -6.11885852216702 0 0
3.53995754428977 2.19351329430565 22.0741514302754 0 0
10.9004174780824 -2.03120858264971 21.7377479353866 0 0
-17.1887482029109 7.80950346786325 21.2384712900336 0 0
-152.893599460389 22.9088363318404 -8.14610374513953 0 0
-61.0676093354714 5.88323609832115 19.9836043637906 0 0
0.835408881850192 -9.1606671216653 15.219894417558 0 0
-191.178589761601 -35.1086865672736 3.24915689726548 0 0
13.8508063313756 -10.0611709677868 13.3833568187349 0 0
-134.404723231852 3.4642503602829 -12.9962855583237 0 0
-161.367153401619 4.7940565644717 -19.7759827825824 0 0
-206.953367474595 -32.8190779117398 20.5825436817865 0 0
-50.8749755142762 14.7284749735522 5.62980004275852 0 0
32.5348295154647 -5.4016402599467 -0.289108790256251 0 0
-28.928895062024 8.15945476934114 0.955102625977089 0 0
-230.419738194812 -25.9157039332506 8.17201628233172 0 0
-105.232755485351 -2.5279174189331 -3.20679735934984 0 0
75.5515271647595 12.2878855853333 6.02402931680292 0 0
-201.609633565927 17.1900962690185 11.8410575179125 0 0
-203.327182240942 26.2548274473142 8.8797550334344 0 0
-29.3717206282016 -7.2285902814349 9.16226776829977 0 0
-132.990131570386 -5.48833833851586 -2.03774444760658 0 0
-31.1188377722227 15.9663580088455 9.57384169166826 0 0
130.2494743749 -0.783036669356153 -4.65034292918153 1 0
-197.379290316957 -39.9619955127989 -5.12691072661107 0 0
-164.572597747264 -11.7625433614051 -4.36879074629453 0 0
13.2888524454283 9.24059105822495 3.58527851929214 0 0
60.665739149037 10.5254651144811 15.9242172929414 0 0
-193.881841194726 5.60263147277959 11.3601331572975 0 0
-193.109434186973 -26.6825006276448 -11.1272771445631 0 0
-125.156738061434 -2.9817386463723 8.12231157476415 0 0
-172.153288626447 17.287270827492 -21.5946142187135 0 0
-152.080049569083 18.1552477647401 -18.1043571325229 0 0
-26.9033201890265 12.5387727285518 6.01899721097654 0 0
5.94743075770721 14.1204971132083 10.9106738046286 0 0
7.57961622181097 -3.43128451533018 -3.58378743198863 0 0
-164.06652901987 -15.2718350544197 -10.9616289742017 0 0
132.56304494779 -16.8659593440593 0.072854856541823 1 0
-194.15813605238 34.3739591517035 -10.6616625999851 0 0
130.969681957556 15.0824715771768 -2.66650285455582 1 0
-224.040875128868 -39.9489151071589 3.48608435119601 0 0
-66.7463202660853 4.30073782390249 -5.52106210642391 0 0
-191.512551776196 7.01280279567185 -11.4890904498068 0 0
39.9375341764985 -8.39280660986642 18.9170625753445 0 0
-227.279396404072 -20.0940424328225 -11.3136647100212 0 0
-231.566342309737 -24.8036102734812 -0.587862816835807 0 0
11.5309427514655 -9.53011652315473 15.852546154463 0 0
54.8901525211914 -9.32539868832462 18.4371648309894 0 0
-138.001657755273 -4.93986274846376 5.25540012514804 0 0
-95.0508301157114 11.0958567445961 -8.46477501828189 0 0
-228.010302801014 -11.4303400918723 1.4947175935518 0 0
-21.2132405297574 -7.57757124495506 9.75380086417001 0 0
18.3223798377228 -8.01814119669898 5.84282421163594 0 0
-6.12498769132561 3.75381401169824 -2.92598938843321 0 0
-182.859934418688 32.9663415449428 2.63461430859559 0 0
-149.074301081584 6.94697385546964 -16.7855788364946 0 0
-152.489172621396 -4.88440308467393 7.25801374539706 0 0
-180.837323966733 3.93736485457493 -16.7652370131645 0 0
-167.104857253256 -4.47563077715634 -17.7613722675514 0 0
80.6217325438139 -15.5815132313576 10.268597197007 0 0
-173.600108369823 23.0263796241004 -19.9925945464021 0 0
-173.90709070424 2.59202953930421 -19.593009441174 0 0
49.3915666899774 5.63495758542727 -2.02090809062725 0 0
4.13671740219028 -3.15554239634626 21.5080752126806 0 0
-162.510935028686 2.87971922572176 -19.9391048636675 0 0
-65.4038814121119 14.171119200807 17.0788975857178 0 0
-161.553863081169 2.20302584800287 8.53904092374699 0 0
50.8023796536026 8.91748838847533 2.03476511289975 0 0
-13.1339898010158 -7.16102536266322 7.78591916525548 0 0
-18.7618816572309 -7.9396681661175 10.5254209456718 0 0
-49.6571603726315 -6.74853157988393 5.55908105754804 0 0
-216.282559368103 -8.00235811748684 -10.0795115205272 0 0
-155.393517090752 2.92189358739678 8.02277559204415 0 0
-208.774385553729 -44.7573625449948 7.07762047739405 0 0
-163.1735945001 -13.8329891369842 -8.65375145683867 0 0
-175.060107346455 23.7703672087558 -20.0975285651705 0 0
-140.203959377096 -0.370919314474954 -13.354446593988 0 0
-181.700315029308 17.5495818529322 -23.9708133585538 0 0
-196.383470205376 15.8150051051345 -16.3648676628059 0 0
43.9163497836291 8.18388636541915 1.77165540345425 0 0
1.32882338286713 -8.43915567055943 9.30322789420759 0 0
-160.218828795412 5.98018508262932 7.5216271300539 0 0
-198.186277593009 -25.5818977078189 18.2379999098043 0 0
112.50927070355 -17.9008739001666 5.36040451406798 0 0
-195.162796369142 7.83227533953716 12.0228918466159 0 0
-142.040055886197 -5.28219185786902 -6.98845739161137 0 0
-206.678813686108 23.1694392056316 7.65185410306923 0 0
-114.714816842374 15.1312282949909 -9.95500926103519 0 0
27.1972668963751 8.33155446972974 2.44479696762937 0 0
-209.768710630194 -23.5408668985091 23.0953685994689 0 0
-14.8276931183736 15.8406802319708 12.9384718090677 0 0
-202.198976610442 14.7817628836801 -5.29516033763304 0 0
-160.27626654897 -5.00092894928574 -20.1212310179971 0 0
26.7601988774681 -8.75243328610244 6.14671195998109 0 0
-211.708449619391 21.9355432759949 -4.65552644462082 0 0
-132.104429692794 11.1889769527932 10.8864398004167 0 0
-228.59038121562 -33.4378359460562 -4.92368751495152 0 0
-217.837205129453 -9.20230022852671 14.6121427598916 0 0
37.0066210154707 4.74567971820244 21.1562904742613 0 0
94.9128387205942 -3.30965911624365 -2.86761628590352 0 0
15.1806417180408 5.88931278318794 0.402208367814612 0 0
-185.345307306788 35.5755461666234 -2.00259156035996 0 0
-42.8641981898011 1.13804646768356 20.943573218168 0 0
-17.7445723778155 -7.10383915941573 8.01707919860715 0 0
-79.6719047333604 -4.92202199661166 1.25116263667983 0 0
-156.011564729467 -8.698275403882 -2.44212161325442 0 0
45.2014395333168 -9.39582027104483 18.269060226192 0 0
-45.2868890887728 -0.992693401994104 -3.68073047855142 0 0
-212.922430426187 -8.24785397831284 -7.91641150720105 0 0
-160.787187020764 11.9240176710981 -19.7410075201931 0 0
-227.890158252109 -31.9951864452538 9.8223593234802 0 0
-184.442912093448 12.5922039248679 10.7726648993629 0 0
54.1678689039237 -1.5795288031392 21.3635585139559 0 0
-189.580642713122 -25.8270750378489 -0.0225122490066941 0 0
100.519283288372 11.3606781896661 -3.27393977188677 0 0
-181.534912323124 25.4820650581704 5.92270441903158 0 0
-177.588939493896 34.1399363678238 -11.1414023596936 0 0
-24.6949557008327 3.46586462191368 -4.36516576929527 0 0
16.066793586531 -10.0692164125234 14.60907091542 0 0
-119.812140415801 1.93607475231037 -10.1094026205415 0 0
-191.370413317376 -28.9905058648897 10.2305491882153 0 0
80.3097212961289 12.5221322148336 7.76776502337056 0 0
-166.877640027905 -9.36816296840793 4.18720030221869 0 0
-9.00255341366863 -3.98919133165837 -1.2134794439644 0 0
-88.8251323140788 -2.2728850343822 12.7374367362042 0 0
-153.657853965367 6.66434497492282 -17.8263395841835 0 0
-124.239944454737 12.987217512857 -13.6683649998012 0 0
-153.093670903441 -16.0415870509399 -13.2712717521323 0 0
-136.14272493279 20.9972084110519 -4.86680828013474 0 0
-225.950891200379 -38.6718998473126 0.254919637519295 0 0
-140.029870920316 6.22186599747944 9.6291854146621 0 0
-193.374176119571 -24.5192284345728 -10.0696014813235 0 0
-136.112622573949 16.5783939081077 -13.860827950711 0 0
-129.013943852648 13.2645216249508 10.3570359013466 0 0
7.05149434853182 -5.50541559264821 1.2232829503848 0 0
-231.425953417963 -26.5966347992318 -0.10908515214439 0 0
132.862101219733 9.6432269823231 19.0323000326421 1 0
-140.473616231235 -3.90679027753183 -11.120889442161 0 0
-189.82463770466 18.9188334691219 -23.9096579069811 0 0
-146.506832568207 16.671507868163 7.01299408419996 0 0
-121.740277975387 13.8407270042982 -12.1354200442682 0 0
-213.459304096053 -12.3504814139083 -16.7685251600224 0 0
-145.066074996382 21.779655663198 -2.21746862610278 0 0
-182.383744890839 37.2898758100228 -5.62581900531598 0 0
-30.7268617427023 -1.45146057358405 -4.05813279534508 0 0
-23.7254679413646 -7.85033223622549 11.2037077953318 0 0
-114.738829351153 -0.72874819086562 10.5468556451976 0 0
-49.6682957698533 8.63254818842505 19.9955802621049 0 0
-105.259462804297 -2.22337228114404 10.5871357718614 0 0
-20.9664033678751 -7.88136790062792 15.0854519349939 0 0
-63.18432017 17.6762357933268 7.01291470334359 0 0
-116.157380931872 -4.81940491873217 6.24379047369663 0 0
-185.932424122625 7.22218361010845 -19.6542968225108 0 0
-206.432311802146 19.5877413967184 8.20166310580563 0 0
16.287590043896 -1.96042102845572 21.702960825028 0 0
-41.2535859235523 7.44763820252334 -1.30708863680121 0 0
-197.972970400254 -15.6892895847089 16.1085363430344 0 0
-212.80361916906 -44.6001118333497 2.70737650721204 0 0
96.6053005120194 -11.7100886596245 16.6937436421968 0 0
-20.3767014393427 -4.37570205205035 0.580840996784862 0 0
-180.84076202856 13.7030997625914 9.8988747286768 0 0
-99.5476465682146 5.17745570335166 -8.20283910491374 0 0
-184.963386378446 -7.49999551712154 -9.62738037848095 0 0
-45.6725022701212 3.56964342326567 20.8796540506685 0 0
-69.2584098978036 -0.696239110580413 17.5969337892942 0 0
85.7538544182038 12.6764247406828 7.40967233153749 0 0
-85.2180975859003 8.73297589843051 -8.02890214303161 0 0
-89.7861441722328 8.42178169815786 -8.63949203517676 0 0
-222.241672616354 -37.9653581086254 -9.80519493145525 0 0
62.0303058204985 1.15197747521977 21.4588256468899 0 0
-149.409756806335 -4.88376990840579 6.36604858507555 0 0
-64.4324541132992 -2.05302356952182 -1.48082404070447 0 0
128.653140132094 -6.12510517921523 18.3079004181856 0 0
-176.867803235144 -7.91489092966768 7.6778254414026 0 0
-147.043942521988 11.8502882417707 -16.9404654033268 0 0
13.8482877826513 9.84551281014884 19.4738629776831 0 0
-120.131283377894 19.6981391913567 -2.78837638592739 0 0
-211.219970479817 20.4243392005178 -14.2856787587909 0 0
5.15706539522401 -8.49705128678312 17.4786409989633 0 0
87.2447906327543 1.71957205982235 -4.56609617122995 0 0
77.7810951626341 6.99851712019257 19.211202510319 0 0
-175.165386597852 -11.8364604714078 4.50902272618733 0 0
-188.47408705079 -0.14372902121512 -11.8660562953256 0 0
67.6304493696958 4.51298318466511 -5.3600091505113 0 0
-68.6514118976757 17.6665805245217 12.9015574287174 0 0
-144.099513262507 4.84235118818605 8.96006603985469 0 0
-73.5677377912494 11.9109975141301 -3.30073374462304 0 0
4.13834605772049 9.70090061074783 4.1531919668197 0 0
-229.947773552555 -32.060092952085 -1.57227332773383 0 0
73.7063183735691 -4.99253280317684 -1.81125619876329 0 0
-206.498265897265 16.7466750214381 1.23168386845528 0 0
-127.754734780866 -5.71760880198137 -1.42950292967155 0 0
-204.808749356684 30.9018525628808 -5.70942635715703 0 0
-176.762386700531 6.92535295871755 -22.1943335460036 0 0
-204.022740450501 32.2367507389552 -2.57950863496788 0 0
-111.837531225507 -1.83937424627465 -5.34715051182697 0 0
78.248837070326 -11.4048911707379 2.96689511228761 0 0
41.7041235876013 2.07578161827778 21.7139919144709 0 0
-155.891708931957 22.791319429465 -11.5209695827216 0 0
-176.819830178675 32.8529559441144 -3.76966142167116 0 0
-48.2377917549485 13.280384065118 4.15863539736621 0 0
-55.5652971879405 3.46987285953536 -5.3789552081676 0 0
-194.777588550314 29.5702798081513 -18.0067882488829 0 0
-23.6343407202646 -8.06313175640724 13.9884662826395 0 0
-203.670282193411 11.9329894332942 3.30435430186373 0 0
-196.202772923116 1.20533409105848 -10.7323396982964 0 0
-117.530629429126 -5.85518425897765 3.94073304459139 0 0
-188.210818960773 -22.117270461231 0.883792754372802 0 0
121.899188286906 -5.36976740051699 -3.31184843509154 0 0
-215.184638525661 -5.25683960523261 10.6397160163781 0 0
-80.7408191084269 -6.53585051325094 3.13115442161846 0 0
-226.535746597345 -32.4434498525385 11.5421110177474 0 0
-151.380475915401 14.3014382286303 -17.7028568699151 0 0
-35.9686409802739 8.67691392927828 0.630363115143893 0 0
-198.484619075421 16.2864431273361 14.195378255448 0 0
13.0711668704757 -7.59402021191391 5.75511252543709 0 0
20.776539253777 1.48430532987452 21.9636481928085 0 0
-92.5979956290553 8.00586135223011 -8.78570292244872 0 0
130.350584499566 -16.9444580444218 0.581184551084386 1 0
-119.652088229079 16.9716328820182 8.6797695295175 0 0
-199.643329879586 20.8488368335552 -23.8365655714115 0 0
-13.2270808775874 10.893629803055 19.9292903682875 0 0
-174.547598032243 -4.29740087217799 8.28997629860629 0 0
-125.791788149297 9.07337521619318 -12.8889486866533 0 0
-120.852736884252 3.0722802211559 11.561424068573 0 0
-162.716641335948 24.2833014608905 0.123043057613531 0 0
-197.404618624483 12.3366631058158 -7.57825001284695 0 0
-99.3283525626708 2.91973132457038 -7.57868314292435 0 0
-204.105936280363 2.24080280508486 -3.90084018267147 0 0
74.168377160489 -0.646265482148753 21.2822585124918 0 0
30.390422382341 11.0130716373046 6.35937118590257 0 0
-7.67368460145688 15.3117196989256 13.5339571102214 0 0
-201.869704398721 13.8934388300152 7.96132583835157 0 0
109.280845480035 -13.3925940719079 15.5294815828195 0 0
111.845087764986 -4.52380380311966 -2.99537681138443 0 0
132.094096043817 -13.3723276740449 -2.03377234360452 1 0
-160.526997459904 10.6257640798243 7.54100883962596 0 0
131.467629654352 15.2209082659823 7.75717217049204 1 0
-184.067155347181 6.25911525911081 -19.0078335939636 0 0
-148.700904874854 12.5316230422807 -17.2548837709634 0 0
131.275063810061 -5.77535476311467 18.2709004522284 1 0
10.7978272019042 -7.80023471661913 6.51283026907281 0 0
-154.157795628567 15.3083437677117 -18.1868294853256 0 0
40.2310791706457 -8.48980761238741 4.19218742717159 0 0
-191.860383150269 -23.9654377111084 9.17398970295008 0 0
19.8490301214947 -3.3968000754703 21.3245201752763 0 0
108.234701937788 -15.8016742661836 2.76045841734549 0 0
52.6026617671154 -4.46839589358742 20.6913968709575 0 0
65.1583256519604 -2.45697161595234 -2.8895441683923 0 0
-144.782082996268 9.19073921404218 -15.8663485733377 0 0
-151.772975303289 10.5269874870386 8.34524664084987 0 0
-150.343569619861 11.8127478564707 8.52116831158868 0 0
-110.413774811643 -2.81190552426136 -3.37694875805565 0 0
128.521394156128 7.07585603468418 -6.75216704206274 0 0
79.6619003100423 -11.8480179319038 16.6382825513461 0 0
-32.129844185132 0.384465839593923 -4.88162916020158 0 0
-111.392303017128 16.2809005415624 10.1455937932901 0 0
56.3297261082451 2.42637774072922 -5.44356031384787 0 0
53.7392587335103 9.05535853883234 18.2787842959133 0 0
-201.795911877591 -23.3339404224374 -18.2969334642419 0 0
92.0966062541727 1.81766072097422 -4.56069493923021 0 0
111.542603406565 9.8367986967593 -6.14245703783308 0 0
-212.543978891884 -2.45999559007322 7.58722520001736 0 0
-151.444647393867 -10.1585958070249 -8.73101912355464 0 0
-134.674132537874 18.2873288996633 -11.3026860654743 0 0
-160.488372100384 -15.1518566577771 -15.2761269866775 0 0
-0.848623223894831 11.8804376260024 6.79484227331271 0 0
-92.7731592341323 6.2463980152336 16.6981114002833 0 0
-98.375043876362 -0.561408695981357 13.1448907807374 0 0
-1.33847879754848 3.54739342729274 22.0090884685506 0 0
-208.977101100219 27.2030345883745 -2.79492701168323 0 0
-228.87488524692 -13.0640807179038 3.33848908851705 0 0
-189.89630454278 7.9474231593408 -14.1165199748028 0 0
103.966871225732 -12.5574668898765 0.598236716524206 0 0
74.6168070102519 6.10166718944413 19.8043538255948 0 0
25.7332788252412 7.86646365227143 20.4913067244413 0 0
-28.7746434163785 8.78106351931448 20.5523559541988 0 0
116.892826548971 11.7306125726224 15.3158487015861 0 0
-158.090932713626 -9.53440846445449 -0.251950779031044 0 0
-74.4877281564243 10.3277850888543 -5.39102607515594 0 0
-219.622930960691 -41.5876711360008 -1.6512295735601 0 0
63.2734041210377 -13.2964724909284 8.29218073594469 0 0
-221.133476911413 -5.89567432679071 3.09454192864331 0 0
-180.916417234978 14.7550021056432 -24.3342374627217 0 0
-197.010392661469 30.2385497825199 6.1383001286246 0 0
-100.058054261382 -1.84860172208688 11.5885494530706 0 0
124.18243886444 -8.02110987081081 17.7947142352471 0 0
-164.617657478536 7.36772565668329 -20.4277852813046 0 0
6.70404343110686 9.50634610206322 20.0030653307879 0 0
49.0994378328948 -4.52218261900334 -2.20107988838442 0 0
-206.294505761598 29.6271358422882 -9.52209339702811 0 0
-57.2423153760877 -0.780616971297114 -3.04464500061425 0 0
-31.8032849773763 12.8560016075062 5.7475866069214 0 0
-224.364671769275 -9.41862821263175 -7.7327339098522 0 0
-193.41807951664 13.6494677045491 -12.4821757975217 0 0
-48.8253575895757 1.49478789040789 -4.83788953099311 0 0
46.0227841427147 0.696719424706833 -4.92340055389727 0 0
-85.7897184786789 -1.87000917858195 -2.14516443674873 0 0
-38.6975780343612 -5.81717869647471 4.54238109188368 0 0
-136.474149023347 20.7696988630125 -0.475473013760782 0 0
-178.032675491423 34.8539251142995 -6.44157302040978 0 0
-204.755426056756 -41.2953078386783 -9.78920762653839 0 0
-141.349370849202 -2.25182903471704 -12.8808299993825 0 0
-15.4213046359472 9.5659109588681 20.6586951677183 0 0
-177.092418974324 -5.68272549387244 8.42254545477817 0 0
-109.942467688906 18.785529834858 -1.36108029463302 0 0
-94.5055431764272 9.25883549328008 -9.30733179329787 0 0
-213.005658316929 -8.74659651429689 16.0354948844223 0 0
-223.045322448335 -37.6014554604799 11.1059962701861 0 0
-90.2738135629077 19.2965722400542 6.71075718811284 0 0
-171.796046250936 15.3977758767875 7.61302908189746 0 0
-211.157796449824 18.035371707697 -15.2514963670127 0 0
-200.985183458936 -26.128238540096 20.3046782644477 0 0
-169.248168636637 15.5956716496141 -21.2869227627972 0 0
120.423875999315 2.70538656690537 20.5852366714933 0 0
129.066838308353 -18.8534387620443 9.96384591731598 0 0
-11.9323437278451 2.52777721571943 -4.39946791972987 0 0
-206.080007720161 -7.16166405611517 15.6176044916112 0 0
-32.5760320551759 -2.95308340797329 -2.51836070546134 0 0
-6.51609759737902 9.57780488425925 3.70628341790173 0 0
-191.825803259254 -21.3425775754831 9.76978431300032 0 0
109.55053151349 6.70319383768334 -6.00847534910063 0 0
-54.6709226891543 6.8821683917229 -4.95694019823242 0 0
-192.600282465656 22.2152724600722 10.6842122651771 0 0
39.2575926438653 -5.33177030092178 -0.926921602309737 0 0
-177.607159634722 11.4429534978 -23.6902134124283 0 0
-168.278751861808 28.1375789061226 -8.99465025034122 0 0
-40.5242852993288 -6.4625454864403 13.565619804529 0 0
-61.8475535664411 -6.36680138896567 10.3731040003221 0 0
64.4238489437497 6.59587445479943 -2.71986647010963 0 0
123.73536878598 5.23178685564684 20.3750685630486 0 0
-215.236458854637 -24.8059376000809 22.2741762615127 0 0
-11.4423505564628 10.0012184506628 3.85041658016251 0 0
109.758942075552 -3.87748076488884 -3.03749502090619 0 0
-201.267043464165 -7.11437313399225 -11.9377725769123 0 0
