"x" "y" "z" "f" "a"
-144.346830958993 -19.2128396886197 15.8457549895608 0 0
-95.3205458082484 -18.9704944851808 12.1198708877547 0 0
-86.9621521723539 -7.24312678946188 -14.0272753703277 0 0
-166.618829550918 6.90382210655469 -11.9890046742429 0 0
-200.82242205271 -11.3790035613262 15.3634080602357 0 0
-191.997954782907 32.432232745644 -23.1929066882339 0 0
-175.694797704066 6.11437169237607 14.2739276802886 0 0
-91.8503114531948 -19.8454084625865 -9.04767210674969 0 0
-87.5301713392506 -22.7253091924928 -6.15549526608368 0 0
-108.000285177975 -9.60240828054403 17.6659092647577 0 0
-155.068285637247 -7.02597961958425 -8.61467681080477 0 0
-178.013799497527 -23.3609429004736 24.2722845098228 0 0
-166.153840966253 -1.13151751275611 23.6878770734212 0 0
-190.238074738587 30.8957490892579 -21.2825198088584 0 0
-59.1360890376577 -21.0661115391095 3.4629390351943 0 0
-187.043971265923 -14.933622951787 -12.4758808493848 0 0
-42.3910221551146 -15.5049530924182 -16.9131750000467 0 0
-218.175822992656 31.9103412246943 -25.850820600771 0 0
-223.926722369131 25.5401468729132 4.7122587585137 0 0
-182.943094854485 -32.2622483161629 -1.02696809379926 0 0
-200.172999329623 -9.74040905388919 -9.68131663969213 0 0
-134.919819254144 7.34804987357145 -3.68073105156573 0 0
-171.336386222721 -6.47706996866262 25.1282054203094 0 0
-197.336616886214 -31.3124940912598 7.32734652754608 0 0
-25.051085236908 6.01440333654802 -5.05264754535282 0 0
-201.200252341351 22.0023238254343 -27.7877964777246 0 0
-174.179882373632 -24.5020544625091 22.3541804346681 0 0
-178.676029099998 -16.0670600287203 26.1788986278591 0 0
-186.924933668867 -21.5603339118901 25.0752352974347 0 0
-61.2885945234747 -1.29148411069096 4.36519774271732 0 0
-194.606687049714 -6.94710757766978 18.7632351832667 0 0
-196.778471813819 46.3852501343705 -17.7382109862697 0 0
-168.576742755293 -0.356514674745759 23.8624076088392 0 0
-4.6100358891057 6.62397214010701 -7.42499726384789 1 0
-50.3273392727717 -1.58893192485333 4.22295583706356 0 0
-200.069651105311 -8.78824004985757 19.7085083976134 0 0
-41.079578860215 6.26929208393018 -10.2995005576671 0 0
-50.5621395637914 -17.6198152476485 -15.2637350832242 0 0
-185.78691603768 -25.7561233682519 -8.09049367809773 0 0
-169.746137371171 -4.89254699477579 -10.2254258782685 0 0
-45.5303356743788 -5.78704024139377 7.99958763604595 0 0
-112.699570482402 -9.86013919780728 18.5902092339545 0 0
-146.597076435467 3.28769539259043 -8.35465065245657 0 0
-163.25260209404 14.9127405675075 1.79957574920802 0 0
-25.3120257089093 -10.2064012787212 -19.459483759746 0 0
-200.292909310604 35.2837791202557 12.8514479187944 0 0
-134.815718205198 -14.5509999737241 18.8157790947579 0 0
-128.743201480323 -4.19176322831531 16.183644973916 0 0
-111.613737387471 -11.1928837627987 18.6544122942707 0 0
-110.859176118413 5.13206512831433 -6.77668599361354 0 0
-78.6353788536582 -24.8914777616617 -2.3745582474555 0 0
-162.884336489194 18.9116323005255 13.9453326854262 0 0
-191.147605479551 14.8501660978511 8.8165603299738 0 0
-161.134022842876 -26.7618828587491 3.21348396134341 0 0
-142.46763987013 -16.5434922905158 18.7586379724306 0 0
-80.3653973255708 -2.35083779289608 8.26851234230485 0 0
-172.746068508172 -25.2964197821601 -3.65283466380375 0 0
-91.2038991720311 -23.0966372123079 -4.58067865454841 0 0
-198.504718363105 22.1756666430672 -27.0991265941107 0 0
-202.333002843813 -4.81973244668962 -5.61884704914078 0 0
-192.311839290279 -19.6151352670452 -11.9542760800568 0 0
-203.139538610063 35.510347760123 13.2937480478878 0 0
-151.668539632264 -13.5283566066641 21.3419733716303 0 0
-147.782117559474 4.52663301896197 18.8216091904061 0 0
-202.492755816392 43.5847878140976 9.10934386975294 0 0
-204.099244869022 -28.8865131821108 11.1344635335549 0 0
-10.5501681352258 6.94728776399312 -8.88389777383644 0 0
-163.882386121256 0.683767526750246 23.4248239326243 0 0
-196.240909148292 -11.7804434193333 -13.1231680356601 0 0
-68.6869763028094 -3.93718053877728 8.72885733059192 0 0
-201.963331700715 35.3492374284812 -28.4287100214261 0 0
-46.6260906553625 -23.3719231563098 -0.734136506264337 0 0
-78.073163680707 -13.792858764532 13.0444035475225 0 0
-210.46587388115 -26.4585723721464 4.87998137149079 0 0
-125.105623764348 -18.2827396566921 14.5034929131795 0 0
-189.236955730179 -2.20838225664775 17.4754988918971 0 0
-188.418228891908 21.0104738051254 -15.9071743681323 0 0
-12.5504164019336 -9.13349664253283 -20.1196317270499 0 0
-201.099099828462 -15.6841314123775 25.3935688118543 0 0
-194.821891054836 -30.3654479592688 -5.82112448697241 0 0
-194.231281886343 -19.7602790720621 25.233123123434 0 0
-187.763438461392 33.8834821698063 -17.2592105514172 0 0
-185.392360781088 12.7859194858722 -14.5602494812788 0 0
-53.37100421325 -0.960234271284167 -14.2188353283126 0 0
-194.470636388054 36.0178690633362 10.1453114981609 0 0
-211.717273585722 50.7860162779013 -11.0028380396278 0 0
-208.285859472193 6.66306553262734 -4.61690234635942 0 0
-103.06207478614 -13.8922538706683 17.2536641938477 0 0
-169.50520196335 -28.9476235770343 12.6076185250408 0 0
-112.598110519818 -6.84150080729019 15.6664491100132 0 0
-67.5875734993709 -14.3717522525542 10.4842907152779 0 0
-148.334080813815 2.36929150529688 -8.82237141519401 0 0
-129.493412614752 6.16586795286867 -5.32889181889074 0 0
-224.338081975757 41.8197783480354 -8.14752151428804 0 0
-186.160437965129 7.14623956397617 10.4840212676418 0 0
-15.3424354191099 -2.63331100810908 6.01651826651155 0 0
-168.517345239292 7.07323425370645 21.2174912297937 0 0
-71.9783346995697 -24.5798438398829 0.404578450998849 0 0
-106.430879907824 4.71429975121021 -7.29498195438642 0 0
-153.526444471917 -24.2424286387643 0.825487998938199 0 0
-150.831634268104 14.3640676876724 19.201679041642 0 0
-206.868579512716 35.717960447923 -28.7221514154464 0 0
-178.106886464357 -27.1665449048281 -4.98570097542741 0 0
-35.5706505613799 -10.0413302323544 6.81040872024584 0 0
-151.10547053048 10.22167360033 -2.94834769995763 0 0
-28.8216124490626 -16.4338333267363 1.900711432311 0 0
-191.513178683283 -36.0741603078937 5.92007892440223 0 0
-170.836520141698 -9.10797312596953 25.2016903437554 0 0
-193.299988446976 -5.96094525296183 23.4600824819072 0 0
-90.7452085720513 -19.0673158573877 11.3118451384878 0 0
-121.774802522875 -23.423005233605 0.176490246241358 0 0
-194.668537120903 21.7688433325371 9.39056437041515 0 0
-222.516051065199 44.2063634626128 -3.30276994522955 0 0
-62.7375065314523 -15.602793353291 8.38969773745549 0 0
-202.421543844995 -30.166048790553 4.36613505825268 0 0
-209.780753625217 -10.6515192521166 23.2787971343683 0 0
-209.722602424296 -22.8202360733788 -5.04100170858195 0 0
-13.1069776978346 -2.61558188530827 5.93852418250517 0 0
-179.921882771903 5.1810514849181 13.3217132151844 0 0
-196.653634354572 -11.8164758809149 15.5490006259925 0 0
-207.92837427519 16.679803773788 -25.6604958833865 0 0
-165.694948477268 -9.18983644635665 23.8651131081303 0 0
-131.455295113127 -11.7784597603205 19.4503540770285 0 0
-137.23345186011 -1.3700557859649 -9.24658412492666 0 0
-166.313728646305 15.1592517491278 -2.42014741149376 0 0
-185.201169497771 0.993085555539587 14.7745498283458 0 0
-110.436365621033 -13.2065232688657 -10.4951079270463 0 0
-105.271759323972 -0.0911113027130915 10.6292810972914 0 0
-209.233237599702 12.3959973327454 -21.9353795458235 0 0
-151.236803000808 10.5990164287548 0.885765584225861 0 0
-226.775167790395 25.0094570341455 -13.4514899420937 0 0
-184.473584957144 25.474510612656 -3.70602066200233 0 0
-20.4243087601761 -19.911200242767 -0.921548121457666 0 0
-201.560585665212 -0.76925204637048 -12.6016454892666 0 0
-177.293871994833 7.50004128259043 12.1721493152825 0 0
-185.470487968599 -26.7503480786979 21.7663010707708 0 0
-216.573106564091 27.6275973404322 11.4210366405024 0 0
-64.7878495947912 -20.8917761682636 -11.6046834685406 0 0
-168.472506379569 9.54177938200767 19.1436793756584 0 0
-190.445354575254 28.9526477046546 4.60567010409737 0 0
-189.806168005754 -9.85040299201055 -14.8933992111665 0 0
-203.448472069123 -11.5857519178602 -4.88120156350478 0 0
-200.183474202433 -30.7376760681178 9.8694222989123 0 0
-206.638182883843 10.4486402986353 3.55319161750679 0 0
-159.203178552116 13.0665302908018 0.524429207752052 0 0
-199.417412419777 24.0843121268281 12.9255190108985 0 0
-82.6401174269761 6.61391564919979 -3.02021536657141 0 0
-204.625031613713 14.8336507528733 -24.1682049119449 0 0
-94.4140065893307 0.495695162113885 6.91425254342247 0 0
-190.666493865853 -0.767493767048951 12.1338967954941 0 0
-211.814869360808 16.7430749495765 -24.9119170851323 0 0
-54.9895069238102 -17.0959950539737 5.46457664286948 0 0
-156.21132780157 -3.35942968551402 22.0311460195845 0 0
-203.677608911615 -11.6535539687893 9.18634731204861 0 0
-46.1957510394679 -7.20740610839847 -18.1709135606099 0 0
-191.193276832112 33.5799211086768 -22.1031250455412 0 0
-118.410954482273 -24.1837257627239 2.34703859547937 0 0
-130.566480809741 -7.34336054510386 17.3824341265282 0 0
-24.9866873227664 -10.8053463632544 4.45424655704037 0 0
-216.904276098866 39.2015175874294 -23.8868291423448 0 0
-199.604706511265 20.1415873413314 -26.6439921821097 0 0
-199.141210324848 -29.2166450951389 -6.46816847712814 0 0
-182.152456024966 -14.7600676116172 -9.99780812547826 0 0
-27.7487696122304 -25.2148878762517 -5.3630943907533 0 0
-171.806813374962 -20.5706374314914 23.4682307428113 0 0
-146.972805134923 10.5269060308544 16.5561323659471 0 0
-168.608663239243 14.1978494421244 10.5902320936818 0 0
-182.013397245988 -10.6018957455936 -12.3076865575975 0 0
-18.8274987259546 -9.79768608370929 4.48180065684208 0 0
-220.972025852346 20.9682985219597 -21.8054572277017 0 0
-160.01056095417 -26.0078171706154 9.59415316832309 0 0
-214.750057237327 10.8967357129497 -3.70200132640441 0 0
-155.849613482609 11.767110149399 -0.3513504154267 0 0
-194.701302124234 -17.7877819078551 -12.7186233565134 0 0
-207.873066087796 50.1004698611559 -10.4822157686428 0 0
-202.712066255362 -0.505341076039773 -1.80287962011364 0 0
-147.723085157479 -2.56721784176855 -9.09924724409043 0 0
-144.60529858638 -24.0679804622365 5.24740376669781 0 0
-98.8238999714628 -14.1654252094035 16.5545816673694 0 0
-187.830419914351 20.5234546619909 5.43970208113656 0 0
-196.051814707435 -7.79918810103749 19.1423634293703 0 0
-102.748990682005 -19.9897290154216 11.1887359319439 0 0
-219.605008857397 28.5365504374467 9.51540738257663 0 0
-40.5984075119593 -25.7879741922541 -7.79551528711916 0 0
-161.86082517488 16.1116224715661 8.34297109199008 0 0
-52.8634913207124 6.32350676997698 -3.94783807120212 0 0
-190.730533613571 40.2675639358743 -18.698234779947 0 0
-124.954009593211 -21.4919261476105 10.647448902562 0 0
-113.668435140239 -13.0640443519816 -10.0964028175586 0 0
-176.614632116319 -2.6205825671459 25.4139999849525 0 0
-218.398975280409 41.4976401786545 -20.9226965011344 0 0
-2.73990646335512 -7.90704015573459 5.86332486219224 1 0
-202.404235132822 -9.24291611446406 -3.41098482326537 0 0
-188.561410565396 -25.5304871510954 22.5593083913302 0 0
-6.86003262177482 -19.5530532356993 -1.48901772473087 0 0
-83.8371012923116 -24.1313302214404 -4.10019781044826 0 0
-17.9442078100369 -25.2359661188787 -7.55461072287982 0 0
-179.817011624018 -34.5650296294586 2.2000516152615 0 0
-210.557926307055 -22.8465685026329 0.496085314963117 0 0
-148.942635518203 13.227979273489 8.95933121520037 0 0
-148.893389782732 -21.5641710141093 13.9399938351601 0 0
-210.181432031072 16.092682665614 9.14477898985072 0 0
-156.007237543444 -1.07991753316506 22.0077829993857 0 0
-123.248272203188 -14.9536369103367 17.9999696923336 0 0
-193.211515456372 -5.01764305628174 21.4390635495984 0 0
-21.6515045256698 -25.3343062928004 -9.50044400908419 0 0
-208.613742989147 49.1914637846037 -6.03445636191808 0 0
-178.292550395256 -6.32166983901072 26.7060849665072 0 0
-29.8116256992607 -2.28789423221834 6.0418824107291 0 0
-176.353558331626 9.08337222543418 10.8856548599726 0 0
-199.199473841248 -0.118722527346015 6.73569830180358 0 0
-202.34737206328 -8.41624834722631 3.93807678666411 0 0
-182.626647032863 12.3034743159881 -13.4607959823695 0 0
-196.788555756589 -30.4276975551249 8.54982691060526 0 0
-132.435466403558 -5.56329440833757 17.0289221563752 0 0
-22.3286246557827 -3.21975592346912 6.24993649269476 0 0
-157.85854180769 -7.9135087714523 22.0800150060292 0 0
-101.398306446423 -22.9261167610632 6.97753682642977 0 0
-202.502330279622 46.8610925524682 -20.1011408639565 0 0
-212.249681347035 50.9270425583434 -12.1217223987045 0 0
-190.659250222155 -17.6124305096209 -12.5845960002542 0 0
-158.129581691516 -17.4259985390892 -5.1152122003425 0 0
-97.097024539057 -20.3834554345157 10.1330987678369 0 0
-59.3334314303878 -15.8511598860305 -15.7042098021219 0 0
-210.665038489078 49.9284787396129 -15.9192071572396 0 0
-190.139509131502 -35.7881784848023 7.73040841937787 0 0
-201.629855131178 49.4330886764013 -12.1693321916082 0 0
-148.796070530016 -0.444159807216903 19.46807805728 0 0
-198.645019468972 32.1395923031937 13.117179178293 0 0
-63.0666507156278 -3.3739742849244 7.41869180384076 0 0
-16.8012832056202 -10.8943200799041 3.50810497200291 0 0
-34.0357917593857 -23.0372858959561 -1.65782858006152 0 0
-179.388739786557 -35.308921369827 12.413805558755 0 0
-117.023836653411 4.53162914585093 5.42369631435576 0 0
-200.174141966026 -29.6786699828277 15.299983063722 0 0
-114.41220870699 0.963807107028016 -8.06806174760812 0 0
-210.065385074545 -21.0972283293955 -5.78329165338291 0 0
-115.362018373015 -19.3658113621811 12.5365046529944 0 0
-98.9938259333089 -8.48653182172742 14.436092690745 0 0
-169.292023254957 -1.17161202888317 -11.1769682971603 0 0
-201.213936796978 22.5449466441414 12.8395568156253 0 0
-168.124441642065 13.2901309951818 14.2954962327589 0 0
-123.211838550881 -1.59938712584778 14.4019255981948 0 0
-63.8793509427094 -25.064727470903 -2.28608125393625 0 0
-8.71619702845769 -1.64603352478588 5.30399433011799 0 0
-209.020764959532 -16.042781426271 4.80797513714258 0 0
-76.8426212302243 -19.962057883661 7.92865085952301 0 0
-201.080724105778 -8.80002250056875 -7.7746936972922 0 0
-94.7832716855153 -0.229974059652562 -9.72344049066038 0 0
-202.628513818862 -2.90506216904984 1.29336830362412 0 0
-163.273149300369 -3.80368856560958 23.4933280587083 0 0
-201.619552146954 29.4661905699325 14.0828203540969 0 0
-189.552536321024 22.7121843559175 -17.3055184182079 0 0
-117.803556469183 -1.96649656307862 -9.62277541427454 0 0
-57.9342262414895 -11.743288499209 9.47584112313793 0 0
-84.5155487866502 -18.7836685144555 -11.0723041705706 0 0
-138.339896603606 -18.1248723288274 16.233944639091 0 0
-207.493096031679 -27.3540949878812 12.0325000552426 0 0
-191.971003989645 -11.9227305949659 -14.7406940354013 0 0
-209.240168183014 -12.0380885882563 12.5472595631061 0 0
-171.718722467078 -30.6662984977822 0.831227113297095 0 0
-103.09378965947 6.4399163543682 -0.783724086206915 0 0
-206.258032021982 -8.95821804375346 18.3944621949298 0 0
-216.698889438061 10.6913433836219 -14.4308372421407 0 0
-56.027654961945 3.4467561968099 -11.7463549368702 0 0
-153.322580804622 10.1120520273491 21.9405326177902 0 0
-199.441432778402 -1.87289431054452 -13.8573579084241 0 0
-175.672554396312 -29.2301767012285 -4.14205444787985 0 0
-82.8343061662499 -21.1382478734601 -8.91394631663197 0 0
-222.016194666693 45.8544664158318 -4.21967846240997 0 0
-199.036903102273 25.8224609124006 -28.1648493183973 0 0
-31.1391794568116 4.75301363751474 -12.963255000826 0 0
-195.659156171555 -34.5230580452155 2.73816377866293 0 0
-66.638264777861 -3.87317816510969 8.4621036247515 0 0
-10.5962886449629 -6.43399274143502 6.86354178956243 0 0
-200.735025483977 48.939551443544 -9.96689417781912 0 0
-196.44494214509 49.2730692801482 -2.80049019166554 0 0
-186.502569326853 32.0882162852582 -5.63186549783388 0 0
-142.801624056297 -3.53126668436818 -9.14652395461399 0 0
-8.94901089690337 -13.5221436769897 -19.2775569649756 0 0
-183.74791825357 17.7034724747002 -13.3152008609645 0 0
-67.2232946747565 -6.11312090776643 9.47898373698614 0 0
-188.039301373979 -1.1523580225022 15.9530869007102 0 0
-32.7042162696838 -0.0341520242493796 -15.8702880503921 0 0
-88.7947453513821 -23.6074896609588 -3.94865554493881 0 0
-201.817628552867 2.81855606806359 -15.9288390468041 0 0
-226.827193142474 26.8119106922309 -1.18220347325725 0 0
-189.498443529144 39.721909629108 2.58891822983599 0 0
-89.0580521640756 3.03070488635296 -9.35063366236001 0 0
-213.593637408453 16.5971077236494 8.46682415737072 0 0
-16.6716060810247 -17.1002748637726 0.499389444736868 0 0
-185.137287815254 -5.2278136045531 26.7059133648456 0 0
-185.324552254676 22.2825029652013 -12.4955071954588 0 0
-201.690795208378 -28.7197345878094 16.3079134389957 0 0
-104.232009635621 0.353809973698289 -8.96199576958178 0 0
-128.939506895155 -15.7344429832316 -6.98507719581862 0 0
-206.446537015372 39.8568590129032 11.8351779289367 0 0
-146.549881098758 -17.3757377029566 -4.79975592859983 0 0
-194.899501940071 26.282073275097 -25.9299510176292 0 0
-110.75744468601 -24.3847997915344 4.03881729997185 0 0
-43.1279053923879 -1.56510081714012 4.07636316997476 0 0
-189.372603068739 -21.1104217179876 25.0139990382142 0 0
-46.4170181877971 -24.1550355312571 -10.3257287112802 0 0
-188.290400052776 -27.8686993856905 -6.42834463747081 0 0
-195.033657171051 48.2582865747721 -3.62274495743717 0 0
-48.4413307566459 -25.7742653984581 -6.38458632271617 0 0
-152.223774164956 -6.13129988084755 20.9152578991059 0 0
-220.642211715597 12.5394506583931 -8.82193591613659 0 0
-176.459542425592 -16.9045559914536 25.406106722063 0 0
-35.1593316545832 -1.28303608699067 3.56767689824206 0 0
-192.801248585582 -2.35731423061237 -15.0381902822599 0 0
-150.205651678326 -7.33177167149966 20.8098591451871 0 0
-164.150070778079 17.3699457859731 16.9575982154717 0 0
-178.594476573925 10.1716248155254 9.53288701967402 0 0
-199.582813190954 -4.59164121722173 -12.1979558294302 0 0
-199.580454677409 -15.4074778971336 -11.2076408068906 0 0
-161.256679071405 8.99413609371493 23.1450390423783 0 0
-205.113085674199 -13.0270001853355 24.6993155293722 0 0
-153.849788935732 -13.3834336731769 21.2584747293966 0 0
-43.1943886290733 -7.13684991963149 8.29545608343321 0 0
-187.540326984616 -10.92326545163 -14.4519446816294 0 0
-146.139551355315 7.88927452531497 17.3225573594696 0 0
-121.793279628516 4.41231795828604 -6.68251789564851 0 0
-217.93092385048 47.0062799687004 -10.2361440028524 0 0
-227.792125779329 28.1046781093472 -5.20581489596874 0 1
-176.102871874158 11.5798148600488 8.79127721157346 0 0
-191.955079320174 -33.1809493526317 -0.435858873305879 0 0
-144.738257523108 -12.6718121812373 -7.03516101024678 0 0
-126.000468222233 -23.1132215189515 7.8278217618113 0 0
-190.661239852972 44.8865993628547 -10.9021826514114 0 0
-191.754616684345 -4.16521086647424 21.2804776160748 0 0
-141.107036553647 2.88433999574077 -8.05679792346817 0 0
-195.745333738524 2.11385012965949 -16.0938741934148 0 0
-86.6521833105563 -0.516059585734172 6.86060328813505 0 0
-215.400036217696 18.3078483786477 -24.4983907685684 0 0
-203.465787728287 -11.886993490737 7.15534479734273 0 0
-26.9777914168487 -24.029865519457 -3.36509096177453 0 0
-181.155621742671 17.4677847545397 -11.7396630393177 0 0
-131.105332680662 -3.12962263786569 16.2281927667253 0 0
-185.944260951543 33.5296905570553 -8.84205657951112 0 0
-180.733442112861 -34.494937621296 13.3941630404249 0 0
-150.67106755442 -3.75263367361657 20.6631308807569 0 0
-221.232054391756 13.5234319101843 -10.6691088875559 0 0
-206.723694748603 14.6451850807932 7.02519704506873 0 0
-203.67655399845 -28.1292818954806 15.4116814791977 0 0
-97.697926252804 6.14844907428979 -0.461122263955677 0 0
-189.714400976862 -3.4710776349585 21.2167215468514 0 0
-0.996163068299057 3.11215992105199 -3.31445712998783 1 0
-23.6682220493949 -12.4395925881212 3.28201484617946 0 0
-88.4016614557417 5.93499051603436 -0.870548563962043 0 0
-155.159693409548 9.20604544871121 -8.8397939631834 0 0
-18.9055621634053 -24.9881753900023 -10.744572514383 0 0
-141.140448917944 7.35616674108224 -5.12117572688126 0 0
-159.773603346701 18.0727577195661 9.82503018959812 0 0
-176.916617139757 16.4400426182971 -9.72164358139967 0 0
-153.668483484681 9.57580656602213 -7.33894342929837 0 0
-201.131511815538 -10.5714792515167 11.5689880943519 0 0
-164.870444029866 -14.3456840632069 -6.63490426622018 0 0
-130.629742027057 -6.20556827306835 -9.76065374029007 0 0
-206.348443634869 -27.2278271607076 17.6543055560186 0 0
-83.3290434340077 -23.3324493446738 4.65603234870842 0 0
-203.302510853508 18.089996484822 -26.4505942716734 0 0
-14.4464680989472 -6.76896059431399 6.76386586368867 0 0
-147.905697760922 12.8641621669545 15.9103089562581 0 0
-225.171485299308 23.7710148064008 1.82102090993342 0 0
-180.832782777327 22.2883892014832 -7.06993317330036 0 0
-208.593164690083 27.0352056430097 -29.4816444496949 0 0
-196.883275353527 -14.9284014522956 -13.0627991338288 0 0
-29.4962836258061 -23.0234092300824 -2.02531777622883 0 0
-73.2146334075257 1.07289786074444 3.21446724621594 0 0
-180.82091447909 -24.1873335695705 24.1237580036593 0 0
-99.1757690696691 -13.9617256203206 -11.8285023793628 0 0
-189.932715036296 32.9117103891407 6.55240203909366 0 0
-166.394209803772 8.45965366304365 21.9099303307725 0 0
-142.266153303618 -22.5409712430076 10.393110041298 0 0
-186.461590242807 39.7308557708496 -6.20827489873696 0 0
-121.204813019248 -17.1736330973139 -6.9059515611606 0 0
-84.1399580475413 -3.43894117716077 10.5650419853979 0 0
-208.135583527872 -8.25037996450125 18.7500254427883 0 0
-167.207104194282 -28.4382499335547 1.52279329062687 0 0
-202.453152385655 -3.26012345506035 -4.82543920140219 0 0
-167.281625057527 5.79923759837011 -13.0019244275955 0 0
-20.5315883166236 -5.82009446631168 6.93288453995029 0 0
-24.8261487112633 -7.79608165029117 -19.6551708243418 0 0
-179.511494894125 0.433243596440426 23.0664709351991 0 0
-67.6781347371215 -10.8239148163684 11.4675506129313 0 0
-10.0534180476943 -7.67638925603511 -20.3815446884777 0 0
-166.225506855167 -3.17846438286788 24.0162630161181 0 0
-146.481370538713 -1.36815241878206 18.7647616421028 0 0
-212.021936991957 14.934581119917 6.29537312695204 0 0
-211.792605554555 -13.1968929253477 11.6027806275712 0 0
-196.542955818097 -6.74220581224418 20.6822768684902 0 0
-56.8186035696233 2.19614561045301 0.892889991744271 0 0
-216.66335346167 11.4693261816266 -2.60412020009915 0 0
-33.2830929025226 -7.65393823866711 -19.1356410988545 0 0
-124.382609879041 6.93522680403157 -3.4406569062668 0 0
-194.253890366347 40.3550936578176 -22.3186856487785 0 0
-158.006717208477 12.602244011524 4.20313832267677 0 0
-207.472670447264 -15.4573970275503 3.03481185850527 0 0
-110.445727901085 -2.27870072249918 -10.012020489759 0 0
-18.7728702390344 -4.51082205865135 6.61254172177364 0 0
-126.014732430407 -7.11746186526895 16.6618421964191 0 0
-150.69541255514 -16.6613813905407 19.8082650930357 0 0
-222.209842402595 19.5768554670755 3.93865329536228 0 0
-188.120429423524 33.8284557062037 1.42021176574699 0 0
-223.075582660434 43.3930131168915 -5.92085591372756 0 0
-194.881946189846 -33.7846956440723 5.68850580617744 0 0
-19.129193594924 -13.714555925903 -18.8337892905358 0 0
-145.360714254877 -21.5011318024638 -1.60939204668686 0 0
-183.969851752292 -36.5933914367355 7.19593949069412 0 0
-142.830912629641 7.74441320008889 13.9489712960323 0 0
-181.591521420583 15.6456017113006 -12.576064357847 0 0
-189.862681854292 34.6021405782679 6.45409362774759 0 0
-191.699284029588 0.962205866944168 11.3052568545257 0 0
-49.4138106517537 -14.6401546965168 5.68667539092278 0 0
-194.464176562886 -12.1848249239345 -14.1329404002834 0 0
-20.0804716950573 -11.0588746127598 3.74776314631201 0 0
-188.598269598486 -27.8313526766484 20.144534722206 0 0
-186.583486063581 -24.5963855408823 23.4036223710338 0 0
-205.05361874741 48.2232419299654 0.30827598560806 0 0
-215.711321770086 42.1999625076153 -22.4656322805291 0 0
-22.738550285647 -25.3607724689889 -6.79952205636191 0 0
-208.475170664736 -20.7938073172705 -7.61556326160694 0 0
-206.868925796352 4.61608347252455 -13.8656697454645 0 0
-131.069539363345 -16.7071255162667 16.7991963031502 0 0
-80.941249351067 -11.3395249985787 13.2993001585147 0 0
-156.01386332168 -24.7571453678865 10.4138450685179 0 0
-210.28551528144 7.30709948300689 -6.76937629813892 0 0
-143.335555566655 -6.58393551079933 19.4546373912559 0 0
-151.632930250716 13.3942939091981 8.78373827873942 0 0
-33.0531515702807 -4.52856619590758 6.95832604472264 0 0
-173.99701265605 9.4797122502245 11.4285613546019 0 0
-107.938077294236 4.91777723787687 3.11544768450669 0 0
-204.743203898254 -13.5367419673438 -5.35923195080214 0 0
-2.48609129503113 -23.9706691394874 -12.7893326071667 1 0
-144.521105149069 4.38580431784255 -7.91110949797262 0 0
-35.1794554224921 -4.13638357469633 6.87600061125251 0 0
-2.10956967690259 -1.2221797970627 3.5567337189096 1 0
-38.6033413099761 -3.51421143187749 6.59841933879838 0 0
-42.0626385973063 -23.4003481495845 -11.5595048251811 0 0
-33.2241410708 -13.171124208994 -18.3452662628011 0 0
-86.2360219226773 6.66215648292065 -2.9304737991588 0 0
-208.424684273539 38.8872003609589 12.1150259706084 0 0
-196.678798102979 12.4108998028725 -20.0898820675715 0 0
-140.537249865889 7.39581685645865 11.4731164922219 0 0
-74.25133296538 0.603687184998763 -11.28023938004 0 0
-15.1018149606987 -0.729494007817589 4.43550926896334 0 0
-26.0712061665169 -14.6569534605698 -18.1449003620554 0 0
-165.601705073666 -12.969987415665 -7.25646870152678 0 0
-114.284613150048 -23.1666247928636 -1.36866262375343 0 0
-59.9355928828645 -4.94789071105836 8.7419272057701 0 0
-155.787606620737 -8.60067124566464 -8.3450430928783 0 0
-161.160290150716 18.8820092463515 15.8130647234745 0 0
-178.638804394465 3.86777535760898 -12.8235212369363 0 0
-186.904539775212 27.706146553034 -1.41807951265391 0 0
-83.1908422469045 -5.56322474434557 11.5863668170804 0 0
-51.2513893656324 -2.78289665729599 6.10061789914851 0 0
-176.331843085135 -4.54139549747493 -12.3527603154719 0 0
-169.322233439983 -17.2888434218062 23.5931106611649 0 0
-151.067671826601 16.4131365829937 17.483894413503 0 0
-203.152010305981 47.9646404325596 -3.21193188950114 0 0
-142.671742152705 -18.7663262086711 15.9769683894298 0 0
-190.516961346435 24.2846024215084 5.76288087500645 0 0
-157.831746859596 12.7367474332358 1.9274708656576 0 0
-222.347412044507 39.424191052502 3.40959657481603 0 0
-22.7165780750911 -18.3975348134501 0.240628776299001 0 0
-219.696245443197 41.3665717241733 5.18120632421461 0 0
-197.843439910241 1.02933228011077 -15.7346202304421 0 0
-187.330762820029 -3.44110548314611 24.3594223813561 0 0
-31.8675715028409 -5.38926453521559 -18.7818041733229 0 0
-5.05020232460197 -5.21033057179875 6.28554919339968 0 0
-207.407858417339 48.3363972578854 4.63508645783466 0 0
-184.69125204518 26.4243799897227 -7.75892244349776 0 0
-145.285733705422 8.86373301886611 -2.35946944831867 0 0
-198.346309151701 -2.2634785050452 5.59584068849678 0 0
-101.03449769403 -15.5295398125709 15.8628091872805 0 0
-186.893441713504 -29.7155158601056 -4.37443625455294 0 0
-189.942657299201 33.9038906000656 -20.5192791098684 0 0
-56.4994121687069 -25.3791704238628 -6.59786995379893 0 0
-136.259282917877 1.29591368648313 -8.58609764591457 0 0
-225.640066813276 21.6663899823043 -14.1871090990292 0 0
-151.319885089257 7.83234657961015 20.9231035820702 0 0
-143.283616283305 -19.4291278088734 -3.37575784740433 0 0
-198.262011565111 -24.8569798496001 -11.679533409038 0 0
-87.9218710375524 -24.637340232529 1.04588538888881 0 0
-27.8255118835214 -14.4770211282976 2.79317241133963 0 0
-146.440675702515 -10.9379005170737 21.1142729668531 0 0
-201.664698890371 -10.6117609695268 17.3275299126267 0 0
-5.7128759099858 5.08536470675335 -5.15629087738751 0 0
-172.986516949781 18.3034716924718 -0.527320909131598 0 0
-221.126449198492 21.416951747543 6.50932312704394 0 0
-165.068744451131 1.85657695042234 -12.3790464614468 0 0
-21.0022540370035 -9.42846676789875 5.00373906383295 0 0
-0.579367571669191 -23.9773981405269 -7.07570005235581 1 0
-180.872700210283 0.285320597534772 21.6765738827592 0 0
-226.337496462263 36.8809269153797 -11.9136057221531 0 0
-212.93514975315 50.1997715711454 -13.1301103657505 0 0
-110.259181001867 -22.9104569323375 7.2392893788224 0 0
-168.30578796728 -22.6459549385548 20.4109580075198 0 0
-191.747655455858 40.0503402583382 5.40609953145918 0 0
-174.9625034199 -3.24223539517232 -12.4066491300296 0 0
-151.039681461104 -23.0840817123185 -0.292484733267579 0 0
-201.065663084545 37.1847896956791 12.4079385811151 0 0
-113.216446263175 0.66644905706599 11.0263840686398 0 0
-154.918232725131 11.4366074527235 -4.7491040883218 0 0
-168.901022509972 5.90613245012257 22.1293981711492 0 0
-182.743765152008 7.26567833966681 11.0975114144766 0 0
-202.082030431336 33.4301893061574 13.7017249001788 0 0
-82.9399723876014 5.4466309457258 -8.34389265938944 0 0
-186.912445484741 -8.86769713247824 27.7727899540412 0 0
-134.197123618579 4.69565843431039 -6.82328990168317 0 0
-153.378113965409 -17.7024094155026 18.8718129043554 0 0
-111.994584747085 -23.7282325596621 6.01558818729357 0 0
-45.55413917388 -3.2882872191409 7.06588216079337 0 0
-203.776057664792 1.726204982241 -11.6281937218029 0 0
-155.759114913227 15.6079457357661 21.4734362674218 0 0
-37.2922472761181 -19.4489474963169 -14.9531022714813 0 0
-212.262386398983 35.3537493537177 -27.9154774935079 0 0
-163.069186897816 8.80315331685779 -11.1096369920947 0 0
-133.555973906828 5.99207972360269 8.5966327508994 0 0
-198.293938069741 15.1034155623761 9.90133397248779 0 0
-6.62861997947465 -18.9173453036813 -17.0949806931896 0 0
-57.2922771469467 -18.1539140219857 -14.4954947546562 0 0
-85.0062674429214 -21.9208792187118 7.11313724429761 0 0
-26.8571734994075 -21.8602515380699 -1.42103962746672 0 0
-161.813605779974 -10.972063580315 -7.61768528363426 0 0
-7.21133028858857 -3.53805051469953 5.81228294991611 0 0
-175.084252417237 -1.58533168867558 24.9299784487611 0 0
-178.869407943813 -24.0580797206695 -5.42315533012366 0 0
-159.031387202046 19.005323240246 11.0572146393683 0 0
-134.310746197349 7.82549519980989 -1.28608724969023 0 0
-48.8347243078903 -7.70708153974416 -18.0093426697334 0 0
-130.499079008375 -5.38957107680012 16.7914544162338 0 0
-190.966267207787 41.3126497625227 3.42931029035089 0 0
-145.843072529359 -11.0911144381749 -7.41284385329948 0 0
-11.3211749310979 -7.82232583481579 5.82781982531964 0 0
-27.381483832507 -6.96197812218435 7.09736528087147 0 0
-187.626602832141 18.844675731672 -15.5735530331864 0 0
-205.934846024492 4.19639190407497 -5.837837359917 0 0
-224.474013990712 17.6141454391147 -11.1877194615144 0 0
-184.545416024478 -28.8506939715576 20.0015523478692 0 0
-5.95677712736727 -9.24885165328111 4.31315811641415 0 0
-177.552024371117 -34.5748900521683 2.30691812653443 0 0
-197.164271783301 -3.99711929672934 7.05481561337726 0 0
-112.219986008865 4.80749769644808 3.98375048480179 0 0
-137.081915909046 -11.0228049463398 20.1247666882368 0 0
-189.59529228355 -25.4014979963321 -11.2386681168802 0 0
-212.595235952326 49.7892907184237 -7.36281714587052 0 0
-195.224383161292 37.2252116082343 -24.9312665532651 0 0
-174.646117308747 -6.81590320802821 -11.1538371897025 0 0
-168.305829507247 -0.313413059148648 -10.9958922614617 0 0
-177.017967535364 -34.2190849393808 13.202955299271 0 0
-189.688514827197 26.3126004977982 -18.5655873481874 0 0
-188.754628539823 25.8737952161794 3.04031875883301 0 0
-217.681294712206 30.6176658281211 10.8003626275102 0 0
-214.994441143296 13.1323709407831 -20.1627713006267 0 0
-131.030680571773 7.49932187597 1.21403292608008 0 0
-193.224555950504 22.2985553495929 8.53524107781586 0 0
-185.837799107344 38.4444506490272 -9.15784429216119 0 0
-70.3709886122802 -18.8031434739336 7.78690409744615 0 0
-221.122737751137 39.2721592527908 -19.9924139726156 0 0
-170.399744670833 6.3789167184374 20.0504921918037 0 0
-195.478069062101 -11.6353496857482 16.2674996405122 0 0
-1.80035977380979 -0.521081266674501 1.46970899222248 1 0
-158.367752285053 5.01585961676516 22.3676351863294 0 0
-206.599043542286 -23.6759207964339 -8.14440487549548 0 0
-189.559674274031 37.5816981233669 -18.721415985558 0 0
-87.8761847711565 -4.1569786231964 -12.8528099479294 0 0
-87.8799350165905 -18.8293393821062 11.2042321582409 0 0
-198.421667283138 37.2697628915085 11.5703767623547 0 0
-191.088800396648 -31.2855728319969 15.4128383655867 0 0
-86.2968218905501 -24.1115475587255 -3.16331006482794 0 0
-194.492222821607 33.108106347801 -25.2931869148289 0 0
-48.9950430936827 -1.19646659488909 -14.9387003134892 0 0
-206.35079854502 -25.9318385287664 19.6020363122807 0 0
-188.698503498253 37.9447237594327 2.44796339279609 0 0
-191.376826621049 29.7805140545537 -22.7772083876744 0 0
-0.296332624883754 -24.6542987412986 -9.88576529826281 1 3
-195.467435211569 -31.007184895613 8.92971917844484 0 0
-121.386564313082 5.31810223762446 4.93157445709663 0 0
-194.124757864521 30.3122659436979 -25.5524733201449 0 0
-150.385790865254 -7.8966553850242 -8.36082967543434 0 0
-2.77491365881001 0.741150386696161 -0.612584090292977 1 0
-212.716448380073 11.0745572361295 -19.468497526618 0 0
-208.716691321308 29.696961646465 -29.5530897725847 0 0
-147.789827503017 -19.4732653635828 -3.42361239079524 0 0
-213.986126843348 48.9894837298302 -1.57500679439756 0 0
-202.962132905945 -0.959430143487014 0.0827939609246787 0 0
-182.053132084019 0.33655594158912 -13.0543268826927 0 0
-205.443905228343 -22.9828409060095 22.952171798037 0 0
-181.480836077269 -0.345303551353352 23.1569689899539 0 0
-184.875763901605 -7.50547625926532 27.6770410318191 0 0
-155.470137191382 -4.91974268375778 -8.87081694917705 0 0
-174.699864098903 -16.6568402049766 24.953847762243 0 0
-141.743249562408 -20.1639476709349 14.2179773865165 0 0
-217.220276793187 47.7175617820794 -3.74916266843441 0 0
-100.037940084241 -7.46242393262478 14.018351690307 0 0
-66.3764218399196 -25.1712801240222 -4.56536530246754 0 0
-165.955996435155 16.5176853570262 13.4048738250372 0 0
-27.0467827255986 -9.2381199376988 5.8518223311392 0 0
-68.9621456761331 6.06785093108698 -8.36543354788838 0 0
-174.158520415482 7.79570283515812 13.3119282509683 0 0
-133.205837569424 -3.45487299164602 16.608516753979 0 0
-179.963006424623 0.110155699498674 17.5206642747463 0 0
-96.7763028158651 -21.0257702278789 -6.7382080458112 0 0
-112.927099102835 -14.7302486117296 17.0203166887203 0 0
-151.427935116165 -24.6994228762883 6.56568516558906 0 0
-26.7034427282975 -0.863314008781171 4.10532245903551 0 0
-196.133453156284 40.2352833049686 -23.7416433686742 0 0
-215.481309322493 12.6546866690512 -0.688040009328552 0 0
-195.914737832237 29.3302058922238 12.0844776570289 0 0
-170.381994145405 -12.3993337028749 -7.78511225939347 0 0
-188.612112624312 -5.30764082821776 -15.035860781166 0 0
-170.130581366307 -27.3467911827929 16.2300139070387 0 0
-83.7482229504207 2.01339538627243 -10.1724285060146 0 0
-201.871270349563 -0.314076407851973 3.13475373750727 0 0
-213.655646121864 46.2680672776134 -18.9736773684729 0 0
-100.702447834196 6.16593692971407 -5.91587659107452 0 0
-203.227703194367 48.2336060712491 -0.394623782032258 0 0
-75.2204801695067 -6.83821130647209 10.5008629814486 0 0
-203.847221120169 48.7101613482611 4.8053091359576 0 0
-210.927249336074 20.6879952456999 12.1856235143115 0 0
-32.3321581570588 6.88137829139222 -7.07335226553098 0 0
-162.527090433212 -12.6254888022314 22.9511982872916 0 0
-66.4093237686512 -12.0672345284637 -16.4785469082664 0 0
-202.114366227943 -9.76241360582264 5.9217176402149 0 0
-81.1099776440958 5.32807074894467 -0.272498267031399 0 0
-139.125230677085 8.60812941183428 2.81305582100303 0 0
-167.53024036814 -4.83139135670132 -9.77312368961663 0 0
-158.180435368874 12.0324148885381 -4.18445057457348 0 0
-215.133784446442 9.65454451872179 -7.35595867290258 0 0
-95.0870813266158 -10.6614763954757 15.3904375747865 0 0
-195.583052025056 -24.9174583732669 -12.2139745114581 0 0
-199.039295543964 21.4357562897245 11.403550625625 0 0
-154.544001347031 18.7877454107341 15.7692955065598 0 0
-211.453873680882 11.9580048333951 -20.9399096516676 0 0
-109.301332180675 -6.33933649856243 -11.4333553283166 0 0
-191.903908068315 4.96508780697417 10.5889384079586 0 0
-186.207229843079 -32.4049783178368 15.8609044317834 0 0
-163.936195462284 -5.93575316660566 -8.97866181759978 0 0
-171.653112454526 10.693859214718 -11.0961646735914 0 0
-122.081870043486 -11.6838088992374 18.9067876504346 0 0
-196.110124389414 49.1699340912966 -8.57614675303159 0 0
-227.378945106316 28.6980342996207 -12.7205487243036 0 0
-77.4391850079999 4.37472882810195 0.604353780745702 0 0
-196.351914371905 -32.727125174156 5.20040604395494 0 0
-203.223004207802 -0.367131195995386 -8.10833404868978 0 0
-190.212502957461 26.7159468674548 4.55722780016232 0 0
-116.498512938462 -16.4840426445704 -7.95785065988692 0 0
-172.576669204412 -32.2287788739493 5.22646163041386 0 0
-30.245279746585 -3.81893650832183 -18.4054355636829 0 0
-208.537066637986 -21.4036193038409 18.8506303800421 0 0
-202.974856677647 -23.7332695209115 -10.1818325587111 0 0
-116.279997339432 -0.386683398958784 -8.9379484546204 0 0
-159.853092986878 -16.0143829632445 21.4731174297676 0 0
-202.953045832153 -20.9054544589988 -12.2456222916176 0 0
-198.557778462806 31.6659982268878 -28.1649151313618 0 0
-109.553638258686 2.18167397994498 8.15594619010103 0 0
-4.46572796044369 -6.73191140050928 6.68846160152101 1 0
-168.39854641897 10.7343751085594 17.6260604861557 0 0
-172.225420152642 4.00135339366643 21.9209387451994 0 0
-205.577333965936 -21.1034746899414 24.1611229476872 0 0
-161.919347743663 4.46088490000797 23.1186387409733 0 0
-64.1877409772773 -23.1453388318739 -9.31769710169031 0 0
-162.293035975079 -6.37362169899578 -8.7238184925567 0 0
-198.620652789331 -25.0697927119281 21.7852898347141 0 0
-47.6434681955048 -19.6708919092918 2.49616031799019 0 0
-221.250176615611 13.0524834278769 -7.1608107781687 0 0
-193.941795013989 46.9261125584326 -1.98574834928454 0 0
-121.734327981349 6.59009735208767 1.69776222126788 0 0
-54.1227211351542 -25.6785786484332 -5.08855309268157 0 0
-58.2061974551108 -3.03219927700205 6.54623001828416 0 0
-189.556885951016 41.8459531045692 -14.7592712835694 0 0
-188.477495480629 31.2090726676383 1.06525791763531 0 0
-4.92120341038891 -7.64598765422125 -20.6258308764458 1 0
-84.0732702663252 -24.6842499689353 0.878102872764268 0 0
-158.213459250964 15.6183698320096 22.1493477358447 0 0
-193.044770284054 -8.1236327691431 25.3840741450316 0 0
-222.443288630345 17.1540971303053 -16.4323572960334 0 0
-189.201674758521 43.3386932887432 -10.880950003198 0 0
-137.136826793967 6.01589877156674 11.3830511589718 0 0
-114.264883913664 -22.7413105106188 7.76262389347976 0 0
-210.789799597878 47.1957142196954 -19.128155044878 0 0
-201.806638919095 -25.1798640907477 -9.68406292128537 0 0
-131.096237495721 5.73293357308179 8.38365620509757 0 0
-187.291314824583 3.72980607266214 11.9138214064085 0 0
-191.049241980726 -27.4698738369686 -6.85408248614774 0 0
-113.913703824692 -21.4032345637206 10.0039394465474 0 0
-208.030560292722 10.1326971451675 1.37934811914028 0 0
-121.61175409183 -21.2046494002885 10.5946513244075 0 0
-193.048941216409 -35.5744946098348 4.35594159228024 0 0
-57.970506849426 6.95796457933675 -6.74306503349266 0 0
-188.461293998722 -8.63105450721015 -15.0488711490848 0 0
-209.517081335829 -25.9097389941754 12.3076849237072 0 0
-11.6933085786033 -18.197701855161 -0.545531838041348 0 0
-103.867838416939 2.53247669462874 -8.43703117188521 0 0
-164.980538944824 12.0448855286072 21.52959976655 0 0
-195.904529345942 24.8598808344433 -26.3860404078179 0 0
-187.133617261566 -26.3859631626276 -8.40849874954482 0 0
-197.802071552104 -8.22334144010348 23.7647282546974 0 0
-122.878662559365 5.20675677679442 5.89766195405982 0 0
-129.182922835318 7.24192606372981 0.872231989425345 0 0
-64.5683511405125 -9.1869418970659 -16.8222474360476 0 0
-199.531542408446 42.3110783839157 9.18424563765368 0 0
-187.748204504777 -23.9439399834112 -10.7900060545483 0 0
-199.944544705478 -22.3314907763834 23.6249382765696 0 0
-147.191237534767 8.46148554845991 -4.93270075634828 0 0
-162.932020442371 -6.31436163486286 23.3796657175542 0 0
-213.448741934822 -19.7792023074103 5.18860928630733 0 0
-196.281055663398 -2.02595435857172 -14.93310521958 0 0
-43.5075460740065 3.08631465461224 -1.05568320396233 0 0
-210.869387436014 33.2754963574046 13.3020430111229 0 0
-203.538065043843 11.9974244322089 7.21330187965942 0 0
-176.101597968941 -31.8894752172827 16.163819928666 0 0
-174.045314094286 10.8382755113073 -11.3522303320772 0 0
-60.4560019311724 -0.369400415940973 -13.0148194980436 0 0
-78.7586102204263 -3.37593043905672 9.26795510139985 0 0
-109.379225303258 -20.3141971313015 -5.60488988124823 0 0
-135.095541607045 -20.2424657170894 -2.91344937021384 0 0
-190.637968590894 30.377454066369 6.28676963714055 0 0
-140.872990439439 8.01572944641104 7.89375486384451 0 0
-189.240396858089 -31.0544069175388 16.1701992942834 0 0
-198.827690940647 50.6683607073837 -10.2497276061127 0 0
-214.160495108497 45.0263009298117 5.98771993942273 0 0
-167.647277714769 -28.6263153332034 11.3451412023262 0 0
-177.502115199444 4.70759997678541 14.8792338144731 0 0
-162.470517489961 -8.32349244485913 -8.24012217157338 0 0
-181.23949908757 16.3229731552516 5.49242923705081 0 0
-122.989773374359 -18.4191796881061 -5.69155904707218 0 0
-207.202754581721 49.5126191488341 -7.17990907039036 0 0
-219.941786720712 44.0110480436348 2.10335986048424 0 0
-208.638654398973 -21.6073112245463 -5.01898681907412 0 0
-154.089600133294 -4.43266972452844 21.4433587312511 0 0
-206.533292692221 38.312282131787 -27.7675638123941 0 0
-106.735876608107 -24.506206075837 1.13343941861727 0 0
-189.348371945121 -36.2824903739821 5.85671997762538 0 0
-167.752842428926 11.0848222565239 -10.1897900382571 0 0
-103.414142139413 -16.1986945941963 15.5376903913009 0 0
-119.882302470168 3.47738558836065 9.3372751590102 0 0
-192.540378165605 26.727655501952 8.04259908881257 0 0
-141.266926828291 8.65724996195102 -0.000411718143778483 0 0
-205.762281335522 42.0020953404023 10.6528586347467 0 0
-136.835627263264 8.18401475123062 0.399879970547465 0 0
-151.066431349201 -5.65366104562099 -8.81256243044141 0 0
-106.946915451711 -13.1311806685644 -10.9870946236007 0 0
-186.32788215461 31.9574667232375 -10.0971244548249 0 0
-128.236862395792 -13.4005235987922 18.9038065406178 0 0
-181.457099881339 6.24302381469322 -13.2624794397774 0 0
-212.971769924394 44.0783406793877 7.62099730047064 0 0
-34.1797787635929 6.09376131052108 -5.06685929049882 0 0
-148.833676489982 -9.82024499737483 -7.7372483164879 0 0
-148.717978598642 -24.0330335900596 1.76042832872362 0 0
-196.951585890904 -33.730689038323 0.985268118191943 0 0
-205.502204261348 20.4281761137625 12.4576580776911 0 0
-196.959800122467 -23.4175015076972 23.3486336824947 0 0
-172.735428429775 -12.1063599110534 25.4004462062338 0 0
-148.508025931922 -2.3401145545547 19.7650961624336 0 0
-12.4922389646408 -14.7115911898773 -18.7772979068991 0 0
-93.4941831282572 -1.16575321145964 10.0278940831756 0 0
-191.843767874336 16.6989246953157 8.6113356806493 0 0
-195.051362469142 46.954498092702 0.600180630232595 0 0
-177.439822891934 -21.3741467777138 24.9130738876644 0 0
-186.656730302444 37.6075955462017 -0.968324893450598 0 0
-73.8295246816266 -19.5653792788546 -11.6858600690945 0 0
-181.656010369232 0.214060698824004 20.2767837900199 0 0
-87.0195202710143 -1.58921615952594 8.92936818020041 0 0
-83.6707644634253 -7.60523526963454 12.5072858363311 0 0
-202.641383137256 -1.75049742242714 -5.4587770039371 0 0
-117.881472660192 -24.1547780696521 4.45398309201974 0 0
-148.583005956084 -4.04683876615364 20.180101767873 0 0
-211.301767033253 9.55112640034586 -18.5165384375197 0 0
-186.649530266809 -2.14396766719483 21.0320156162926 0 0
-202.611678486907 -0.846625438458956 1.63343572819489 0 0
-12.8541590108853 -6.55289912175846 6.81737341998496 0 0
-113.940887660599 -1.17933559389226 -9.32763762439262 0 0
-204.104150879487 -20.0553139358071 -10.9865174039745 0 0
-171.649236557542 -17.2595710870319 -6.27008905931241 0 0
-147.347247688979 -8.91830340383282 21.1966875101701 0 0
-201.471114638902 -7.39101662214943 4.94226693114761 0 0
-50.8575360832507 -6.02670649946841 -17.4909863865066 0 0
-197.504744354375 -30.9092034217475 14.3476559640576 0 0
-100.622205570063 -6.13501599341149 -12.2466072638348 0 0
-20.1418019920105 -3.52018184649608 -19.0167505711539 0 0
-159.216316789865 19.6357855897593 14.0686406739212 0 0
-176.105828889384 8.21696948226895 -12.188074704054 0 0
-189.927066929962 -34.2249669351991 2.57374819820166 0 0
-55.8889127921919 -2.50798812766382 5.69020077006603 0 0
-170.901155010603 -0.960442086300422 24.2657917169227 0 0
-177.423749131849 2.16244375477057 20.9966464615573 0 0
-205.125850847583 3.02940778822677 -10.6062876059284 0 0
-189.660114738105 -2.4789963230508 -14.7403015386488 0 0
-192.263974908403 45.8521435406052 -12.40563329195 0 0
-192.504825147077 28.765654528842 9.56984362641163 0 0
-193.518908490305 41.5039044872247 5.93510572180526 0 0
-216.638878478023 14.5008857911772 3.23604368779261 0 0
-207.715514259454 5.58034698941974 -7.02685282114308 0 0
-161.59316675642 -22.946172734168 -1.88135101574213 0 0
-166.862136879049 15.5367899350292 11.7807914174195 0 0
-205.670068228061 49.7311403126778 -14.296996371721 0 0
-111.255705991874 -2.95526739769396 13.2042850194948 0 0
-211.088941277258 48.9371002075644 -2.95412781362443 0 0
-208.015741099259 20.6302069110789 12.5883745596723 0 0
-214.848124155178 36.5025381004224 -26.4789102684316 0 0
-127.444555905535 -11.38363099773 19.3812255544335 0 0
-181.02337014242 22.5730242171521 -1.76479891602132 0 0
-208.152179590161 -19.5068650201139 21.4036625989227 0 0
-80.0590783550244 -23.0764264202835 4.49477492401967 0 0
-88.8661417465973 -24.3748899612459 -1.67347567294755 0 0
-201.005562570289 49.4695682888859 -15.7298497001559 0 0
-185.958486708487 3.09688587406098 12.8002582599314 0 0
-205.450126539324 -27.7951412023834 13.6845982897302 0 0
-40.3424147533386 0.336576401702318 0.999755319393536 0 0
-215.586632470173 15.8116497695288 -22.5616887354149 0 0
-183.748868764827 -22.1198755442793 -7.08940963077839 0 0
-192.494137817826 18.3671123825015 8.58392589204781 0 0
-184.00048886792 -12.6757747993854 27.9353364487109 0 0
-155.061138233271 -14.6318706319402 21.6121176215864 0 0
-192.416336588085 39.2406702709359 -21.5058830944102 0 0
-42.3692973779143 -24.0048559553981 -1.93631767067807 0 0
-205.57822985793 11.8088318374711 5.53637817090756 0 0
-185.688025614738 19.4590024387162 -14.1010126217052 0 0
-171.223181501678 7.41491454278288 18.1224517215611 0 0
-13.5719732878533 -11.8954575948242 -19.5241300279225 0 0
-214.942186222681 41.7777637487053 8.43730047400713 0 0
-69.2437205709819 -24.1262982110486 1.27893557771305 0 0
-18.5223601400008 1.35237425731876 -16.3553416560428 0 0
-133.590554372118 -16.2103937717121 -6.36793239806108 0 0
-99.543258131771 1.39693497692506 -8.91420523499768 0 0
-181.803088769369 -14.6515322662449 27.1499394763548 0 0
