"x" "y" "z" "f" "a"
-132.056368190028 18.2310510000579 5.29102326857711 1 0
-126.749099655868 -2.75806201833497 -12.4939619712311 0 0
-99.9167515731736 17.3819071000284 9.61614418073835 0 0
-132.503351804418 22.0758464443414 -1.19648505547768 1 0
192.177566458751 37.0681405603321 -2.31205945735309 0 0
47.547967386628 13.3521613281814 18.3279943565943 0 0
57.5811637277381 11.0111323469501 21.2850161758354 0 0
-123.245213163148 7.85685199995461 12.1083173609712 0 0
185.945158797482 -20.3957016534232 13.5576039537708 0 0
178.770200771552 -13.7818402736042 16.9491005413318 0 0
-131.355689117376 16.4729803112088 -15.3063080067622 1 0
166.476610532235 21.9454694714376 -0.351906184556495 0 0
180.525218991639 14.2363993236027 23.1457991886765 0 0
206.76736637624 -21.1325796057297 15.1337547221761 0 0
204.093681632777 14.2214310967336 -26.4710188867161 0 0
137.335791193117 16.2445006072321 5.52185625093504 0 0
1.06915159542313 -7.22174626171851 18.6622876827176 0 0
157.351476672326 6.62018750602111 22.9681417550833 0 0
64.7293680656762 5.4717489129816 -0.799584472723071 0 0
49.2036514388103 1.38107143975376 -3.81569630280262 0 0
-10.158428883137 18.2569510798697 14.4122679746103 0 0
2.37753456559906 16.5257875288729 11.9211442640315 0 0
39.3226462091017 12.1131771897248 7.58686437970964 0 0
171.414204944042 -8.75258498112478 -9.97882530435574 0 0
-92.693568410891 16.8659514729734 11.5640921756128 0 0
83.9568755735894 -11.222767624996 19.4031343270924 0 0
-71.1233188647858 2.53430945440972 -6.40602536976365 0 0
206.280729932624 -38.6498561257555 -5.13325539638404 0 0
157.364040462183 -19.2744839365798 7.06952265447859 0 0
161.866546719177 -18.0567236469771 -5.16714801051484 0 0
-50.9590981646494 -5.03726981915363 13.2120946864066 0 0
-9.08771028972011 16.0408713304103 19.7608940192765 0 0
180.074838332627 30.1155524400261 -4.41964977304181 0 0
81.9062201535033 -3.25782456982777 24.4748164743215 0 0
179.35231161225 -2.65834574741999 20.5793495346694 0 0
206.864231600094 -3.36712086130134 -12.9311097376441 0 0
183.806768984215 14.6310961099503 -14.9576493296791 0 0
217.158687521106 -0.133637664702752 -3.16783457601565 0 0
227.404579875462 -16.3980513490305 -7.42672322459743 0 0
58.3537170811358 7.40826506819714 1.19996079786953 0 0
28.0882810776626 -9.39266761495466 15.4093609742185 0 0
102.522569176316 13.206918279057 5.07494161730023 0 0
-97.2902013646879 -2.49780926677162 -5.96566065169028 0 0
219.743415717471 33.1866567599651 -5.56357006786382 0 0
188.887272010812 -35.2935449359323 -12.0412619791188 0 0
-43.6209262284992 18.6943812790345 15.5823865237078 0 0
199.629384953593 26.02504771648 17.5837581028658 0 0
221.19090642906 15.1992768444747 -1.62961095204782 0 0
-112.171878950892 -5.17598624375476 -3.89606959411197 0 0
24.0827688935811 14.7351048340618 18.3736625446093 0 0
58.7746795898162 -7.45570140629135 5.08595731497296 0 0
-113.850784384255 14.2069408738216 10.7981353778485 0 0
40.5360304109577 2.54546568307063 -4.1101607477773 0 0
109.243114307949 0.0525548524165642 -3.62153900554788 0 0
156.320490145004 -16.6280248028181 13.2238574725551 0 0
91.5698855999882 12.9359930291489 6.1614882058152 0 0
-51.9701434897699 7.59303818600625 22.242838449692 0 0
-7.60097086356433 13.5606692929917 21.2705662850667 0 0
-76.8660753956736 9.22224917646887 19.0760293654169 0 0
206.327974893035 -34.0904507174894 2.70891009450371 0 0
222.230869204913 -8.44148318584291 -1.51754317171616 0 0
105.919211880844 -12.7220386534765 6.21609325125382 0 0
201.891064580414 15.3188685072919 -28.8603516545669 0 0
182.573445799469 25.8047801878287 5.12153046557329 0 0
220.302956530893 -19.0815620978657 8.96223661413359 0 0
-8.88474039793125 4.24015328967769 25.1838957697981 0 0
179.553023928666 -0.638065334911006 -10.6673353224782 0 0
-34.2767889700674 10.8399296583717 -0.0260077208002945 0 0
-99.7632993017913 -5.3408249374658 5.00411278201072 0 0
224.551226284159 -32.3677620714801 -21.7125384638742 0 0
-65.8394384608601 -4.98751067332951 11.0435044338804 0 0
214.065269396746 23.6869498416726 17.4900996107235 0 0
30.9690743985996 13.0015321996141 20.3926038683171 0 0
32.3136557365542 -5.75553080616376 5.06054833933792 0 0
202.877429990244 18.0695018472233 -29.7728672076023 0 0
-124.517351158231 21.3262870796482 -5.60552533042978 0 0
215.347391679101 -23.9173579428516 -38.9328485269096 0 0
-82.2217329024458 -1.19650514724078 -3.51846779783606 0 0
-73.8636911955184 8.03342407638521 -8.16878755584895 0 0
-22.3949680359734 18.8461644863631 14.4979169152762 0 0
190.295172022655 13.3135813932135 27.3793028435704 0 0
-42.0455172667112 3.11773548249276 -5.60780575277798 0 0
208.153279791256 -33.9567000565071 -32.1177416667786 0 0
-46.4736238958824 15.7127926903003 3.05600935057366 0 0
-99.8312958983101 4.55722663372815 -9.83828744509823 0 0
38.2958136376692 -7.02349157662168 22.490870163482 0 0
184.518541302188 -30.9870766083269 -8.94397002108689 0 0
73.3118447405881 -5.6577443310246 23.6225002324137 0 0
175.962472391006 -25.6709108413778 -0.879222747479507 0 0
194.569347841082 -8.27787554223492 -21.2312361910996 0 0
218.04716487516 -13.4937574734308 -34.0936359130315 0 0
119.278308165498 13.4368408067584 2.0620320871713 0 0
-126.533702575511 18.264396893734 -11.4086912219373 0 0
-63.3356846444063 -3.03339294685823 1.26367914423349 0 0
-25.8844475849219 7.50737766674238 -2.43447429968016 0 0
217.714868147082 9.95143294099604 -11.6660856416475 0 0
132.792509054251 -1.07230039429695 23.7632635163775 0 0
187.423434887457 -18.7543467579599 15.2474526720322 0 0
192.660492057504 -31.5156714103549 2.16505581817005 0 0
227.999420368277 -28.293741182297 -12.89282893455 0 0
181.016034183942 -19.6578148654209 12.7374237983962 0 0
-8.49600905001355 -2.13535797509716 23.9014729879719 0 0
210.436817014933 -8.80505564138653 -21.4976256432051 0 0
45.1246995169959 -0.389787855989107 25.4918188778865 0 0
219.657552486183 14.2792891022252 8.37379305106541 0 0
143.285757938868 10.6386162861315 20.6761886037581 0 0
81.9591815735714 -12.0170362138767 17.8660906518157 0 0
-58.5127370345922 18.3465599081432 14.0431102720853 0 0
-113.794144870857 -5.86385170506547 -1.20180955535387 0 0
198.967449620618 -31.5608869371028 5.31948673637065 0 0
158.128514531659 -8.10766966953567 20.286587018934 0 0
221.640017086549 -32.3003655542665 -30.5179929352572 0 0
93.6482437965632 -11.6937833768162 6.4331979266194 0 0
-95.3688010022828 -4.79939449147689 2.05670963041664 0 0
181.936506620131 -6.10762489356397 20.1072329403743 0 0
49.5060185031771 -10.3500409684833 18.4810103295002 0 0
113.109508456348 -12.3309732505283 18.3944486663751 0 0
27.9980441999452 10.9872840097338 22.7274646984814 0 0
111.894373521287 -6.90100140613315 22.2158978973318 0 0
67.6372989860427 -1.65366987501074 -2.93756992193318 0 0
-97.3336973741285 10.2003442546281 -10.8389962898752 0 0
-74.3425962179545 -5.47803102103193 6.97430950844017 0 0
198.157139141254 20.3765966479387 28.4562282031336 0 0
-25.5099211255696 -1.21786542835393 -3.65009491665376 0 0
104.468213722257 3.97470549609529 -4.39528884213255 0 0
-26.5706982129412 -6.03237129106341 11.9864167065442 0 0
77.370396250601 -1.23051274042473 -2.40712700253299 0 0
-127.012045993594 15.4272894817504 -14.4648946990386 0 0
161.291550610427 5.03880010032305 -7.92455788839684 0 0
62.5853889522968 -8.93815985788475 21.5158379761869 0 0
220.295994457842 30.8939783441876 -9.04287111347122 0 0
185.018466294291 17.2011892238684 23.9399779051869 0 0
38.9874573222445 0.261005519904685 25.6332502107333 0 0
123.624434020136 -9.74986416655954 20.2260141065172 0 0
212.119492213183 24.4355886951785 18.6664896133324 0 0
221.590606928233 18.5054317089078 0.511866334917094 0 0
151.232075464425 -17.7167137140008 10.5551634210595 0 0
127.279893621272 14.3214560324307 1.93284806555223 0 0
-105.274925972853 20.4670667449848 2.57222611857298 0 0
-81.5145282533844 -5.2869503660664 7.99425652761465 0 0
89.2848268433506 13.4935182499368 11.2845342398428 0 0
-70.874923864747 13.2362384605513 -5.92693939099463 0 0
219.351601914645 32.4189547243451 -2.69851578635132 0 0
-35.0131797952574 -5.03812001403943 7.56817338728617 0 0
165.999146933138 2.91463461654141 22.7836211627745 0 0
195.928009343245 -10.1483405648912 -24.454708536903 0 0
19.273303892573 -4.2955468790393 24.047159410618 0 0
-26.2643484438323 11.7627389251295 2.28134219421098 0 0
-57.5513386547185 2.39517962385056 -5.36249748899923 0 0
188.123327443827 -35.3789259673734 -15.6040644228785 0 0
-37.2076690762198 0.087610759053695 -4.23212844463727 0 0
214.138607800168 27.0163607193213 10.985904161236 0 0
170.86073917751 -22.5399866710002 -7.12651783651262 0 0
51.1090676167293 -4.66678250569836 24.1758572461377 0 0
145.590855488729 -9.31936227110325 -4.07997636379212 0 0
185.726653775691 -27.9567012655087 2.98636604664852 0 0
207.913695746828 -27.4978222150957 9.54946116017321 0 0
87.7405958118065 11.1257089504109 3.11392214865611 0 0
73.477429067001 -4.91683874748484 1.46291818913942 0 0
71.8934079295487 -2.62855449118157 -1.50802754636344 0 0
210.062445685955 28.8675064882914 9.08267817995872 0 0
-120.862778424247 -6.04962447560029 -6.24138326956271 0 0
50.0662470804376 -5.27181535235293 3.44919034339374 0 0
8.57743411519379 4.75778850223406 -3.17339321770669 0 0
113.176483152569 14.2779767099449 11.6420283034831 0 0
-70.2087131075231 -5.43989041922836 8.48549830856854 0 0
199.265894591143 -13.3727476555812 21.2080738816966 0 0
225.296751733131 -31.8404877822849 -23.9438420298774 0 0
221.890109137997 -9.2366357731921 -20.3077679169896 0 0
-127.583936555707 5.56564282424257 -14.6393940432832 0 0
10.1134387653549 16.1574247400195 14.8855047830762 0 0
114.687116859802 3.52126931869278 -4.76730275021395 0 0
173.594119571979 24.4782485711328 -5.57184756888214 0 0
-60.8593246864866 18.5050056878757 13.4986114732693 0 0
-33.4873097752852 14.159160012274 3.76745910096421 0 0
213.127727066298 24.695076685588 -26.6559331811428 0 0
128.830548753671 -5.48517098129769 -3.41163048039818 0 0
208.339139400698 35.5141795326944 -28.1301194181275 0 0
-66.7092720947988 14.286021059495 -4.08447460337937 0 0
196.125780357402 -2.03618623094511 -17.9475759486712 0 0
207.939794792324 -28.5942717918904 -40.0761437148634 0 0
-122.932277547787 -4.30362764858127 8.04938428218191 0 0
-13.006896067404 17.2848892906467 18.3376732269831 0 0
-101.310514541651 20.6143337458017 1.81599077474242 0 0
182.278388555617 7.40640511571003 -11.740236692249 0 0
-10.8242075112148 14.6036389773297 7.51210075323417 0 0
215.602930032633 -0.257043953112636 7.39617794586408 0 0
185.439569387532 -2.91313486339753 -13.1645357085783 0 0
136.535453478463 -10.9748236465318 -1.87921620134196 0 0
-92.3469203602926 -4.42621929927799 1.26954283166209 0 0
185.132669982359 -10.7903480678819 -15.8782936304402 0 0
-105.641519269466 13.2964957482578 -11.3590955636327 0 0
11.0994880508609 3.410304105636 25.5849170868302 0 0
-67.3541692317175 -2.14000284744459 16.2121518365155 0 0
-96.9960576770543 8.56131444741417 -11.0362904946083 0 0
211.014237775165 -22.3837452633395 12.9815842300213 0 0
90.8073902383745 -2.2167209120129 -2.10199813177226 0 0
135.774511108039 15.0581659868607 0.803786617290523 0 0
-28.0836796590807 15.7086590351299 19.6580602844222 0 0
125.549122203196 15.1069840707015 5.44500796102129 0 0
88.3378083643969 -6.15643767236274 23.2355425774969 0 0
157.141618119532 15.0476420763085 15.8703538257739 0 0
29.3826530853853 9.42444983172061 23.887063273644 0 0
165.838206460174 -11.6412886755412 18.0271740888504 0 0
194.509251436045 -23.8009893763535 -35.4742786984756 0 0
-129.00273172223 5.97082346490156 11.6538833377263 0 0
145.106766917665 -15.1895681057847 -0.587190183343866 0 0
101.511343477332 4.42301026691554 24.239790191019 0 0
192.890363599438 -38.3705251621579 -24.7216145482515 0 0
160.528510065299 16.9450364200705 12.5512615041935 0 0
217.688223921516 3.61518712666283 1.3758763605241 0 0
21.7793322863397 -0.00755717674831632 25.457032228056 0 0
-79.730681465356 19.2448322527598 0.217138525537253 0 0
146.279369237332 -16.9500025887672 1.75658810170344 0 0
210.835748015272 -15.4323929789731 18.3902757582521 0 0
167.349527790161 1.73184215216528 22.5236197795548 0 0
174.222919173556 23.5711618677597 -7.41121772385388 0 0
7.52687468740881 9.17840306944978 24.1400780452114 0 0
131.043128823061 10.2705631111868 -4.03691272679449 0 0
196.384545416523 -4.57250516099988 -19.0735376177677 0 0
84.1940552471221 7.15050888937476 23.4537251695673 0 0
39.9367028855968 -3.17614513039102 -1.14894489095377 0 0
-54.3045068095705 14.5712036965898 -0.285367781898692 0 0
220.227561198534 16.4785872066408 -7.18472189396268 0 0
195.415322753902 2.96518070598695 24.0416580998575 0 0
196.033932295665 36.7777387374366 -0.197941197695844 0 0
91.3564270911484 -13.2448384682976 12.07203903329 0 0
98.8087763609413 5.99578401489801 23.6531317499621 0 0
-134.512510041787 -6.51516377592447 2.71796383679909 1 0
223.909959484513 -32.6261232041658 -15.5075216510342 0 0
-117.701248954312 20.995467741304 -3.4871464040339 0 0
212.960815075888 2.02928809344617 -8.32164820112869 0 0
134.999925197712 12.445773838759 18.3397846888868 0 0
-134.647133596341 0.768501048098466 11.2050374669476 1 0
32.9228696286738 -8.66883725449201 10.2677515701406 0 0
168.980329204422 17.8519039998909 -9.33849776166875 0 0
172.341214533334 10.9172167257611 -10.1153825146012 0 0
174.75796817686 -3.22462392209301 20.8688094582982 0 0
164.737498884876 -20.5140281287769 -3.889964474598 0 0
-92.9445370537052 19.7493009494335 6.68032216927134 0 0
205.698596203265 -28.4768568381937 -39.9513488041218 0 0
9.66031361898085 -7.87645318370261 18.6945798422861 0 0
212.51023046485 28.3094660494385 9.06464789125913 0 0
121.583500415854 -11.9958318816113 1.86172396553989 0 0
-95.9226374970307 19.1670262119106 -3.00488796397557 0 0
-1.76851685440932 4.20640672223435 -5.21039594694394 0 0
198.504512164575 23.9472079035738 21.9686766633357 0 0
187.237216384379 9.45710163909354 -15.0031776487503 0 0
25.9800245822277 14.8070831441482 17.8391389781893 0 0
49.7576685350367 9.58752037905564 3.87917215994453 0 0
43.9102299289322 5.35439428969471 25.2916268611089 0 0
140.675525151402 8.7776180058186 -6.30095457696358 0 0
22.5522989980549 -3.68213516852968 24.3920271857332 0 0
-125.574861312988 8.25299969252386 11.6188705916491 0 0
-41.3376151083412 -2.66696168846255 19.9378227633344 0 0
135.422258080002 4.34718086797493 23.6265144057416 0 0
214.690825058805 20.073251712152 -23.7982088676107 0 0
169.764623100211 -22.8324539681307 -4.55311564935149 0 0
-73.1602032623515 1.84425027549094 -6.66752290893765 0 0
218.853962591211 -10.1718129241301 8.27814714927946 0 0
-63.3249644500048 10.476092792582 -6.83437119100362 0 0
199.581240964235 15.2719149189147 -28.8863317890321 0 0
209.462926299753 -6.12606086986784 15.8467109527713 0 0
195.079593122989 -18.6919271545867 -35.4983841505992 0 0
5.64207231544792 -3.43508467132122 23.9750952259078 0 0
199.045688035139 0.927212774546481 -16.8242104540572 0 0
-126.980940893284 21.7152900169456 -1.23247638879968 0 0
2.30895327850329 17.1586975592649 15.4680432656083 0 0
209.965004174199 36.1366849476187 -10.4976891556658 0 0
98.7449751920494 -10.4217647465711 3.80007606796276 0 0
8.52155943951814 -5.40897391591975 22.6279195931445 0 0
8.78023870420393 13.1587944255826 21.5754420505658 0 0
-41.8920909295458 0.639915612934153 22.4721266045858 0 0
-19.7669937418996 16.9899514406024 9.40317716939303 0 0
116.351288998592 -12.7271255784208 17.9297017219589 0 0
-54.4263201117398 19.001992028012 13.4377336345921 0 0
212.594040458039 -2.69295435549863 -9.72890068796098 0 0
213.092922971131 -2.43068945049131 12.1588668107368 0 0
177.787642398395 -5.38045025229548 20.3298364742664 0 0
195.441151602838 -32.7181426924866 2.04642909954204 0 0
76.4772514389043 -12.1714329063956 11.5662404316262 0 0
-43.0266856023812 -0.0332703800346871 -3.517194616851 0 0
4.76037520865611 9.57882513787656 3.22187856230111 0 0
200.304976582395 22.283945136594 25.461715551136 0 0
78.5972570671984 12.8681602673893 7.69941829072522 0 0
215.624576401057 30.8275271021202 2.91870938964723 0 0
22.3734182270729 14.5233375487755 19.0480735740464 0 0
-2.96458119465536 13.0278145595132 21.671393488616 0 0
16.1644994780981 15.2853672869941 18.0148518439079 0 0
7.52061600183827 -2.70331585991739 -0.823961427554239 0 0
210.018938880033 6.29875793395491 19.6667241900495 0 0
155.440741693744 -3.89356371226356 -6.43815396268649 0 0
-79.8112775748758 8.06180234386147 18.8684882223418 0 0
-28.2138905512409 18.9117692284018 11.9478518223817 0 0
181.981441733354 0.262432992410218 -11.1906875790399 0 0
187.153838717588 -31.6447941134709 -19.847677090804 0 0
201.465216413346 -36.0151496042587 -0.298381098717662 0 0
187.252189531902 2.8365073493794 -14.10152376338 0 0
193.5211818246 -28.085595944773 7.51416525963435 0 0
197.484232385776 7.14034997999789 -19.1134872127676 0 0
65.6604276064637 12.4692096927534 18.0285039264847 0 0
206.820796766943 9.5522257468124 -18.2408371947401 0 0
216.42659769214 31.1347232922261 -22.6315432703893 0 0
216.935185162324 -10.000351149979 11.4150484178301 0 0
-132.661308515021 19.6970649002955 -11.0940726048001 1 0
58.2631907576416 -4.83307043039326 24.0488803589931 0 0
220.789143385309 -33.9816319596823 -10.3616714091006 0 0
147.106282796351 4.82766687089072 -6.68027529402815 0 0
176.514205230776 -6.63783972959758 -11.9338639114301 0 0
191.392419243598 -4.518066118318 -17.6534353395851 0 0
188.035989731729 21.4349876099154 21.0216154094591 0 0
102.377364476773 3.94261127781953 -4.23623953484574 0 0
136.474668584208 -15.2072875881246 2.45627925334289 0 0
208.656723605109 37.7764053761402 -4.90221841428288 0 0
179.187274336903 19.9338027924961 -14.1009504155707 0 0
86.8319433720102 7.10342450346338 23.420164843449 0 0
176.083807864122 -24.5179024417771 2.6678546602408 0 0
159.290856513481 16.0903355479692 -6.13547160976317 0 0
-92.1518365620962 13.4870793829781 14.8665658309854 0 0
-119.011656875208 -5.39454695261019 -6.97915757438975 0 0
156.512539889682 13.5666648982582 18.3925021291247 0 0
189.787816299985 31.7061845627713 -24.5125468302676 0 0
137.258698418129 5.2046041982818 -5.92142968023822 0 0
139.696810228529 3.14861672876505 23.7311538073165 0 0
-61.1805744641346 -5.09747156352998 6.04150073120275 0 0
82.1612694219052 3.95811009270832 -3.5940195171186 0 0
203.896495331164 -38.0246464251721 -23.466829419484 0 0
186.979917393053 32.6959598972701 -15.6084610335442 0 0
218.199160301669 19.9619899363327 -18.3985785935901 0 0
200.720909204514 -22.0438306346459 -39.0988841647413 0 0
176.448613749 -25.8851595490422 -3.93376715563324 0 0
38.851041325656 10.3508117364292 5.16708396442972 0 0
186.151756987389 -16.8818861538302 16.180191236238 0 0
-73.7321473708403 20.1104695110137 9.87186287161167 0 0
18.2517753561587 -8.50381252872816 13.3662462761471 0 0
212.648573318126 -0.616511946613846 -8.4704363187184 0 0
78.9058837258029 1.49664777318163 25.2380438850706 0 0
4.07051712616659 4.64165206292012 -3.88882599489988 0 0
-12.2806333800603 16.1709763943524 9.44591700284961 0 0
-48.7463365484862 8.65738195755887 -4.60858818534901 0 0
185.005608257707 -5.37222111908042 20.282769089205 0 0
148.737108254485 13.8544745699303 17.1207908155838 0 0
99.9268125266489 13.826678926616 10.4880338081266 0 0
195.429979900952 25.2762900376582 18.4280579561868 0 0
-71.7940598335638 2.86269218591566 19.4706883641542 0 0
222.288639185581 -27.986589678651 3.87180001924927 0 0
-76.1778293043007 15.9112234483617 15.2421758081638 0 0
69.3262938405611 -11.3912200555606 18.0272979744373 0 0
-133.134684914977 -7.81001655877919 -1.91018706832741 1 0
-48.6614836763658 11.5894887998995 21.5341295363749 0 0
206.11648293445 -9.35032440445651 18.5509302430154 0 0
-112.072284858977 13.3435781248346 -12.2601115086892 0 0
203.708066690073 12.7588718718897 -24.0169124637307 0 0
-129.816832593557 8.78569047569349 -16.2511997911177 0 0
150.177704309856 -2.11902623151614 22.8645703107671 0 0
188.125142954705 14.2295583548757 -18.9220954582651 0 0
-97.322559764013 11.1643031942339 15.3327477991235 0 0
71.3808470327986 -11.9147539123951 11.8735770792005 0 0
182.397729110568 26.669938392846 -13.9274004464841 0 0
17.4222382227762 10.9652098027064 5.27377596384151 0 0
-42.6347185588852 -4.79337710620283 6.40679054751784 0 0
-124.911877137529 -3.99428066717058 -11.2273152749312 0 0
205.989346822109 -40.3864230161068 -9.19020433253039 0 0
216.709705352521 -26.2931483412744 7.4399492746231 0 0
-116.971118359291 -5.18266355479962 -5.70440656284469 0 0
-13.7265438454548 3.84863024009659 -5.48301011094007 0 0
55.0294943939012 -3.14711417317767 -1.42322342107343 0 0
184.221982933839 30.4583707492023 -0.666244619068833 0 0
32.4654996316947 -0.345806561322716 -4.01088456524298 0 0
213.855534732921 -34.1875713033954 -29.1478279908733 0 0
184.031812552355 26.9740365362993 4.24405784789477 0 0
184.962219358709 -14.4038996458983 17.1786155470468 0 0
203.145980719668 20.7275591232751 27.1495206532808 0 0
-110.860673619481 1.07454373805334 -10.4608501054636 0 0
137.339907932742 -12.1954980799421 18.2601025402541 0 0
198.304479427057 -18.2265381504488 17.4137393334301 0 0
210.450749423837 25.5160213406485 16.5639106005549 0 0
197.712812615922 -37.1130218828181 -2.03155079072948 0 0
54.9925029413147 -3.54865492837627 0.802730494258477 0 0
-12.7554623529681 14.6146552293894 7.32805603234472 0 0
-102.946103383848 -4.30701176531017 -3.94332570692617 0 0
172.68690762872 17.9137338319399 -11.4274398583536 0 0
195.484769128985 11.7536425189055 -24.6974952397253 0 0
201.958379458105 9.50826169129979 -19.9403805838637 0 0
1.26863270497831 -4.91139799691798 5.36516034111486 0 0
-61.4279990466281 13.4717593787211 -3.52697343569142 0 0
101.101066946715 11.5556620355824 2.01169019708618 0 0
219.946906355106 17.2336014060044 9.14742764622666 0 0
57.8313079604061 -5.44924314875314 3.14879126798597 0 0
-53.6401586343916 -4.75325136655567 13.4981283441593 0 0
93.6265158792145 11.7414808871809 18.594018324641 0 0
62.2285242004335 4.29612862050486 -1.89902602327071 0 0
-104.730527829031 2.94258236877269 -9.95776443370501 0 0
183.346956883942 -4.07515534761748 20.8145358350413 0 0
134.017378000832 -15.3214752431208 14.6802803170554 0 0
-51.291541117328 -0.466908458084936 20.6554988505679 0 0
193.277016380245 -9.17093922670099 20.2175701397321 0 0
5.62875804570596 -7.9167838150738 15.4278676156502 0 0
103.024419838714 13.9639806595458 10.74598739681 0 0
83.7999135424723 10.6346006979291 2.96060262565985 0 0
-68.0533852787497 20.1460195768419 4.27435788927153 0 0
203.965096069526 -38.7915256033452 -21.1354481405521 0 0
176.008484132291 16.4054987349189 -12.0010921516322 0 0
-126.327834145342 4.4342460712811 -14.2436986235947 0 0
-119.577067706716 20.9076667949576 -4.97073134402809 0 0
41.7042084042831 -1.79845653017599 -3.78775510802962 0 0
9.51713557006701 1.05082199459798 -4.79399521056507 0 0
203.797119743215 5.4269146549432 22.946462802416 0 0
119.420570916752 7.83221515303662 -4.20866032571809 0 0
-125.194191178494 1.01920027172855 11.9828670692923 0 0
208.424880183291 -12.6753157568217 -38.1821685025098 0 0
204.118862242084 -34.0950907234301 2.52347966724074 0 0
169.473549260009 -16.2839513852501 14.2333581797523 0 0
193.728204219768 -6.71779467357584 21.6585600651052 0 0
217.672315985173 -0.472735853635148 1.41256118059245 0 0
-128.478707850064 20.4316490800185 2.43587399021033 0 0
192.731401011627 38.4329071302117 -3.06394820039021 0 0
217.152801674098 -8.28368880656318 -19.648599339431 0 0
-131.602499737367 -10.3106971768609 -3.50331787106595 1 0
219.098819179051 31.3535690982812 -0.217714179207713 0 0
56.7820431200396 13.5730021768511 14.5235531964023 0 0
-116.920550890179 14.3007342700498 -12.3607120217047 0 0
109.606030577005 12.2644703577329 1.79317604934266 0 0
65.5989040116377 -2.96721061464457 24.6891145756936 0 0
205.05704900663 -34.278578518419 -32.2996996092042 0 0
94.8834326442113 0.415104997144529 -3.28602606602254 0 0
125.77328816686 -5.85104975159947 -2.9893919090849 0 0
-31.5791795084787 18.3486434516688 17.1480818427591 0 0
-4.99529248552337 12.7531640795602 5.61537406931007 0 0
51.8210450751509 -9.41477309334183 20.4417343203953 0 0
40.6485573949944 -10.2705925421931 15.0465407948397 0 0
197.123560099589 -40.3396244032492 -17.5579453513963 0 0
-88.3184424446595 18.2127656939431 -3.40584154790604 0 0
51.6243409327483 8.82246299359693 23.5141234213898 0 0
-133.732576056623 -2.84180940245087 9.96030193300937 1 0
199.173727959497 -9.84474569914877 -33.6756456419669 0 0
4.83607223461223 15.0861087251528 19.3330256473786 0 0
189.509311716531 -1.07060660704466 -15.5638456095792 0 0
-0.774058769358388 -6.28312637049836 20.3566500733378 0 0
206.472422350101 1.09757776488995 -12.2902647862493 0 0
219.665604931707 -33.709137766155 -21.8948995508898 0 0
223.386347205978 -25.3567273465379 5.22483153207019 0 0
35.8639773942819 6.54159530539279 0.872314014837513 0 0
-126.425172533542 17.0869633018627 -13.0270684162288 0 0
193.999228120013 37.4508364314523 -1.83360650347596 0 0
45.3660456829883 -7.63462084997091 22.2111746338521 0 0
217.218477063849 2.69893399827313 3.19512828775098 0 0
168.002456203871 6.01673126857523 -8.77958216802747 0 0
206.449739582756 6.20142313568171 -14.1376818357894 0 0
-66.6947487872436 12.5826646273275 -5.56644732108865 0 0
-106.95411133446 9.35804946048895 -12.3423847291492 0 0
188.676015785085 -20.1469909940685 14.446480036434 0 0
156.046648380215 3.90656170927164 23.2574556246867 0 0
212.728485070282 3.87984090206379 15.3225091953514 0 0
120.129897481019 9.14724205068531 21.3046722865789 0 0
-121.044689707816 21.2307965557097 -0.389165941253303 0 0
73.3521215362662 -10.1886163100917 20.4034297215741 0 0
216.677929804279 15.645305766132 16.5677539848992 0 0
170.305086909833 -10.5394864121515 -11.4034675505621 0 0
19.3124503271967 14.1761744514664 10.1600361220135 0 0
175.179506894793 11.4657520039239 22.6218253016584 0 0
179.935639535634 -10.1842648141697 18.7734695766906 0 0
83.8455787678719 -12.2814533144852 9.97944809589277 0 0
70.7209965367927 -5.96437506356091 2.46188919246918 0 0
226.250779814539 -14.3266167830754 -12.0018358621858 0 0
126.425311741659 14.938156128011 11.234306682666 0 0
210.730654567265 18.0841683699205 23.6124251690851 0 0
86.2855403815095 13.1930594850648 7.95114649721183 0 0
191.522959137795 24.2176412893542 -29.4047434331558 0 0
208.573378520973 10.6518181877418 23.3100235527686 0 0
191.663269468361 35.0402686413646 0.403422347262066 0 0
208.590263899122 -8.32359780658572 -27.0869313930931 0 0
204.069469601479 -9.43425973935829 -27.8544523024839 0 0
62.901505326849 -6.41267714337198 3.54695750388187 0 0
211.985568919962 -26.5760707485622 8.99012650605772 0 0
209.467671818517 -1.18226008531463 -10.0276257278844 0 0
222.26810188276 -31.9893952331673 -2.65616280499844 0 0
188.998709804515 -29.431940184133 -24.6174327695355 0 0
79.1006344584939 -12.1298416075511 17.168596716558 0 0
222.741048130165 -22.8343228037967 -32.5406417923164 0 0
169.483916274903 0.468810735730779 -8.59756317887467 0 0
-134.91395687762 22.3707892172273 -1.85819212137496 1 0
-109.598673701083 19.2115005105877 -6.48635882233546 0 0
201.612667943721 -28.7670703115802 9.38887841449328 0 0
219.969187473934 12.0382923020923 -6.49642353841016 0 0
24.7352380353578 3.57828668901609 -3.7433331890728 0 0
160.257248319372 6.47026523132655 22.9764220060282 0 0
37.1252423706239 14.3414072168192 14.5667007529501 0 0
181.263408840914 24.8750061545838 -14.0636741119901 0 0
175.566427822318 -25.0493482206756 0.807963175954946 0 0
67.6315461339531 -4.24832101489684 0.884581076792738 0 0
76.8653378102693 7.32038347243575 23.5688912585477 0 0
208.925027478441 36.3863974601701 -8.83839123043432 0 0
85.2400634493656 -7.61063980569496 2.39807678789791 0 0
220.611629863807 25.3282108573679 -14.2035326078559 0 0
-6.58085969743075 -2.9833956277022 1.08466836186343 0 0
169.35095575586 -16.576546739694 -11.4109082575101 0 0
42.4135807969922 14.1329720030985 16.0916334973072 0 0
101.314231687569 -12.7721884051662 17.8546059987229 0 0
129.961516796178 13.4488128368553 -0.339218380817448 0 0
91.0108429894757 -4.23977311848056 -0.751703317254699 0 0
141.645304803331 1.06435373035577 23.7476202903311 0 0
-26.7160564643963 9.87332084939781 0.0931202958015305 0 0
133.172505791478 14.6731677946949 0.916964136391513 0 0
-49.7361963756504 -2.9141627296771 1.80980012795407 0 0
156.648474966476 -19.6364845113581 4.88143922433441 0 0
42.9378779273711 -2.91331442433411 -1.71708455510683 0 0
217.599263481494 5.32831919152533 -4.36319976025911 0 0
-48.2101505584612 1.96873753185164 -4.98027556748772 0 0
-95.8364039835165 18.191141266405 9.00076797732708 0 0
-112.20724390308 -1.16329093090431 -9.40239251916688 0 0
-54.4007080589357 17.0862269090401 16.6892075851421 0 0
31.3464725412446 9.58113315214112 23.8320983721916 0 0
224.562328887777 -11.2820795955472 -13.223741186407 0 0
195.14959864871 37.245569821962 -15.993801733023 0 0
-4.54560514881435 14.8651097199237 20.3074067416092 0 0
-66.617409246152 -0.506205431651978 18.1584084153804 0 0
148.965697889961 -4.30707787164918 22.3474378060084 0 0
199.227297705118 -10.0245904539315 -24.5168473491203 0 0
-58.8228089320893 19.2879956872858 12.4741148157186 0 0
-46.9740944690748 -4.91464235389927 6.40245036411267 0 0
-37.2304670234708 -5.55444369716238 13.6051422486592 0 0
163.016848658628 -16.2604049302086 13.8765502488817 0 0
-2.30083561748132 -6.73295743389988 10.6060298533401 0 0
184.121052407972 -25.4901494801421 -16.7807925991085 0 0
83.3222078074607 12.5748709994613 6.2688927124852 0 0
43.7612577806766 11.9695571626192 21.150471535673 0 0
144.059166626171 8.0941514874773 22.3571434586734 0 0
180.613582392003 -7.88675400144293 -12.9108373113362 0 0
219.091780584061 -8.42676220405515 -26.338356789522 0 0
-9.98712733549899 -1.39760234354357 -3.59688920166375 0 0
-135.345171649264 2.79240947227528 11.2398425110039 1 0
190.308841890674 1.22903081467746 -16.2953882334956 0 0
-69.9323383358077 5.59869848608326 -7.36867795389668 0 0
161.885853249838 -2.48062485411632 -7.25731216043121 0 0
152.595803410588 -13.7265242435 -4.60689051194513 0 0
195.433020875132 -39.9489589227749 -19.7736314888828 0 0
-117.467567683145 -4.67212956613384 -7.85193431870074 0 0
191.823245736585 -22.3842106571755 13.7992152179486 0 0
-36.341602343875 17.0134814515801 18.1577109514615 0 0
-95.0055634989279 -3.22038236340937 -2.42661015886147 0 0
221.269501185402 16.046717000386 0.158824918968367 0 0
196.439350800734 -28.5141133664698 -35.7911260610657 0 0
-133.519386888002 -6.79880649937776 -12.7885281331387 1 0
179.700464066287 -6.46564617264011 19.9366239190089 0 0
211.160526377457 10.2381075967402 -17.8920834517473 0 0
3.64347325682412 2.91545054162568 25.5450415540244 0 0
-39.5720164367247 -5.46339288242209 13.6213666505817 0 0
52.9556444570438 3.16010824835358 -3.00867616835991 0 0
208.574262340037 -21.9447584461286 13.946357175056 0 0
-39.5078900468331 2.76809591923499 -5.51322387253179 0 0
157.536436167882 19.9638600024218 -2.00142922240293 0 0
-7.43096665308123 11.1746605066981 22.9238642182638 0 0
215.973068809294 -21.6886085287512 -38.3929653058099 0 0
150.474162336155 -17.8278244972844 1.3519623386735 0 0
-102.386509512699 -4.7915177551648 0.264342040533567 0 0
222.019528514707 -13.0407173518586 -28.2128749798868 0 0
151.144482545296 -18.4601912408063 2.89852817805223 0 0
-41.2540717144075 4.72345275694322 23.2880495803452 0 0
68.4001508018939 3.69812256475467 25.2009240974631 0 0
181.366246991175 -26.2715436288757 2.81005673150595 0 0
164.555231253058 -3.82010921724444 21.4779543727781 0 0
-60.8838932314465 5.92007295710578 -6.90874693807712 0 0
158.8892914335 -20.1925366179723 3.81798295499458 0 0
-124.711500784434 17.2660389305358 6.72129773759252 0 0
211.434513623632 36.4772764879124 -12.444605540125 0 0
22.5773033457511 3.94861068265191 -3.2935076021257 0 0
189.442655688995 17.5683706259041 -26.6305616726487 0 0
21.8110660183895 15.2671261346089 16.1167417175292 0 0
103.416186349231 0.00336307507551007 24.7070009003589 0 0
-58.6516025850611 13.7763080630209 -2.42655995827685 0 0
182.499796236753 33.3413263479992 -5.71118470887016 0 0
-68.0650997309965 8.62152938913293 -8.10303883799165 0 0
60.8421107188789 10.0842085874944 4.02889458439292 0 0
184.171972533685 20.1536361216682 -17.25517359954 0 0
167.184230924867 20.5156321343633 5.74547564515936 0 0
217.206512967067 -7.82959426469127 -16.0555507638718 0 0
56.4993925120892 -6.40100545349518 4.19347566817411 0 0
190.668930683888 36.0102772187159 -1.29739095741424 0 0
217.13101049759 -34.1295510906489 -26.279727549014 0 0
210.938722359631 -40.2859837459068 -14.3292044985677 0 0
197.581498775124 -33.49225640721 2.02455944228484 0 0
14.3188928871405 -2.72880545939324 -1.90660246541124 0 0
-58.7485327420252 -5.42327597586891 7.85796788082098 0 0
197.370924626891 -39.1440395117068 -5.63558136916508 0 0
189.280038436527 -38.0243628386638 -18.4468634422798 0 0
-135.240667712564 -5.89393325399146 4.62560401683742 1 0
-135.751645812129 -5.76012361523768 -13.7242297314307 1 0
225.936608064076 -23.0788313502063 -0.0847279736012992 0 0
-1.68092426071377 -2.43111280205155 -1.30278896924171 0 0
197.622614667134 38.2864508226928 -14.8724585900141 0 0
19.0561473697666 -6.77897773548402 21.7537841104748 0 0
1.34470918992031 3.96151078879867 25.4555194283012 0 0
220.563109760262 -31.6700723568014 -1.14925945213291 0 0
-96.3601137334418 15.4732907734276 12.4355032810723 0 0
220.419587155302 25.0503209129586 1.7629584843789 0 0
86.7131976442439 1.73968321317939 -3.47851383759891 0 0
183.048135955646 -10.6949534841151 -14.9425022771531 0 0
-103.302762139538 19.1219202070347 6.50396583463458 0 0
61.2050987317002 -11.2327834813809 11.6597822543225 0 0
88.6960120378598 9.43402569881937 1.02345870264076 0 0
7.41798541500441 15.9753621253622 17.2575405903063 0 0
-44.2730580574812 6.24237931696936 -6.74675414677088 0 0
72.2792141812939 8.23284571208039 1.30229594956285 0 0
191.981907795076 -32.3798614274373 0.812334708576408 0 0
178.000773093145 -18.9994327391524 -15.0066312085275 0 0
-9.98721422472953 13.4662853644607 21.3757001726666 0 0
111.289792862029 -14.2530179154904 15.576940909507 0 0
175.420685758349 23.8927097193244 -8.25811011269363 0 0
194.7180744142 -2.75842341722342 22.1535972572615 0 0
-135.605854524647 17.3252338161469 -15.6613014264706 1 0
221.187891861918 16.7973217646924 2.316690457354 0 0
211.172071881132 -23.7935278119476 -40.2965501408934 0 0
-69.7272888292917 9.60238934218732 -8.17740790286079 0 0
218.908676597227 28.2217214181902 4.74248704884663 0 0
-78.6279081776771 -0.0941694207967292 -5.94320943486563 0 0
197.773737542715 -9.88734262782485 -24.6640882439832 0 0
193.547225261108 39.5172270494163 -4.68966539182689 0 0
189.313914630096 -13.4696223458218 -21.6865255977932 0 0
114.298494183164 -14.3880578016349 15.5163237653387 0 0
-92.8581317706872 20.6744407360592 1.51948092809959 0 0
47.3816259845585 -6.93851704492288 5.53764954127683 0 0
149.50180454604 -18.3816464449404 4.28427921909305 0 0
23.5656598530053 -7.71208465880442 20.7895951465734 0 0
150.033510385234 10.9381215922842 -6.76225421625154 0 0
31.7004187114375 5.92065816505113 0.116870010100513 0 0
220.557717106093 28.6752942049959 -11.8133032023402 0 0
222.426148211106 -32.9611317937491 -21.2856814839428 0 0
-128.696407511516 3.54160513275865 -14.5792700929541 0 0
-72.7904633877836 13.4859660594856 18.0603924770583 0 0
-94.7328440712498 17.1082198280701 10.8749653513002 0 0
-71.8371760550514 14.6119288201381 -5.01589363868181 0 0
113.834708614605 -6.52172408848663 -1.41397743324317 0 0
129.721240635014 -16.2015449316144 8.35179075908361 0 0
201.369234986059 24.005592589232 -31.7452797992512 0 0
217.642734515269 -15.4002918634757 12.1984970800601 0 0
-123.587687751651 7.34361919295488 -14.5896790696939 0 0
-29.0978253021921 0.0109384586124865 -4.55804618480853 0 0
57.2556358456427 7.24405805605719 24.2950205240561 0 0
76.1247468847556 11.5254788701121 5.19057093664077 0 0
-83.4371984041561 -3.89537314011802 1.14959137849738 0 0
-98.9365829061218 2.67078625830378 -9.22679275791067 0 0
-54.930018598505 18.2939017674552 4.53317775506459 0 0
-127.253921242962 -0.188210805352445 -13.1913733225021 0 0
87.9236613474691 3.66530761776906 -3.65604928601903 0 0
189.962246473747 7.70111964871393 -16.2025342455051 0 0
-112.709396549027 12.3020881111299 12.1815305484725 0 0
212.138954957264 14.628314888714 -23.0733876017935 0 0
103.040312988239 12.8374204285814 16.2297970362225 0 0
178.184152702892 -2.26365935167404 20.1523936594101 0 0
215.751496921759 -14.7142805147663 14.6594195487668 0 0
187.596719484038 28.1366082980648 6.01830003225214 0 0
211.038154854975 21.568078521446 -27.6412219347709 0 0
9.35923918246465 11.2466009310031 22.9236842516089 0 0
49.3240362699463 3.30531405439406 -3.01007814813828 0 0
142.748183123529 16.4669217539037 9.30140473579671 0 0
197.125411258436 -30.7680316119754 -32.6660287086541 0 0
169.92660969937 -23.3632858701396 -2.17677324063791 0 0
89.9175252048442 7.2295791464241 23.2212003263111 0 0
-87.2365152823397 -3.29622176705923 12.2376405494938 0 0
-100.002684854369 19.8160621496938 -2.06054960183164 0 0
-89.0829045449847 8.44128094312649 -10.1217587962435 0 0
-113.820297004694 13.0155185793368 -12.6145639849654 0 0
-88.9549820933383 17.1710533459934 -5.72758666146377 0 0
193.489059730045 37.1526832843371 -10.9117632970938 0 0
153.286500611888 18.4801160125287 4.72991829596512 0 0
186.631490761624 15.3363667705274 -17.7787801281774 0 0
86.7381192019097 -2.92706260323966 -1.36411238869511 0 0
188.031004176409 11.4163465469884 -16.4887782207824 0 0
53.9625360147402 -0.167826008390834 25.3732957246613 0 0
87.5209384589875 -13.0733042632334 14.0361497579959 0 0
-99.6692068095506 -3.65101650913904 -4.11497414088599 0 0
53.4328806028753 -5.91523328890646 23.5717466821553 0 0
-34.9391658485904 12.7985688523726 21.5561668380541 0 0
164.911990041154 19.498103464142 7.56268068107691 0 0
-97.2608437033036 20.0115827990395 5.46354435092883 0 0
188.515488214261 -33.9773823302824 -6.73391491054366 0 0
199.811194118936 8.45822971105098 -19.3245977275211 0 0
226.792906467227 -15.532539034789 -14.2810701045937 0 0
206.701927235703 32.8105598689614 -29.8408368421832 0 0
179.636808964411 -17.0323765351933 -15.8319049797351 0 0
96.4256702454725 1.72463298723109 -3.75251701387666 0 0
52.6129061012897 0.356206960433174 -3.83973826163689 0 0
76.1201975981862 9.92198461218237 21.6195413851937 0 0
111.444374569844 -7.10197319113479 -0.838141226371935 0 0
212.928987239915 -7.80067517121588 -25.8352561186165 0 0
4.03641369030223 15.4975041913291 10.2327670539422 0 0
82.7176453264057 -6.72959460956147 1.95744425990063 0 0
220.772554059371 22.8118216045236 -12.7856266798238 0 0
-13.2249519249079 17.616563860496 11.5217079830757 0 0
198.401311529784 -21.1712880139702 -37.8321988304362 0 0
-78.5427260963906 -0.598657332803655 -4.31751443238321 0 0
-7.38725252418048 8.5397989505472 24.2501843851866 0 0
-10.6277134774077 16.4415802868581 10.127613870288 0 0
188.75008261445 -4.24225946792827 -15.3880010001531 0 0
1.38938900195681 8.60032976129787 24.3485081911606 0 0
34.9257679633873 -2.82746742905668 24.8470654948167 0 0
119.068705681369 -15.5298319146282 11.800842251328 0 0
146.239083692248 17.3253475511369 5.60151639733875 0 0
-40.5968831437068 4.18616806455216 -6.01579263598107 0 0
109.65818091357 6.62466941857746 -3.70662939990428 0 0
12.6176869117219 8.66847966851575 24.3905937857049 0 0
-102.188134325142 9.64207722533394 -11.5610715118789 0 0
139.234620647449 -15.5157283813761 1.97974126639478 0 0
-133.050641880786 2.07608612091526 -14.9701702313994 1 0
189.216260551489 -24.4163140897443 -27.0500176652676 0 0
-2.80139749978273 0.809275759370956 -4.48420752902459 0 0
2.85605882672989 2.12377555385231 -4.99457991864981 0 0
224.066649346171 -18.5132186132379 -29.2619512628941 0 0
143.563904215633 -15.4676893116493 0.431958007600599 0 0
103.259147577389 -11.339053547005 19.5469940198841 0 0
-36.0362126084541 17.5441123490846 7.5127678606415 0 0
203.794801449311 -10.7630763958983 19.9871670094858 0 0
206.46160035533 6.02490132965023 21.9006720327724 0 0
140.869851289716 -7.25440770730129 -4.04500743404577 0 0
201.426132650095 -29.49400515917 -38.5474421308105 0 0
37.107500136683 5.42611784299848 25.3660345557669 0 0
191.048644617383 -15.73486070921 -31.1706353861728 0 0
-113.171926102203 19.7448033458345 -6.33153211734344 0 0
50.7423429818583 13.26084022609 11.3462282569581 0 0
188.055432184152 27.5528806894999 7.79393414862983 0 0
189.696193547754 29.5113930352867 -27.0110682314916 0 0
-71.7500918791228 4.73229999285686 -7.07525463192636 0 0
203.074857335974 -20.256838460281 15.7371123333724 0 0
9.6820614626524 8.36433715562165 24.5619024775414 0 0
213.639688370477 -31.0825093177761 3.84357125219604 0 0
212.804210027076 -22.7589468681859 11.9565783101191 0 0
218.069689714082 -7.24815196826113 -24.5695329652824 0 0
107.215639497591 -14.1293466470307 15.4371781658811 0 0
-88.7152177713621 0.0768046752264724 15.4816884912291 0 0
128.192461570156 -3.95114977620951 23.2337017146602 0 0
117.287379360602 2.44316654667881 24.3169087974585 0 0
195.384180903336 -29.9369803163165 -31.5587696975236 0 0
152.410572122843 -15.5374599174771 -3.4940700070852 0 0
-55.1338743485299 1.39035507562426 -4.6556930742561 0 0
196.250261533038 -9.4147643780447 21.4529864521636 0 0
1.54379081218458 14.6549099041065 19.9568095576599 0 0
18.9634833525256 0.55831874469914 -4.80298049972043 0 0
-55.7896896242431 -5.19262528489264 6.90002613502938 0 0
14.1998236962058 -1.28346760406455 25.1848459492164 0 0
-83.9110497188259 1.35254189957068 -7.31166170825556 0 0
-40.3706743792505 16.1442897125787 18.8338817247772 0 0
187.563192047273 15.1459791308302 25.8972397962397 0 0
182.301331874847 -15.7245445494165 -16.3801013593594 0 0
16.6449229171236 -3.65753038746282 1.87759457415098 0 0
25.1080936289697 9.28339805672623 23.9717599240652 0 0
-115.37581912834 13.4819313325941 -12.4191524923844 0 0
186.767204815018 -3.90991111690341 -14.4303126261514 0 0
-56.4440780168828 9.00545233039286 -6.22060437916409 0 0
193.432981612788 -14.0992425425417 18.96837726313 0 0
217.329626176743 -24.4702150372392 8.85495127977008 0 0
153.315418386746 -19.0572684483021 3.73820564215979 0 0
-84.1450609752811 3.42851372876737 -7.47284683728798 0 0
189.3483585825 17.9122443786444 26.748541871462 0 0
212.983003813441 -29.9156270483108 5.4650971120848 0 0
-16.9941521264709 -4.51703030020039 5.50413788122989 0 0
-90.6494573842459 -1.87226509698645 -4.29021206043177 0 0
-95.3720081007268 17.2802662966414 -6.86816276153774 0 0
165.042906811798 -21.4979021155879 3.54704989738025 0 0
-114.18434012911 6.58889630060142 13.737162600572 0 0
205.085955726631 -36.8411681487029 -25.7410214462399 0 0
220.285672864754 -30.1524358165428 1.79914719341474 0 0
41.1973910514514 -6.84478511876843 5.9632611658934 0 0
85.1344054775975 12.5013667901531 17.2165556901819 0 0
52.3025700810633 -7.71819550080857 6.01303686380595 0 0
194.50354676086 34.7031955665795 2.17567006293868 0 0
175.587902502064 26.1072452335657 -4.76153836906363 0 0
219.697347112786 -12.8919246782729 8.84180327637862 0 0
219.043772202002 -31.7760076624263 -0.648881988682755 0 0
181.688052100998 31.576790547343 -4.13477185218567 0 0
-42.0341554447246 19.3848238405477 11.5211747918123 0 0
163.994615271729 21.1643711720088 -2.65278862301282 0 0
134.846660207463 -6.28177310298266 -3.73057268318649 0 0
-20.6380897389676 -3.80542083333609 21.3871978483105 0 0
-82.5237936803146 -2.22683984011804 -1.57640522988547 0 0
1.17994311228492 1.48085533346775 25.4144752784252 0 0
-97.7810629556105 13.1819552030238 -9.899924891235 0 0
177.748430418547 -7.71685809138827 -13.0658645920073 0 0
185.2857881726 -31.1137290997226 -3.7455904709073 0 0
63.7236462214893 12.1428094661986 19.0506975947906 0 0
213.810658949491 -8.48429822986275 13.8053460880839 0 0
219.256362893204 28.6529839111933 -17.6973779070929 0 0
222.815723805137 -10.5946677233095 -21.8425139203154 0 0
194.800869407458 7.61199542835882 -19.5638883178777 0 0
151.75844612549 16.3094576702917 12.1759702280137 0 0
-7.93822990153848 10.7818784675202 3.35670079743775 0 0
20.4592225863378 -2.91722457511404 -1.33029274348262 0 0
-115.55777506341 20.4867499065944 -4.96873151022692 0 0
69.9945457168643 -9.97365727732808 20.5766755486401 0 0
73.480474934164 -11.5647730873686 10.000347440926 0 0
168.003091411233 -19.0232752072256 -8.17748926259525 0 0
220.156992013465 12.9424581992609 2.16072252051492 0 0
202.898549821526 -3.31780626758372 -16.6114121194515 0 0
198.553368415063 -40.9256546976632 -15.9679958176377 0 0
-26.5858726019627 18.9976358368159 16.1669268335171 0 0
-76.2688222005607 12.0148341148124 18.3976324774418 0 0
-28.1811747094053 17.9790076877517 9.67380624024191 0 0
-74.1702161013754 -4.0819151555103 2.56548537282377 0 0
217.85016819671 -34.1178006753909 -23.7622438791636 0 0
-35.272622402375 -0.538184464393098 -3.68038238383628 0 0
42.4374983605813 2.69533614710506 -3.87616466411665 0 0
216.673723617561 -31.5046282204739 -36.0567780174691 0 0
219.560439436181 -8.26213693208244 -24.5707753632218 0 0
130.005729849991 -2.04401517858341 23.6833515494949 0 0
-43.4527708274291 -3.94887256804173 17.1587253766877 0 0
226.909130105373 -22.674187003476 -24.2284704041913 0 0
210.844311245518 -39.1936122970377 -10.3718187128692 0 0
185.878058414471 30.6015267301846 -17.5870507457424 0 0
154.373301153288 12.4777609450385 19.4831564859934 0 0
41.4403315787878 8.16340705040004 2.54719323790567 0 0
147.582808768354 2.75268565004983 23.5777961027697 0 0
93.7784834627943 -12.7843957127545 17.1887608590411 0 0
67.9360388934585 10.7647107422088 21.0400652495683 0 0
191.615998265735 -18.0080397749047 16.2801931177089 0 0
57.3688141339584 4.68434342663914 25.1720848754195 0 0
184.544064734383 -30.8016827730071 -5.27999040579277 0 0
183.586394002942 0.449186984564485 -12.111815954679 0 0
-64.300406678195 7.43253891986962 -7.91003725391817 0 0
191.443733338458 -38.0120108141199 -12.3951621404643 0 0
-108.387517947442 15.4780452738264 10.4673897694655 0 0
199.2323552661 35.6360968786474 2.12017077380746 0 0
52.2353295951391 12.176667991162 8.08312901084185 0 0
209.278403598414 5.16692148142905 -11.1986772230381 0 0
188.54401022837 -30.8927801694938 -22.4774634976334 0 0
-121.834322594386 14.4813527678237 -13.6848219705664 0 0
174.200787222982 -20.9258408059252 -11.8314638371068 0 0
146.558211931816 -9.86849524233437 19.7337224472125 0 0
12.4692549084039 6.26210109977043 -0.141712837464101 0 0
35.4952881498906 11.549248584244 22.1773815738299 0 0
5.56409797270888 -6.88124341593816 20.4138100060693 0 0
-124.434322599668 4.87046221049302 -13.8796845444955 0 0
-27.1910614326523 14.9808568021835 5.78428089776831 0 0
57.6081671482388 -11.0259028999828 17.409523559258 0 0
141.092549848215 1.77226394856927 -5.9441880450906 0 0
-103.030526736009 2.50573166122812 -9.8380524657054 0 0
203.565709226793 -9.91436964162927 -36.0224334357091 0 0
191.21947095591 -22.4807818125607 -32.1960938473272 0 0
-86.6806664769299 12.0864873188097 -8.98224154363531 0 0
-7.66935594723291 6.79860721844703 -0.887468109653871 0 0
80.397949834595 -12.4866580028517 11.8534034282208 0 0
219.027540505364 7.83576306976871 -1.63889019590815 0 0
