"x" "y" "z" "f" "a"
-115.280183357533 -3.38249028160028 8.39986369355329 0 0
64.4904007690346 -11.4680102448514 -11.2545304330807 0 0
-23.5380805186382 -8.34492468711028 -22.4712951952728 0 0
-18.0088096005077 -3.67971659881681 4.98028846611667 0 0
-83.5139229131081 -17.8236212251123 -1.42497329750687 0 0
-203.073824267365 -10.4824746884955 22.3346847130347 0 0
73.1235947311264 5.35846898520911 2.40795329809267 0 0
-111.025638671077 -3.43775323605422 7.90420914928099 0 0
-78.715950069062 -17.2158995411221 -12.6727248620167 0 0
-45.59993532949 -6.88628250422111 2.93804078259645 0 0
-195.090907328134 -18.7169074432404 26.9605043313497 0 0
-202.403256129699 42.2584483974591 6.98648574816406 0 0
50.3432762728726 -9.40821916503471 -2.03613204577764 0 0
11.0408732874509 -11.1415705691661 -14.5900649739877 0 0
-81.9901202595133 -7.92051838574619 -22.3637147187685 0 0
-201.721696602603 -21.0075237102478 -11.5440493810711 0 0
136.209071270268 19.02059904005 2.90113992297453 1 0
-215.1384819936 -30.5584347134634 19.1644463497304 0 0
-31.2028564625875 7.76492758347357 -5.57570654108883 0 0
-43.2106886910481 5.91560291345829 -21.8936155160015 0 0
-223.47102366668 -19.0707642051439 -5.45803899479213 0 0
-205.773882459987 0.458929559768101 14.4086720882628 0 0
108.010894962621 16.4019113963486 -16.1650252731055 0 0
13.217589782473 -4.19204301529914 4.15126565793398 0 0
-205.004689664138 -19.1853963602296 26.9371616484916 0 0
-196.591321127232 -33.7675211387031 16.1982730155234 0 0
-195.392607480242 -32.6971460001349 17.124939587567 0 0
98.9342497454137 1.17200085611034 -22.1386982672359 0 0
-195.984697293008 -38.4865333396652 7.7233660800343 0 0
96.835167849329 19.7211926838226 -7.30553699942942 0 0
118.340527819711 2.99099793647473 -21.9744604420338 0 0
-204.033203456134 32.3841724491362 -12.3109622100653 0 0
-22.7407483387806 -12.6145387781226 -17.2067235824714 0 0
-181.165172192199 -26.243504578607 -6.06720960214719 0 0
-33.7278427588749 7.27168030823138 -4.91027393494714 0 0
-206.94369286878 48.5692320016034 3.28537712251706 0 0
-69.1354174886867 -4.0609053901536 -23.5701340888676 0 0
-223.688455852538 45.9511366408235 17.2559662398691 0 0
-204.29886145065 0.340481084354661 -11.1793441921654 0 0
10.1897799344863 9.23441555361163 -4.77952071601709 0 0
-211.201736527358 13.1792823374682 15.4207384391141 0 0
137.598960445863 -8.47863317809702 -20.5387473173376 1 0
-210.587569466508 -15.5976104727895 14.1330815088115 0 0
-117.242396956335 -22.762268939987 -1.14850236942615 0 0
-106.869295209217 5.10098404036495 -5.74250375966106 0 0
-189.296701219603 -2.84722998814612 -11.0077416402304 0 0
-137.767966690863 -17.7115666505975 -10.9099406362892 0 0
-191.349574079106 -29.9185353022991 -8.13972792360823 0 0
-217.057556119662 -12.6367984913891 7.95919378175933 0 0
-198.839104718217 -31.9107703971805 -6.59105544222602 0 0
-33.6118157343009 4.32283483917133 -0.522947303910526 0 0
-10.9066256086043 -10.2447876700129 -6.28055717101447 0 0
-208.305638833324 -26.3313469769691 -8.80120057922927 0 0
-181.718214735234 11.1228882769191 12.9362051200561 0 0
-136.524851171675 -16.2361843057196 11.9519132293629 0 0
-202.680043862784 43.5177129797354 -4.55770256340449 0 0
-213.858014642363 -6.5299519496478 7.10220139396461 0 0
119.949085841579 15.5366995159601 1.3716413261781 0 0
-76.3935358027633 -1.78982578724119 -22.7411341645739 0 0
127.631830764004 16.9721248704009 2.07029991296538 0 0
-104.423356064164 4.90146261487993 -2.18941425582274 0 0
-217.520423207747 -6.90662431136629 -5.48010556372487 0 0
-185.475943368475 15.7331735336616 2.49871429249929 0 0
-215.077726624274 -5.71360746387693 6.54762957159585 0 0
-227.251012665051 36.0749391451192 -20.4615118994618 0 0
-107.411900227332 -0.500577453947165 6.23516908290905 0 0
-199.236377969584 1.0677286733683 -10.482897579633 0 0
-157.265743837032 -24.0019705313977 13.5271460998756 0 0
17.2070220132732 13.1811021873721 -19.3007929849388 0 0
-68.9027986856477 -14.2373147780739 -0.947208006762543 0 0
127.089515856099 -3.83894103432553 6.14735818159562 0 0
-42.9586413841326 -7.18294438703407 2.11968685705754 0 0
105.938841100936 -6.2454023209559 -19.9852641495143 0 0
99.5294939926632 14.3250865904518 -17.8196650817359 0 0
-36.6737270979528 -13.7432004489201 -16.8580012111421 0 0
-218.762039909684 19.3490177988569 20.6058058541792 0 0
-78.3204588531158 -17.2989595154585 -4.02535201129654 0 0
-222.703090859125 8.15822223289241 4.8563394243819 0 0
-210.406106459384 -32.5110263127535 17.7978698897201 0 0
73.5689927167132 -2.5628933629986 4.83947013963105 0 0
-46.3075856683335 -13.0635403086464 -5.72170775320279 0 0
-118.987817258604 -16.0300083825112 9.36683756173837 0 0
-166.879997337644 -27.6145067929257 8.40451124980787 0 0
-242.847317709012 27.2260571292824 1.03314820007449 0 0
-218.952375808437 -5.98571656648569 -1.3141071736504 0 0
-215.352892762504 -27.4720716896885 22.4895869524607 0 0
-82.9190922961017 -5.25391939171733 -22.5387769819035 0 0
-109.992218794723 -1.12672716760204 7.12488535510544 0 0
-210.814062080694 -35.7365268253078 12.4076646898397 0 0
-64.1039522720199 -16.7665802830998 -10.9360150492565 0 0
-56.8945503128419 1.41591494322374 3.4870520721377 0 0
-100.227003897475 1.14665998868842 -15.9876931030526 0 0
-163.870134654781 -8.29349421768653 18.4578917029398 0 0
-163.892766631014 3.08505194131366 22.0371226341871 0 0
-240.091129127759 35.5445458326994 11.0716935487075 0 0
-176.774479050588 -11.057094672984 22.1327595584983 0 0
-151.752507614767 5.92540903777876 -6.39707193950226 0 0
136.515561533939 -18.0186753901143 4.01197820850342 1 0
-126.467434755274 -3.74168825841074 -15.1736616800568 0 0
-177.646842060739 -16.6333490362932 -9.06687744221167 0 0
-166.643295505626 -22.5671660516583 -6.48119411854541 0 0
-190.996436836013 -0.849059354110145 19.075836717278 0 0
134.467426807066 -14.4166540778032 -12.9814501462137 1 0
5.58147966781855 11.880830440251 -9.4355182440929 0 0
11.820388464284 -5.13090030485818 2.47269283560224 0 0
28.5383159379391 -2.21325855085842 5.01825746065654 0 0
5.7145208538739 -5.66364300065492 1.40596124534987 0 0
-163.38833680068 -2.5852421108542 -10.0455149138052 0 0
-212.218300785876 -10.1108619957068 9.66240605812622 0 0
-214.086278030771 52.2338663977068 -0.429548685615013 0 0
-209.464795173765 -34.2355800140991 -4.72429772835892 0 0
-201.652901051287 36.2435073555045 10.827156161792 0 0
9.16839413856532 -5.22455305926405 2.22720622765333 0 0
69.6795145870549 -3.04029265555076 -21.5339165713142 0 0
-20.9342079141257 -4.78073335763823 -24.0115013431066 0 0
68.7432389117802 -6.3355736556049 2.89636584255602 0 0
-221.118346671528 -20.3001925934467 -7.08001297532542 0 0
38.2684712864058 9.86745642310714 -3.38001429999533 0 0
-208.836880875668 12.0928688843316 15.0222929876153 0 0
-194.069762121252 -33.3835599161956 16.0294604737889 0 0
63.8214765344505 0.293596806533505 4.4869811150871 0 0
-220.475931892874 -30.719977682575 14.1168577466732 0 0
-221.104382053181 -27.3076810887098 -5.00461884487846 0 0
10.664755397955 0.689616319046827 5.17057714803075 0 0
-209.938456135631 -19.3407177982135 -13.3559254488297 0 0
-208.436562217322 -13.4454289399679 13.634924011549 0 0
0.238357965675895 1.27155323489828 -24.4233327657033 0 0
-236.543136267673 34.1243973319985 -14.5112634555988 0 0
-159.058326416207 -26.4386065305153 4.66432310829585 0 0
-30.9219526003092 4.91699675835044 -1.2428640447751 0 0
-96.0277007464626 -12.60419213651 7.0964322452897 0 0
-205.221935478976 -6.19751794463013 14.7692608692287 0 0
-6.70165002782703 0.00956256547069305 5.63461035733752 0 0
88.9265599805532 19.534368724023 -12.0262162932758 0 0
-150.989026683781 -24.9505494072827 1.24828726882492 0 0
-112.917317425535 4.74157553404137 -6.19201092826167 0 0
98.2726525788477 -13.5172272156406 -9.43435555146303 0 0
-0.255990513763489 3.69913420342503 2.61383747355599 0 0
63.7994618168103 -3.54436655367649 4.73342104002824 0 0
-223.625976674155 30.2318976042546 23.2073719890296 0 0
-27.4598307236908 9.41310169422783 -8.40552448565407 0 0
130.232207596765 1.82634550959045 5.99234493846247 0 0
-117.12106454889 -22.1927977030163 -3.7723439875932 0 0
-208.342148683184 11.1987198307921 -11.8567766253971 0 0
-136.587184644326 -3.31292503690371 -13.236340399584 0 0
122.986783613648 -11.9117445746816 -15.7231987327321 0 0
-174.785335220544 9.39044039502436 25.4658616686718 0 0
84.0996663492452 16.997865121419 -16.0223500123174 0 0
-94.7068016354527 -19.4193857617517 -7.5004702892831 0 0
-205.025375125 30.8163306393863 -13.9347902495991 0 0
-148.342306669244 -22.3203200840576 11.7217877909928 0 0
-206.657728328471 47.1075196061825 -6.52649874297678 0 0
-59.2994680356307 5.55946829574499 -3.35840409403855 0 0
-192.55328189999 -36.9587662340082 -1.59993357457644 0 0
-177.839733531231 1.26281949035809 -9.19164991612374 0 0
-222.563122846836 36.079996899988 22.6639151745603 0 0
-21.4621491902443 -8.36930661296958 -1.84866458076644 0 0
22.8408425359355 0.520923468336581 -23.9496968530024 0 0
95.5300687567031 -2.33336078676789 -21.5653064240622 0 0
-200.424634921556 -23.0355533786693 -10.6932568959665 0 0
-180.022943579915 -13.4650389769341 -9.2568237095884 0 0
-171.164001826638 0.578522338283006 -9.87496100822297 0 0
-81.3866569282349 -13.2038009964811 4.48667878291383 0 0
-222.608746071798 -19.6626950051994 25.12406005923 0 0
-50.8212643003751 0.314661695491803 4.49398989265897 0 0
-237.511170968641 15.3986190058611 1.72797040190029 0 0
-17.3145941310164 8.26292675439783 -5.54315859844141 0 0
-104.816239434949 -7.74301594782861 -19.8309683567334 0 0
40.0945702721168 6.08052958614229 -22.4541714241095 0 0
-73.7569789566127 -6.70645778084752 5.71529458479908 0 0
-164.0375853904 -25.8346779729292 12.2226172163124 0 0
-124.723171902799 -12.3385902888943 -16.0107651315222 0 0
-178.706812024644 -0.333170183032399 -10.170204847804 0 0
74.9787250956747 -10.0896543181258 0.0506198682537607 0 0
132.021550975162 -13.6190252479566 -14.1301329184441 0 0
-179.173999594511 11.8728377878327 15.7831709841169 0 0
-210.270095445944 43.1488138707227 -15.6086376558642 0 0
-214.826853077909 -25.0449372539782 24.6910811546248 0 0
-185.192429012317 -14.9162746689115 -9.40893738354872 0 0
-171.419920059668 13.8951573504769 21.5489101179128 0 0
-180.123573120494 -5.29019566606143 -10.2606269247437 0 0
-94.873089504021 -16.6612950314389 -14.0551867561072 0 0
-231.404537397719 44.5456057374677 14.9973391973496 0 0
-185.272789062633 4.76944428031099 17.933683946564 0 0
-219.767633863942 50.0120228495126 4.31319437764885 0 0
124.210542646181 18.9725460847237 -0.430843754119892 0 0
-60.5525220950583 7.42156192707435 -14.7573247682662 0 0
-45.9854054592905 -5.39160241168264 4.14070914135796 0 0
-172.948354208157 9.2168293343416 0.765033666497734 0 0
132.929674179096 -14.3677870507144 -12.7543076051092 1 0
-180.623558297285 3.48807804647573 23.6971188667177 0 0
-212.912413375113 49.5821696109537 10.1461976861048 0 0
132.48313322956 -12.696230207209 6.53300146049028 0 0
-94.4574931516611 -19.9342468665113 -3.28088667537384 0 0
34.5771938670713 2.97006387814996 -23.3015815210049 0 0
-237.440237093675 16.5827824882106 6.91901306432745 0 0
-49.0113770650876 7.41615976980599 -18.9547598968231 0 0
-181.6509697748 1.25613430448817 -9.0729689957455 0 0
-8.92877524462199 -12.0213260720563 -14.9705143548655 0 0
-65.005628813856 2.94832420954588 -21.5803665694834 0 0
-97.2561684531041 0.0902738091181824 -17.9097864191814 0 0
-62.3021964045749 -0.567675558896504 -23.7191664901784 0 0
-73.1947449517309 3.42227439530411 -19.3995240502102 0 0
-63.6634144859729 -14.1990386951161 -18.3449839443474 0 0
-208.101832264646 -9.79173846417825 13.8019387188228 0 0
-27.6299842556943 5.46069617928822 -1.8444392844171 0 0
-64.9487026726776 -6.6200770386514 -23.5873914481461 0 0
-49.4758084588893 -1.80973108952618 4.83071678751169 0 0
-216.026813613373 -8.7513425280304 5.15314463801543 0 0
-133.714921993314 -16.7419692021855 11.6168769905936 0 0
-129.539012205824 -11.856970298075 10.8307579424252 0 0
-104.530689175364 -20.9482754157074 2.10622040677573 0 0
-180.385565001328 -20.6088024802178 20.1913886657038 0 0
-218.809345850261 -15.7964548135604 -8.81107245073101 0 0
88.481699632902 16.6197079857637 -4.27146887407547 0 0
-209.218786502957 41.9317213196961 16.896629269257 0 0
-47.8359766607547 -15.2042954591634 -13.7030286895607 0 0
-156.975951322009 2.95519869132701 -9.26838821151634 0 0
-199.410492971564 -38.5798169557306 8.51243798781435 0 0
-29.0745801959971 -10.5735785554588 -4.22417000484297 0 0
45.2073496774319 7.20231390762258 0.640621977310034 0 0
-228.564739125009 16.025692643123 16.0523894503033 0 0
-207.39489382283 -4.8646807213002 -11.7822077626531 0 0
-7.06541534871594 -8.32878506449331 -21.6760955511365 0 0
-223.483167094877 -29.1928844121815 11.3945768932632 0 0
-8.28351854503233 -1.12326847283521 -24.5960620161818 0 0
69.9621412677652 16.1825874433048 -6.69897629352746 0 0
-99.0832722933746 -17.4872532244967 5.22783689973413 0 0
-208.417378567152 -15.799112509006 16.6888568805258 0 0
-222.630010562837 -26.1741667223721 19.9313420001578 0 0
-6.3173701655043 -9.44220421078682 -4.95498222843113 0 0
-70.039516719519 4.52646560860506 -1.73726093604261 0 0
-172.147454219306 14.9258806059944 19.5482414798394 0 0
-172.80868343541 3.42906453193118 25.2094214299177 0 0
-222.464227425701 10.2240071595734 8.28043795959024 0 0
-156.318130074604 -15.6383474618848 -10.6404020257427 0 0
-226.722757403429 -21.4794405714722 18.371791987308 0 0
-53.0458998282139 0.0852575292776363 4.7382341672637 0 0
133.625343015471 -17.4834474632552 0.896515743336764 1 0
-182.28027969953 14.0585126458876 3.14880349697657 0 0
-234.18162754374 44.321006121495 -10.7982820549519 0 0
-2.02701457917188 2.34997550271505 -24.3297283292716 0 0
-168.376760188411 9.04557444623268 9.10045669247654 0 0
-170.966473656786 -21.0036777077254 -7.89643706012337 0 0
-239.878017094749 26.1385533123876 11.6409737573267 0 0
-162.136300012249 6.77977095054196 7.39110421814408 0 0
-227.271879578904 -25.04640186656 1.17282307272764 0 0
-15.7249260405026 4.43916652127587 -24.0353250882394 0 0
-110.279818381162 -3.05092710970179 -17.9306518290324 0 0
-241.522295375974 22.0735991953991 1.99323026170804 0 0
-23.3211279962489 -9.34770891873863 -3.13933274745636 0 0
-204.469744530003 46.390258192795 3.55297781304232 0 0
-101.838450927942 -1.62113836449298 -18.5978841379525 0 0
-237.89859656247 29.1700449054746 -13.7674396541873 0 0
68.7335806778769 -3.07624398161572 4.83702006995389 0 0
-202.861368360023 39.983317689685 -9.50817255490698 0 0
-228.375821305689 -23.3821489407421 2.334722654068 0 0
-160.67491350583 6.44168263748418 17.368538284958 0 0
-121.946568325905 1.50614571477237 6.45208966786069 0 0
7.89120441977884 -2.40792276212418 5.2604350823143 0 0
-240.101641850648 22.0921485379063 8.45237002070902 0 0
-36.2245382902082 2.00018810793011 -24.2769423789443 0 0
91.15396223138 -7.29935710429002 -18.9215450981806 0 0
88.107617344627 0.484470553640733 -22.0533242134781 0 0
-118.846911380627 -23.0591698767099 0.0745083962403756 0 0
7.49385081797682 -8.87065465158059 -20.6253058759788 0 0
-196.498671530899 -2.30069362046674 17.6857081723809 0 0
-222.140709019385 50.3407487355705 -0.341536379769143 0 0
-210.806834912694 50.9749151156407 0.624427702925621 0 0
-168.29425123756 9.58436893966962 11.2674858045978 0 0
-205.076405577008 -35.2035508581871 14.1869795655918 0 0
-157.866518976835 -5.47512208803782 16.967530839417 0 0
70.2924705996744 -11.9802966279181 -9.97911555551969 0 0
-189.581885386639 -27.9614415308374 -7.8930935396452 0 0
30.4863137771075 -10.8124371249224 -11.1526075309482 0 0
117.575802583506 -15.3860066593663 -0.937303353458128 0 0
123.843346012705 -4.75244310919222 -21.3413784217345 0 0
-242.502687443747 34.0071066790743 4.87712174147718 0 0
-73.310817109584 1.71206940654781 1.97474905338033 0 0
131.243062797803 17.4661701490851 -14.6998466667519 0 0
-236.878665886736 29.9062785051391 16.3722387137492 0 0
-42.7051969106986 8.81585469755239 -17.6015631767418 0 0
-14.9585156581307 -9.75133867542376 -4.82158816607512 0 0
11.5339223829764 -1.77939014123601 5.40920200884281 0 0
-64.9421033627634 1.80147831573415 2.32702112800035 0 0
-216.688693847936 -13.8199789896703 -8.02339349576872 0 0
1.84283092513377 12.071233393498 -19.729903966362 0 0
-199.918921515791 17.9439660077371 11.1392623237096 0 0
-47.5538675026859 8.92112149871439 -13.7220382105682 0 0
-195.263708550107 19.8065212189089 -2.98317948912928 0 0
135.706535829866 8.49559682066259 5.90039753136532 1 0
-91.7538725218897 -13.63256630009 -19.1229796143366 0 0
-207.963969999427 -3.90143891696445 13.769362206732 0 0
-224.185916628685 -27.2144096650904 6.34249368732377 0 0
-124.410476386167 -5.51089690874751 9.92419424448686 0 0
84.6285594793908 1.07853878921019 -22.1344603218827 0 0
-17.5458045591439 10.1287002455128 -20.3897377726246 0 0
-33.0658925725367 -12.6543578091787 -7.76806886494951 0 0
-33.0575114498451 -7.60293034081679 -23.1716872104219 0 0
16.6284221389945 -6.42370223886079 0.151347314082556 0 0
-190.878568937107 19.4047471111183 3.33348328000388 0 0
-207.943087847995 -30.3355056413819 -5.80487397520469 0 0
-139.001440715665 -18.8373193934049 11.8926780100002 0 0
66.1614464943075 -6.57070923497132 2.58773720495449 0 0
-9.14859870216669 -11.3742261745467 -17.9627515934007 0 0
-0.303917741440002 -10.8907084664823 -17.9508090896842 0 0
25.8220418162406 13.6469252776819 -19.2145484312011 0 0
-213.541620575548 -29.4287117158718 20.7897131116334 0 0
99.4353790182419 16.5085938176191 -16.1914850612944 0 0
-146.394462266382 1.8218713855945 10.2169591832156 0 0
-208.948222589564 -10.1134932863423 12.3599583158203 0 0
-189.253945641555 -25.7846863128995 -8.14730788200152 0 0
-204.796867828403 -10.9097415703136 21.1485928548828 0 0
-122.59958195625 -10.6540265217347 -16.7299329016746 0 0
39.3506203908363 15.9879961867055 -13.3145260123183 0 0
-229.568040512932 21.6211198675829 19.6487090602206 0 0
-242.171549928903 31.1309713114155 -4.61537578299384 0 0
108.270796532833 -3.60854444171639 -21.2722329467334 0 0
-223.274586898172 11.4115211348593 9.67658451283099 0 0
-166.889120698395 3.45765930754551 23.7574620549943 0 0
-183.428051516306 14.6738634051567 4.61768670259462 0 0
-234.840885118925 45.5082293522916 -8.50990090013467 0 0
-224.838779045974 -15.9832576483346 4.82047822581441 0 0
-219.905741817839 -30.1929500716311 -2.4518011161458 0 0
-130.37225080971 -1.04615655617039 -12.6962275522811 0 0
-65.2434798550888 -13.5510865329836 -1.07027039864779 0 0
-225.957652356117 11.0613673119863 3.80971469288696 0 0
50.2108632327524 -9.11503390600714 -17.2248641882111 0 0
-75.5919193203398 -16.7667116911223 -3.76007989227039 0 0
-113.128336920601 -11.5237864950168 -17.9985423388536 0 0
-204.454822836365 8.75662546991444 -10.6744122162134 0 0
37.9512405339957 -9.7517374637742 -16.7792729401651 0 0
-238.805206750683 44.0736704592721 0.874978283480215 0 0
-203.935937486274 -27.6924749981003 -8.93930832429366 0 0
-200.363208893302 -39.1768265176743 6.51689923349318 0 0
116.305813770763 20.4500814600189 -10.7339467925648 0 0
-224.338189643841 30.7458699351666 -21.8133896706056 0 0
31.7787091963092 -10.5803145319757 -8.86102272187197 0 0
-212.47850852334 -2.48238376682141 11.619923750598 0 0
-35.30211698889 -13.3476099041227 -9.12453584759766 0 0
-201.118912378511 40.7126604895462 -4.58925594596015 0 0
-209.755731931333 26.1272748874576 -18.7753927057733 0 0
-123.565431936243 -18.5136233448098 -10.7325007994182 0 0
137.205706607251 0.00217871714533683 6.69730384374019 1 0
-200.370056652595 36.040144084417 -4.97258057205202 0 0
-25.8714221840521 2.27263515947513 -24.4577193650445 0 0
-198.089021416569 2.67699898477722 -10.0063102084847 0 0
-88.6427512921673 -8.10413548373403 6.55128378007301 0 0
9.88173871093647 5.73303660115107 -0.483344104150725 0 0
-194.665068203389 1.6332136452705 16.3917529506713 0 0
-222.689875181509 -24.0988747305612 -4.77793717506356 0 0
16.8697227079906 11.331279924117 -7.22488177981903 0 0
-192.633350808899 -30.2781790667942 18.7937576851062 0 0
-171.300512969437 6.6119855758256 -6.2455907284543 0 0
-3.36154665766037 -0.210245624776851 -24.5162685058425 0 0
-86.9036911028315 -10.9750643204665 -21.141701512462 0 0
-196.220104307597 -27.9943243086919 22.0123113455747 0 0
-204.478401918051 13.9460099309292 -10.5235101604188 0 0
106.302722789366 -8.02089742144831 -18.6575046756229 0 0
-204.590344358274 -18.5833066842412 -13.824619640498 0 0
-121.112929595991 -1.35042651462483 -14.5262585532266 0 0
-222.682750622463 -29.4578570817847 13.629405936704 0 0
93.4291770824957 -7.92860911415784 3.73495782504114 0 0
-122.526449396471 -15.0928992294682 10.0716408941505 0 0
32.2348497639034 -5.96819533788447 1.27542428081091 0 0
-179.571999442071 11.4699774043576 18.1647347203653 0 0
-194.24423708414 13.7637204298949 -6.54493401345223 0 0
-204.496428394796 -39.0845177582144 6.59484433943266 0 0
-197.753090169455 24.0405996023042 -1.74748240895077 0 0
-62.6772529884174 -5.37531937639982 -23.8430299901727 0 0
55.7147917401385 11.656538471547 -3.81592593612743 0 0
-186.820759249039 6.03316034021193 -7.59011298762995 0 0
59.9733910771086 -5.18279533347408 3.69418563166138 0 0
-224.59403973461 51.0026056987317 -5.28911659609054 0 0
-217.830956136569 -22.0206416767274 -8.70310015257555 0 0
-105.729066775337 -12.7031993746311 -18.4436881166249 0 0
-108.044651141927 -10.8795758741661 8.87309641761934 0 0
-226.094630465032 50.2906737858775 -6.90354422927236 0 0
-81.6654225052016 -18.1598969019823 -6.88812832482606 0 0
15.371912461206 -6.5128058080771 -22.1522712558363 0 0
-146.922612047174 -23.020822534335 -3.16285046179154 0 0
-213.832214124717 -28.1655898821765 21.9822538235912 0 0
-173.38347375625 1.64367217743715 -9.86261715019575 0 0
8.10196389028954 -1.21184658087692 -24.2929610058057 0 0
-224.183407292488 -28.0896110831199 14.0587850547709 0 0
-99.472861978827 -19.1840744617965 -8.94963387341758 0 0
-22.3924351342329 9.62739845251647 -20.5718713230855 0 0
-182.710073907652 9.32870101840158 16.0414716839034 0 0
-191.859199469263 -33.5331651496243 -6.77896753044902 0 0
84.6545162324678 14.5401612123341 -2.78025910725463 0 0
-64.2089126514435 -15.3259368203136 -5.31228893370396 0 0
-203.140543580891 -39.4573921525134 -0.053163772518301 0 0
-234.242094558303 15.3297264549514 -9.42078221836643 0 0
-218.365134455929 -4.06382789930667 2.51924357032049 0 0
15.4332903349743 -2.16536240365834 5.41388877422793 0 0
-80.6988858845427 -17.2038106914635 -1.52467454119429 0 0
123.90678139852 6.82712492894741 -20.8001567245886 0 0
-206.795515448206 -16.5885834224699 26.65517185951 0 0
96.4562520681404 19.8682784992591 -11.8193222214786 0 0
-166.640156152796 -18.8408946531322 17.0519175218786 0 0
72.7399139258648 7.30022657736757 1.59001050787933 0 0
-28.2122098629631 10.6100372197866 -17.3994542477287 0 0
-133.83073872394 -19.5870202547367 -8.73980868785466 0 0
-217.780510011624 -13.5702963539555 10.7266034875936 0 0
60.7206995006516 -10.6738915197507 -13.7058617906425 0 0
-21.1023797572287 -7.25520463278284 -22.9980079922823 0 0
-201.830215409402 15.9814612168208 12.466896297396 0 0
86.9548221494033 12.355055022792 -19.090910470485 0 0
-233.082715908408 12.0783119575966 2.91661305319723 0 0
133.383616047117 -5.01906379117799 -21.6826180168362 1 0
37.7279392483525 14.086804147174 -18.9677574429979 0 0
107.394303498147 -14.2854575441266 -0.581959916989668 0 0
-233.919645947178 12.2865819095883 -0.619195594129342 0 0
-77.8488036331727 1.0032542832464 -21.103058397676 0 0
-183.800900570616 -2.90644829284228 23.0854724735316 0 0
125.783154978953 -15.4324746346261 2.7220807286736 0 0
-60.1686312113439 -6.55925657878113 -23.6710302024642 0 0
-9.76602878007074 2.04716532136789 -24.4565496853868 0 0
-173.191197151815 -9.78565250329147 -9.47811382475678 0 0
-110.880286030019 -12.5321964715452 -17.9002159707825 0 0
-22.2651164834342 -0.126461836502921 -24.7431588847862 0 0
-26.2409931218691 -7.68523619698176 -22.9616083117057 0 0
-178.47270779719 -22.1501839257547 18.7553819465715 0 0
-233.555000063017 13.0521750478703 5.59918225230511 0 0
-156.086678345069 -17.6095183824805 14.8871319987947 0 0
-25.3120458732294 -13.1078587775947 -11.4271379490115 0 0
-116.128162947939 -4.40043290912793 -17.4488963267727 0 0
-169.889770481679 10.8704027434535 12.3351543598678 0 0
35.3702022638864 -4.39462431379729 -22.370522892865 0 0
122.880990352318 -16.1730899065355 -2.92640573984857 0 0
-84.2823794369593 -12.4308093666851 -20.4264719486278 0 0
-56.7773086289477 -13.4833542951133 -3.92797650011013 0 0
-5.88068253114082 12.5420762159032 -13.3541272627563 0 0
-228.998860942094 12.7664181144631 -11.2879967705546 0 0
-177.529358314162 -0.459645039314547 23.9369425403917 0 0
-222.448920965595 6.19160325883055 -2.66099753873107 0 0
-217.446627795973 17.9605237509409 19.1962868369971 0 0
29.0190582404661 -10.7685463537728 -13.9812390844074 0 0
-229.585677104715 30.071949306554 21.539214911644 0 0
123.892719239136 4.3074410367188 5.22456132654653 0 0
-241.189095967503 21.6743292699449 -2.4740432380595 0 0
125.997780059621 -7.08421310315364 6.24245700984911 0 0
65.4146350332533 17.9416246396928 -13.3655378694792 0 0
-175.310983578959 15.3058351657154 17.001084635364 0 0
-205.299440646878 27.1637800934282 14.8568688416337 0 0
-227.908491237421 -20.928221959152 2.98427398513741 0 0
4.68176686336635 7.40367128918703 -2.91996542991193 0 0
104.16098346547 -11.5033917693325 2.49416890425536 0 0
-50.1164782446078 -7.89042765750238 -23.3670202365241 0 0
84.3298518219072 -6.05009985649311 -19.7913996828867 0 0
-103.050274071127 -14.9085341038592 6.93190068242529 0 0
-213.126608948566 -34.7480057125563 -0.525478505801318 0 0
-218.016894506609 -28.5856127599868 20.8494054325892 0 0
-76.9103206217091 -8.76553518583297 6.39300547266165 0 0
-183.438041687238 14.6584891562681 2.23296365762108 0 0
-136.259610575683 -16.4818489697146 -12.1840826984544 0 0
-164.181050240809 10.5952449443766 20.330831785811 0 0
101.807527276234 13.2642919412961 -18.4583872316583 0 0
-227.284047250057 15.0723953140794 11.5912198083135 0 0
19.5366067952066 -6.25261916189134 -22.0856897523213 0 0
-178.832898905172 -10.6377682978233 22.7355355533001 0 0
-143.742962639579 -1.03413357208904 -11.0408345920877 0 0
-225.350686877473 -19.0468083079148 -1.60177174202121 0 0
-115.87974724432 -21.049626346275 -6.62576154378752 0 0
-219.944477636216 -28.3997522436422 -5.07357553513627 0 0
-228.856398723196 -17.2964877340962 15.4295094945751 0 0
-217.252956734813 -9.98732583553533 4.05970426517904 0 0
-160.089275109832 6.00968733115917 8.35529844293658 0 0
-82.595009583515 4.36119388775358 -1.20231372838231 0 0
-195.280730597026 -25.8228760383653 23.1395396266574 0 0
-163.626175181813 8.06647141520094 12.2159972913163 0 0
-207.044726594186 16.637738850685 14.5831892377199 0 0
123.308303435266 21.3384608528432 -4.80467328777383 0 0
-121.41441577284 -0.54404066167815 8.07118009837087 0 0
108.950027019753 13.990309721759 -17.8673078731144 0 0
50.3181936481113 16.8505293614761 -14.1527896854253 0 0
-177.399960193332 -8.31846829594767 22.5165096319103 0 0
87.2568273053366 18.5440065510747 -7.07477738349845 0 0
20.5754357677534 14.6761475385485 -14.4170195838547 0 0
-14.2823472729719 10.1578023263376 -8.6402247657898 0 0
-242.585612227343 32.2678959322365 -2.54061682009807 0 0
-63.9698853819241 0.981040362141422 3.49733796405274 0 0
116.648390615215 14.2666044751339 1.57476991964512 0 0
126.580609822645 -2.66242115034338 -21.9511005558062 0 0
107.419420410597 0.732202279749277 4.5847855788555 0 0
56.5669609028044 -8.83515971172779 -17.2780739081141 0 0
-203.884879731032 -32.9962996168007 -4.88423685793981 0 0
-234.535352310279 15.6948593680947 10.9177827850773 0 0
-29.1001535046287 -6.35736694304346 1.60695357804222 0 0
-126.257735051266 -18.1258561132767 -11.2484039709461 0 0
79.9687836377304 3.45805839088996 3.25188242302284 0 0
-6.02587315694552 12.7582980948171 -16.0327254605814 0 0
19.7081991029758 -10.9428568511138 -13.2577804114585 0 0
-236.794637687675 15.9426659514429 -5.76797361914529 0 0
78.9882473861795 -8.00357465108401 -18.1059015962229 0 0
-185.590147502165 -23.1380750317327 20.5932801975051 0 0
133.140317230509 21.7348456233029 -6.62345503394566 1 0
-178.698038222384 10.5978677909963 -1.77436858513436 0 0
-41.2236969115752 6.11453246838098 -3.43108157108448 0 0
131.276487395792 8.84838062411669 5.29250075492141 0 0
-200.830077266227 5.41132493701509 -9.38144306207471 0 0
-206.458842948568 25.5913020614933 15.8919019529267 0 0
-220.993793493696 -31.6391407240326 8.81688059368396 0 0
-16.1789034961617 -8.57169785906827 -2.62604687200056 0 0
-179.006487096082 -19.240111376764 -8.57557217074065 0 0
-95.3425704449928 5.73050945597651 -7.94435702494062 0 0
-214.62571541351 51.6429996110341 -4.03190938380853 0 0
-198.143706520064 14.6741408365964 -7.87149885414057 0 0
-158.255344438025 2.76942172854851 16.6689564167449 0 0
-181.347365341704 -30.9372813170317 10.3770232428098 0 0
106.404022448503 11.0190166027661 1.91707584043477 0 0
-221.190090606346 30.4816139531555 23.420356503102 0 0
-212.032424462361 -35.9178323175535 2.51837062199988 0 0
-59.2354128390358 1.00982790715821 3.84672963813036 0 0
-115.815909557777 4.50548447900815 -1.60761868959589 0 0
-66.6640245128353 7.3084565755587 -7.63605507658862 0 0
89.610989649296 16.2545091089275 -16.5590989426744 0 0
-125.876213237955 -22.1471734398863 -4.36053563199411 0 0
-232.920185012348 49.3801036963741 -2.25285822760532 0 0
-213.447403240834 43.0900866837811 18.4812458853825 0 0
-185.987344415853 -31.5187687353809 13.5401246553887 0 0
-167.345747647307 -17.6961163984305 -9.16902823271121 0 0
-68.6470196032197 7.35692644558217 -11.0617521675898 0 0
-224.967491699488 8.8983323673928 -3.03320382947169 0 0
-98.715365592902 2.13800746995166 -15.0510418974562 0 0
121.248873616111 -15.1951481847509 -8.30143177940345 0 0
44.844234184434 -3.37336506275898 -22.3549010299253 0 0
-170.637817776855 12.1821503458896 23.2994983476253 0 0
-72.617313377681 -14.5690965266672 -18.0248394201095 0 0
-209.08724213172 16.5688610957482 -13.8559896480022 0 0
-225.032904461498 -22.1138895738561 20.9341361405304 0 0
-198.264767415152 -9.58072778562183 23.420936252069 0 0
45.7227616556178 -1.81056511478048 4.83723388495302 0 0
-59.8174103325987 -15.1478534792711 -6.17995753695716 0 0
-141.499036069546 -10.3400822643842 -13.5217760092982 0 0
-173.951101785421 0.0657612681237053 -9.89781672012246 0 0
-96.4459337048971 -7.93145357987357 -20.92432340957 0 0
-213.914568051016 33.5225629571617 22.3569464891676 0 0
8.20868908049665 -7.53387314172217 -1.58576735691186 0 0
-162.696898497395 7.30281498513397 4.98668488300822 0 0
39.325237789515 -3.19897942694944 -22.6773828339874 0 0
13.3810514189484 -2.55737275483702 5.25917625596341 0 0
-67.7959926179203 -16.5654724628643 -7.25409390740928 0 0
-213.725212291519 10.9820646886992 15.1069046392455 0 0
-30.766244983814 10.4470451865112 -16.6975907812186 0 0
-54.9775850860837 -12.2380280356735 -2.14215749549523 0 0
-189.21687262937 -34.4664084800396 11.2191932260962 0 0
39.2391897673482 -9.50095557015302 -3.52582333246545 0 0
-8.514414430291 3.1076843195262 3.57932386167428 0 0
-236.062079742574 43.8322942680292 10.823457100052 0 0
106.448461697716 5.69928846984952 3.73656157933114 0 0
-235.004073054842 23.5069925562331 -15.6062520192425 0 0
113.509640496221 -15.0696799059451 -6.93056550316183 0 0
-174.818195118844 -17.3299901955117 -9.00593169544667 0 0
-89.5686479779062 -16.1954358733384 4.13957671859598 0 0
-190.354324802064 -23.3717294572961 22.5565209926862 0 0
-97.6880434224377 5.33155965267575 -3.32365682725695 0 0
-224.492814664038 10.0512754569435 4.21889973354376 0 0
-130.056406618665 -20.8640496213669 8.22429561529092 0 0
-136.698281098684 -5.29320884600544 -14.0390060933288 0 0
-223.218022667159 -15.2033049058523 9.10164261102874 0 0
-161.449547850835 -24.1095436844285 14.062458659198 0 0
-164.124482929802 -17.5657499169511 16.8007171576202 0 0
-220.47410965036 -13.3010627712941 -5.8406671226989 0 0
-120.110480814413 -21.9213931721734 -4.90318597458036 0 0
-192.720865416654 5.49356249897789 14.8470996337543 0 0
-232.531483860108 31.6120296679764 -18.5898354042571 0 0
-46.7114712515498 -10.7756112780565 -21.6736503837259 0 0
-24.9195874066973 -11.5317656446645 -6.64399452430562 0 0
-219.276936581996 -9.55187123437384 -1.71360203910745 0 0
-7.89864744026639 9.64937060404299 -7.10234411053074 0 0
-110.624279638002 2.12778132426525 2.94445516582933 0 0
125.612894995597 -11.8785246060881 -16.0701787193481 0 0
100.4615095604 11.2850852101163 1.24540947797609 0 0
-144.715940718833 -9.07347755971023 13.3224773366498 0 0
-93.0800600657235 -5.66947289826366 6.82423367993548 0 0
-222.236584259637 -14.4731821018109 5.79113882897989 0 0
-98.6921393017533 0.420714482166732 4.16881763510584 0 0
54.8199887064039 0.820294801170358 -22.7602544557341 0 0
34.3591691036648 11.5168284966587 -20.8198447745407 0 0
-195.185475706914 -28.37472701353 -9.00328669680917 0 0
-63.8908263552387 3.05741996674998 0.501028804771479 0 0
-144.255472567957 5.30971524739295 -2.98964396778924 0 0
-135.256478147789 -9.36261391164893 11.4861142817375 0 0
132.984402151893 -12.0678695394948 -16.6967267931846 1 0
36.175718939762 3.8915604745299 3.08530770381891 0 0
128.097132780446 -1.44879550286948 -22.1025066129651 0 0
-198.333471357202 -8.14549682532013 -13.0706795563189 0 0
-57.9634342174359 7.25101259115431 -6.54518984319539 0 0
-6.72472899579755 -11.8071386422496 -12.5084941565081 0 3
97.8884045996481 -9.31888245112016 3.32784320192184 0 0
-217.057545715375 12.4290812500082 15.1806818746066 0 0
-240.791543647213 24.8456608243134 9.1630756592307 0 0
-26.9674324721087 -10.8087956589293 -4.81085663228605 0 0
-187.411847240063 -7.0665697926476 21.8380267827182 0 0
83.7448078411643 -8.98113906909226 1.99496531659609 0 0
-221.624154128405 48.9343930930762 -12.116021178821 0 0
59.2449152895466 -7.49646448988834 -18.7519107111091 0 0
124.667082625654 -15.1366105711856 -9.34196636448227 0 0
129.647765910128 1.90465619790982 -21.9216502839317 0 0
-179.2764082052 -2.29315014073515 -10.2354004293582 0 0
54.1532385385612 -3.7059943868081 -21.7701983987264 0 0
25.2566011566132 -2.22688711601547 5.20337779460524 0 0
-199.866465453551 -18.9658678015601 27.511236847776 0 0
99.3383238977299 20.1071631239664 -11.2109290412062 0 0
-218.350623350261 -11.7255176780856 4.43010888139844 0 0
-175.746674188274 -18.3210802907153 19.6170961920889 0 0
-5.05781411875518 -8.27917012240904 -2.8083882513017 0 0
-119.946948698312 -5.35427343630645 -16.9865665823702 0 0
-9.97900573456236 -12.0562157172312 -12.7716176897078 0 0
-196.279574626313 21.7698680381558 6.76236878348965 0 0
-79.553738211627 -4.43331341363267 5.78827814662207 0 0
-1.32899591661384 2.24439734248491 4.62730778276138 0 0
-129.185624755486 -3.85110207318964 10.0927784276109 0 0
-218.343870554778 50.5896416481215 5.47987725881522 0 0
-221.111546688646 6.47053045330209 5.96878338980554 0 0
108.809900545477 -0.232237525406623 -22.0396919771266 0 0
-219.172546248655 -31.0230144402812 -1.49922663066482 0 0
-107.93180882722 1.25351388810015 3.93947037618625 0 0
-220.189787069812 -19.0514778388251 -8.54117079309522 0 0
-125.588227021806 -6.39721654563772 -16.1579501171381 0 0
-3.72008121661538 -10.3280302481238 -19.3301640171847 0 0
-202.409103692386 11.8633115912076 -9.66169828738824 0 0
-71.7588000100284 -17.3513308610563 -9.63967048887779 0 0
114.521996641929 4.45665916028548 4.49529614408865 0 0
60.8338751499809 7.14307770222191 1.14623516000497 0 0
41.5198961116586 -9.49401425729942 -3.25881443393772 0 0
27.6270239399897 -7.02571991994699 -0.367794183081459 0 0
-232.159300404047 47.4437525818785 -8.81148002308607 0 0
-27.3604880416923 4.26586821845676 -0.00776434965671292 0 0
-220.361431130073 -31.4964895071045 1.4897489992916 0 0
-115.364422042686 2.89648507280169 -10.6308992175146 0 0
-220.265784739509 4.47673299726919 5.68268280974019 0 0
47.3709119491828 -6.51765270782377 1.2767459204614 0 0
-193.164925061581 -0.938921607412571 17.5912696561763 0 0
-120.38537676289 -12.5951227772518 10.0623156853371 0 0
122.505565178844 -13.5931384453852 -12.8307886117886 0 0
-4.4510755431539 -0.497751819752838 5.64915578982587 0 0
-168.265147189208 -7.96272605871304 20.263046967576 0 0
-189.03636181518 -28.5526802740752 18.202798355322 0 0
85.8306962930074 14.7558923227969 -17.7080663351122 0 0
101.429926427357 -13.6784855417664 -9.45022490101946 0 0
-212.903870048241 -0.0447697288117634 12.1267371413417 0 0
-239.248455733648 27.7473851530417 -11.7700240197326 0 0
-149.605269936117 -14.6462593843743 -11.767504160623 0 0
-161.940665993732 5.71886083294316 -7.75970166037744 0 0
76.2007472679881 1.06226785073171 -22.2840613229358 0 0
-102.981370229505 2.65666213330475 -13.3637314019875 0 0
-204.449678298633 38.968148691283 14.4018585919894 0 0
34.2310255570658 5.05292663117919 -22.899378396188 0 0
-129.7840841849 -15.9138114112883 -13.330144578125 0 0
24.8140947605097 -2.37226267258483 -23.5626552125244 0 0
99.85069347502 9.06743088516667 2.2119782633004 0 0
-238.766463809313 31.0240394107635 14.0779794542962 0 0
-225.017169473728 -27.8431522023183 12.0834950742057 0 0
-4.00585636278096 1.87959607074446 4.80897311991065 0 0
-110.37444274901 -21.9282942036184 -2.61722691557652 0 0
-18.2573659267257 -9.77681069561988 -4.44149523779984 0 0
-163.39729165156 -26.5195487956049 2.3089895091995 0 0
-236.860765180873 17.5913885661945 9.93707019378146 0 0
-24.0884821627018 -3.96681490011301 4.67816078316631 0 0
126.749274096559 0.0012859046584532 5.79852565109585 0 0
-235.113980346423 17.3100150747762 12.2804417388359 0 0
-225.475875176671 -17.8308298527575 3.51782418618225 0 0
-95.0019972307915 -17.5261535561493 4.42873422908417 0 0
4.58119483438855 12.4396716390596 -19.4117454324972 0 0
-200.167869295155 36.4218738316738 6.42450017088421 0 0
-193.118641199951 21.1080223781349 2.51408365003801 0 0
98.3214132087309 -2.78966150828907 -21.4447945263276 0 0
92.1238846099706 0.126667669377905 4.30362566491246 0 0
43.2086024764956 9.64489297652254 -21.3334437422386 0 0
31.8226418304091 -4.71602119093385 2.90714583504771 0 0
104.5842042038 15.2429007695837 -17.0869474962219 0 0
-50.8773425618735 -8.86673871826536 1.74518218179251 0 0
-181.94641416918 6.45608209572477 20.8775610884748 0 0
-152.926959550131 6.69241375032155 -2.14122151016402 0 0
-167.405942992919 -21.780142565153 15.9409877060929 0 0
-81.4754858666531 5.59159299802933 -3.04417092188518 0 0
-129.968387166588 -20.4214040123602 -7.49515175664805 0 0
-92.7236214811288 -15.3293544386073 -16.9359105394235 0 0
27.4511241582953 0.0294177221440635 5.21560674004538 0 0
-143.845234469992 2.13441577874619 -8.76296449350632 0 0
95.953289713108 1.89918649826112 -22.1363734413806 0 0
-123.820156085891 -16.6647965942813 -13.1054721592005 0 0
-153.655099730845 -21.5436402429898 13.7852858504376 0 0
31.3000921828538 -1.49242775249189 5.13965437697842 0 0
-155.008745417065 -20.9048045178797 -7.38842233016284 0 0
-190.257000308466 3.82041843633823 16.292324743329 0 0
-210.119744830463 46.3830933781456 -12.2156278479966 0 0
21.084599217697 -10.0453029138552 -7.37554951783811 0 0
-137.847374115125 -7.34683521493546 -14.166398883426 0 0
-168.036884811503 -2.99398369332729 -9.86427275259946 0 0
97.8511943985674 16.6681773807223 -2.86578068098094 0 0
-188.117507742939 8.17071216244215 -7.02691190282723 0 0
-218.828107677306 10.5637785150403 12.8920923483929 0 0
57.0560038963705 -2.97554786626419 -21.9784785036366 0 0
-219.169779331275 -3.81844547715309 1.04127855189578 0 0
-130.851522257573 -4.60295422886071 -14.7303348327169 0 0
31.8196426444038 -10.8413878276721 -12.6852484798758 0 0
-170.9596581526 -24.6545164935425 -4.80552438912757 0 0
-221.80895413825 -22.1711155067747 24.2582852580193 0 0
-32.3376789065041 -0.502582644939696 -24.6339217053916 0 0
-232.064828401874 14.3554434033724 8.74420394210478 0 0
-234.98000745039 47.5324141871853 -3.9360195079932 0 0
-227.03114498924 10.4295294225514 -6.48578520099769 0 0
-182.928500994507 -0.220972468013154 23.1350399666694 0 0
-144.089778581466 -10.9727122308709 13.0725967372814 0 0
-216.146931578985 51.323368237248 -0.459907025300021 0 0
-163.91062916532 9.42370129454462 13.5312087538177 0 0
-199.889322955161 -10.4560372122811 23.7856840823302 0 0
-199.903844236702 34.5164071544588 0.285798124686994 0 0
-184.72249298242 -20.5204620559712 21.9583859883222 0 0
-172.813450116933 6.06501642446489 25.8374566924774 0 0
-186.908932785597 -0.67961621173075 21.5610918512625 0 0
-180.809917293443 -15.6586946462976 22.4443556032167 0 0
-79.1364174992513 -11.9657906370277 -20.9467808491481 0 0
-74.9564851734721 0.737702638979294 3.13802347116251 0 0
-55.171238625727 -6.76560703510519 -23.6765099572342 0 0
47.3864434055191 16.4192172912039 -12.3734357754245 0 0
-171.399436842849 10.1731364781459 6.21659437192336 0 0
-84.9050752729462 -18.4562818569638 -3.45665347306733 0 0
-90.565862834846 -12.4595188675495 6.36335648392125 0 0
-112.06409405646 -15.8240146467263 -14.8239426428571 0 0
-214.261388083369 17.9188023783223 18.6539448949755 0 0
-193.496210003597 21.0749689142054 4.30432496419859 0 0
105.673824952551 -13.1050246359908 1.04706891967859 0 0
110.004490968025 -9.88208972601334 -17.0309658173952 0 0
-68.5474316502464 -15.7451968422942 -4.62280515059439 0 0
-216.767779333153 3.92520678121533 10.4448608782722 0 0
-198.419553154807 -33.9446586805417 16.1747380968416 0 0
-221.342096399784 13.8391682314796 14.0026252717222 0 0
-122.710675834521 -21.2601131869076 -6.2579655922966 0 0
-114.220298440708 -21.754719552884 -4.72297737657843 0 0
-47.1128465506586 6.01848882547498 -21.3076048668597 0 0
-95.553246361593 -19.9247413197993 -0.778964157178948 0 0
85.2111848964543 17.4625420046195 -5.81119939480353 0 0
52.594457943418 17.0291621126828 -13.0001685656176 0 0
-173.907952983805 -13.1437581759448 -9.42621189769305 0 0
114.85315563282 -6.99899073574538 5.79894467994596 0 0
-28.06029672231 -9.02814315169395 -22.1504592195164 0 0
23.1169057709338 13.3282347404123 -19.4782988030409 0 0
-204.009863734808 41.4238224703636 -10.811334447597 0 0
-62.3535343333307 -15.4436582281066 -6.12389982540474 0 0
-64.005698731566 6.25086207819952 -16.94172190235 0 0
117.721334009295 -10.1376169195192 -17.3611360527719 0 0
42.5549413564774 -2.62457188287806 4.81207865753557 0 0
19.3087004647861 -10.1230283990603 -17.8355368164127 0 0
-141.347070814742 -20.4539646204246 -7.39633845187278 0 0
-212.116897732314 37.9153703749505 20.7143479396644 0 0
45.3290426641732 4.7950798766134 -22.6015441496526 0 0
-217.65108134956 3.61332892860362 -9.50233186178868 0 0
-227.607967804263 19.8812322701588 19.8141805298721 0 0
55.105715482155 2.88854553630157 3.88720657219779 0 0
-114.191605900111 -0.226934386600051 -14.8038275116627 0 0
-181.562226548286 -22.3933371014925 -7.92158354982537 0 0
111.431829689268 20.0484748860844 -11.6371124166372 0 0
-204.777008303527 3.18123002221096 14.4681811996378 0 0
-38.582531692251 -8.97938759779419 -22.615179392998 0 0
-100.74722228473 3.64291878310139 -12.1867661589214 0 0
-223.081380864308 21.696047984001 21.5200962624815 0 0
-117.811104421375 -9.71881321057591 9.45833546793813 0 0
-230.061679284452 50.3978312686768 -1.32467205221735 0 0
15.1672491379899 0.254952226627361 5.38206958529321 0 0
-16.0693912720825 9.45849982430745 -7.51677403277929 0 0
-230.418080130347 11.5259078865304 -7.44237368911368 0 0
-139.183355126271 -0.608078569841528 -11.2571015998182 0 0
114.290729086735 -13.1491795860686 2.54924868842254 0 0
-203.562785029086 -32.6562919435189 18.1348609611194 0 0
-85.4060725527068 0.97763395141787 2.9086015733913 0 0
44.637500984778 1.79359295612969 -23.0948473744687 0 0
-215.842808659265 -9.99110809805714 -8.47339642988507 0 0
-157.840751042593 -0.859851039874428 17.0975589080938 0 0
-227.552996385618 19.382720304901 -18.1430136823652 0 0
-196.180936002485 -35.7163858116552 -5.39046028771773 0 0
-123.875083708144 2.8668332577412 4.65138048583462 0 0
-204.802376031543 46.8271595602519 -0.437975660544837 0 0
-229.527348116267 11.1802487135758 -3.20120693033138 0 0
-200.109346398055 39.4484268571387 -2.05981423751122 0 0
-213.443833557147 27.7384550395732 -20.7460680310586 0 0
-10.8725400447184 -0.623536645169446 -24.6048391694613 0 0
94.8355718503599 -13.9010944350341 -2.64332685428245 0 0
-196.114210147868 -5.19887522500084 19.3834473059168 0 0
109.358928530884 18.5277690026062 -14.0538870140335 0 0
130.258286353679 -16.4756033111115 -5.47084535082591 0 0
-113.861044557231 4.54629416119298 -1.69720643597338 0 0
-217.67392174241 50.8794222219351 -8.36011014313381 0 0
-96.1127725601739 -14.4534312536221 6.30087564067751 0 0
-66.9420102398474 -11.6016815536323 2.48098070087697 0 0
-146.838391408719 -15.4627892915773 -11.8044902032277 0 0
56.6354907097806 15.8202521008328 -8.51014518893538 0 0
43.5322721909786 -10.2455438283816 -15.270577937313 0 0
31.9225028269391 12.7355972460047 -20.1327512105222 0 0
-212.7016061964 27.7772597064727 21.7813162531652 0 0
-49.8279612025699 6.20363898672808 -20.6767197862813 0 0
-117.217698828052 2.53086613778048 3.32464483153542 0 0
-226.472455881704 15.7831047603503 16.3351480435894 0 0
-166.866440769977 5.26391766248765 -8.18025789526427 0 0
-204.512167179595 27.2657721964968 11.9624699832491 0 0
-144.208450112774 -18.6002676133315 12.7228515469542 0 0
61.072144941208 -2.43358630250816 -22.0243576795317 0 0
-221.145701661661 -17.7261064923869 26.3887781752681 0 0
130.79961324288 -8.82959189598554 6.56846361878759 0 0
-219.091915217047 45.3903712998181 18.0200371312918 0 0
112.237901810829 6.75500763802786 -21.2220135774639 0 0
-154.200422779485 4.11725201239402 10.576546880294 0 0
83.3702773773853 16.3841617765331 -4.78076311389523 0 0
22.9093448033315 -10.8734736704795 -14.1936917958262 0 0
-172.912285879539 11.5444320822044 11.3832746962389 0 0
72.7350917686148 1.07450255315299 -22.3714568926634 0 0
46.7650761968625 15.2011121567371 -9.4100896772121 0 0
-188.202153237085 -33.151538539847 13.3177407766474 0 0
-82.7954849390076 -14.8258530188493 3.54590588281325 0 0
-111.890769442652 -7.69098020546881 -18.749350910129 0 0
-23.7377063643837 11.2010356447374 -16.5298826599728 0 0
45.3080870843884 7.86893477869556 -21.7888107404502 0 0
38.8451903546491 15.6337547999661 -16.6388385558621 0 0
122.617168831939 -1.13439697349975 -22.0692173314041 0 0
-186.320673230592 -30.2017799329669 -5.43853457210765 0 0
-39.1029093066681 -13.2567034836731 -18.2470224921086 0 0
62.3641830556445 -9.35195212414676 -16.318291278517 0 0
-218.902054602958 -18.5151221554973 26.6211839739345 0 0
-103.764045260193 -21.1563175902186 -0.388939045488898 0 0
47.6048840309164 13.1043363598402 -19.6732281177098 0 0
-63.8529277469634 -7.23160211919463 5.17183723879345 0 0
-47.1554486467132 7.24749156006659 -19.7833719987194 0 0
-6.9864625398088 -3.91709152793664 -24.0576649413335 0 0
-170.288335345467 -6.82880158372546 21.0948874761517 0 0
31.6391677957579 15.429836265554 -15.7897186151063 0 0
-4.10738618473565 4.56380090497786 0.942315065709837 0 0
27.2798687351399 13.1945477684991 -8.95598734720704 0 0
-201.808335186123 18.6871075629195 11.8855546126666 0 0
-99.2719354980039 -20.0662892265721 -6.42725705751818 0 0
