"x" "y" "z" "f" "a"
177.350604597172 -8.54707002633508 6.61770104997766 0 0
-28.2232031765512 -17.5004542556683 -3.47969449462757 0 0
22.2870826256901 -12.8027209631887 -5.38744094531825 0 0
62.9408928672986 -3.22051780608831 4.86318177966835 0 0
177.658877868126 -21.6046273231024 -12.9613452161017 0 0
194.6214851864 11.4840889751579 16.9999784208926 0 0
83.3679892111542 11.916920331756 -22.4125713585942 0 0
1.08150358451355 8.1590634183962 -3.92825810329588 0 0
160.080924655916 8.28498546107394 5.02704453652531 0 0
1.89432017547696 -15.5672882085328 -15.4023715918789 0 0
-36.080376914168 3.32321724933414 -18.3757164435714 0 0
-14.3800313197078 -17.2914528141504 -11.5363050764601 0 0
209.840656129484 -17.8432699684336 22.7449679667295 0 0
244.781957390669 23.0120468324302 30.2853037695501 0 0
3.15634781797915 -1.30169272217222 6.21658801463977 0 0
-2.70726988029098 -3.8781526965986 6.82184610369731 0 0
219.659229067485 -12.1112318007953 18.1358747282175 0 0
172.359750033212 26.1423613781891 2.32179801477201 0 0
194.678330159733 -31.895238837515 8.26469054621267 0 0
125.551718323638 -15.5658882910301 -3.46652821634791 0 0
214.616399975344 -37.2529758161323 -5.98976781943618 0 0
165.686396896535 1.06829813772699 5.45495708074625 0 0
229.650980683611 31.2364766496147 -2.18807832989483 0 0
195.822535479597 -27.3184549663501 -12.5639457891097 0 0
231.137664261405 23.8984238912731 -13.0725110588846 0 0
117.249907202542 -9.34728016758254 -25.1681441058805 0 0
218.624553390452 3.44853452521876 18.4415057794843 0 0
82.8019540559705 -10.9775357152392 -2.42391418144512 0 0
225.601281561503 21.0879566232434 46.90633354584 0 0
201.729846367625 15.2518946009005 22.558557473792 0 0
-37.5212543455669 7.81648954428577 -12.8352897221679 0 0
202.496777857004 -29.7318862021464 24.6052060613084 0 0
227.637809759359 -26.8280285910975 -16.0560116417635 0 0
202.186820517615 19.3793864322013 26.1650372799252 0 0
231.224344289293 36.4782380477383 18.83318630394 0 0
30.9269292452932 -10.5973611284673 -22.4320613570658 0 0
69.0261085197718 9.31548865140961 -23.5584589373198 0 0
245.015011127966 16.2940714704349 8.78880872044358 0 0
145.627670118261 11.1685340844039 -24.9011503148745 0 0
216.176294725405 32.0203848697456 37.0479176033521 0 0
186.501515300152 -19.142659370151 8.8590460050476 0 0
201.989006204976 29.9577929010008 27.1932522836153 0 0
88.7207169713716 11.1778103580499 -3.22173731749194 0 0
202.317865243758 21.8766339833545 27.6111879295106 0 0
189.341283509059 25.5688976799768 14.7228977692773 0 0
199.074859959665 30.2614471694703 21.4592867586941 0 0
200.012376261603 4.37472272624906 16.3091134800252 0 0
206.417194659861 14.6340847983159 -19.5940900814735 0 0
161.885006848923 9.02232139612786 5.22283239829277 0 0
218.936328415994 6.08741386982516 25.1192850032215 0 0
36.3418183143171 12.2010632818477 -16.0103242595623 0 0
177.369326390017 -8.94818189571901 -28.3296700198368 0 0
-23.1364111937193 9.30646715398019 -10.5942812319219 0 0
236.240693837029 -26.9668073449546 13.1473394229161 0 0
134.333338272851 0.841698734254864 -29.0092812607123 0 0
199.070753459209 -18.5344203650922 -26.9970797545866 0 0
0.361325221186817 -2.71569124071591 6.53645487155487 0 0
224.30655417007 35.9794260904394 5.57554806681752 0 0
203.885331616079 -29.2630165158983 -15.406509829085 0 0
-23.9712942698322 -16.4506415501066 -2.57221486282648 0 0
-16.1203084181375 -16.3400852050192 -14.4009997860582 0 0
182.969249602953 -21.3160490088992 -15.7523801548701 0 0
-1.52952753474359 10.078854544208 -14.0573726547815 0 0
226.641278230867 -13.8951852312653 19.3517280094557 0 0
12.8724890345863 8.33619089856026 -19.3846288580203 0 0
223.532570084123 -41.117351316071 13.3113810692792 0 0
215.421655159477 23.614515383924 -18.0307964018851 0 0
200.673138209501 29.2594140815979 -8.49444781258174 0 0
32.0331425945678 -5.60024822480239 3.90684827100021 0 0
226.808859474027 36.3815266135657 29.0807786798714 0 0
-23.5477094256875 -6.72755261236657 -22.1602906028494 0 0
-9.41286372785638 2.20861053482336 4.4866991785898 0 0
226.928385743246 32.1738056108401 36.4246813111292 0 0
202.419720835072 14.5394893416564 -19.6200354948504 0 0
190.102533029612 -8.92113309416271 8.96696087207679 0 0
203.712880464305 15.1002044975361 30.0165459476366 0 0
217.823391954077 7.6231601655035 41.7485058358273 0 0
237.473031716007 9.76855918633119 35.6405770200747 0 0
94.8560559127317 -9.39884616719267 -24.490790763648 0 0
190.665856718278 -30.6443627232135 3.83191912293366 0 0
57.1491930973534 -13.4924745668899 -8.39953483027935 0 0
2.77837179928955 10.6047036012696 -10.8266765498819 0 0
160.178947637394 19.5493800706341 -18.4994394218599 0 0
221.735251561349 -35.2255057324377 -6.27862447305253 0 0
29.4347413885218 -7.77716730932633 -24.2514824252825 0 0
14.3603983269479 -15.7757092908015 -11.2314873442175 0 0
156.749068444072 0.886674026528876 4.86381863342423 0 0
213.021535302679 -39.2759563590086 19.8129199489793 0 0
57.9708005010425 -12.8170141642875 -19.6153963137072 0 0
226.651905918362 -40.2391863900675 8.00899193961381 0 0
205.01630940387 9.24243959731984 -20.5828206265289 0 0
190.59203854283 -19.7266546275643 -21.1597500263551 0 0
243.022387896034 10.5077738855656 9.32249840782404 0 0
193.829053095128 -22.6694480787992 11.7425984041157 0 0
197.208045941477 -11.6471308425896 11.8747889626054 0 0
223.873178039249 -37.2005825453044 -2.27983071377755 0 0
208.875737146528 -29.4069449976835 28.2646851270315 0 0
54.0729845711664 -4.16506916469297 -26.4767902969799 0 0
71.856273940969 -2.48794312309216 4.86691017390916 0 0
141.737553624197 13.9613140803862 -23.0863520008629 0 0
165.265745270601 -18.4791871917821 -16.7674501448842 0 0
-43.0109478671219 0.572537015171616 5.31763895539632 0 0
237.001203524222 -27.7556008961763 10.2413577060769 0 0
143.897119301431 -18.6793517714355 -8.40288120066563 0 0
198.004070835203 -28.5514169142793 -12.2899937798759 0 0
191.221236989455 19.6218136373244 -17.8213286225147 0 0
108.561346702955 16.0632253574812 -20.3043722109991 0 0
204.433766498189 21.9044007192537 33.619227040958 0 0
33.2396603223012 1.97596565588888 4.7201661211397 0 0
240.04838203164 31.6799065499609 10.923144689282 0 0
89.9406703780203 -14.6085471544226 -8.61627753842224 0 0
232.884204178624 -5.65630745994687 3.01100709304549 0 0
7.81967113592065 -9.15284238035192 -22.8677568516354 0 0
111.61560449259 -3.90818045024398 -27.9222643169236 0 0
196.605506459403 -24.3945148651614 13.8219030683762 0 0
116.40587551436 19.8216053824894 -15.8882328459355 0 0
221.364214302726 -24.3528585090454 -22.8665022487465 0 0
216.200948948183 -41.5849193527722 10.2178673376114 0 0
174.769869643054 -15.2999295983598 6.19379483716821 0 0
167.418602137 12.1452681759531 6.10642217271559 0 0
202.7709043505 16.0399802502857 24.3152339306444 0 0
128.536859325085 10.2372245185808 1.92423688536119 0 0
175.833891562626 0.973892488988123 -28.4807881187999 0 0
137.239587914324 -18.0828733388502 -10.3633714975071 0 0
213.735552382164 22.1257204201965 -16.6901703441736 0 0
204.320608084926 34.3533311644725 0.570680607367565 0 0
105.714152983599 -10.3935626241359 -23.7578215082205 0 0
205.939190650506 -29.4978362873971 26.7336624941872 0 0
-47.9129354538546 -19.7695003609908 -1.69591051601143 1 0
196.774682701017 15.2917608025476 -19.4993125926999 0 0
230.733751564332 31.040000335636 36.7933737809837 0 0
194.939355682263 -23.2720045940102 12.379615151305 0 0
210.267196013058 -18.9112988773776 -30.5353321703091 0 0
237.740224254861 4.57545386135656 8.91878582053917 0 0
71.4171417559681 -4.32581332617663 -27.0872752598785 0 0
101.451280068045 4.63154907492453 2.68377748211362 0 0
219.952976996098 26.6267836910691 -15.2177685897436 0 0
208.472886407814 18.4184706136341 40.0125942966767 0 0
200.402127220458 -10.0113998685666 -32.5789902401937 0 0
93.3752677427807 14.8940543470343 -7.04257973517372 0 0
34.3027465492904 5.54570696834625 0.676338768948944 0 0
192.783491581874 -5.65275468649616 10.0562270703379 0 0
112.013619102085 11.8358651682822 -23.9103826699123 0 0
208.551011391494 27.4407443819365 39.9685526032212 0 0
216.313998352539 4.98304256271813 21.3288812158284 0 0
107.003073397301 -12.1135066445236 -21.8465345362678 0 0
214.648084991291 -38.1409275089685 28.1698901383831 0 0
87.1697521333992 13.3796257346335 -5.82544536410689 0 0
136.90832878904 -3.97496141220749 4.76545792829285 0 0
235.685891210287 -19.6600376200847 9.8059468686354 0 0
217.180950532483 -19.4908376577125 24.9474871874983 0 0
-0.990392004714833 7.85367850759512 -3.41136961727614 0 0
70.6662468585439 14.5999353787199 -10.7286762554356 0 0
211.85272380357 40.8615396317141 11.8372258167607 0 0
23.3093410567559 9.64103373492599 -5.60456008746121 0 0
235.812347381263 3.16046703640778 9.56536026126196 0 0
183.234924753143 -13.1630264829136 -26.3993468724588 0 0
-27.1526185899011 -17.2158405986331 -12.8752561847396 0 0
226.035345939054 -44.6947233604407 19.623568818704 0 0
-18.1877616201794 -3.74138227718473 -22.7986650942171 0 0
202.02493544362 -1.89034725778263 15.6859427754527 0 0
18.114552899455 8.41015656684294 -19.9917303334457 0 0
26.3464927511904 -7.08068297967872 -24.4761983610022 0 0
232.594258769914 35.6294653443523 17.2574214513229 0 0
136.202719415369 13.9823716244064 -23.0491424844748 0 0
181.938003673735 -24.7235456473631 -6.85433980106804 0 0
-34.9388012770732 -9.02883595576399 -20.7939845271964 0 0
223.95469192044 37.8614462796493 11.7847982085789 0 0
185.801249215478 7.1872610565135 9.46557426073201 0 0
-7.81305000716989 -8.85797971694856 2.5877862850199 0 0
202.594962143386 17.4360957465914 25.6281415802612 0 0
205.82671860844 -40.1963869187724 14.8965907096073 0 0
217.400210359625 28.8900439910731 45.7260891599329 0 0
139.779901650048 22.9304506636036 -7.30294181089048 0 0
228.363300806482 -3.42822632473481 -19.0513047920693 0 0
34.4597887412557 1.00427643105697 -25.5566643415985 0 0
243.666202858398 20.8362016552708 32.1552542153985 0 0
69.7560618473262 -13.7176644234369 -8.47853556981084 0 0
-8.59449939038396 8.48277655350298 -16.4782219820136 0 0
225.801820768189 -11.6926322468027 17.1493769250926 0 0
200.796802521302 34.3650560955355 25.4971140414928 0 0
226.812464005387 4.59720402675673 -13.7428848092893 0 0
212.40084701171 -26.5375754480882 -21.1389761566267 0 0
-19.4947148332587 6.63241121363031 -2.08744300923752 0 0
207.121703229624 -13.8784095049497 19.6836635418708 0 0
131.044977586939 4.32838575744809 3.25966851229807 0 0
177.628996104193 -16.4018688826582 6.56262766880884 0 0
191.08499108121 -21.5615391453396 -18.7683819651868 0 0
237.784003669869 -23.8725098182132 1.95057641037002 0 0
103.665017042461 6.68276300888613 -26.4254041061544 0 0
170.244615360567 20.5258488240568 -17.3515503076959 0 0
202.994602316576 -15.3281534659817 17.632088846031 0 0
-25.7999420469732 -11.4365806351987 3.10642742917346 0 0
231.204931373598 -12.7039677081049 14.8044126179882 0 0
-40.8168088301667 0.741368685342108 -19.2273989327211 0 0
156.548381510839 -1.91774058954378 4.87543879297275 0 0
203.953669442377 13.5307242391997 28.6296101096649 0 0
-22.5108886792154 -13.3304119425652 -18.505186414593 0 0
193.538752298476 30.1317262126941 14.7027152026289 0 0
201.856698915441 23.7439303602701 26.9263629417826 0 0
185.45412163954 23.6467971862425 13.0858416804159 0 0
244.720826006291 12.5862364694356 14.0081847323175 0 0
162.819013257232 23.1955443302431 1.83933301846482 0 0
202.486003854401 -34.7500896441301 -6.29065058451482 0 0
140.928227217641 -6.55758631915114 4.91824308814336 0 0
221.356079421524 -7.18588113266568 -29.5193447131231 0 0
86.2086221463856 -1.54420865956559 -27.7968409506488 0 0
192.481775345987 -7.82201123380141 9.87423861766093 0 0
202.915330054468 -23.8919686960779 -22.3789352702652 0 0
-45.4527984401433 5.44551280000029 -15.2855740587103 1 0
166.219785254908 -1.64002967687543 5.47819992261973 0 0
213.726522818135 -11.2081437380812 -34.8126206785049 0 0
49.9227784921115 -3.28545608512009 4.89012895470476 0 0
226.701113600059 36.2542684269411 9.34142812669198 0 0
40.122768775478 8.15659250227014 -2.70566113305825 0 0
72.8025378927708 -4.31280231577144 4.63796841868925 0 0
218.341380060585 -20.5118586838819 -27.1277191783634 0 0
177.838402196004 17.3605801103763 -19.8917213409155 0 0
209.100701548832 -13.3192923734175 -35.6101017394591 0 0
32.2263440912967 -14.8770173548043 -14.0101423848512 0 0
-19.393598790385 5.09364453416573 0.13181003298927 0 0
-24.5623039113857 -4.93376664630533 7.354084482232 0 0
196.572642314276 -3.85143699820874 11.8469708836241 0 0
223.961354405364 32.0668252263071 37.1909927857444 0 0
106.46713774387 -15.333704667543 -7.58142520591885 0 0
187.305991267224 -4.42155940783959 8.1965940050115 0 0
216.329750141168 0.559312328969299 16.7028641058064 0 0
-17.6549370803932 9.6214488861854 -10.0263101679032 0 0
-19.9645123157761 -17.8623782585784 -9.40294404075259 0 0
200.823741312652 -0.69403828753465 14.8861183931655 0 0
172.878109709354 13.4483174564862 -22.7190205326107 0 0
207.104817142488 16.0714077180676 -19.3685062013709 0 0
174.95731980161 22.0014734992477 -15.5340783555537 0 0
146.239456538874 22.9796061372953 -4.32144459409863 0 0
9.23723743125801 9.53420114023614 -6.19299668978529 0 0
212.503257281242 -29.4078329114776 -16.172643244751 0 0
63.7941942391288 14.2935481101762 -11.5126750683442 0 0
-3.50689215672028 10.2670053802408 -11.944052139741 0 0
216.131692250032 -22.1263631058412 28.1994486609594 0 0
45.4137880728481 10.5377732265801 -20.8148027567337 0 0
27.8169977522189 1.99658522748083 4.79221350241474 0 0
234.821773801425 -20.8244477388403 13.5874804610535 0 0
240.044481317137 7.06390650861021 19.0089652502448 0 0
148.803870250378 -14.7293803128325 -21.3266743950867 0 0
-37.7803070862846 -12.5793869163535 -18.6941449572134 0 0
186.812661486878 -12.861202547285 -27.3197996010326 0 0
-43.1272132942821 -15.8010719525745 -15.4067315328248 0 0
218.356958813943 31.1266618909223 -9.59066240759605 0 0
87.6622583386113 -14.6143578634471 -9.07687065783517 0 0
213.270819488746 22.0311878492987 -18.2969568622458 0 0
215.3794307985 10.6489533667381 42.8264903000014 0 0
201.914160331048 -25.9642237911993 -18.786872785391 0 0
8.59780928904487 -11.4182926744541 -2.39472852418309 0 0
155.554091354569 24.599676267588 -8.61161805381652 0 0
174.001060731018 -3.08254223893851 6.11457845774851 0 0
153.898323654547 0.980870391111124 -29.0214681889379 0 0
228.728590313067 -40.8820613976427 11.2014540821931 0 0
32.3421346392896 -12.7802479887247 -19.8708414910997 0 0
199.298937981434 -0.161234409733029 14.0387562608749 0 0
159.235601475167 -0.239505833885299 -29.1563652822598 0 0
135.52637656813 -17.802468218886 -7.54180013278085 0 0
233.499624000619 5.42595909166005 -4.72814847207959 0 0
178.937270746827 -1.26104403865169 -28.6917118258367 0 0
215.081656913139 39.7962407353992 10.6579565363691 0 0
203.886423233202 -20.2946410974944 22.6065533035607 0 0
181.077927205447 -16.0439203025615 7.4140717383874 0 0
-45.0520468007443 6.87610122503567 -13.3692057539089 1 0
228.428156754769 -30.109018480355 -10.2348779943968 0 0
122.447048703524 -15.350544397187 -17.6076491723861 0 0
208.557077359923 -25.1930426010858 -22.4855165033808 0 0
-4.0825697108618 -3.47987559806458 6.79982343795039 0 0
212.193420612716 9.08609120915902 40.2950018622129 0 0
185.541118974076 26.8118720383701 -7.58843121150824 0 0
236.662958517338 31.4377294441139 3.54341149873821 0 0
38.2201862315177 -6.32880642601245 -25.1753820119589 0 0
194.253150710739 -29.6786611704676 9.63824554368381 0 0
228.356855506594 35.9650538452881 11.5761058792771 0 0
167.636582200154 22.1044822641126 5.62245824445926 0 0
190.614295396407 7.71226780080852 12.8532755908281 0 0
36.3087749463007 -3.46341318867054 -25.7808735218729 0 0
14.2816642103445 -1.51244788288724 6.0312926533206 0 0
-42.3941412415509 -16.9729893016681 1.96898861487911 0 0
243.52542411241 13.2135971602595 26.5485285897115 0 0
205.009718364651 11.352580160423 -20.1479382434659 0 0
197.776158003591 -25.6905466574473 -16.6904791919408 0 0
133.326112301569 9.86008656480135 -25.712022339954 0 0
137.388904608202 22.8563735406116 -10.0418346995243 0 0
-30.7546941137836 -18.6981542807356 -8.57200950182147 0 0
217.586266904696 35.6866557064407 32.974154634078 0 0
165.10679936624 11.5242725635841 -24.3698439279861 0 0
223.097932936321 40.8316655573594 21.8764155702295 0 0
115.398072700266 -16.1918668470841 -13.580708414423 0 0
230.066628559131 30.1106927182042 40.053010799021 0 0
-37.8716017752712 8.06466643198555 -5.74251477848891 0 0
-18.7345680569811 -8.21714908973689 4.91208140167118 0 0
187.852442541738 16.3550483307701 -19.4809730475391 0 0
220.481565766997 -4.53626472571756 12.3726617534039 0 0
223.88987321055 -34.5552616232438 -5.95305538785107 0 0
153.61567269317 -19.5014991974742 -4.45132536780024 0 0
-31.1379062267307 5.76230104536716 -0.861869634285775 0 0
-8.36946233617403 10.0414787921766 -11.2148340903764 0 0
233.562229909363 4.36992593081933 18.9801506284075 0 0
226.256834482105 -37.84854970994 0.658850888850167 0 0
221.574096992719 -34.2921895310601 29.3777626731956 0 0
-43.9656525978352 7.58322859447524 -4.50982071533116 1 0
34.3989337610029 10.0079893848115 -5.55918078784902 0 0
223.949210791307 -6.55794709567495 11.7170087176031 0 0
202.267606781923 11.9753522805092 -20.0117511490458 0 0
140.054309819113 -10.2719487918769 -25.4513894438416 0 0
185.208771478759 29.5771913003013 7.05336620687053 0 0
146.772210238803 2.29406883858079 4.23399507058639 0 0
137.146579731028 3.12987754869088 3.6612668568341 0 0
-38.6828522564189 2.95469910118651 -18.3070421990827 0 0
201.209364223058 -11.2814448705809 -33.2445234528039 0 0
230.027711764533 -41.5660053127985 9.70989356726818 0 0
137.637643857213 12.2440482746808 2.19938173294143 0 0
51.8212017766326 -14.4868776311627 -14.4754196417892 0 0
-41.0319020402617 -3.36592177317697 -20.7334665387668 0 0
0.79406772286944 7.02066021245039 -2.04610915627625 0 0
204.661752058655 19.31063344781 35.2348514075601 0 0
-14.7183007671278 2.11737486438203 -21.3179044340887 0 0
203.313591237476 9.85109117609214 -20.5659169561437 0 0
189.564552548967 -26.0028028570235 -9.59052073600986 0 0
-14.9684288968457 -12.1555720160007 0.331414060688239 0 0
215.573177693184 -24.5381512960345 -23.8792133670308 0 0
140.587113156777 -12.7695433916105 -23.1361312259376 0 0
224.78291136532 38.7938880666356 13.8763542992675 0 0
242.064442769261 21.442104383083 -0.612189217200267 0 0
4.1385104216295 -5.8319027627462 5.56511057610901 0 0
50.8807347961602 3.47490535588599 -25.6452944575992 0 0
208.957851978933 -42.2179114120674 6.14083796525026 0 0
161.297033289226 -20.0329120331963 -10.5818445138951 0 0
210.022441556075 -22.3760359062925 -26.5259021440539 0 0
235.308326790873 -39.2762522457278 7.07858363929456 0 0
236.156290355632 19.5661261490609 -10.7878424204023 0 0
1.79028235387817 -15.016321818278 -6.01697166338897 0 0
210.221953910162 29.8437826803862 36.4134204250731 0 0
113.292096544668 -1.7345143239221 -28.3694947919668 0 0
154.694144646346 9.4679404677396 4.65310800748018 0 0
36.8397157608896 -13.27155825649 -7.27154184855502 0 0
-2.97588481480629 3.79732663254445 -21.4862524147374 0 0
172.25760442525 -14.0185929845669 5.97090992440152 0 0
34.4958382716242 -14.4707371538282 -15.9430797547033 0 0
211.643825104837 -35.301143034989 -8.07184771684908 0 0
59.3920723116079 -6.7920161385598 1.62086015217599 0 0
200.371053979205 -19.8066261947909 17.4565733708652 0 0
137.034531247849 22.1781063834443 -13.296331588899 0 0
224.246031116643 29.3851262439406 43.3834762650993 0 0
183.680874153409 21.7674805169556 -15.8798034850991 0 0
67.3737510074958 -4.88264742043504 4.02820924807655 0 0
29.4675180039363 -12.1358240254887 -4.9818012124812 0 0
206.592006672415 3.78897759669831 -23.4777420939544 0 0
-8.74232731055982 -15.1705829865696 -4.30017780464236 0 0
-11.5042735906133 -15.7116618848214 -4.62898363620136 0 0
203.516122409004 14.7479464740696 24.5533905409665 0 0
222.640237588794 -33.4071623911647 -7.49887206596451 0 0
149.967727444625 21.2144670406652 -16.2798693133925 0 0
225.317376249106 37.7484829563486 11.5256063581403 0 0
197.739783633663 -19.9833278745884 13.5537708976531 0 0
218.445419761832 30.1030994057432 43.1824107396664 0 0
106.505534191522 19.1719766886054 -15.3953031948938 0 0
126.314419662418 -12.9746189436764 -21.899955438098 0 0
73.82775144396 11.170561026682 -22.4730486073737 0 0
236.677272826026 5.14909889850527 21.9113693895174 0 0
31.2063575945903 11.9898623831315 -15.1281277113209 0 0
-43.6301653795719 -19.6381923409628 -7.26178538051384 0 0
7.92064927540422 -8.18913958214852 1.81420483029384 0 0
222.426303426468 -17.1128722890161 -30.9074919966098 0 0
94.282592799218 17.611324072989 -16.3824088717168 0 0
198.237462012612 23.4650212951946 -15.4293646122096 0 0
241.504491520673 20.1305355431845 35.695147525495 0 0
236.94590120077 31.9061327132448 6.858757591078 0 0
11.7638048274337 -1.03759802182422 6.08262478094672 0 0
94.0698140522413 -7.37272986946291 2.53959238611032 0 0
-31.7349875128913 -18.5199080351722 -9.8286032457841 0 0
173.3495169191 -5.82075640278622 6.17241359106981 0 0
231.383564407339 -34.765749944456 -1.93023949639273 0 0
177.725368364694 14.9710414254395 8.53377952682809 0 0
46.0584484811252 6.80712617215741 -23.8317080612473 0 0
146.74677952398 5.87302412549249 4.12432270811261 0 0
211.491963536618 -19.8619738500749 24.6425432085774 0 0
41.7931177596687 -10.8931237724915 -22.2200731664245 0 0
-20.5261005074673 8.8098503677764 -6.31205231657667 0 0
21.4914386921415 -12.5471714242675 -20.3171133868734 0 0
-44.1063051809424 -19.5661542569734 -2.84520040274904 1 0
9.00594220619295 -15.3133633238876 -15.62478082146 0 0
186.140135425778 -16.2180475400369 -23.8848921333773 0 0
192.238952962585 -17.3005597299646 11.2466454813491 0 0
227.65047552334 33.5495866527922 2.09037433137884 0 0
170.459000028613 24.5362787008647 -10.8820835949915 0 0
213.942448430728 -42.1315518194022 -0.147555709338442 0 0
72.8848190843766 15.466248835195 -12.962372046672 0 0
186.438903472798 -11.3721987006924 8.31445862696412 0 0
144.573626461754 23.3769403517405 -6.10315193785464 0 0
-17.5572787571877 7.71633143186036 -3.86835742412622 0 0
117.567694082676 9.34456469101033 -25.6186902561067 0 0
140.253696960385 10.2687806107104 -25.4887472367798 0 0
205.236189955579 28.184836434026 -12.1743612829629 0 0
152.696703639021 -19.3386741909264 -10.0351748846048 0 0
211.076861738216 -40.5638220773438 -1.64899650750088 0 0
149.300643816933 -19.0025492957676 -5.03110016184065 0 0
218.811295741646 -41.1891291608586 7.46520525030859 0 0
-42.4483838010052 -1.85250374242016 6.24184083822855 0 0
200.704029536326 36.2218836604003 12.5981226918131 0 0
77.3199585161667 10.7836011392623 -3.93485276287736 0 0
52.0101432083944 12.8060160685299 -18.3876667774684 0 0
171.787357172489 -3.57906224344587 5.94751408767053 0 0
32.5947238960032 12.2616084498756 -12.6396717628091 0 0
246.499377304853 24.7441082132638 11.9146244483848 0 0
220.210632371451 23.9974393629219 47.1860020544572 0 0
232.413745440033 -1.50699088744177 4.87667745764472 0 0
143.686760478936 22.8784057119084 -12.2725492052148 0 0
128.262992506947 1.82942025640749 -28.773837765156 0 0
129.621817450268 -0.371804447219097 4.03007391370991 0 0
235.350230543529 -11.4043605366376 2.4395562295235 0 0
173.059437028718 -17.0180617866041 5.27783757982994 0 0
171.719608761266 24.4318329806796 5.33546805177768 0 0
-32.9514324052575 -4.75367754659014 7.43550976974056 0 0
225.813384760817 15.4786235766608 45.4111349760993 0 0
220.598873432697 27.4451714838134 -13.8719514243194 0 0
245.753542015324 15.7466271661494 17.8400325405632 0 0
191.727458261943 9.46297284460216 14.4516210623004 0 0
182.555812206671 -24.1018577537588 4.77343751213069 0 0
205.257214188388 37.6268067984134 8.68128799166464 0 0
225.964528091091 -30.9074428722519 -10.5496293501575 0 0
196.888738293555 19.8656356735607 19.3037653140113 0 0
202.124684520217 -21.4652974343892 -25.3734891153964 0 0
140.732766010016 16.8449785777272 -20.7380988467262 0 0
212.53601038773 21.1447138496447 -19.3318171210127 0 0
-19.723677911665 -3.19312261703923 7.01801978059497 0 0
191.976191610042 5.8405860119215 -22.023702018598 0 0
56.2882455608648 -6.12572604457067 2.39893597031727 0 0
-21.812751136278 -15.5304677334854 -15.7495013120319 0 0
60.1766666842837 -7.43285089238471 -25.4561147276126 0 0
212.320090323592 26.353710936155 -16.2772793590998 0 0
231.143928119266 -29.2091517490021 -10.0952409723512 0 0
223.726245846667 5.49098536646401 32.3381437244342 0 0
135.387512859877 14.5322136298957 0.511294707028267 0 0
245.917174311184 28.2495959352598 25.5744332533759 0 0
34.3270873117103 0.119659425273058 5.27523240567257 0 0
-15.4396376521404 9.70497222029551 -9.68848211930102 0 0
37.707261817792 4.45936289994609 2.23830142271389 0 0
6.5634303025181 -6.65581965166688 4.29888090761804 0 0
-8.88616280878321 -17.101787547433 -11.1522530638563 0 0
82.6136537059849 -9.01835126857943 -24.8231301024424 0 0
219.118080021241 42.2442011018641 16.8984128095704 0 0
-15.2597852233907 -1.03699464968893 -22.6106024479465 0 0
200.253631994396 -6.93614458611691 -31.5056589187298 0 0
-42.4021579976073 -5.41454177130614 -20.8458964766733 0 0
144.523884008568 19.7529814262299 -17.9432514874605 0 0
-25.3412440195505 -8.00314455766609 -21.6820045904113 0 0
73.9020306592735 -0.573719950952109 4.63105985324834 0 0
66.8802771811402 -14.5358096792978 -13.3902356358672 0 0
-29.4745099214797 -8.34397567960453 6.21597934477452 0 0
73.424444296208 14.4307490960656 -9.72103268435344 0 0
130.725578610563 -5.86059939822012 -27.6536818238711 0 0
221.767545461317 -43.2309901202661 25.2950852947818 0 0
25.6043958775106 0.0691239951117469 -25.3151567003944 0 0
122.431319380642 -11.3857699820689 1.59694981973768 0 0
34.1728731540237 -6.71277341458719 -24.8675388052721 0 0
47.7254173993888 12.7724421204905 -10.2252195506964 0 0
216.923669351019 -10.3550087693494 -33.4793827347535 0 0
37.2800770962985 9.4351101152246 -21.1401295256369 0 0
162.351890670255 13.5250142695122 5.73651594030481 0 0
149.883128787141 -3.63771225584171 4.75995460702703 0 0
161.837775573162 24.1536489818762 -11.1296145998822 0 0
218.724425637229 -5.27689674515403 -29.0354831150724 0 0
121.265678496343 10.0079385127659 1.21774011964723 0 0
171.808418116685 9.12202047630939 6.39543190965546 0 0
200.912447299625 22.8872066443052 23.9930296857398 0 0
-28.3794193986326 6.96634310446823 -15.9427473195842 0 0
69.6736901009692 -8.67472230724277 -0.376113656110314 0 0
102.657886322099 18.6471715490847 -11.167805363998 0 0
222.585541855364 -32.237933692601 -10.1076167558199 0 0
127.401145125294 18.8568121110924 -18.3296248200768 0 0
208.575366164334 4.55206902994217 21.6208155684515 0 0
228.217084771681 -42.7294023950039 13.6263057262256 0 0
220.767553377808 16.0027754408516 -18.4796485208316 0 0
-23.5229105206359 4.07311718856017 -19.1324205685538 0 0
-43.709963829387 -4.7928726451871 7.60149979006178 0 0
236.660850555981 -27.6821336241434 -4.60941515149692 0 0
237.059365505296 -30.8670322078849 0.112404715458056 0 0
212.646038616263 13.6204042761838 -20.2493503364288 0 0
37.5874184095675 6.11633569028287 -23.6869224621405 0 0
199.665908450272 -29.3304670321577 -12.4159508485023 0 0
217.288495490187 -15.9175818668064 21.0798657290905 0 0
164.570870084846 16.9060791413241 6.37028783594402 0 0
193.445868491255 9.71067710731307 15.9276933054351 0 0
230.530913088935 34.2270797966536 6.29749277958363 0 0
208.736089423783 28.7411092656984 34.9939658963043 0 0
-22.7509857786703 1.47913164196909 -20.7723256489137 0 0
-11.9714337222054 -5.9388728129692 -23.0022712992654 0 0
67.4800590158913 -12.7403624024907 -6.34325724896794 0 0
169.260707268146 6.60704870437126 5.94003081864697 0 0
231.790949810064 -6.99281180303458 6.88496188263771 0 0
226.112788185216 4.96204982159013 38.4853931002916 0 0
245.4252028386 25.5621368019403 28.7412697228027 0 0
191.747059882085 2.35753605823162 9.98218276429587 0 0
242.380381136854 11.0807188311846 6.20948040512545 0 0
202.500202047413 -39.7964081229769 1.10268534035847 0 0
-33.1149603690333 -18.8283802301343 -8.51077616532903 0 0
222.139402737552 -19.2107173232481 -28.8051174489019 0 0
215.043708445188 42.5782044649193 16.9942522054621 0 0
238.854194142277 29.5343817314406 35.7497100892924 0 0
123.39310854075 -13.1622440360091 -21.4882035800887 0 0
220.363273851985 5.04075636305565 20.7132704268638 0 0
1.59837803943386 10.3418312013582 -13.774341248098 0 0
193.433671309098 -24.5839442820119 -15.1275765513607 0 0
-25.833514559242 -16.7590366763394 -2.68507939778664 0 0
128.667543719659 -1.52344406680731 -28.8379189360855 0 0
88.2324282701895 -10.4434546839622 -23.5148994175184 0 0
210.350168961877 35.3723722969953 0.155850182916652 0 0
215.186231382869 -41.0807045429579 16.003640984274 0 0
174.547461530207 -22.8995224250179 -6.99574597173506 0 0
-16.3846370418593 -6.4027356513489 6.63599526048026 0 0
199.932397835364 -22.7293270143136 18.869777461793 0 0
186.791219499873 29.7414930514875 3.66309304623326 0 0
192.20176316587 -30.1887217218814 7.25297715534545 0 0
161.364164189559 -19.4103434311947 -13.0937746507161 0 0
236.598495223133 -22.7709510758136 9.4952845940013 0 0
209.11193284037 -15.4093290636617 -33.7243700328367 0 0
201.396174175729 36.5593965107858 10.782105887552 0 0
201.994132956056 -28.6944601856798 -15.1340770105367 0 0
173.335534182702 3.77600823460293 -27.7226053953569 0 0
178.795491019119 25.9136046982955 -8.51263470482841 0 0
166.274818424395 9.26887528444898 5.67679237431266 0 0
33.6308026623525 -13.8977709909452 -8.20770591895568 0 0
184.094575320494 23.407570325648 -13.7803394505139 0 0
90.2771989962946 16.1079165905818 -18.5701387235665 0 0
198.580963060987 -13.242205851514 12.380487009707 0 0
209.243028527716 -43.0348004317613 2.82514527660856 0 0
237.090379354128 16.2388357276228 39.4847144413692 0 0
194.75694559725 20.4968378435781 -17.3666444186782 0 0
198.530537262247 34.76589904237 13.1198676087308 0 0
205.081874389446 -8.4429994586904 17.7160557931885 0 0
208.292264779576 3.026655721231 20.6792954760843 0 0
202.843399051727 7.947404971933 -21.1402279297131 0 0
238.654452841463 8.43755217813099 31.7754016587353 0 0
-47.4165904569994 -17.7815625067888 -12.6299600967095 1 0
185.673661564912 -26.4357850947877 -5.02235456029414 0 0
192.863395109748 -21.3246056063818 11.4387317531787 0 0
125.972927627188 20.1113715206363 -6.42728336196231 0 0
245.132081156282 13.9000528885489 15.8629638026487 0 0
235.876267778631 25.9036055135852 -7.69561570224828 0 0
-10.8151691248916 -13.7433179422018 -2.03244450224714 0 0
183.345278772092 -24.1114505902906 -9.52419162617111 0 0
-38.2195965744274 -19.3288462131336 -5.93726334833367 0 0
161.090276509244 3.25133042298032 -28.3645258077561 0 0
25.6280151875925 10.5004282695556 -7.15336400726143 0 0
159.000788897251 6.92979399524846 4.96723783083727 0 0
202.396291400511 -8.50694547227445 15.1160473220173 0 0
201.530989893884 11.6598247030932 20.9862389249978 0 0
151.431944892552 -13.5027666795536 4.49991494635716 0 0
217.737755128023 -13.8018792277999 19.4531136918092 0 0
200.160774912256 6.35969969716657 18.3206860088445 0 0
215.762804753035 -1.38160261187435 16.0805139043388 0 0
202.662429883158 8.20042099175394 20.1306789166135 0 0
95.2649399504941 -11.2992182116721 -22.5756266112045 0 0
190.614547803796 30.6022303456453 3.09125942792931 0 0
205.472543599035 -33.6421899684665 -9.44999308384902 0 0
207.752429278549 1.44420929323478 -25.3288538269298 0 0
9.12300002711526 2.92568713986731 -23.1486889010125 0 0
244.105994058625 15.8015567473168 28.2080280083798 0 0
221.220744020505 6.26309166483237 25.0159258924836 0 0
197.035196273017 13.8643098384287 19.4236655743952 0 0
93.7982342110447 4.13317311859147 -27.0893948592782 0 0
209.396814886792 -42.324006294987 0.285552400593655 0 0
245.846294488807 16.9397106383724 12.2679543150953 0 0
217.884558824248 41.0789297222813 13.4264067066324 0 0
55.9616421751805 -2.22933546152998 -26.8326549208414 0 0
121.738400031479 -16.5109438236948 -13.8203482968857 0 0
139.976771483069 -7.18798710730773 -27.4285182499861 0 0
228.865449928858 6.35640163004952 24.8704249937995 0 0
228.685364179583 -37.5439013538962 1.42941544047232 0 0
99.3494745546882 18.1156029965765 -11.0397532514596 0 0
214.776713207978 28.3592127534491 45.0074821556324 0 0
197.660975189238 -17.496245842287 13.6523134830835 0 0
217.807308445429 -11.2277213021439 18.1252941764999 0 0
185.644903605558 -18.9027367030892 -20.5128758649421 0 0
164.265664370653 23.4260829156065 -13.0510313772697 0 0
120.641047397836 -8.78022199622816 3.56581673542381 0 0
19.0004891320205 3.32847614524617 -23.8524202002806 0 0
245.726174661748 27.6070310577969 9.24875320463204 0 0
211.651919149235 -3.73698987602198 -29.8605599036062 0 0
245.54579649285 29.7719239881565 12.2990914685835 0 0
212.194416965863 5.64671274293179 24.5754977813488 0 0
109.717933470684 1.3964315037127 3.63414833577519 0 0
100.401289689494 10.5157514312456 -1.28993795081409 0 0
-33.8083274092611 -18.4781532492207 -10.3566232501478 0 0
16.9245559254771 -6.35592431727595 3.917476715798 0 0
163.961841598498 1.28508434545808 -28.8266883992483 0 0
73.3337770602005 5.0822011391219 1.57524075260392 0 0
65.6663372530243 -14.2532162382698 -15.8504603016728 0 0
197.002692909462 -29.8433478739617 -8.53591209521479 0 0
224.88309794858 -34.5095348990178 28.1160123727191 0 0
200.319221790797 -36.3218675741141 -1.67800083643435 0 0
233.69386209031 -12.8181961709203 9.86818589407593 0 0
-23.0276948430313 -7.04873565156337 6.62000810720375 0 0
156.095358522289 -17.7634051757315 -16.7852152888483 0 0
170.013226453677 17.4979682650804 7.15530688148832 0 0
148.766659523597 -9.41628491607462 -26.5666829839499 0 0
-47.7712271486192 -11.9500074013506 -18.5681588063452 1 0
3.35268407483941 9.86344072339722 -15.6589724798894 0 0
49.8104795834439 2.75909935896454 3.87287443204728 0 0
140.469775168851 -2.88822970273564 4.57055997250778 0 0
182.322754484621 24.6682693116767 -11.6037825482187 0 0
-20.5628413270483 -6.79458435033417 6.60977110105196 0 0
149.335910478598 14.0076440917301 -22.9817426092252 0 0
228.17411469862 34.5423934720396 33.0889493520705 0 0
191.195280585104 -5.99622023388512 -29.7438656248099 0 0
213.488350134105 -8.66133852708567 -33.4209473738114 0 0
227.90282889958 -28.0804885352403 -13.7288179681211 0 0
204.527340152036 -40.0369135615878 -0.509723851040268 0 0
105.166102556976 -8.84899585002633 1.9140419874911 0 0
41.6804028131573 -13.5162825889746 -8.12759790054071 0 0
91.7418041231138 5.58479033708956 -26.4864752419913 0 0
97.9927218932118 18.3388414528511 -15.2720763665239 0 0
207.928115136732 -27.8863824919631 -18.3529210498044 0 0
-30.7552101983131 -16.2097102432519 -0.498354873366628 0 0
57.4078541609554 -0.091984163803615 -26.8345305890854 0 0
12.2310981580712 -6.10868794877041 -24.2740161794618 0 0
5.52966925985755 2.68857507847833 -22.9799559206866 0 0
99.5802650023398 -10.2323035589729 -23.7432285183408 0 0
-16.0113400197311 5.20294789151445 0.0148845932186482 0 0
19.0402184367176 -2.62641563662821 5.91140089499083 0 0
227.914190448914 32.7286766663586 0.617222273675509 0 0
-30.0534892462363 -18.289795824467 -10.3686735871297 0 0
180.302492257702 -21.9305874270002 -13.1672963482837 0 0
222.850260531961 -20.7822475529093 -26.5481117683999 0 0
52.3567985848729 13.6981917440762 -13.0908444277137 0 0
82.6609900599016 -13.3238257426175 -6.12597959727444 0 0
180.559085166953 -24.7194357775143 2.01792161102757 0 0
3.1390343306741 -7.42410840482636 3.40211861223187 0 0
217.358382821815 13.500228085894 44.252037245538 0 0
210.225994567213 -1.09758278040064 -27.7411504122834 0 0
171.72350818562 22.0900534569225 -15.3555279159994 0 0
-30.2841422751117 8.13096312920238 -13.6046342303282 0 0
162.615223381125 21.4898755323002 -16.2677403323514 0 0
167.515096554113 19.6384733042943 -18.3301949291296 0 0
147.533390298028 4.90896346057486 -28.0552079120057 0 0
-34.4071286095612 -12.2721866266591 -19.0576864076384 0 0
212.094427752885 -7.59226222785998 18.2677534390209 0 0
-28.4615828412662 -13.5251155077635 2.04600556511648 0 0
195.434225588524 -12.8233977429719 -29.8320678770332 0 0
204.146008507818 36.5944229315558 6.68046720237103 0 0
209.687961756414 11.2057299920377 39.4660581314908 0 0
178.092315995517 -3.47142442190574 6.51147084124217 0 0
41.9823924316568 12.7887305974703 -11.7965979790949 0 0
-11.5983018555165 1.88359972549436 -21.7898319431943 0 0
101.098994170144 7.83056372336976 -25.7762375879971 0 0
-15.8554333389144 -2.54431745484206 6.80045613446065 0 0
206.793715455097 38.8664837782769 10.5067976179411 0 0
185.742071385404 17.9805526213837 -18.9335333915181 0 0
172.886022150495 16.7855578300866 7.60818738527865 0 0
20.4124462630841 -9.91332996912424 -1.3605799784745 0 0
49.4385784839572 -1.0513438050789 4.97697180677081 0 0
238.25753608074 31.8507769604991 18.2513574002549 0 0
-22.0292247345569 1.21366842607376 5.34119762054137 0 0
233.148347860597 -28.8945819598255 -9.53379968160663 0 0
140.125854068967 -16.5000851818495 -1.49398530850117 0 0
16.6610200380515 0.273321724423785 -24.7622011464559 0 0
207.585674430997 8.55186424344009 23.0785644282727 0 0
215.973828413271 -28.235791069367 -18.1967711300919 0 0
226.778394611914 30.155575680944 41.0532396882357 0 0
191.745380189396 9.31898446302946 -21.676681466088 0 0
232.123004544621 -30.082934738373 -8.32874816766218 0 0
135.51876800282 19.318451363898 -18.0629037053867 0 0
96.4921772163386 3.72727036963295 -27.2907287232775 0 0
240.881945132253 13.2375455339624 33.1235619061641 0 0
79.7729052910848 7.13906026117964 -25.4243530165509 0 0
29.5935826529973 -12.7160227937491 -19.978766382415 0 0
231.775287190742 35.9381458774606 22.2579579498156 0 0
32.4305243104215 9.39758428571363 -4.65425810456019 0 0
177.353606714594 22.5210462689097 9.44995770890815 0 0
-12.7420527315327 8.75766295303343 -15.3035362390579 0 0
20.5751617938789 -5.6645027297637 -24.7416639189667 0 0
97.9313582634343 -12.4016629112732 -21.1745638484151 0 0
238.370646338765 23.04453096729 40.0362368664111 0 0
198.240715513805 -12.9315046361137 -31.0012011648559 0 0
202.371852913566 -30.1475035740794 -13.1904488487916 0 0
77.7157575428579 7.09526820442486 -0.307006702171809 0 0
208.561986335447 -23.2217873410931 -25.3611800146826 0 0
-44.4620289606211 6.28688474685524 -1.73552434067232 1 0
218.054519384049 40.2137170230452 24.5008438366804 0 0
235.716429316189 24.1304103013815 -9.29932809947187 0 0
232.967642314457 -27.8469452927975 -11.3047611018159 0 0
226.23136039572 -0.607333400551447 10.2211527869142 0 0
147.029033006791 -10.2658931258473 4.91571528619983 0 0
214.900881229158 29.3233418035738 -12.2984230988459 0 0
5.03002776418464 -8.89998190821207 -22.8866429628773 0 0
-32.1912684029774 -10.7776880143702 -20.1325318698427 0 0
177.78357262564 5.60906319686912 -26.1851772478412 0 0
52.1595842297951 8.85027480308853 -3.37240317352534 0 0
201.726649668263 37.5054763171629 22.8841506892619 0 0
226.68386027992 -9.76424629381049 -27.3851533431921 0 0
205.953266448153 8.21359865805578 20.8498746385496 0 0
184.788859691152 -5.67502757322836 -29.1825298636929 0 0
-24.02051727246 4.88207021253146 0.431132550544825 0 0
191.672668789483 31.6708006022925 8.60657769497129 0 0
187.601500907904 24.0625793555612 -13.0862792769451 0 0
115.409303361573 -0.427898045725465 4.13529937484405 0 0
196.123440882143 33.0303797703264 5.79411725086116 0 0
212.949860722488 41.9673716688607 15.0917854925506 0 0
197.446100817488 18.5807688558777 19.7054730118536 0 0
218.419018561612 4.68179280639175 21.0894920966592 0 0
-14.6569710708826 2.46570512964219 4.21739443901184 0 0
221.777927261481 -33.1559043143527 -9.09630655956212 0 0
82.4995319903976 -14.8587911814763 -12.4264765317375 0 0
-32.3730392209799 -8.45722485944779 -21.1312671142127 0 0
207.333024329263 11.9154707384735 37.2630064169059 0 0
106.618286291331 19.0034970620765 -10.6051323678938 0 0
196.54394941976 3.02317135572824 -23.7596997857956 0 0
175.146418780038 -23.5850524758261 -3.74183291078169 0 0
197.370507210716 -15.245650351379 12.2660406173991 0 0
213.935871664642 -27.466640702941 -19.3363033682914 0 0
220.238519400933 6.35201649663738 26.7006821806594 0 0
195.424515016666 25.7718422267273 -12.0636854963475 0 0
-12.5091117007236 9.77712437394359 -9.37732547209915 0 0
216.578318440087 40.330208575409 12.0334148120519 0 0
-39.259435627445 4.40240125495389 0.920559011284559 0 0
233.553232328884 22.7855591759998 43.8886422196774 0 0
9.77629175518179 -15.7432151389593 -9.30412835157007 0 0
84.7562017695803 5.01542954608393 -26.5011631299413 0 0
198.405344663709 10.6204429888959 18.3792515906766 0 0
201.039600957487 30.7845335503805 25.5420878340909 0 0
80.2442492194573 13.8034611026586 -20.5461399593896 0 0
139.883305756229 4.18305329236806 3.74707122071699 0 0
232.921111713051 -33.0998310576699 21.2493537205113 0 0
206.730038307374 -22.9599056406735 -25.1438750705382 0 0
182.429744836716 6.16096881111121 -24.3476238054942 0 0
101.984829952642 -14.2561799899083 -18.0987550164943 0 0
234.431253290417 -31.4389361780129 18.7025994264007 0 0
137.838455957304 20.7271840042128 -3.73145562376673 0 0
-14.6541009122345 -0.538982207528365 6.13283546357535 0 0
217.851338471436 3.54688141512229 -21.5411845928457 0 0
-23.9031559475478 6.79487989959739 -2.430979261266 0 0
208.616607985122 15.1697162339816 -18.3453062930315 0 0
210.219385409932 39.6288245908254 28.3672645500419 0 0
223.668664954801 36.0102611101332 32.1743033194551 0 0
202.232788621857 27.3618718651688 27.4237110984233 0 0
18.9995543632793 6.86336962436018 -1.27145328731689 0 0
172.163578321253 -20.098612555 -14.7606312860442 0 0
203.092601120723 37.7538417744456 13.6078600497565 0 0
149.988784772889 5.29281844096035 -27.8409848990386 0 0
180.182106029811 15.3527369344522 -20.9209335134482 0 0
218.09405777998 5.95186489174413 30.4951591855809 0 0
119.207210224445 -15.2713599574767 -17.3963585932173 0 0
-28.9626217885253 2.85057495365835 3.16418919911439 0 0
206.443723029815 7.54445453630475 30.3271243958 0 0
164.497908966126 20.0683229357348 -17.9395508348466 0 0
220.004555053593 -18.8422064653713 23.4217746897427 0 0
224.684633784948 -11.1788710050883 -30.1004538108169 0 0
226.063345156313 34.8669471040978 3.52760035334543 0 0
122.33364164438 -15.1625667669108 -3.32576937025451 0 0
103.20162951325 7.76389907097506 1.01252332540882 0 0
214.467639999064 19.4444155553015 44.5388032320541 0 0
186.694731482551 9.82326365005779 10.3721837279649 0 0
173.820542110973 23.6968047978942 7.49370551276042 0 0
181.546786962256 -25.7120644078251 -2.3499321577756 0 0
167.341417569008 25.9784379584601 -2.35848504421986 0 0
231.920255738957 4.37598012841057 -7.01137404195812 0 0
56.0987679564104 13.8100362067423 -16.6697433123723 0 0
46.1566056642371 2.17129468428486 4.18842343638152 0 0
-46.4432816028732 -20.0316342909126 -5.56622761563612 1 0
86.5369283769214 -10.5996473743566 -1.65129405836104 0 0
228.969874206737 9.95776926934622 -13.0213561381794 0 0
226.906435270413 -25.0783405954374 26.5735501270156 0 0
165.708627538759 14.2100358330949 -22.6138905302921 0 0
224.967180828517 6.59704317250771 -15.3074829389785 0 0
151.201002288697 -1.36701724158934 4.60121045392895 0 0
66.4237953087748 14.8472177597439 -12.8925148147046 0 0
207.554030388752 -10.1061668417787 -35.3583554094018 0 0
-44.6059509468748 -1.23415259475595 6.49213481968838 1 0
209.20917989438 -0.917521974521892 19.3630131725145 0 0
193.324691882066 6.92800254651886 -21.6020575718238 0 0
191.254803858475 -15.4884906962502 10.4576646368178 0 0
47.3906079812729 11.5709368772496 -7.42427472249252 0 0
196.868782824545 -27.3801560435312 13.4579954046182 0 0
240.863800762939 26.3647727050144 -3.8705224434588 0 0
123.036881637537 18.7727506630558 -5.50910525563512 0 0
-47.0334711093007 -1.29908447462809 6.50136513692619 1 0
80.4997971639883 -14.4700315286416 -15.7584128341286 0 0
0.219852358910423 9.34234782432498 -16.3256007990771 0 0
-32.0997727996528 -14.5370900152182 1.94067456359717 0 0
232.861936157813 -23.5013131661016 -18.378377014518 0 0
-28.5066200709463 0.951175789137083 5.34394505187544 0 0
233.417071796876 -34.1975268052144 -2.00513665987537 0 0
231.580630253713 -27.171698576053 22.9261634370928 0 0
86.706466020657 -14.9843063943664 -12.6187325049053 0 0
178.541667961998 25.5653191700095 9.57253753759262 0 0
198.490991278858 33.9478722253509 19.9290903268238 0 0
16.5145366496437 -11.8102731447862 -3.63768633757789 0 0
53.8077032467683 -13.2169982359901 -18.7782026621586 0 0
101.896034856981 16.2565002614735 -19.539568176257 0 0
34.2041330159048 -5.22751734924175 4.34223547622052 0 0
144.410558271757 -11.5917637795231 4.83056526570694 0 0
214.428498501667 -34.6054448995584 -8.51922234593506 0 0
230.935489811385 35.9193229415298 14.4260091234431 0 0
221.651770054652 -11.98653797099 17.5894250426039 0 0
218.009018362254 1.74754458472021 16.5032017900105 0 0
206.910699735683 17.2500882063144 38.2664464048057 0 0
205.333846828954 10.1794074498008 31.1743676477076 0 0
-37.7711723151186 0.539794726115164 -19.6464269187445 0 0
224.900199332154 6.19186323444769 21.3157026050191 0 0
203.250441931042 17.661173865527 29.7855067693065 0 0
237.421261890378 -23.0858073641457 -5.96592641380275 0 0
246.071891663676 17.1965902941563 21.2540500972262 0 0
205.208153431835 -4.24346561721844 18.6233728345284 0 0
216.445625445019 -7.79634749918422 16.169411332336 0 0
230.548693446812 -33.9770473215707 24.1914072650957 0 0
213.202825743452 30.8829288248417 38.0760907398708 0 0
168.563529055418 14.3646833591968 6.62064966301303 0 0
229.2938919378 -14.3858155162952 18.8750740600054 0 0
204.874664450761 -27.3346876279179 26.1266743743838 0 0
214.980452998367 2.40343845267251 19.5158328085467 0 0
4.44997221789843 -16.2957610522842 -11.5721120802599 0 0
234.087871946559 -21.3526086871203 15.5537869726913 0 0
243.730003019785 24.5277844913695 2.6106857983763 0 0
121.326357442157 17.0703026149554 -4.00444682827661 0 0
192.338980214717 -23.4986841046027 11.2437982205065 0 0
235.292498313042 -15.4130173710003 7.37936039948445 0 0
191.808509592012 -2.71885522966204 -28.0106191000285 0 0
236.322467093188 5.58645571936648 27.6384427104166 0 0
171.195686001815 -1.78466843798792 5.82837007281295 0 0
193.65454252263 5.92971705809424 15.1479139403163 0 0
209.368012937195 24.5822916040295 -17.1638227005332 0 0
234.68010147031 -11.6605075801262 5.78089091697522 0 0
-27.0007660685243 8.81767725953991 -7.32667561869019 0 0
190.791626194409 24.6832885655083 15.8782141060484 0 0
23.9585759118312 -4.79442088829847 5.14010333007915 0 0
19.4664640926014 -14.2961599857059 -7.51724531356909 0 0
93.4771946685127 -1.58509730869364 4.31917772535815 0 0
-31.377328188638 1.42912288962723 -19.9111695362687 0 0
243.694962127159 30.6042691147122 10.3566363965233 0 0
207.773200754372 -42.4731943036744 4.42862726863331 0 0
-14.9736095635507 7.58942662358881 -16.7873062392031 0 0
-10.2175254052191 -8.61914458831492 -22.3050152154988 0 0
194.694053064682 -33.7394420961084 3.52475233491159 0 0
195.30013624343 33.3205134734077 11.2272078313725 0 0
204.747144952921 12.2163052688241 -19.0884077641639 0 0
109.829315897806 11.423482430825 -0.92928080844639 0 0
233.523931411463 -10.1028632798415 7.24494028655467 0 0
236.427501298541 -20.7178701788404 7.69248788080162 0 0
