"x" "y" "z" "f" "a"
-74.5175236963192 -0.414145709990147 7.47929003974032 0 0
-56.7525865101225 0.022788180921255 -20.7996264209536 0 0
-246.647342057306 49.8773088775509 3.34750724136586 0 0
-144.170189340339 -12.992355213039 16.576227351161 0 0
-259.204456135757 35.4555254870993 5.06052053568539 0 0
12.2821844662924 -4.93056563630315 4.24834159252241 0 0
4.57028491569163 -3.96290753136788 5.61135196438742 0 0
-244.556213286883 -20.8036782296093 0.301174476982854 0 0
-228.300524904994 -22.5444503175634 -10.8634813809266 0 0
113.698505647485 -18.8556533284474 -2.47859669385941 0 0
-259.564490833358 27.4290884621317 8.37094849964986 0 0
21.5213383214695 11.1204846418542 -18.4958550769029 0 0
-72.7133476895098 -20.5949903466531 -2.77597383051765 0 0
-187.020310228172 15.1448747502078 5.12869524577639 0 0
-244.105071341724 6.23078257319178 -2.50485174249007 0 0
-48.3577566567235 -10.3842570612349 -20.4453036609797 0 0
34.2156572578207 13.5483055441092 -14.8486577295521 0 0
-43.2535924946615 -3.04135558847818 7.29234620376232 0 0
-203.104280556394 -10.2921636547238 28.2014453534438 0 0
-49.9993800716806 7.8520818564674 -4.45413227067991 0 0
24.9809459179228 -5.63230623377801 3.56772686051815 0 0
-183.365006762168 8.31395899558121 20.9115236270968 0 0
-244.371822385442 44.3389154409796 13.6028498231239 0 0
-181.703638916006 18.802988458921 12.2780320576674 0 0
-202.82726431365 -38.9473390663236 12.9070444286032 0 0
-63.6831759413084 4.87839529482709 0.424793881113644 0 0
-230.216414911735 -9.10864212334448 6.59212258669663 0 0
13.0880752225435 9.50268968741118 -19.7501590801226 0 0
-102.183114827207 -9.17273383374042 -16.604030502777 0 0
-166.013761746346 -2.52859601088525 17.643543701367 0 0
90.7203862340044 -14.5064438617355 2.1326600890389 0 0
-234.622466240649 -14.829783297332 -5.15404302418073 0 0
-145.947757224806 -7.92709941297371 -11.3037331425194 0 0
-204.202043837534 -28.6355723736533 24.3123297471958 0 0
-237.575644933015 -15.6521878926924 9.6033865173057 0 0
-213.512890754658 3.871195205249 13.1715056931295 0 0
-177.825536049485 -7.74358949150493 21.2809680665971 0 0
-208.246218764511 -2.0578785381691 15.9292890487744 0 0
-47.864264676853 -17.1649429496747 -16.1329510309784 0 0
-211.896671811001 17.8812202815684 -11.543996730357 0 0
140.02606442835 0.312922592692358 7.13177029234066 0 0
25.0936919794975 2.05986569584965 4.06753811140446 0 0
-219.477649585089 -16.7530131197141 28.3817721927813 0 0
-253.274705618439 11.6124942082236 -10.8388760663662 0 0
-80.0345576332228 3.48365749338451 2.74544578752452 0 0
-100.617319511818 -0.129524601133963 8.60603754387149 0 0
44.5283913528478 -4.04571236928891 5.28003412944041 0 0
-256.409957889671 39.0632446685205 -9.58528808232965 0 0
131.291592887176 15.0532675914142 -16.4630507851691 0 0
-224.208549787709 20.8815423558124 -18.0833803334915 0 0
-242.260797228084 44.9137050327626 1.81499109475761 0 0
3.62558222712895 -15.4249675328219 -16.3515514302816 0 0
-256.617317653145 39.9463533327996 -7.26361519188044 0 0
-251.154726328067 10.1708583419938 9.65710341641292 0 0
46.9564806052645 -5.30115996939664 -22.574797088881 0 0
-29.6955597230731 3.477808824358 -21.6077574990541 0 0
144.88997302515 20.1172140448563 0.60523467833076 1 0
-167.106744522936 -9.1407844314727 -8.82948395339876 0 0
-233.65206024817 -14.8799519023279 -7.29185465215749 0 0
-237.967500743277 49.3131353151801 3.78654492625863 0 0
-78.5885567521649 -6.22536052069876 10.0257145392153 0 0
107.640833457178 4.50732790667645 -21.517741785433 0 0
-194.778132839728 14.9944421314439 -2.54052170582216 0 0
-200.337233727508 -5.1079780943148 21.2551006851863 0 0
-243.180306283297 -21.0338208135226 3.08860484804361 0 0
-42.9128862500688 8.20641766032234 -4.92486940596949 0 0
-238.696460879303 4.82170444260842 -8.86358756596084 0 0
147.003774512038 2.43589375277662 7.39592021710643 1 0
-75.7476402635576 -20.3021305172664 -1.72302633589197 0 0
97.0711121749416 -1.30064026204509 -22.9530039667747 0 0
-219.624540532166 31.2866615464102 -13.1647583251848 0 0
106.435489632494 5.74048346402203 3.7215157142848 0 0
-139.714483483023 -7.55331342497995 -12.1546344805681 0 0
-254.110223322378 19.8143808934162 -17.2616309357719 0 0
49.5086427360092 -3.08383851458596 5.38733827570704 0 0
-185.07823800234 -13.945105491159 -7.37181047983972 0 0
85.3661552467102 -16.5267434526032 -11.9823101405903 0 0
-34.6293470351425 -0.413783851684138 -22.3421091329597 0 0
-207.379261896293 -37.1816475349242 -6.16516556013567 0 0
15.9811338205534 -6.04246695418292 -22.7683532931677 0 0
-225.809628547737 -25.5533221325603 -10.1072343312157 0 0
-111.279726686874 -12.0466901186463 -14.5106869194793 0 0
-63.4385844515046 6.89399741948948 -13.314494079848 0 0
56.8726718901154 -3.07883787206888 5.45146114973 0 0
-206.653752762678 -4.99361055660446 18.9082537920427 0 0
-200.287887671519 -32.3203142982062 17.7209010061998 0 0
-206.975918497238 -1.80590472056248 -11.3732236613733 0 0
14.4672730136836 11.5306267647512 -17.2013460249755 0 0
-230.732163575278 -34.6282403622639 3.10478897596791 0 0
51.3828212021586 9.6662681871436 -20.9468948187923 0 0
-20.5104066028567 -3.02492787785615 7.07359969102458 0 0
-209.558288192286 -8.74888198498408 26.1229644506277 0 0
-42.0060933141989 0.199980393709354 -21.9001558934409 0 0
-209.496312169295 11.441334993546 -11.8386310882871 0 0
-110.316665566853 -5.34203449922015 -15.7577760640722 0 0
-176.204222057003 12.6390800904742 4.61776239295213 0 0
-221.31253155892 29.4641740132956 14.5404290147052 0 0
-12.7014856780419 -17.2351717885389 -13.9801194537394 0 0
-159.792856340857 -24.320118927137 4.55371244076923 0 0
9.63633802667234 -3.22233746395253 5.7582587872219 0 0
-110.623369720381 -21.4416530526382 -7.10162595497718 0 0
-62.7155007837704 0.687345151417623 5.50450114104567 0 0
-193.785753908953 -0.475121242088706 18.0155841031686 0 0
-195.791982237697 -31.9490678721489 13.2956534672359 0 0
-259.301151663851 32.8072332835718 -10.5164421063196 0 0
-215.040622879155 18.9075270383433 8.07878573496715 0 0
-179.4464117097 18.3740604124651 13.4995768413039 0 0
-214.37715444069 22.8130822196434 -10.0806807870509 0 0
-241.804398825812 7.82981248224107 3.05275693089493 0 0
-192.75766846563 -22.0067457936106 23.4351162719623 0 0
-148.135960233291 -14.5424406913771 17.3882799514453 0 0
-53.0847725432088 -16.0042984312737 -16.9484789358893 0 0
42.886129526132 7.0106927790997 -0.940002651253825 0 0
-41.4435980806771 2.58566829540594 -21.1214473380575 0 0
48.4435710819681 -10.6177791720749 1.52671124466782 0 0
-194.746447258745 -9.58369617951931 25.9726981698577 0 0
-151.544196031025 -2.89327747229185 14.5661045650144 0 0
-96.2787671299337 -5.84861679491596 10.8191319557389 0 0
-261.435194517915 23.1217173572004 -3.82410880987977 0 0
46.462861417388 3.97975312546555 2.32906196740884 0 0
-228.269762138368 18.025194818423 17.9172485582071 0 0
-230.765735968864 -4.63909016161649 -8.88830599373953 0 0
83.0610155676814 12.5875443770833 -19.4228073317131 0 0
-247.684743793931 -16.660338606707 16.8235573345798 0 0
-67.8896993940041 0.60035271086668 5.89191522155993 0 0
-195.056923874297 9.69956078367171 -9.29622781753907 0 0
-192.680914359293 0.178520273522573 18.4042781509174 0 0
-159.889386923713 -2.3882408597098 16.2347552500069 0 0
-30.001467848135 0.375667102128286 6.56168606164473 0 0
-168.919054496772 -5.88001580160293 18.6759938686782 0 0
-180.002569906028 10.1090539121495 21.8783788770411 0 0
118.02517922151 11.2804477283387 2.16461137938211 0 0
-198.012314028703 -27.885111261569 -5.94769926732012 0 0
-236.575213915339 -31.7569479006313 6.2354536529939 0 0
-228.834424740447 -1.91757372243213 -11.5031066929077 0 0
-155.171392584662 -15.5579683446833 19.4607226128005 0 0
-202.305638571983 -32.6713585535887 19.716402247507 0 0
-174.059413123539 -23.0145256025464 -4.26021564124408 0 0
-126.517798862832 -11.905898926977 15.7300747835238 0 0
-46.9271669895533 -8.23158399866575 -21.3338879066468 0 0
-254.624759159259 12.0620277104824 -9.0395266084303 0 0
32.22237938326 -16.1725114093418 -10.6769924521163 0 0
-215.91388279034 27.7897276570579 -0.0308320137141673 0 0
15.830651738981 10.1506002076379 -19.3063082260394 0 0
-232.298634235575 -23.2096335889252 -11.8128056010307 0 0
-77.7502603642204 3.64472905747953 2.44532510433799 0 0
38.8509897310269 11.8115603735769 -18.917115038439 0 0
-11.4104904992481 8.3897033435523 -3.71994259247882 0 0
56.6886297456881 2.50371672697809 4.53395906105712 0 0
-234.212058445514 -31.5069327362389 20.9418638567965 0 0
-153.034634822078 -14.6435451079215 -9.05710641716432 0 0
-221.430967020435 24.2045740237713 -16.1842130904351 0 0
-191.138540677683 10.4295937622807 -7.56052199294237 0 0
-238.553220332702 -17.5691473037703 -0.525233652908827 0 0
76.8431364097455 -11.1936857009215 -19.5692133224992 0 0
-142.652722746344 -7.84947002291576 -11.7655628639788 0 0
-189.85633075696 13.3164219216344 -3.05830314025129 0 0
42.1304853475318 2.45309736014028 -22.97020044021 0 0
135.673244103203 0.0130224119396889 6.81763506189171 0 0
94.3372949344612 -17.513690420444 -3.25876754524373 0 0
-213.921984919191 -11.5314715295668 -12.0063644236655 0 0
-217.462389686012 29.8508217868731 1.39000714992934 0 0
-252.980533385462 28.6029849051448 -19.8336429430195 0 0
17.0705625066029 -15.1230703104782 -5.47276216178614 0 0
-239.596239945207 9.26546605726874 7.5860217791435 0 0
-172.082886521052 10.1401628998995 19.2356540591949 0 0
-94.994079394504 0.140320455902701 7.96783331574798 0 0
-224.671120146972 38.1398078480553 -17.1466774775523 0 0
118.025335727078 -7.2407322777136 -22.0738170540525 0 0
-227.056417243714 43.0300472172935 11.8763544806158 0 0
-151.198164138721 2.72809506792146 -9.58444487106084 0 0
15.2887124375505 -13.9430206922256 -17.6273470983612 0 0
-240.691820148453 -28.9342603283392 17.6780605451126 0 0
-204.969306400345 -19.201524343312 -8.62037952116596 0 0
-225.186989703597 -15.3091105605716 -14.0371635151018 0 0
-100.176159853844 -21.8465091997873 -1.10372694594943 0 0
-225.979198734194 15.8152161512253 -18.2002767612786 0 0
-258.623695967573 38.096643906206 -4.39035986572567 0 0
51.4958685486369 1.54360054986269 4.80304045870971 0 0
-189.030610732145 -28.1259596743466 -2.00733785001048 0 0
-234.644260455626 46.8950379288861 10.6776949065513 0 0
-233.214147304448 -29.7074798604005 23.7796408889884 0 0
-80.0749293093351 3.98352415003561 -14.4962165002228 0 0
-162.284752524846 -16.8783227290345 18.3411775487142 0 0
-198.15692976673 -34.9083576807087 3.2400693419732 0 0
135.488965957322 -3.36116165639634 7.22834891970453 0 0
143.65830167569 -3.6076102718807 7.91160131135512 0 0
-238.022217057886 7.83820273529119 -16.0256917862809 0 0
-248.836064358107 28.2121607733793 19.3831222948574 0 0
-36.3436180319893 3.66408162521035 1.82309514800301 0 0
-255.861015786034 39.6684535657698 7.8837123091458 0 0
30.4399511600423 8.03791039165736 -2.16342743890176 0 0
-231.839647919243 1.59061421108326 -11.7015634569818 0 0
-216.717932130557 35.3599593075895 -5.25201696288618 0 0
-153.99287308784 -3.15378631276479 -10.7796348663955 0 0
-239.854974156469 20.1215884819555 20.5471102618311 0 0
-234.035703045058 -7.680081220944 0.51249125546637 0 0
-55.1647721941522 6.4388991346886 -15.3905924394804 0 0
-221.620307957976 18.2395724512395 -15.3680072397708 0 0
-225.713596013587 19.9684856016929 -19.87557578879 0 0
-218.633288508641 26.5015531265202 7.18920944587471 0 0
49.1073505131789 -4.0320575513048 -22.8916593120139 0 0
144.759348743745 -16.6615033595868 -17.5385782801296 1 0
108.334791156387 17.8353511593216 -4.54910142366198 0 0
117.067375739724 -16.8656630822617 3.47168984250664 0 0
123.797104554173 13.2933070244528 1.83486189570385 0 0
29.6223923214911 -5.71119387491532 3.55209038542873 0 0
-83.2944207712226 -16.1352707397751 4.77804759679508 0 0
43.5540225508123 -10.1897972882942 1.47150078403669 0 0
-201.321376044529 -2.18303159017028 17.6864757183704 0 0
-44.3099784793017 -18.4211837217923 -4.43093302698748 0 0
121.179095930799 2.5875221148987 -21.632213205074 0 0
-2.83297565463382 -9.7233062553284 1.5271082162078 0 0
101.487236498063 16.4673453680044 -16.4850348793149 0 0
-189.822970771486 -2.33944102582406 -10.1970722372348 0 0
143.521920263248 13.645552637489 -16.7202726570907 0 0
25.3172452622157 12.8152476938617 -10.1036025164715 0 0
-184.789689494397 -12.794608295661 23.5193060411123 0 0
-236.243866178026 -14.7928989091849 7.03615770556008 0 0
-5.97030935480759 0.693130761121902 -23.1037647449119 0 0
-162.637976333527 -21.8722677786401 14.7907176050121 0 0
-187.976250158695 11.4711816031521 -4.58464918819973 0 0
-86.7910840085289 1.3656564445164 -16.2282981906386 0 0
-249.840775577344 47.1688399420614 -1.82973462824576 0 0
13.8250437730132 -15.3888492861023 -6.10596308374418 0 0
-42.3597648441934 4.16433449429962 1.27944713797557 0 0
-80.8358554152035 0.0622874892223384 7.13820154218056 0 0
-11.65700602499 -5.68692666208386 -22.8657998529095 0 0
122.954143125301 8.76963494052329 -19.6183064575999 0 0
-248.185512376642 45.6810507105574 9.43944370105114 0 0
-119.238637471671 -21.4197628271011 4.92086897450804 0 0
-245.929981831175 5.19057765485954 -8.59707224038495 0 0
109.656342158909 -17.4303325415144 -12.5976037772421 0 0
-186.079104608666 4.62389000640884 19.7144458232135 0 0
-1.50067680010319 -3.83897089489386 6.45600924906244 0 0
-125.358667828592 -0.638096176983861 -12.7302271725711 0 0
-218.811354161416 29.0248924631547 6.19421682629592 0 0
-23.7997062461348 8.82193901427194 -16.761351656917 0 0
-246.300963121016 -15.4267886347641 13.1009530659705 0 0
62.1393046543649 -16.2303534213021 -11.0975735104162 0 0
-201.269692898451 -29.7014577128717 22.2787251511293 0 0
134.023830279526 -18.9719940556655 6.05694035966116 0 0
71.9483511206959 -3.70956225264211 -22.835105925466 0 0
31.6589344848063 13.4747794389255 -14.2029220295879 0 0
-217.85378341009 -24.7029075881578 27.9516015618338 0 0
72.8500549678266 16.102273985909 -9.59660060540081 0 0
102.394285557945 -3.07760675811646 -22.7416853456127 0 0
-192.876190378954 -7.02089063209347 -8.90999083217449 0 0
-220.331370283234 -10.2003450949294 13.7889526872536 0 0
-237.654377316592 -18.0395702208215 -5.54416797526166 0 0
0.0958552941592061 -14.389157150642 -3.68338488702361 0 0
-248.798034817826 8.09609571362519 -11.3729204130927 0 0
-91.9146701673173 -20.4081412225492 0.890253552371855 0 0
-240.362897892594 -28.6394823759322 3.56878881584365 0 0
-234.657730823156 -27.4974184909818 -7.89652354240461 0 0
39.5976846305916 4.73273562418051 1.02105483747926 0 0
67.7488190888585 -0.768442075358966 -23.0966880206829 0 0
-237.201314624719 16.4942694625583 19.4004221799443 0 0
132.875142118785 -9.96026515750094 7.6920584053898 0 0
-231.551889386893 46.902220831971 -12.2317217502493 0 0
27.2236125105578 10.5170100561796 -5.04653599249114 0 0
107.480013567168 18.1474232009741 -14.2283581877542 0 0
94.4310015066068 2.98058083737919 -22.4627795017284 0 0
25.2751060813423 13.0801457619336 -13.6977713901938 0 0
-239.844854961719 -18.9211362743171 -5.51339746596499 0 0
-15.0383689361272 -2.11903909706077 -23.0914523947706 0 0
-224.093308083968 -31.0915064000192 -8.96117044176486 0 0
-111.715699381363 5.80272831783124 -8.11803726535814 0 0
-214.212812088008 7.64370716907661 12.4126221919402 0 0
-54.4818851377686 -9.89179854196191 -20.4046337477522 0 0
131.943989809398 13.3772650735484 3.33141997003694 0 0
-82.4852634623496 -8.98896923731973 -18.8861660530909 0 0
-213.905038507135 -38.082640369743 -1.32358034022398 0 0
4.94109115844671 8.22040565956804 -2.96864644471847 0 0
-6.97398200529065 -4.10538589826502 -23.0852778983252 0 0
-210.965408845576 23.6414871592333 -0.272729395304112 0 0
-231.648027160029 44.4263649883652 -16.1198535384182 0 0
-155.251316848912 -8.18848132232816 16.5088003178126 0 0
-199.416486944785 -28.5114903989208 22.047403585301 0 0
-219.683364747842 6.81300167098919 -14.4045359201715 0 0
-10.7826612019934 -4.89517807840503 5.7000809214761 0 0
-183.573609628625 -24.6050536523458 19.4873498094775 0 0
-32.3971765253723 8.06122943789992 -4.13685693616285 0 0
-234.979290947119 3.87339140622809 3.9008532522428 0 0
-92.5423672054398 7.28068280988119 -7.92285350438177 0 0
-22.962539755593 -1.46935117569184 6.78771623577974 0 0
-28.7163049856608 5.72289113457468 -0.49258113047407 0 0
-230.126920228469 -32.3333873697844 -4.9381561458415 0 0
-171.831209725333 9.89996628243913 2.34146861362585 0 0
-81.1233001461593 -3.08468389193986 9.0741676966894 0 0
-207.61360790705 20.5769982702457 2.33663287046684 0 0
-96.2940156887912 -0.732677392578222 8.90127319133969 0 0
-231.62388242143 36.5692157913889 -22.0862187373905 0 0
-227.182624554442 -30.8707646662472 23.6259682717843 0 0
8.76215149912002 10.0698552265369 -5.61364555876994 0 0
-138.208236957831 -5.67350194549199 13.8739764330864 0 0
-261.816312584512 28.8668147684756 -2.20161054418086 0 0
1.62041892442565 2.76408299817459 3.50902648706275 0 0
-182.808414807653 -10.2183141386472 22.6951027116699 0 0
-78.2322445456015 5.09860994275877 -13.3560046653568 0 0
93.6392553030711 -15.4219954136322 1.55200826889447 0 0
-210.080863698216 8.19515856843614 -11.7485743076546 0 0
20.257485462258 -15.6964489245917 -7.14347387828863 0 0
-251.788743400302 36.7727249044177 -17.866913712201 0 0
-222.245099751807 -13.3125494547323 -14.1405309368882 0 0
-238.797410350807 -20.3959332511235 -8.53000457691094 0 0
-254.285147969909 29.8444126554064 15.214629183252 0 0
-242.409475074719 -13.7907210674347 15.0321126528822 0 0
-208.218456171008 19.2102225119498 -7.42302663960864 0 0
-195.778357499959 -3.7886709912682 -10.360002558049 0 0
-258.04415335255 19.8929894531812 -12.0959647772944 0 0
-235.101152003907 14.78505317706 18.2184896412602 0 0
-210.198408904045 -36.6266753070046 -5.10076010234333 0 0
-199.172274985664 16.4148627014221 5.57831391298479 0 0
-54.1122543299309 -4.55963680422598 8.36627416707629 0 0
-243.494509565086 11.0525040714614 10.3743224274147 0 0
18.0532060126221 5.71811518637573 -22.2575119664318 0 0
-231.196625224936 48.9311926591812 -7.45176530355306 0 0
-56.3373250772889 -7.76116900380193 -21.0360656094679 0 0
-258.218538271627 19.3750840654353 8.4415086330038 0 0
-101.70717393214 4.24345732152415 -11.2508363089304 0 0
-7.01460379606878 11.0111016308088 -10.0920568355286 0 0
-107.010341796846 -10.8478374755495 14.5980189436827 0 0
22.1227473355879 -16.1644987624239 -10.1449077833789 0 0
-97.1945317292935 -0.536719641617653 -16.1232283993508 0 0
-234.919023578398 48.3200963064448 8.13959883606188 0 0
-154.70187422783 -23.550830113162 7.3155332272317 0 0
-139.937438789548 -22.9524300553176 -1.55347081019442 0 0
-57.251731204743 5.10517819307897 -16.9169111498908 0 0
-197.346406052447 9.63867086041635 -9.71221866090327 0 0
61.3522789142227 -1.74306414511864 -23.1221185393973 0 0
-223.98530965491 -16.0190014807212 15.1538343098523 0 0
116.10230877828 -1.19465152056081 5.6098010015279 0 0
-100.15744892041 7.42911735414743 -5.58696748137308 0 0
148.82316865138 13.7831814150434 -16.3823600693682 1 0
-138.974191787772 -19.6654296886652 -7.47775738339212 0 0
20.853619641455 -5.74705029769475 3.56321295012973 0 0
-242.761779092908 6.47882595004523 -13.1080632829319 0 0
-247.016303777138 -17.8091753959308 11.1169770301399 0 0
-247.43242638628 43.0043330640436 13.4617304701092 0 0
-233.989852143647 10.7037643704201 13.5230392734295 0 0
-258.249275438316 14.9601560259379 1.44885909689485 0 0
-77.3304746787168 -4.94122693532843 -19.6230098582934 0 0
114.886508887481 -18.7177338569554 -8.60580912441919 0 0
-210.854269179675 -0.101289822988577 -11.0798320858418 0 0
76.1695740101316 11.5757584909449 -2.65528001697386 0 0
95.6685059695922 -11.6656947780069 -19.670589498662 0 0
-160.323762040517 -10.7155144529324 17.802085117875 0 0
-12.3618407490635 5.5257535850939 -21.3996262791107 0 0
54.2075000970871 13.2916462953376 -18.0979935602004 0 0
-76.0245494675514 -19.3670287854693 -12.71149988204 0 0
-15.0654112332457 -3.13866969466715 7.07739903042627 0 0
-67.1363144239317 -9.62866419111356 8.18653259203239 0 0
51.5689565689051 -7.51208744034789 3.62848719235736 0 0
-36.3479140738912 2.39229541046444 -21.5872343538927 0 0
120.466194705777 -3.8177436678176 -22.5002890544367 0 0
-201.217404222316 11.5362077126856 10.1981941883907 0 0
28.0303895144155 5.09322611910562 -22.4574887537445 0 0
137.849538557285 -4.78103673866384 7.54855733526574 0 0
-216.809946486319 0.2599530755197 13.4013652302334 0 0
-217.315130878822 -11.6600310837419 17.2610848604324 0 0
48.5747003935748 -16.210827597249 -8.05621659375364 0 0
-127.538513949596 -21.473699873338 -5.61751400714449 0 0
-50.0156619792442 -8.86889919011587 -20.9992275700306 0 0
-127.452951226063 -8.3666148908914 13.590365446206 0 0
2.31952153593518 -1.83361914755781 -23.2529517083914 0 0
-194.167431109452 -24.1584702145706 22.858525703866 0 0
-200.688854949536 -35.9295683444367 -0.467093632224524 0 0
-230.250376854402 -16.9892079873961 13.684196295156 0 0
-216.030016516645 17.1496810833633 9.57611039054268 0 0
120.699240950483 -19.107730713703 -0.419427551192007 0 0
-16.352644603958 -5.934250563188 5.15203763051215 0 0
26.2525827399316 -13.1134632524944 -18.271621081524 0 0
-146.299980916331 -14.1519071442412 17.0673102444406 0 0
-215.615781095618 -40.7649063411464 6.44816372560032 0 0
-31.3152237874661 7.17392655528675 -2.65413186152589 0 0
-212.773658049122 16.9334486192875 8.40081574292319 0 0
108.970672810952 -1.11206750938008 -22.5472979188402 0 0
-257.341628363284 39.9697380672959 4.10336637962044 0 0
-230.483231069189 34.4494080868801 -22.499918019302 0 0
-154.629440710154 -21.7734016134111 11.5566655516158 0 0
-245.781491213166 20.4706430639136 19.519814327882 0 0
-205.385185547039 -4.67642620645961 -11.9761691191527 0 0
-246.04147968036 -26.4553516819842 11.8699653465286 0 0
-259.184222941984 34.8192013260111 -8.62626610246 0 0
74.6581972053991 -0.132533760610864 -23.0380826791605 0 0
-210.411540121667 -18.4856084513065 29.7778285439543 0 0
-219.889149964567 -36.320218089352 -2.26577845091696 0 0
-158.701320735429 8.29288430030928 4.10356954153855 0 0
42.5350483217543 7.89178196656462 -21.6040602575844 0 0
-215.497248296854 -29.1271793658621 25.5882342540149 0 0
-20.7032689202118 -16.0046595750101 -4.71398027525584 0 0
-170.237463578972 13.1308544317125 6.05049406622476 0 0
-261.639415321859 27.8738887617442 2.02257319583184 0 0
-214.483158070458 -15.3660933597076 29.6112755318722 0 0
-164.768844500962 -8.30003006297024 -9.17272628445495 0 0
-217.271110297038 -9.80066371697241 14.4505494588457 0 0
-233.337210531984 13.7473812146585 16.2380876363666 0 0
-131.743778739437 -20.696369137199 -6.75935237951832 0 0
-222.988689828572 -38.751728070614 0.26026725674661 0 0
-261.841639614536 27.7494252441373 0.126057916832308 0 0
-41.4683746547255 -14.7289552536158 -0.483116648527605 0 0
-89.3916667314964 3.41587992883114 -13.6938624640108 0 0
56.1832039365908 5.65801454878497 1.08957277155945 0 0
-50.7307770621404 2.89299012790902 -19.9972759513927 0 0
-140.114788114841 5.03760048663739 5.76179490649733 0 0
85.872101237751 -11.542355093509 -19.5461811817985 0 0
143.053180465087 7.19539709277581 -19.279621164345 0 0
122.460053222362 -0.123286069039298 5.7725638495475 0 0
147.711736146637 -21.9664603221314 -0.350986393773173 1 0
135.280589379917 17.586924033077 -14.4526393001443 0 0
-31.5320830908759 0.4469259528141 -22.4030564750841 0 0
14.8662597088832 -7.00744967448669 2.90691030216212 0 0
-224.065383667839 -32.5128087485088 22.3451873804532 0 0
19.3385788831429 6.55826939651841 -0.926691024727715 0 0
130.08592154073 -15.3364273522675 -17.6880369883505 0 0
-223.413895811899 -14.9836975813085 20.4647558316074 0 0
78.1391348473282 -13.7453178707161 -16.9883370182398 0 0
-152.496564651636 -16.8705590536837 -8.28718193504681 0 0
-218.0368740193 38.6573885371553 3.06683675633854 0 0
-19.8313659087911 3.30707427280471 2.29660883126976 0 0
-259.506771412667 18.7814059917491 -7.49542134464329 0 0
-255.082982321935 41.5132615184095 6.93190337230206 0 0
-251.197606471684 7.21291611401071 -4.73823470833818 0 0
-127.515901562281 -22.7574324244321 2.95294587469274 0 0
-33.4296329717637 -14.186797061218 -18.6762986507059 0 0
-229.361957827245 -8.59470759530182 -10.0568474549704 0 0
-204.090871701572 -39.7437099365243 -0.31656786528723 0 0
-42.3359692297256 -2.33364953360634 -22.1412694318446 0 0
-245.685208345604 -13.4170934337951 18.6025254813036 0 0
46.1416809054136 -14.4219032131032 -2.66526940688937 0 0
49.9341268733861 11.100112641338 -4.5134084453316 0 0
-101.95662340549 -15.7039854317204 -13.9374768532312 0 0
-9.6797916676692 9.59040727410082 -5.67776620606652 0 0
-240.909855762053 -29.5718922081021 9.69585868315978 0 0
-51.2242009726389 6.42651955576842 -1.91493925341429 0 0
-186.506151826278 17.2148654315314 12.2817551649852 0 0
68.7138648895956 -14.0945322587464 -16.2670609231972 0 0
142.52992372684 16.0285773221393 -15.4498788675358 0 0
115.030898590022 -17.1697922295433 -13.7725113021141 0 0
-41.9780693270198 5.57518136667558 -0.555958888304878 0 0
-210.779143942402 -10.5925147098884 -11.4000912158409 0 0
50.695552258741 13.0409873265513 -18.1961606132562 0 0
108.984123629107 -8.36421151699838 -21.7522054870268 0 0
-189.563218736959 -27.1328245727245 17.0905327801431 0 0
-152.630631555233 -15.4993039379235 17.4620961575237 0 0
140.608918212039 5.84924058648337 -19.8438230380721 0 0
-217.898450159322 -34.9324525230231 -3.5666734849018 0 0
-191.708088881456 12.6497432904457 10.773282645323 0 0
-213.857205285213 11.7350911330466 -13.2116889509058 0 0
-105.034215418942 -8.81653472075141 -16.2886974276695 0 0
-177.261582086703 10.0114515184548 -0.187055482582587 0 0
-210.711052163309 -4.4953757561692 -12.1772902141541 0 0
42.6676793993178 -10.9331159653483 -19.868696357552 0 0
23.2619653357265 4.30848779068104 -22.6261269854802 0 0
-109.319459076116 5.75615444947574 1.33310891077052 0 0
-252.688734993575 8.61402209248559 3.26751987782908 0 0
-190.505407463656 11.6259993010671 12.6993038318724 0 0
87.2248087649851 5.28151899702067 3.10049832262427 0 0
50.1404538267079 -13.0797835703893 -17.7752159574424 0 0
-246.911643432775 44.873931891552 -6.24350105101506 0 0
-217.143037878006 38.0145654245669 -2.33763802804536 0 0
144.478266627011 21.4951281433297 -3.03923552470917 1 0
-202.839754553588 -24.5866821711368 -7.38054596493487 0 0
-238.72693343939 5.71323954548096 2.15147717341041 0 0
-183.806700449501 -5.21990198145898 -8.95173407803162 0 0
96.3476483655854 14.6732325321049 -2.59687332136271 0 0
-242.4780263941 20.1183756837939 20.2478598004283 0 0
-212.203205132706 18.788102003893 6.90713641111563 0 0
-187.852241415286 -16.821674990756 23.5898748777908 0 0
108.975997690291 13.7590493076918 -18.093604505893 0 0
-197.076185356063 15.388320892553 6.35979378864453 0 0
1.66524205518648 9.30933550548555 -4.61693121567358 0 0
-232.639618446643 28.1314781043521 21.1560966185541 0 0
-228.804590448877 -25.1679883554331 -10.6696856610857 0 0
-5.87995211912406 -16.6824492015906 -14.6108627784974 0 0
-224.638771209336 -13.2664717295414 21.9684720687222 0 0
-233.869013931965 -33.3244807587422 3.73928997002958 0 0
-194.78710956945 -27.8006214992838 20.1225166511105 0 0
-225.588142334364 18.6303382689673 16.2327048896719 0 0
-224.189340500077 3.51161884000967 12.511543833413 0 0
107.729277997293 -18.5613291861365 -4.94166354980904 0 0
57.3122161258098 7.81612172055151 -21.6932493152059 0 0
-181.846375765922 -19.4629164427406 23.0465254772314 0 0
-191.531299800141 -27.4179304444056 -4.11110233060619 0 0
27.5661175287318 -3.7984352728231 4.90488173221635 0 0
-178.817883125643 -11.3367820549804 -7.72886865742736 0 0
-91.5544899323729 -14.2888322804263 -15.6763896900985 0 0
-213.537319945927 18.6488779859093 -11.6583236480182 0 0
-20.2023457811269 -9.22572264202693 3.0293394395966 0 0
-227.11681478807 20.992562472002 17.9110010164346 0 0
-246.386754372518 46.1911989967038 10.1636813818406 0 0
-194.004055471983 -11.883218225884 -8.05051715232166 0 0
60.3752521190285 -16.1268421333701 -5.69702442546602 0 0
-251.854750266437 11.4354326058959 -12.6865940153869 0 0
50.3438817354303 12.8109027700292 -6.6392961850158 0 0
-5.18982197219846 -6.1541241461877 -22.7688450462352 0 0
-244.971505264151 33.2343525556679 -23.3492121758538 0 0
-166.984849687619 5.44606645152953 15.9241876167186 0 0
-7.81644326126178 -6.81441402772866 -22.5432776846825 0 0
-118.981150409477 -11.2863098372622 15.0801573306083 0 0
-203.803297024768 -2.10764133373343 17.169897210777 0 0
-241.544934833582 -18.1595076391078 6.78860673625355 0 0
-256.692750996272 41.862795498072 2.14892755330625 0 0
-141.213462304719 1.48816805004525 -10.4257801670737 0 0
-53.1772472181844 3.97683719645985 -18.7938884567817 0 0
135.096751155343 -16.0054532427544 7.97714513875639 0 0
-46.395432952551 -12.2045109857047 -19.6268823257109 0 0
-145.535986893543 -23.5723665321154 1.19248438952616 0 0
137.665445109877 13.8577908058346 4.36014424445495 0 0
-215.375182711084 -22.6354527654017 28.8990763714584 0 0
135.127192785913 -19.7983611930032 -8.93830558822702 0 0
-214.829778849972 5.36737910476143 -12.2745659978273 0 0
-115.589729871854 -0.282977788606196 -13.7950471940611 0 0
-79.5872607021781 -3.66959142712844 -19.2171023551808 0 0
-211.526917838559 -7.54261612761175 19.2745279297639 0 0
59.9032687213439 13.2612524206021 -6.33080476805987 0 0
-119.875335313325 -12.0311774089269 -13.4521670090547 0 0
-136.139127375314 -0.883123281212889 -11.6499992221247 0 0
-179.612770398917 17.1702302501355 16.6241291220778 0 0
38.7009018473938 9.75973162660885 -3.61315523769988 0 0
-16.4990818080688 -5.03736863611085 -22.8857473092908 0 0
-226.091371805095 28.4073567255607 18.1909781302703 0 0
-225.999376626374 -36.709676258903 7.67409934849801 0 0
-157.426909462851 -13.0178587855602 18.7536380375024 0 0
-227.824253976683 -9.60791058574254 -11.3614177346734 0 0
-144.90136718183 -10.2773136868168 15.9009910987092 0 0
14.0403418414201 9.75956258441467 -4.76350832939354 0 0
-250.511380528722 48.9367495484748 2.48890162144567 0 0
-44.9272463491198 3.93401997477455 1.53987415839381 0 0
-16.8334048144737 -7.94840182404455 -22.2298825822384 0 0
-199.943893598581 -17.0683240349033 -7.92124938473504 0 0
-116.829907361868 -2.05035322957563 -14.3473479547776 0 0
-71.4185496131703 -2.16081642694596 8.03836085112209 0 0
-127.865185340582 -3.79083182801696 -13.4316993523864 0 0
-182.958075262577 4.29227503148019 -11.1379593554185 0 0
134.125414324657 3.43830020336435 6.16041018786911 0 0
-224.042757517554 -28.0964300404979 -11.1308670797307 0 0
93.9826700588712 12.627247697463 -1.19449930723173 0 0
-3.47225287690729 -16.5518275850636 -8.095694374041 0 0
90.2596091901927 2.4348832970523 -22.6887271862163 0 0
-233.383904355043 -8.27651083665254 -3.99803516166049 0 0
109.884546896949 11.0327965436746 1.43127520647506 0 0
116.580846762379 -9.7261483087998 -21.2724489004329 0 0
12.8647390365982 -10.6135618162411 0.338487059788952 0 0
-219.939645056565 -9.83476644115039 -13.4421295314785 0 0
137.572284611942 -20.6919727645396 -1.70225274001669 0 0
-63.5227887592607 -20.2678470835045 -11.4920482489501 0 0
-77.0841880257396 -21.1958247842526 -9.71070472147768 0 0
114.289545226668 -12.2974797228312 -19.8196852503735 0 0
-172.957643041659 13.7125841657629 17.8361009741901 0 0
17.796526858735 -10.148512938477 -20.9073750173913 0 0
-156.301701451713 -13.8760934990402 19.9694743008752 0 0
-232.401927676102 49.3671339836497 3.48232876991973 0 0
-136.170887046155 -10.8194582828989 15.5660200763622 0 0
39.157403584798 7.4988341644307 -21.7363299840101 0 0
-172.015364890038 3.87595458251014 -9.66730026720833 0 0
137.954159600828 16.0870267897666 2.72409594373254 0 0
-227.247018540607 15.6814528586846 16.5463753141273 0 0
-59.6247320605728 -6.93113253383435 -21.0242965391267 0 0
86.2925202999506 -3.02557122155597 5.35094513816937 0 0
-140.917820365812 -1.40448532255008 -11.4071807429869 0 0
-238.635252024621 4.1921109990677 -7.13764943445878 0 0
95.9029157612165 9.11377514298153 -20.4475204113762 0 0
-13.6756428510279 9.7490604639568 -6.20828971980221 0 0
71.8318504082499 10.8426579789604 -2.45017661348338 0 0
-144.957394117158 -5.22739470661041 14.568693801473 0 0
-239.205537165301 -28.5844476305319 20.4261909299631 0 0
-203.354526614822 19.1436338856371 0.996980204301826 0 0
0.836110751024985 8.5572679345586 -19.799415015843 0 0
82.7111879216494 -14.1576738202489 1.30221799358017 0 0
-215.237265181351 -9.97088529440305 15.1148776737647 0 0
-67.7803857283531 2.4257755425706 3.53679926587918 0 0
-174.643307721067 -5.75923313044704 -9.10597493461193 0 0
-221.321629463578 -34.3762543409493 -5.63524162541397 0 0
111.684322638554 -2.24016820620079 -22.6132032200553 0 0
18.7655897914402 8.39299900423174 -20.9090708848878 0 0
-219.612304279542 -23.1897936065979 -11.1800884230362 0 0
-202.191848295484 -3.14815800727118 18.7151549015259 0 0
-13.7821184641387 -4.68868812594612 -23.0080786184272 0 0
-171.146205836595 -12.3827796910886 -7.89759741504215 0 0
-203.591747301042 -12.7130952076079 29.1418993957135 0 0
-55.6683536545005 -6.59524705008573 8.91247918049097 0 0
112.406875522822 -18.8755944380471 -6.14273349609825 0 0
-206.128434084142 4.9393739560034 -11.3377850291492 0 0
-70.4372781786714 8.07789185449989 -7.05082056983929 0 0
-218.436265815365 29.918007522661 -12.4639830737411 0 0
-211.827726207534 12.3406661539213 -12.4928078897275 0 0
-14.9411161970012 -10.6117024221446 1.43312099267536 0 0
-226.065581151041 44.5401996474712 -11.7938721525841 0 0
-225.866726148099 -14.1817766880535 25.4536869240774 0 0
-92.7823109534805 7.75919059819825 -4.80915254292878 0 0
-211.831136690378 -25.3665955456768 27.4153211417008 0 0
-183.671253606889 -10.6183527798318 -7.74719010566366 0 0
-162.855447820668 -3.83841933044417 17.2357032346087 0 0
-197.219953791737 16.5404613604518 4.15579809638896 0 0
131.661766640642 -20.1445292408046 -1.4935164736204 0 0
46.2440300036811 -2.27279267131107 5.32681676768133 0 0
-148.55851304326 -10.9290271262518 16.4761507514793 0 0
-236.035117622534 1.59207246957542 0.46955175595762 0 0
-221.360303507074 -38.50689109448 12.2590697655248 0 0
-185.566770860042 -17.4338112369748 -6.97992710010472 0 0
57.4919815864609 10.8549818105113 -20.436874619702 0 0
94.7553443566546 -1.85205262226415 -22.9701374723386 0 0
-33.1635360711412 -3.6170988033379 7.18034513804016 0 0
-212.514227923657 24.2776020081338 0.475576968788966 0 0
-221.844240775315 26.3807314431072 15.384345207184 0 0
-133.628073005654 -7.28469312245039 13.7851702915757 0 0
-109.259809952477 6.05207983882816 -8.07449571794415 0 0
40.4429220338936 -1.99451548370184 -23.1675946048089 0 0
-193.846542662769 -17.6085666995582 25.3536149156012 0 0
-203.999270268655 -15.7036267035822 29.3674570181563 0 0
-109.420571186786 -14.8497190646135 11.8554395649792 0 0
-38.762143316365 -18.327264107525 -5.40597827175091 0 0
-260.976257916995 23.5588723709066 -6.73848944507334 0 0
-216.036380093645 -23.65233502454 -10.2914915720577 0 0
-142.284615631313 -14.0397001866448 16.8629806251866 0 0
-205.786670946703 10.4412972947533 11.0142158689074 0 0
-111.605068126721 -1.07714171793917 -14.6208784162761 0 0
-214.42034753545 20.5445363056902 6.63054067170849 0 0
107.071901171988 -18.0007814357769 -10.2576780340157 0 0
-133.314468173982 -6.55230083013893 -12.8921591404668 0 0
-214.589704027488 -3.15958536551238 14.4804430993262 0 0
-192.948730947342 15.1721979345333 6.41817246654359 0 0
-136.891791431089 -21.0217373896771 9.44579003814702 0 0
-44.9675228704177 8.59985286714964 -13.3525471036794 0 0
-66.5936166710457 -5.73351811044115 9.2180408829939 0 0
133.364156983326 -1.0923068957193 6.78223887764227 0 0
128.90840420792 -2.99688931153364 6.6815704592157 0 0
-220.701081136173 28.0712748049496 -15.5573654368367 0 0
-196.808330109997 -1.25782249338388 -11.8817254049639 0 0
-216.646586144066 32.4022860338696 -5.13551646417666 0 0
-22.4165375879659 8.04188721313451 -3.66750677972607 0 0
148.8347444924 -18.2641636380034 -15.8933317594158 1 0
-211.478480673308 15.7779798824942 -12.0067480980437 0 0
104.338605402956 17.7722395640693 -14.805539063545 0 0
-234.273215315637 -34.5221726919259 12.0685283380615 0 0
-248.200535374145 44.7696586325288 -1.25374989321413 0 0
-245.081444212511 35.7271460106414 19.276173525044 0 0
-212.602535324186 -4.19801814559247 15.7462284712108 0 0
-238.252542102405 4.27286122875302 -2.392868285838 0 0
-54.1589533812483 -16.039481335054 0.277598872945729 0 0
51.5011653955691 -0.91523713984103 5.08689161869968 0 0
114.43707443632 -15.8733612406118 -16.0475858952825 0 0
72.73276106378 2.963346769975 4.32765558937508 0 0
-258.147324782241 25.8854408225107 10.9249043055738 0 0
-160.197546892767 -20.9622597752808 14.7724388444175 0 0
-84.2315131236144 2.50945528292657 4.2142938727888 0 0
-28.8420826957177 6.30728270564759 -19.5459765541799 0 0
-189.535234147635 -12.402551266149 24.8769996163138 0 0
-93.59412621144 -9.03631885802218 -17.6283670765111 0 0
-192.500987673852 -26.9366847047655 19.8592378065781 0 0
-231.621054262532 49.8048337088625 -2.97395938389262 0 0
53.9442623049119 14.8004834593613 -10.4751865162586 0 0
-181.281991944578 -1.69995553298831 -9.92904323090693 0 0
-208.464865065693 -28.3000512797803 25.7763826211941 0 0
-83.1105181729736 0.477748910642537 5.29673957327795 0 0
-212.560951464189 10.3647455209039 11.5010543387657 0 0
-219.357508956282 6.68193129751853 12.6795044500743 0 0
-234.514092811107 4.88434570174644 6.48289162522249 0 0
-154.646004143957 -23.6521402441957 0.279228827301541 0 0
-229.024555336938 48.214331202114 4.516417817779 0 0
-236.827833708067 -12.8601170809539 15.7624257342667 0 0
-224.670810101969 16.2563711966681 15.4372608129083 0 0
-42.5108419127234 -16.7688208102107 -2.5177446121816 0 0
-209.574112190256 -30.0477980352585 24.8750495559843 0 0
-200.77181337259 12.4301554348858 -8.9470033338766 0 0
-170.687464078394 14.5075151775065 10.0902058321429 0 0
0.609876810955843 -4.1722574309457 5.75916776346392 0 0
-79.3562052705173 6.49844272498484 -1.43161624544019 0 0
132.758647757299 6.78063724623406 5.45494809466079 0 0
-218.314104213697 -7.91288112055594 -12.9740308797256 0 0
8.70052526232944 9.04888217199804 -19.9175993882848 0 0
-237.459542809578 18.9632269736777 20.167249335124 0 0
-17.4231794788908 -1.12140103113351 6.93327119388204 0 0
-193.942443204067 -2.41189365434067 20.3261177724667 0 0
-84.7667803176152 0.56014915737868 5.26032531025105 0 0
25.1784233257146 -12.0502115480967 -0.805432467207898 0 0
-169.080653424844 9.85601639861943 3.73022241185871 0 0
-256.712100572046 12.6265879992548 -2.81529532626581 0 0
107.659187725658 -17.3293897847295 0.885491325240405 0 0
-261.617697964374 29.2748045823515 -4.48457269717718 0 0
-37.8585025797865 6.41131140730631 -1.65311971191469 0 0
-57.5117989751828 6.50138327905246 -2.08044754217886 0 0
61.6271047648357 -6.87652871603421 4.5359750311429 0 0
-220.25673912764 -38.4621562231624 -0.711544427744966 0 0
-215.108118603198 13.9891906174807 -13.4530403204142 0 0
-108.986905847269 7.07676257515309 -5.74758701433237 0 0
-133.502850758703 -1.12661035646517 11.011736150732 0 0
-47.2427702270076 8.98712258496239 -11.3744924566334 0 0
-210.870989766548 8.43481362404898 11.894542363813 0 0
5.82502767237947 -16.5737530975628 -12.2169018982282 0 0
17.5139018335077 2.48464670614601 -22.9064819407573 0 0
-52.2364165082732 7.97473589264754 -4.84532757885951 0 0
145.530581715144 4.49385537652094 7.01332253129172 1 0
-238.249912148115 34.4529325286683 20.8458164573426 0 0
-107.40682867591 -15.6069126950505 10.798137405089 0 0
-256.874388318727 30.3995607243132 -15.3786594353289 0 0
12.836980082083 1.70180145860596 4.46537396424871 0 0
-153.463012866842 -10.3571404502662 16.8518052217943 0 0
-68.9011271161266 -10.7196537614116 7.16572592416481 0 0
-229.784146366019 -34.6299814912817 -1.24094913996001 0 0
-13.0233051946043 -9.30690714240158 2.4134425846588 0 0
-227.106951481532 -17.1332707205481 11.0742074999755 0 0
-188.073022654737 -1.01055641300062 21.082805893935 0 0
32.3474450950873 12.725377630115 -16.9127989817022 0 0
-188.409210941526 3.56640404555357 19.2077211835367 0 0
-244.545519078783 -13.4397051196086 16.4230373881839 0 0
-239.759910311528 15.2352441200881 -21.7130936044793 0 0
-214.644179544266 -13.5123998090907 -11.8869695911968 0 0
-169.856347004839 -18.0783932113675 -7.03790931898356 0 0
-187.434886707445 -7.08401871595229 -8.53500520988383 0 0
-15.4027598227685 -16.2567825743895 -16.2421471758541 0 0
126.900842824357 20.330870815591 -6.50544541583186 0 0
-107.419305758949 4.96990051477665 -9.82459691819709 0 0
-211.931296187614 3.80381047253269 -11.7128871667775 0 0
-172.936739389824 -14.3338076156697 -7.51885847448648 0 0
-224.65344488582 42.5815058164354 9.81271027052736 0 0
-178.182762611251 18.3175129755031 9.3867065893985 0 0
-216.501413503971 35.8667712779713 -3.36369244106617 0 0
-166.157920035523 -14.3425089797107 -7.97692868642653 0 0
-64.0783486267072 -6.2249804737182 -20.8000376387959 0 0
-186.625823216769 13.1098142184999 -1.19887070011484 0 0
71.0637975492798 12.8151948523214 -4.43233641338314 0 0
147.323691633466 -16.7541558298648 -17.7629997201067 1 0
-242.602252293235 14.9505743906859 -21.1145649553221 0 0
43.3907692952455 -14.2477025607499 -2.57036958315794 0 0
-85.9048321467206 -11.8276084220411 9.42749528534385 0 0
-111.584257089148 -11.351905932509 14.8520989357428 0 0
-256.388045514641 41.1832082399023 -5.16265277522662 0 0
-30.6498050641791 -17.4361366268277 -15.5341818933968 0 0
-0.824793740906159 -2.01735159570629 6.6851251686167 0 0
-209.567628836249 -28.7622603146916 -10.6718023123603 0 0
103.750935662629 17.8088259307719 -5.38564489512278 0 0
-249.638604556157 31.2816723448641 18.4612699050779 0 0
-217.937579419438 -6.06926087934821 13.7081694395005 0 0
-140.11448707022 -23.4030738927516 1.22357074419242 0 0
-217.033067519931 30.6579419709389 -10.3041778901851 0 0
-73.8498182736666 -6.53081265801265 9.88790412229659 0 0
-250.141907483966 47.3904525723626 -7.8181409650569 0 0
53.4753644300524 6.21507306713759 0.260668550338744 0 0
-44.9092247614902 -19.3849682767868 -12.5787760718729 0 0
-110.466074320833 -17.6616294911969 9.16031010986299 0 0
-4.71281741347401 -11.0348338103249 0.581251237252805 0 0
-63.2297132803004 -0.619695570618503 7.40614624014708 0 0
-180.452439524372 0.19501259294328 -10.5065020929094 0 0
-14.3341355078748 7.61013205431102 -2.76963906745304 0 0
30.0223198022881 -3.10618124688133 5.33187971334086 0 0
-208.403354615928 -37.4018044738745 -4.71988690417207 0 0
98.6219481707228 0.376945258781414 -22.713746075506 0 0
62.3539752581417 9.99817564321039 -2.50005942315874 0 0
-197.331604304807 8.65492667212468 12.1444527475297 0 0
-256.339260040661 33.5715721861697 -14.901379963633 0 0
-189.633445357191 1.65948234030532 19.3700457112861 0 0
-238.294417846375 49.32569931554 7.22694033928483 0 0
-251.189610829199 18.1177969971134 -18.8438081523608 0 0
-61.6976395764015 -19.1274987149128 -13.441850149435 0 0
-245.035604517197 -14.5397549068707 14.335059511688 0 0
117.573245268666 -12.5488121137679 -19.7008418351411 0 0
34.4060131350463 11.618681746316 -6.18469886157192 0 0
-220.014216280939 41.0191722412467 -6.6211718015641 0 0
-135.604464805355 -4.24720712970686 12.7372189775382 0 0
55.4390160769946 14.4691228927527 -16.1691343634627 0 0
-187.615498825515 12.7201080128159 15.8087198507162 0 0
-204.462233241078 17.7512550831945 5.47022175250923 0 0
-83.5544008012395 -18.6726262191111 -13.0429151553496 0 0
-38.8162823422793 -10.0988244982389 3.63973117110416 0 0
-245.077450278324 16.4606937843973 -21.244862641078 0 0
120.184073252982 -18.6645446693487 -10.1033232416109 0 0
116.666841573088 8.6546259573106 -19.923250876099 0 0
-176.705809369201 17.1186684273879 6.36910591694122 0 0
-231.590375981144 2.66020209625751 7.58006028713421 0 0
12.8626974283711 -15.2911468292455 -15.7208706739427 0 0
-239.892044901475 -16.0068551747357 29.1371187079261 0 0
-250.195176176609 48.0128886177005 3.49801723693663 0 0
42.5532491942302 -0.745478004195298 -23.2329911938598 0 0
-170.159293784864 8.01525062665596 -3.81754403859654 0 0
-218.968042696043 40.2779763684457 -4.67923783288359 0 0
-176.187289973131 -22.9496327396535 18.431652208357 0 0
-240.875574720601 11.8911318649351 10.8102561924351 0 0
-136.520555397454 -23.0766303344442 -0.904123318055868 0 0
-234.841406374255 24.5223495445967 -24.4556020211059 0 0
-76.7650467974284 7.92177106973871 -5.63124993312989 0 0
91.4708545883708 16.3294961917965 -16.5542616407126 0 0
-229.890315786762 42.4891702390696 -17.4139960684601 0 0
108.944695191316 -18.5159546005097 -7.83650627964829 0 0
-234.301710032866 50.3173842594114 -3.10988596591049 0 0
-228.230878485366 31.8036487396838 18.9913877665581 0 0
6.61185002783516 8.50470632350783 -20.2483657113198 0 0
-151.958748862654 -11.9257636110741 17.3742989391269 0 0
-219.850260967672 25.564636625769 9.6419669553409 0 0
-36.0213570528248 -17.8324098497112 -5.0360446819563 0 0
-200.395158665467 3.65085719798528 -11.3541978949806 0 0
-226.419924949375 -33.1467207717469 21.357339627345 0 0
-9.695620025667 -4.52776601452921 -23.0406364500023 0 0
-45.533528733874 -14.6498229739517 -18.3394947569691 0 0
-260.651092417233 34.3369840726025 -1.37043779808608 0 0
-228.032810045825 -26.8969952222789 -9.33522197753665 0 0
-207.46805292626 -40.6804489872929 2.71955400504682 0 0
-243.277373309422 -12.3908678121629 18.7366662054492 0 0
-204.724501018799 14.0659793267291 -9.21405860169091 0 0
-134.486666110717 -3.17233573675081 -12.5642673787507 0 0
128.523667033747 2.26923569721412 5.85542527165819 0 0
-236.318978701983 -31.9699975783114 1.22399246096992 0 0
-196.434161049696 -11.6993533546521 -8.20904605854607 0 0
-18.4568403492161 -12.1709738584432 -20.2692104405008 0 0
51.6113359879999 -16.1732288943321 -10.2376037853722 0 0
-153.595747062163 -18.9019677961864 -7.12330106371048 0 0
-227.202161528711 9.75684263347196 -16.1314736986192 0 0
-198.684121239543 -6.14853041169772 24.4022933236376 0 0
125.934052704184 -12.6972199154131 -19.9576196735098 0 0
-22.9027688858065 -4.02827614141797 7.22700710517176 0 0
53.8758602437967 0.809425710496722 -23.1413075724173 0 0
-136.896747192928 1.88495951992615 -10.3712213160447 0 0
137.848741507866 4.64295577722983 -20.4255778333933 0 0
88.5899734099728 15.9970400033504 -5.60608693714939 0 0
-251.471008453225 14.1570921956255 -15.9407366749849 0 0
-64.0687174429747 0.345272400851798 6.35794877030041 0 0
27.7089036768832 12.1375259657274 -7.77042669665442 0 0
6.9834986536201 -0.833969391947673 -23.2596986832033 0 0
-233.80679283692 49.6054889145931 -7.2049613240709 0 0
-71.0901303893413 -7.57283000049797 10.134495374662 0 0
-156.886919895887 5.94980868163153 9.35522001727907 0 0
-208.777886064904 -22.1125177324101 28.3882332935304 0 0
3.71306495783698 -0.485837331459205 6.32711557716383 0 0
-40.8271567456734 -12.4603406827649 -19.5605151045133 0 0
-214.661790125821 0.0761267602655885 13.7583936355538 0 0
-212.205236797652 -8.89464705647175 19.9322397346862 0 0
125.491149027265 -19.3307019832546 0.304837451176734 0 0
124.25766822376 18.6398455021406 -3.0059839035036 0 0
-38.350248838123 6.8518761154974 -17.6181389598234 0 0
-190.21966828565 14.7175199846072 -1.05556113355631 0 0
61.5036781847637 -11.6962810409629 1.53001156024769 0 0
