"x" "y" "z" "f" "a"
-60.6207607797609 1.30958121769607 -6.23945421003669 0 0
133.467388542166 6.526484131489 -18.1264057547657 0 0
191.469575696978 38.4967212538907 -3.79218471562764 0 0
-102.467602261662 -13.8620542980918 21.7054923293312 0 0
136.225325698661 20.8832892224545 3.06126862506471 0 0
245.946872290588 -24.8038482991829 -3.8982046198235 0 0
91.0871681325582 3.33934070584603 20.2325523552315 0 0
-88.0556424419343 -0.13944906892862 -4.3261472510975 0 0
-104.893229334728 -3.8389308958929 -3.9027194267065 0 0
37.2322229894144 5.61377710212292 23.520491758877 0 0
-11.0116113945743 10.3633808552617 3.62822244413713 0 0
169.981996611511 -13.760646073629 -6.38447399063906 0 0
-3.34641884246109 -1.11421192874842 -9.80561031665051 0 0
108.531524851861 19.0936099372973 1.93183449257152 0 0
163.795241078228 0.392087236345642 12.4763341738609 0 0
178.18981399261 -4.2035038603974 -22.5878375591361 0 0
140.225176425409 2.32930078025746 14.4861205098945 0 0
5.64898479242391 6.42463727269238 -5.21127601917896 0 0
-51.9495826028089 -15.9842999033433 14.1987226681999 0 0
223.776096893482 22.7570659000482 -2.43458124378099 0 0
180.647144459465 -9.89189058698382 12.0217899384301 0 0
-38.6968453717021 -7.77884285165153 -6.69961284610793 0 0
235.128770603899 -2.83705618531963 1.90684145398026 0 0
190.91218979712 30.7190486520618 -19.4707346409158 0 0
126.520146630746 2.09416625590362 -16.968260539615 0 0
195.626627368115 8.53391493653008 19.3068467590547 0 0
196.075206543805 14.3487406030953 17.4207425103688 0 0
236.965979480558 -38.9259450742523 13.6820115223133 0 0
-46.9141807131501 3.82645701542398 26.5859994232171 0 0
-60.5048139908621 -13.9598614132174 7.09765850950565 0 0
133.521447962712 -2.88398368373143 -16.3670966975121 0 0
221.309179946692 26.3265956814019 -3.3903919096042 0 0
187.363267910787 39.3330860454614 -3.06294346854046 0 0
144.416094928805 22.7752895618944 -1.47582526293013 0 0
214.188475929257 8.87630625637955 9.95463654614455 0 0
214.899259063994 -25.3655506241213 -20.4068926628057 0 0
243.429281843703 -34.6976687198882 -0.942269006320092 0 0
160.95451994289 -1.90424182043844 12.6274337913853 0 0
32.4153288964177 -6.73922265274581 23.8134566889687 0 0
-54.0048027594277 -4.40541671990891 -5.75969693079042 0 0
185.942571230529 -18.0987383293208 5.31574852376271 0 0
88.3396652646458 4.00901005432881 -14.1610135318483 0 0
246.228236115566 -28.6656240564815 3.02716890426594 0 0
102.891904950696 12.1654752790829 -15.1206441348081 0 0
-113.428526959257 -9.93624960133469 -2.35296638948948 0 0
172.4660324666 -16.4277981276777 -22.6973922340082 0 0
0.426664296177845 -8.82569033385014 23.7155471637042 0 0
122.715220785197 8.92055233154718 -17.1295029371923 0 0
-80.6930965134565 11.2496054948789 -0.446591150179572 0 0
116.777325072893 14.7983379897732 11.7528647917567 0 0
207.879808217753 33.7777557356227 2.15278216337967 0 0
-15.6357733089721 1.82969009368993 -8.87435149651963 0 0
-40.2859822470382 -8.49607668633215 -3.51178889057373 0 0
-124.11876037712 15.7289214724758 19.7067862554198 0 0
60.1759092714314 -2.81608676597256 23.2086231262822 0 0
-132.929094229896 -10.3869365776679 -4.5161309343888 0 0
61.9806837819987 -6.93801778097195 21.4392985689623 0 0
211.632453453734 32.1748911402559 -14.9766817939555 0 0
127.289269618858 20.9556594393186 -8.7788303940914 0 0
182.228236077463 1.70292091424441 -21.3939548378535 0 0
-127.469137612924 5.71836639669943 -5.13202574246782 0 0
214.296481485925 12.1406018482119 6.96341217317422 0 0
149.30848609068 -10.5803759698813 -3.81722677130266 0 0
-83.0092031964343 -13.4081164190179 3.65495204864897 0 0
-118.154875113311 -15.6541322785675 20.1132533506762 0 0
201.942217729599 -31.3628305005303 2.09106741303799 0 0
213.878909401038 -1.87168388853522 -9.5537452835503 0 0
189.768428926952 -1.27627553091561 14.8956099932464 0 0
80.0603826310777 -3.77398369375831 -10.3479044257863 0 0
195.828016462376 -19.0154810819727 -8.59504360309333 0 0
64.1981127247117 -5.19166138905996 22.267174605228 0 0
-60.6730973917119 -16.6577825551344 14.9702493623117 0 0
216.097388315469 -16.5678601251258 -19.1216604547582 0 0
203.612991516864 27.3669965419863 -20.6936305931918 0 0
103.004982469666 19.0315456304502 -7.09639206333409 0 0
175.256383889478 -15.0320894849198 4.37043944202131 0 0
47.2040632341562 12.1528459056455 1.83319915515106 0 0
-3.6470385690444 -6.11955498170093 -8.75739841419139 0 0
-25.1668484000346 -3.5517552452345 26.2206381927068 0 0
221.554516214246 -5.26141058148976 -8.50521189012918 0 0
146.075924757273 8.70706396918155 13.2243896654009 0 0
173.195829747764 -13.4765175200778 7.73950291648564 0 0
90.8709236172416 -6.63106187407248 17.8406640232641 0 0
-108.034452068423 -15.4771400931014 2.51825350994193 0 0
119.749734592606 -8.29902123012336 7.75827091792241 0 0
188.845939179818 -19.2506753434061 -4.02073143379411 0 0
152.79696871864 -9.8602788950295 -6.99173721639013 0 0
161.659710015132 12.4497442319875 11.5639220455659 0 0
193.068765118867 38.0087364570058 -5.37939527884817 0 0
174.842846551241 -8.15647708064068 -23.493126163391 0 0
-4.95043157690982 3.59655409685449 -9.93712555932282 0 0
195.537746190619 25.9815095351496 -23.0594179971172 0 0
234.51325831529 -17.5125539996914 -17.9008004514829 0 0
-30.04445537386 -8.48175589224581 -3.18786440813651 0 0
188.315255120564 -12.9294007487123 11.7739307197098 0 0
201.231445505433 -29.7399056384604 1.52533882698178 0 0
85.5516644273585 11.8745058541795 -12.8941130533581 0 0
140.410225690496 -4.00191121992188 -17.7306325854943 0 0
-49.0125913385622 5.67699539374647 25.8789240202116 0 0
241.572164395847 -17.6844645787511 16.5384932814025 0 0
210.963757709205 -36.8474238020168 -14.0687138130287 0 0
169.005630410115 -18.5428878694306 -20.6085663148762 0 0
100.068029986145 18.9857060988213 -3.39037156806434 0 0
-12.8116611821024 -4.6495527208206 -8.72139345372912 0 0
-84.5448345807678 -0.57568803097572 28.1276912660532 0 0
138.214804997755 5.47240156602223 14.6666095175606 0 0
189.827980939572 2.15388407515539 -20.490695246038 0 0
217.979491913641 -34.0830960553161 -18.7224625230574 0 0
220.474960554581 -2.41306138810021 -4.0417480752672 0 0
-109.407071600286 6.50740782162755 -4.86563486627035 0 0
-79.5367833462844 9.97926882657774 23.9049078853629 0 0
-133.905701069566 -19.7300083459918 0.547932194057922 0 0
133.586918068387 -8.86717101444019 -7.74238753205433 0 0
168.271207426503 -5.6627973681209 -26.3278836766188 0 0
-56.574990359007 13.208960721304 16.9444761787384 0 0
237.763029297667 -29.612840966002 19.9721479615056 0 0
-45.637392090469 1.05532653724505 27.1279474939217 0 0
-69.1554120808137 -15.4804390800408 19.5786627530617 0 0
-56.6597750151042 4.64815558867937 26.625809058336 0 0
-10.5712688650454 -14.8050431754433 15.0387595908162 0 0
103.730747256614 8.48980923493237 17.5452616468282 0 0
180.832654320812 -14.531296869123 -11.9190640489727 0 0
148.775315780321 11.6612704162428 -19.9320376718215 0 0
-90.8465755696381 -7.41692239656028 -2.71908562721122 0 0
217.13488565697 -0.953149058778166 18.6312524677893 0 0
201.01065316333 13.2016618573883 -25.1947319077511 0 0
-140.124634608473 -0.214146778164686 27.6419583991817 1 0
233.798410330241 -30.4695444334707 22.2933524848035 0 0
183.921668056827 30.7589370521782 -18.4220595281867 0 0
186.535889818674 6.58547138993222 -26.8391363597173 0 0
218.608340456419 -25.4434214906545 -21.2404847653155 0 0
161.702784281065 -11.8470127835488 -4.0868346684177 0 0
130.887491394317 -4.34817705442679 13.4611270921884 0 0
166.560817946732 -13.649769775889 3.3914381492465 0 0
243.724955680013 -15.3788637986242 11.6799609695061 0 0
44.1900937263393 11.0984944475565 0.399169593190735 0 0
-16.2242538423445 10.2462149296143 3.17477190601501 0 0
15.7212987572652 0.495376657793631 25.3627070934912 0 0
234.857243722982 -6.77250865455658 16.363144533259 0 0
210.680937010074 -21.5828308542363 -14.6998652431883 0 0
-105.344633856582 -13.9695904045399 21.6265431644194 0 0
-111.333012933982 -12.1262326086585 23.0680862159246 0 0
87.1936011482134 -7.64832029066875 16.5001832244642 0 0
194.434995727815 16.899673932342 -27.4187768063899 0 0
-140.538054315463 -23.0670812291752 9.17482625242732 1 0
150.06363001491 18.4449620629312 -19.7219797137142 0 0
220.935502682858 -17.6407167803576 -21.2952078398042 0 0
91.0938206313155 -1.58841655982558 20.5438451039262 0 0
-28.8768495860232 11.5463428351471 5.94658627574878 0 0
106.759810278506 5.35265378248238 -15.425601487181 0 0
216.063361937797 28.596968710065 -14.9590465597162 0 0
208.575843557481 5.51352475051662 17.8117327159917 0 0
198.148977723458 12.2209654743527 20.5889953444699 0 0
20.1880288385211 -3.0577976470103 -10.268293652239 0 0
-15.0712106981696 -13.8521372962263 11.0010230265469 0 0
236.406257709818 -4.9333042206788 12.5929887304609 0 0
165.609360202347 27.4320502730799 -12.5101905965577 0 0
182.911520154756 37.4774189482186 -9.93683765364766 0 0
196.81603991801 21.0966176226658 -25.54795462107 0 0
-64.7583343433918 13.3121111422747 17.0538080057777 0 0
-61.3050453370916 7.63662802330009 25.0690870395431 0 0
161.722967382069 12.2712230945415 -21.5280072039072 0 0
71.1639120601467 4.05731360575473 -12.9863687052573 0 0
216.044320220168 -28.9044134671081 -20.3067119771825 0 0
165.220966888689 -11.3744123834193 8.85638197672944 0 0
41.7820178703881 -7.51430049419243 -2.19377657893829 0 0
231.254442286646 -0.900366243350116 7.90391837676109 0 0
187.117780790214 -5.51953746392564 -17.5259210421471 0 0
211.385466538937 11.8665807301601 -21.1860406013976 0 0
167.520350365749 -14.3100961529862 -11.3899866480443 0 0
186.6965984837 -14.5413655014545 -11.1708395761448 0 0
161.238202780182 -14.649198431472 -14.3894239724174 0 0
177.992179085452 -5.17192116713966 13.6501950275919 0 0
192.672876348227 26.9657673779521 12.1187352344256 0 0
-91.4410746154613 -0.0246583126111621 -4.26992663824026 0 0
95.3726915686503 3.7654238462878 -14.6529068810123 0 0
228.678245497466 -2.07523571052525 -0.00714744932363978 0 0
-39.8451082121372 7.43032658370149 -2.64417570122913 0 0
133.944720693908 21.4322999435279 -9.72344583178886 0 0
188.487526385655 22.3028485987614 12.5812190774751 0 0
-78.4980145708073 5.7854252610775 26.8777550749248 0 0
220.649700556016 27.7794027401201 -2.55241348326163 0 0
98.266905516707 -0.43487779865627 19.7249638610168 0 0
-7.76127405545661 -10.6909409704095 22.6996300873788 0 0
241.50773150481 -35.9238381515782 -5.00007102558508 0 0
184.469769699143 14.8350395161715 12.9351769193773 0 0
206.512792086727 28.0745574380328 12.4817221448696 0 0
217.213772676613 -11.3214115904633 -17.3370289216413 0 0
-35.6589306998097 -9.15958959433185 -0.550428370945751 0 0
235.462903442405 -11.3015860016094 -14.0876690384775 0 0
-5.78322213841668 13.1251899533251 11.7130681597134 0 0
148.861040182194 -8.88815839098766 -8.80118183484769 0 0
167.925981859073 -8.68492292946751 -26.8780456489157 0 0
198.972151114252 36.2371764366497 -7.82108649394703 0 0
200.205967133696 11.3966120146275 -24.7968931038323 0 0
202.868977992237 29.995232570502 8.13323552795544 0 0
131.985628299974 9.51757786415244 14.2263321423691 0 0
-4.30082790262351 -8.56186762988415 -0.150562420953474 0 0
118.449364735735 -0.45481381691693 17.0800652958468 0 0
144.338233738687 8.13071634504101 -19.3608116762444 0 0
219.093689827331 16.6572029458082 -21.7684637975847 0 0
96.5833535183651 3.26350889594953 19.734510403655 0 0
207.012466890298 35.4399746316585 -6.70295612546571 0 0
138.572792352411 -7.07875267970915 -13.8766744159141 0 0
230.332525292167 -14.3910320488972 -18.9659800654172 0 0
241.593051628489 -11.1376125401797 12.0281293632849 0 0
-10.530476188599 7.59836573426286 -2.47138739800581 0 0
-118.039141244319 -10.2807694510796 24.1724473419877 0 0
219.01844485754 0.266266967516765 16.0133089398974 0 0
-41.5315913749361 12.8635031870074 8.57752152085103 0 0
-37.4746425256887 -15.5636043035025 15.4608905339685 0 0
243.585549490755 -23.9304437317269 14.6353978531173 0 0
139.765073062495 -10.043842684857 -4.62036330510353 0 0
-53.5446077964368 -0.282519593721737 27.3956846833545 0 0
214.515084074084 0.874261086492021 -5.93343321771035 0 0
134.365709949445 -6.53094128366697 -13.0421989906635 0 0
-86.3884119391638 10.954086931824 -1.88395159732884 0 0
166.730729898223 14.0219486378722 -22.4087624623952 0 0
219.67810814497 29.5260292399772 -3.67386754840956 0 0
12.7011417507827 -6.63003684428823 -5.78283473013467 0 0
-26.145575983091 -7.82852401873094 -5.80668381495943 0 0
86.0331877568243 17.3818358408674 -5.43359123027649 0 0
82.1871996318838 4.67821176389613 20.8315483055246 0 0
146.920363193753 -1.32795366922244 13.5063306908373 0 0
217.876228098146 30.4448720606512 -6.25377004295496 0 0
-137.154607521899 20.6712521849181 9.61368070781067 1 0
57.8792539551282 4.10137058432314 -12.5045344867659 0 0
-72.4903221444654 12.710552188294 3.52622938793527 0 0
-14.5758094782617 12.9518814749053 16.219019227726 0 0
210.982997200492 -43.1841340385649 -5.1931376494255 0 0
86.0721231516854 -3.47018594616699 -10.9443709912623 0 0
245.45326132056 -17.8840553039849 -4.27375555361144 0 0
226.93676578879 -15.6991427469342 24.8087947449124 0 0
219.093227921243 1.6654379536766 12.779649181961 0 0
164.057085211467 15.619948879436 -21.245058316284 0 0
210.330583471209 33.6824917868382 -0.294234875743025 0 0
98.3760248348951 -5.55267411485033 -6.99025851536578 0 0
132.773359264774 20.5542200001724 3.11804462351389 0 0
204.102438265689 -33.9942317694656 -0.665089767765124 0 0
-39.0104732253077 9.34521663575015 0.608958168300485 0 0
169.142971784968 -13.8582605685518 4.40016103643802 0 0
26.9735755108441 5.50743317125813 24.0394108776581 0 0
67.7986700576233 15.9761812969462 6.70347087416287 0 0
169.100476701393 0.462944296765807 -25.3886036123014 0 0
20.5680722360168 13.2805987047004 15.7008074333411 0 0
-130.416156155219 -1.18576195540695 -5.30864754265922 0 0
180.093468406201 -11.8219730906528 10.8304982699199 0 0
-119.800781322053 -1.9735298547992 -4.71565835299024 0 0
-139.305319627892 8.23266835882525 28.0105384887428 1 0
187.019035574819 -9.7002572368862 -15.1667207832329 0 0
7.24319645038497 -11.2263064028858 6.34920084641378 0 0
-141.725361441632 18.6057970503142 17.2482006598472 1 0
212.044420681704 -43.4530440835134 9.29551403953027 0 0
-96.1165200897264 7.11068913025341 -4.77610694659509 0 0
-112.577795388546 15.3331325976451 0.111998559995193 0 0
242.601017597038 -35.0586224235039 8.88706959096925 0 0
58.2266208416175 0.23929480533782 23.3458905323743 0 0
80.9835419272659 11.7886408222022 16.8485697170009 0 0
168.637498745914 -10.3710151092153 11.1826355254856 0 0
208.836313282401 -39.7160659435788 -8.34989905367757 0 0
-28.0589477105039 -6.57330448947019 -7.84679225085669 0 0
-72.0221101753551 -3.06067571132935 -4.6400386790924 0 0
246.595456243596 -21.7985462535331 6.50405711078935 0 0
-94.1751858029047 -7.83250453409953 -2.58613769609042 0 0
104.937985836342 19.1965335897947 -1.11942284199023 0 0
7.7840801466657 0.906891589487262 25.5886493487924 0 0
7.60865025262734 10.4678705180013 3.29520728741971 0 0
-45.733070839619 -12.7983793105569 21.8883269717671 0 0
-71.8848751768303 10.3467494787789 22.9842418836641 0 0
195.117756422143 12.7880975563116 17.5713110933661 0 0
148.536672706295 6.15893981487726 13.8719113244271 0 0
-103.710525875567 -11.5922614907503 23.5271058957938 0 0
212.345709913436 26.1939803949367 12.7176895142383 0 0
-52.8067615822722 13.5008035840659 10.4358714228181 0 0
191.590115839129 2.09155468493381 -19.4118018406434 0 0
-121.411063108361 -6.39331580114885 26.0638954416684 0 0
-119.371070219967 15.7019301397889 19.2551532769012 0 0
141.116254441295 -10.6099643427036 -2.5537597747436 0 0
119.670070127368 20.5442001002717 -5.64021681053243 0 0
-108.835008520527 1.2148446033119 -4.55837952518208 0 0
212.894585539319 23.9838961998597 -21.3074171622426 0 0
197.678713355743 37.3270374429374 5.11745858358512 0 0
-116.116653027623 -2.54488766644178 27.5887251292752 0 0
-53.6548113076675 -15.7048401929015 17.9506421892445 0 0
187.359917811328 -17.6541936491827 7.59199586967327 0 0
-78.5795458878287 -8.13332403746972 25.4916569327658 0 0
-3.30281690078747 5.1073069932616 -9.92623106592927 0 0
62.1890642204768 11.1539163834214 18.5371784179271 0 0
-84.6549930255181 -11.6394550855656 1.42323721151333 0 0
-132.885568510656 19.6490639273565 11.715523486784 0 0
-130.13351347435 16.6295608639757 18.9012561598322 0 0
216.383455126409 31.6709976302346 -4.87809484062227 0 0
193.415397252308 2.77831132846931 17.9641517058127 0 0
136.316156984453 -8.9654507716944 7.9510632158316 0 0
-118.197681083098 -6.8155469036521 26.0129642134065 0 0
-86.4996384066009 -1.96068515571889 27.9525410188803 0 0
167.830939188785 25.7769834833467 4.27070136934865 0 0
220.862236836301 25.1794284012606 1.76609734529847 0 0
207.025185678555 34.040229959168 0.98738561993842 0 0
176.468174613502 5.56992525454884 -25.6424537487646 0 0
211.734500582952 -19.3118697074913 -16.1361687974586 0 0
-20.6921846456999 0.375908135708081 -8.59166097587554 0 0
75.748195048318 12.7832420651644 -10.2759964508153 0 0
-6.0546300772218 6.44565552125603 -5.96245768798888 0 0
-131.344840650798 -6.26191065187187 25.6490515313239 0 0
4.88406340735044 -8.24630404470253 -0.786361414620381 0 0
-125.531546567628 -12.9797343633884 22.1541726405503 0 0
214.249012715024 15.4729478618821 -2.40928106542312 0 0
61.0056590694686 0.596465173252282 23.1323144521619 0 0
180.069036429591 -14.0052162317226 -13.7297778270425 0 0
209.069689523143 10.1443344460528 -20.4531094904142 0 0
216.827542706249 30.7548403689224 -0.274566204730218 0 0
-57.7899657161031 -8.48267076550877 -2.41167113304251 0 0
-27.7085648573183 13.0797537381803 11.8987883615419 0 0
-87.2849435949773 14.8734140430361 6.191276978481 0 0
-127.662153692739 13.87174336732 -4.66502307963648 0 0
185.380306240918 -1.4570601332484 -18.2114944866788 0 0
207.141905105627 9.03535448437317 -4.26100141848447 0 0
174.590651963337 -14.4697481714512 6.21731822407022 0 0
94.3321778592463 -7.57064268832251 -1.00105869526141 0 0
-3.60492941028626 2.62418837156592 -10.2413174589967 0 0
-27.4393371116982 -12.2767058318409 7.35298256077888 0 0
236.329670978011 -5.99736916996637 14.1964124390434 0 0
-121.553654860404 7.6598521625079 -4.9182711385464 0 0
15.9149317798789 10.4936756589651 2.71946338409849 0 0
-67.5465622050279 12.0219906990757 20.2927720686966 0 0
185.810291187541 1.08565193234013 -19.6176210270723 0 0
196.549196133613 -21.2507150199849 9.80802639982906 0 0
46.6398003553863 4.29626300704817 -11.4144932230977 0 0
39.6900609548794 1.27886318294196 24.3246053230541 0 0
23.218085721367 -1.10497535082027 -10.3960188925245 0 0
116.02313474258 -3.35142073332087 -13.6549546069385 0 0
-108.893041028497 3.68999342136813 -4.70471252443389 0 0
6.85102424839303 -13.2793026577404 18.543693890139 0 0
-128.735751274003 -9.67585612378716 -4.18812647883569 0 0
185.966972527915 -9.5359069587817 12.5709503946059 0 0
225.901344495552 -26.2581423674307 -21.3267157357678 0 0
212.538964532375 -29.9060395673135 22.8646305369733 0 0
234.722221539421 -36.4022868937208 18.4080959596663 0 0
109.395842615835 19.7060685422235 -5.13703228210431 0 0
136.06407551153 17.3947500677351 -16.472475835875 0 0
59.583509181748 15.4153248755769 7.51840524367526 0 0
175.126842423836 -6.08136939394225 -24.5573587721966 0 0
165.21729444967 25.4256382172674 -17.1762480154056 0 0
239.651327969048 -38.7435279152161 7.48520556882737 0 0
114.23269464039 13.7681305736559 12.8890972783878 0 0
148.651579038151 -8.0780894527315 8.84901555631343 0 0
218.79073080107 23.7545178422793 9.98069846960354 0 0
214.197773913779 12.0398451438814 9.29597443571816 0 0
-2.99590673443149 11.2649320830461 5.63888313735972 0 0
-124.789199795177 14.4337465263719 -3.94544521320681 0 0
201.948814255705 -24.1165073020831 15.5723860691417 0 0
174.683601572114 12.5442600578215 12.1276286552029 0 0
30.1697131975834 10.309285390516 20.6397526007669 0 0
-102.249832648365 -18.4061880500735 16.3172182365224 0 0
179.173045948812 -13.6563883497455 -15.6127837441983 0 0
115.094608995037 9.71350758335495 -16.4550549750928 0 0
22.8391024665165 -8.01379057411538 -1.09356267437082 0 0
115.64748554502 3.77952595338254 17.5506006794571 0 0
153.454547047027 -12.5964557364479 -20.407337449541 0 0
19.1685621464818 -13.6100430495759 14.3012321331184 0 0
165.864240337615 3.78649855553766 -24.6101211520209 0 0
184.119331654038 3.34163064452894 14.623780349667 0 0
166.507990047914 11.0138429314553 11.8145563424298 0 0
-142.012230293261 20.2194254783989 -3.34568309325903 1 0
52.7726371455837 -3.80556272637532 -10.6573127233966 0 0
31.0167355777819 -12.7966253342168 12.9504683017613 0 0
-141.831574209524 -16.7889282624025 19.0147220242518 1 0
216.793623569728 -34.6376629937024 22.4010149442494 0 0
89.9317623099933 17.23515381974 -7.94730001421975 0 0
166.274293848307 0.99195449791627 -25.1331348143054 0 0
-18.4853598055305 5.70271871657912 -5.87124815818114 0 0
-35.1152098160551 -8.8001544111953 -3.64675661980765 0 0
-119.027777850501 6.10315958027676 27.8398751640567 0 0
183.899825454766 -17.6571405690392 -3.00625817318343 0 0
19.0160743562798 12.3058963222658 6.59966122864044 0 0
-91.6580239949811 -14.8633563316581 4.45304488907508 0 0
38.1132245833469 10.6684888707971 20.0845317244124 0 0
115.292018260512 18.202632693212 6.30027748530544 0 0
237.493713171284 -28.6891757596495 -15.6189230347227 0 0
-79.1624389442365 -12.9687465325394 3.42279289892025 0 0
222.377158979488 23.1825642032471 1.65194651774498 0 0
173.653042928711 7.2817642638436 12.7809605999684 0 0
-140.75060999099 -22.6796991453931 2.70932812978628 1 0
216.956974983742 0.940380296829075 -0.658531021554711 0 0
75.9308022505534 -9.73238273074758 9.92013399152874 0 0
183.986977618491 25.0112531896374 -23.2542964560775 0 0
215.174784688121 -32.7622803005655 -18.7649613450956 0 0
142.949038274906 20.8692604837375 4.5342713480943 0 0
160.831641265853 -0.273302978684645 -24.3262046249506 0 0
152.087683793493 16.6232141230029 -19.781380723967 0 0
29.5058122327479 -3.78718907990901 24.6603396110632 0 0
-0.57741054113992 11.3656154724662 20.0612629670711 0 0
237.385772903135 -40.4496820936689 8.90833034079693 0 0
180.336911449715 -6.91727922261741 -20.1977979487798 0 0
74.8905130428189 -8.19666738504726 1.32730069636202 0 0
-134.930211725934 20.7150681072919 2.75421842655184 0 0
215.102068544558 18.0550984575191 -21.7365903236317 0 0
-35.9756165505761 13.2837191891536 13.0825863244604 0 0
24.800996786938 2.7866279197 -10.584011905995 0 0
90.5749635631467 11.6305086554761 16.3906636405288 0 0
-123.651981805916 -19.2404846263131 2.90843072948238 0 0
204.787290966304 14.1124525698257 -6.79485217124457 0 0
210.544094852743 12.0347401848406 15.6832956786534 0 0
17.4433641504465 2.50927638749962 -10.6497086523784 0 0
200.257454078657 33.3023296185687 7.11991211880281 0 0
173.235614281551 -5.73730687939095 -25.6378287498874 0 0
100.135264446377 6.09497256197042 -15.1429578183198 0 0
-32.8491435180479 -15.0459211889531 13.0974550799566 0 0
26.4156895318668 -4.30237904354669 24.6599032956585 0 0
63.0137266252781 13.9696516207237 14.9115897820851 0 0
2.00022859533815 -5.13264136937336 -9.01773066691204 0 0
167.660913020531 -18.9183650995227 -19.0767768537735 0 0
230.185451834354 -4.59863506560278 -7.27410719355308 0 0
-132.331406225026 -16.0089797417634 19.5847358058844 0 0
188.064414640478 -4.74206109997237 14.116966614328 0 0
221.321705385134 -30.2592115478333 25.0073352033418 0 0
215.467614156918 17.9171123601216 13.9680735957236 0 0
54.1524388467301 -2.04431267272508 23.6571537529676 0 0
184.11728032105 8.74942202043321 -26.9207023627027 0 0
190.424107254428 29.9674491755733 10.3431663333966 0 0
146.705777035661 12.0445815226286 12.2539233772042 0 0
-128.201731073927 -21.8066792576892 10.141378066361 0 0
12.3408406940917 -13.9151078816724 16.1270993800957 0 0
27.4386445829894 -11.5691019935022 8.3060752706818 0 0
230.372200138753 -2.44679772626619 -1.77693722471713 0 0
-109.935133033663 -7.24684165861769 26.0225522042269 0 0
11.3265520352467 13.4941679936149 12.4170404507919 0 0
191.900045492438 -0.38287299325935 -17.7301762545908 0 0
213.059284295157 9.20448953372995 1.44613601889154 0 0
170.187802138644 -14.8293588474587 -11.1745932366558 0 0
240.398518043226 -36.247704822529 12.1085284894467 0 0
230.313581231448 -39.6707999542016 18.0936738892485 0 0
134.393345993554 13.6775015606793 -18.2874381380376 0 0
-3.27800737476292 10.8260460909876 20.6407801244405 0 0
139.931381167052 -1.69755000742511 -18.3898678923354 0 0
239.292694708323 -19.9110681043461 19.5533329468969 0 0
33.914924313932 13.8249277579994 14.7848846147236 0 0
179.379901849487 27.4332086364769 -20.001595902576 0 0
184.321922476992 -0.538516968932454 15.3980021009409 0 0
73.7326922457887 7.59222835776032 20.4170749281382 0 0
180.481012646287 -8.69138723009221 -18.8390571445493 0 0
142.498349870726 1.77813394497006 -19.3424175608847 0 0
217.721646802052 26.8843705345125 7.85046285502331 0 0
226.889660208031 -4.18628567638289 -7.14870643267606 0 0
163.479101711893 -5.67984405016532 12.3525650258681 0 0
201.988386334888 29.2053227014271 10.3429594179214 0 0
224.760020608976 -22.9871579136124 26.1005181418123 0 0
243.687206675459 -29.1584892162894 -7.74917226737731 0 0
133.025785956689 21.553655255087 -7.35294070740095 0 0
203.693283387113 -29.4424894025302 -4.0490750188156 0 0
108.16473480855 -2.48654010667234 -13.5216059975518 0 0
100.112640648192 -8.71470440937189 5.21205107134287 0 0
-101.396932337922 16.3466249295462 5.80169619451212 0 0
48.6028150629296 2.65292085834032 -11.229296837493 0 0
190.102579807098 3.86172503664355 17.0853906940719 0 0
201.563729775126 -32.0215815618073 5.10835241871033 0 0
-45.5897081842974 -3.10201693041092 26.9127759288404 0 0
30.1879690766708 2.38597498822991 -10.7537691103049 0 0
135.96824540979 19.0948776434563 6.51360184214458 0 0
-89.7125432609608 -9.43264140188739 24.8298970044664 0 0
218.305141099156 -46.9844280576158 -0.100553965826974 0 0
214.616790757261 2.88034489734739 15.1378158034892 0 0
225.7908649074 -10.7082987166083 -16.5559610422818 0 0
210.135294649261 7.86275679347471 -1.59491810115976 0 0
231.09677242086 -42.8498826806797 13.2064047535418 0 0
-6.4994297700859 2.82870640089502 25.8104402164446 0 0
235.32608417523 -10.5959658164936 19.0390933457096 0 0
120.798444285818 4.33164912106189 16.8542217075807 0 0
-54.344569611834 -3.63274875984488 27.0089431092999 0 0
-41.4450297986728 -13.1460164800417 8.15549235634308 0 0
-21.8738654688011 -2.89204285722664 -8.58836600265108 0 0
31.7890432685038 3.59662326103111 -10.797238909299 0 0
232.974436426931 -14.8345606589555 -18.0290535378445 0 0
207.40528048007 -9.34475962976833 -15.2859471435823 0 0
216.610473884053 8.15197351117064 -19.1036062372554 0 0
77.2455865716758 -5.03112136030303 -7.32402615249735 0 0
193.636133194557 -2.58293902024089 15.5403251299289 0 0
206.654965190553 11.0962233002412 19.2432058682999 0 0
184.516976742877 -5.08938618736112 -18.8808301901194 0 0
208.267964570819 15.9673625284366 -7.81245153038359 0 0
-119.557230974569 2.05238883278768 -4.91562943307909 0 0
237.160866962471 -13.7193655297292 -14.4479227145331 0 0
99.6707764947852 15.5495711417228 11.2221286082658 0 0
-49.8626393683541 6.89735639785941 -4.18666842731977 0 0
-104.058276218422 0.850778729141219 -4.44198793761852 0 0
231.728815622356 -13.2752290341729 -17.7131064406708 0 0
17.8667168975918 13.6623780487127 11.9841823547824 0 0
132.984639596514 -9.76991988346794 -2.66463146878247 0 0
144.424997406244 -6.13511390639013 -18.2596009167821 0 0
134.780061273279 -8.13482671999063 9.28389687153897 0 0
231.662283357835 -16.7326729890365 -19.0803040399725 0 0
222.965827052273 -14.4903681968725 -19.9616697650237 0 0
0.108386812315945 -6.99129850869435 -5.39571738271975 0 0
138.153971549416 19.5839226104814 -15.1743324544562 0 0
171.397775392359 22.7455913519827 -20.2295506344821 0 0
121.042863584008 1.12247222151248 -16.3025705991535 0 0
51.3745679844876 3.57372746756348 -10.6830480894639 0 0
218.324474763944 25.0117057623908 -15.1429881328235 0 0
86.3929353280362 16.0104981989912 10.3062019728124 0 0
221.041300733242 0.634257520462156 14.3053072832289 0 0
36.9213162428028 -7.19958152153238 23.3039905604155 0 0
59.1267014212642 -4.88036721610984 -9.26676860105311 0 0
223.627756023019 -27.8173387115264 -21.2808147176377 0 0
113.382168272723 -7.04491543681808 -5.61631989056824 0 0
172.520991501486 -15.5161907360816 -12.0873990338667 0 0
220.119295604538 -0.463698977556347 0.793575855017634 0 0
100.202505482453 7.80753695686212 18.1000859955362 0 0
225.666226301029 -44.9971933358127 -4.33782545740305 0 0
193.762596779295 31.6475961958023 -18.3779239936422 0 0
-39.1914606397228 12.2535951681526 7.00563025240146 0 0
-18.9319453704145 -0.880780309950756 -8.54796911362895 0 0
164.138229025994 -15.7943840422474 -26.239165957014 0 0
195.701374365684 1.50448821655859 -16.7822121572129 0 0
-63.0623399705737 5.64778752123857 26.4131484507088 0 0
244.643721429775 -18.3236909743915 11.5215361769555 0 0
-87.276279599306 -17.7296982496207 16.4679200445106 0 0
198.162903554141 15.6266603716526 18.2586553639791 0 0
-21.2401071662004 5.30994082154092 -7.94160943614123 0 0
223.274561863003 -37.4904132557886 21.4935152017146 0 0
-2.78968523889591 -14.1828112621812 17.0279415079768 0 0
221.572916804611 22.2271650611704 3.33715629910019 0 0
48.0795489330412 14.3805770097893 6.8088381307041 0 0
-139.080390654375 3.30317914452566 -5.81843103039098 1 0
200.827683256751 37.3613384890381 -1.95571651053239 0 0
106.106677594375 10.7588215812323 16.0728161960659 0 0
-38.5833934231714 -9.0329415478754 -1.04049211187032 0 0
133.102894577545 -2.91260697955519 14.1952909343995 0 0
219.167231037496 -17.7100605924499 25.3130641924314 0 0
239.229951473857 -10.2723481828104 -9.65598578104739 0 0
-67.1838924333418 -4.03609080123027 -4.96168429199351 0 0
153.361040770417 2.33218550773102 13.3042659925939 0 0
119.270259497659 2.00306334976149 17.1819282075694 0 0
-97.8588531600368 0.605711105569835 28.2251847927316 0 0
-139.452277842102 -6.43830341554436 25.0256496651796 1 0
215.579550891219 17.2431120498169 10.7268859624491 0 0
-44.4512953704819 10.2005809931237 1.76321120635342 0 0
64.3465412355138 -3.11054050092584 -11.8872962426961 0 0
163.31905694412 5.68672783650656 -23.4994587198977 0 0
213.354109787023 32.6992521889243 -8.05851239484343 0 0
243.159031682867 -35.5513274801091 1.79717625781523 0 0
25.1240457409737 8.36240217477617 -2.13636185303652 0 0
116.256299019116 9.53986609219077 15.6976165078722 0 0
115.988063915245 12.1789072633593 14.2249835037389 0 0
-2.97429697291085 -12.9092466752477 20.0183309657902 0 0
22.9785433345776 7.70899097778999 22.9440607531823 0 0
158.109833489252 20.7804333022583 -20.05465747395 0 0
224.311161945393 -16.9539395146146 25.4133737306042 0 0
-6.30563014150602 -0.447767746674132 -9.81175231033276 0 0
116.287672784656 3.60503161603758 -15.9625759881805 0 0
111.787438622295 -3.60362113677566 16.973649586041 0 0
146.016934681297 -3.7344659667499 -20.0122800318935 0 0
-110.584536535073 16.9545425939516 3.87454288934815 0 0
200.129827303933 33.5032651259625 -13.3716143187964 0 0
182.689856178216 34.3798028320029 -14.1516484812825 0 0
203.762313337879 -13.6222104739725 -14.1675733801714 0 0
189.331723540611 8.26889037192654 16.8260499545778 0 0
181.194285838678 -2.77169840304083 -19.8474341659699 0 0
120.492270171984 17.0095423632308 -14.0168834893862 0 0
107.24200950878 18.2576706861406 5.27313683342744 0 0
203.676989298455 34.1032859178814 1.31295834197499 0 0
92.6880145041824 12.7828630135071 15.0533444860267 0 0
-54.0776751013312 6.74713599864277 -5.97309646575486 0 0
131.443574847407 4.42063218235929 -17.872237458723 0 0
-94.9182520913685 -2.04558145201609 -4.05409338231752 0 0
207.15055595338 -39.8818325486955 9.34719675576138 0 0
3.15753385706356 7.92588835644044 -1.76047051490847 0 0
6.56089533280861 9.25346564489033 0.874301172152611 0 0
220.106848652073 -1.14389227265269 -1.67597726842818 0 0
77.7637061456256 5.31264252151472 -13.4410902090686 0 0
100.80758091914 18.286679683967 -8.70640808704475 0 0
92.2444316875451 -8.32422851748044 1.9337792943056 0 0
143.858409655799 4.51069854530551 -19.3666979903147 0 0
-86.5114493827013 9.63484203961691 -3.75326112034288 0 0
232.612149433924 -9.62709005362703 20.2151396660977 0 0
215.198496202557 0.902210675294523 -4.32842133645966 0 0
144.557187088754 22.3041748856159 -12.1146383033618 0 0
153.816993681262 11.1958821058999 -20.5223596088011 0 0
-7.64399898668188 13.1253682277884 14.067134885363 0 3
182.410750524311 5.59346554409043 15.0077483129779 0 0
68.4284704032095 9.85712787015879 -11.2196690117156 0 0
146.40717823496 8.90677348933499 -19.6332537188238 0 0
124.874865667182 -9.03627580796865 4.79718414824095 0 0
185.159076030116 -15.7116670922133 8.89617657539621 0 0
35.4774320241596 -8.81022806737637 1.49960828732812 0 0
215.57427596672 -35.8367285881674 -17.0555139891297 0 0
217.707927449927 20.0709487122248 -21.345190377233 0 0
112.944012767813 20.0136906223411 -3.71392903379893 0 0
-36.402762947296 6.86514356288077 -3.4580735143495 0 0
146.831494023053 1.29712585332277 -19.9446921216561 0 0
66.672321122714 -10.123539232339 9.06858439522435 0 0
-51.4984155687328 7.22547796393235 24.9646462804014 0 0
14.4569820511656 9.58431749399046 0.952660867784884 0 0
241.886726025406 -36.431857411233 -1.99288829575659 0 0
197.187372420474 27.0448915786475 11.7890693958664 0 0
189.591688983029 1.10394655626627 16.1885571941914 0 0
231.500785928148 -45.7225553750756 6.77070832599054 0 0
77.0449746958161 6.89934563321944 -13.5822143312998 0 0
99.0777852795441 17.3100082000849 -9.74042374654153 0 0
173.007655060597 -8.20510434721106 -25.2579116111674 0 0
181.826416004633 -0.864451952731003 -21.1399260489975 0 0
228.067966907618 -6.60889390985594 -11.608399433182 0 0
151.218384352568 -7.91300008043467 9.13453082916575 0 0
-23.0962790949 -14.8769614907691 14.3743400090728 0 0
178.646285267762 32.4075673282471 1.11262232321779 0 0
201.189005392749 13.5367468277967 -12.8226963422818 0 0
102.892127546561 17.8722820858084 6.13947348388453 0 0
121.165044868897 -8.60518011628774 -2.3085394572519 0 0
-69.3194162492306 8.6563889930366 24.5932658569565 0 0
224.967886918891 -13.1438839477964 24.3170855676155 0 0
32.4406715597061 -8.56978634001475 22.6999826715477 0 0
239.320158351857 -22.3956124351493 19.9130566408206 0 0
123.486384993139 19.6249090026467 -11.5850314199238 0 0
-102.599938610763 17.0131754912077 9.82177253250671 0 0
219.971506107062 -10.6776781862045 23.8107394031982 0 0
-66.3292637463086 -3.09989831526757 27.361618772997 0 0
194.648956652844 35.4926327171429 -10.4587254590619 0 0
72.236438081053 8.78678029794084 -12.9994739775655 0 0
235.1229623729 -42.852327234628 0.348820177167792 0 0
-126.502739095927 19.0215961885764 11.7968344399597 0 0
3.43719504819107 6.3180767423141 -5.61827197743009 0 0
186.565724169534 -3.96889725556886 14.1246902608233 0 0
189.580390578682 26.3172307875997 12.2910458937323 0 0
237.670238376821 -17.5097423239331 20.4496009033839 0 0
183.403854259474 38.3247689020811 -3.07359433463874 0 0
74.8956593520701 -0.595582096386708 -12.8884999837602 0 0
166.98772914015 -13.4131728078232 1.18621376876317 0 0
226.90448228567 -44.2220202531856 -10.57219516558 0 0
132.098232378826 -9.72795771170161 -0.249914170937169 0 0
195.719932442196 28.0741580303606 -21.4985258052068 0 0
190.166314094491 6.10982858308427 17.176564398646 0 0
238.469015182093 -38.9723842091902 10.8184912948641 0 0
183.028108449553 38.9248061471273 -6.55551045382212 0 0
186.817079136612 27.6349306625854 -21.6888758416144 0 0
87.7311572320984 -2.072963517765 20.8143458159054 0 0
199.136922675664 -18.72873784674 13.9111779521565 0 0
243.183262028583 -10.0550374090048 5.67899647981738 0 0
147.769920359188 -8.46880681028168 -10.793854407971 0 0
199.496268109022 2.36371822962189 -14.1814455317016 0 0
145.656433840884 19.2979821050113 -18.2502995788258 0 0
205.784302030793 -3.48402097331171 19.1839261683357 0 0
140.648026910068 -5.5845175188211 11.6092861278596 0 0
245.606964867784 -16.3086730494395 -1.90941521440603 0 0
-101.489883674004 -6.75617494584656 26.3970938964685 0 0
216.22132494595 16.6040148294006 -21.6273044744472 0 0
8.96253697659372 5.47526557781395 -7.67913611837051 0 0
-100.922171158375 12.1753152253571 -2.01197040989269 0 0
59.9376621248308 15.5010908239396 10.5449785339028 0 0
-101.975789373393 -16.9921177051452 18.4754726043643 0 0
-18.3629243365561 12.8106479564905 17.1228581120766 0 0
-5.51313185538049 -11.7308451335507 21.6592083901808 0 0
207.868623913664 -37.1285074346047 -9.7246194628695 0 0
212.026228561664 15.1522748658556 15.0120616884772 0 0
-28.7275066227458 6.80254354317054 -3.37593829514516 0 0
-38.9536232841775 -8.29749964456339 24.831234467558 0 0
199.301262612644 -0.630838207113328 -14.5111744733572 0 0
201.837700274613 15.4117553133064 -13.4188386145666 0 0
189.079476086339 29.6118676294369 -20.434861539383 0 0
217.995480994231 -37.9379055491021 -16.2077612738451 0 0
216.731371864237 24.961948476815 -18.0270353245772 0 0
218.681340963406 -2.17310476783977 -4.68377705728444 0 0
-83.3669697196723 14.4742689180072 16.6640573115215 0 0
176.185608726031 -15.3417305377408 1.95336067704092 0 0
217.364331098399 -1.07709077568378 -4.30034466973674 0 0
-43.9260839418633 10.7259169799464 21.1663665076255 0 0
-45.3080623250184 13.5253326082335 14.6172483404861 0 0
-60.0994407792861 13.544786706827 8.95168971356685 0 0
8.53251205737503 -3.90075995514578 -9.44533881813269 0 0
1.56594933102445 9.94670324782583 2.43153356700573 0 0
17.5922717615491 9.05632220547719 22.1043155782737 0 0
156.13941495837 -1.47761015268594 -22.6452174701223 0 0
147.5597843126 23.738419660872 -6.21410382801941 0 0
48.2102503620093 -5.94416056736113 -6.64538654267997 0 0
216.582559955233 11.4939429589873 -9.22134751973909 0 0
150.9492160127 -10.1540528465117 -5.03374695835726 0 0
33.254265135054 10.3970330869194 0.983622357065026 0 0
218.300461356526 28.6439070236737 1.05028472130812 0 0
204.579118545465 36.2755251888527 -4.01830069380409 0 0
214.629636377101 17.1542224836899 15.0504906694659 0 0
-7.91892092891973 6.2286196995744 -6.98934873835535 0 0
91.2504645677835 16.0328399789705 -9.78695916604663 0 0
206.477060257505 3.52328472930144 18.7715214335742 0 0
241.802431658258 -8.43160073211081 7.17304041946942 0 0
9.66284068478104 -0.79112378621139 25.5249097157885 0 0
195.875610148669 30.3739622788348 -19.5003118388878 0 0
29.2805265755789 5.61698072645279 -9.63269108035332 0 0
183.445772507294 -7.74135459415001 12.63231454145 0 0
237.674124168791 -4.09399999516142 2.73413881509634 0 0
0.439879513803047 -8.6763481325565 0.429562813090867 0 0
-139.606960368656 -3.04616188489213 -5.83772662364374 1 0
23.1029964505509 13.35614492052 9.10998362318753 0 0
218.625416033753 13.8474562701732 -6.30101521497154 0 0
235.44816145133 -6.06002492769985 -6.81629058486535 0 0
213.178003760143 -27.4232950130606 -17.9916378828736 0 0
-127.13871311485 19.4529024294083 4.22387673925533 0 0
230.389969832358 -6.78228844465011 -11.0952758071154 0 0
137.847564321195 21.824369678344 -0.404751918445285 0 0
213.207809156155 2.05769789814118 16.947812664468 0 0
64.5071108869398 -4.2728363301917 -10.2450861415489 0 0
175.025525535691 -14.8959128574252 -5.52496995132966 0 0
61.8435874258162 15.0486169044179 4.9485666624452 0 0
121.716901985004 9.20113548586374 15.2848699499415 0 0
143.878304768971 6.39305482885482 14.0346735532155 0 0
-68.7615593766189 -16.8724025187951 16.5560748179891 0 0
213.815539153494 -37.0803987835004 19.6040102232973 0 0
128.559728772753 -3.74967363545645 -14.7674036381459 0 0
-29.3056758231984 -9.91909977813702 23.8220383734105 0 0
163.468404592724 -13.2333778655482 5.04412812553876 0 0
246.593305054362 -18.606746952248 2.2485163018661 0 0
-116.251857731299 10.9704743132645 -4.88445079656349 0 0
-113.970799171423 -9.56569532961995 24.7653160583047 0 0
82.3178730787452 13.4291854588809 14.8372518418478 0 0
148.489760908488 -11.1731374471199 2.14943422827821 0 0
217.560285480923 1.93400332510378 3.19785095260865 0 0
88.6971875384497 9.4486914634707 -14.7250024111156 0 0
212.549616385936 14.5861560655397 -1.08815618538486 0 0
114.518998261793 -6.03309328211955 14.0746194342429 0 0
218.477596667763 -46.5790521908551 6.61579868681357 0 0
-71.1666504341971 3.1815817367831 27.5400858133534 0 0
243.125539174255 -9.59271511274544 0.753290239192994 0 0
-71.090512597492 6.51032359046809 -6.70641716316157 0 0
210.537359497834 -23.755387535949 -13.6465333272442 0 0
175.671169808687 30.7471307418458 -15.159122156733 0 0
-79.9023573419783 8.07604121181746 25.6110034609162 0 0
-136.24922079289 5.72097896752519 28.3531314384584 0 0
140.693367767498 11.0900153434863 12.9252200056566 0 0
186.320014251885 33.8742352262617 -15.564044515054 0 0
200.58280081408 -27.8623220033086 -0.597317258877956 0 0
42.428697313321 13.4357013708047 16.5048927738207 0 0
152.960419337568 -11.5916459944765 3.67092054322137 0 0
148.522355692972 9.36748521498643 12.8670318736283 0 0
-13.3214888154608 10.5528745375933 20.9159147702252 0 0
239.728244110717 -38.7245465706254 1.53869266923517 0 0
158.256905378683 -12.336205646379 0.330416664906435 0 0
14.0446712388947 6.64083251569236 -4.47036855120537 0 0
-119.0125948998 18.4064758095465 10.7429284747183 0 0
210.64991302734 24.806724236614 -21.2485146958664 0 0
192.280172192718 -15.2778692713471 11.2989153107954 0 0
145.561322060146 20.5374749882787 -16.8783559759956 0 0
94.019255506982 5.11940313523282 19.5866475218535 0 0
-50.5620560697948 -15.644237878012 17.8116840235995 0 0
214.618913370336 7.51383133996653 8.87842276499376 0 0
215.176248958638 32.2974284089855 -3.06960872207975 0 0
144.361272444455 -9.279250262316 -5.61719197672194 0 0
192.515533125504 30.1293186914079 -20.1231557429446 0 0
167.779475610512 4.64070599434244 -24.7039347604148 0 0
204.46537632873 -39.2623205694943 3.38018851561415 0 0
-55.701627516174 -14.1070714326327 8.08214357838989 0 0
-108.988319989266 10.1707656918906 -5.24737189747444 0 0
222.73454698682 24.324233245015 -8.149693781556 0 0
107.285485638943 13.6248881856556 13.3839684252978 0 0
208.922171464796 31.9763334812599 8.37250402260615 0 0
-46.1302138829646 -15.3870177648097 12.6681597502794 0 0
180.964207655404 -12.5387788157032 -15.5128505358741 0 0
207.236394501473 32.6214849427752 -15.4200651023298 0 0
19.2060275858123 2.58775974280471 25.0568909086694 0 0
115.019136882382 -5.8157472155314 -9.00223723844349 0 0
223.593364261037 21.2482613637835 -10.3946631840772 0 0
186.861864150692 15.9086062860782 13.1235963093592 0 0
-91.3080137689076 -17.8313868717038 16.6451984902435 0 0
137.331004917533 -10.3442452677099 0.392592111581692 0 0
204.984689922062 -23.4969353258737 -8.82553419227355 0 0
219.695535127595 1.5770259936494 6.02016706502024 0 0
-20.4029812619617 -14.59879354713 18.0618839856349 0 0
210.811453847382 5.04691490595083 16.6971312438092 0 0
231.109376997293 -24.3048193436997 -20.175935262668 0 0
27.0012271498811 10.8182307767826 20.2644518852999 0 0
171.835942316694 23.8887103928562 8.00274839999296 0 0
73.42440122555 -8.70108709919075 17.6096052872925 0 0
-132.81438634808 20.4519762681559 4.51680780201417 0 0
225.644125113173 -12.9288576747796 -18.4655146791186 0 0
-116.803187980253 -16.9442375202535 18.810083294457 0 0
73.5467847283899 -7.05069278061009 -2.21569483919252 0 0
136.870273640652 -7.21260200498869 -11.6976700736433 0 0
182.26830152473 -11.7758445142736 11.2120440612161 0 0
16.4580726661173 7.45047033828152 23.2859165526152 0 0
190.092604855261 -18.3621306493295 -7.17714090264832 0 0
-49.045653518632 -3.13588641257279 -6.41416887146448 0 0
220.437503248662 17.0714817568726 -0.701831735535238 0 0
113.81528142106 7.30806699529918 -16.1499802509591 0 0
160.048989531329 -16.4947758692185 -24.1550831664352 0 0
51.2750790201355 -10.6599269418105 7.98732343073049 0 0
-125.253315466015 -6.93480328207836 25.6565674759852 0 0
195.273568646171 27.659111717918 11.0098285348242 0 0
157.671765245711 22.7827448702402 -19.2492344520113 0 0
163.062895028201 -10.2984525453771 9.42067623233541 0 0
166.700313151119 28.3964270466862 -10.8106483673401 0 0
111.195011483139 13.3116044551334 13.4631747051 0 0
67.1919989117671 -6.27079641504474 -4.58460382321117 0 0
239.681056085119 -38.4579765926999 -0.826095662585394 0 0
176.810013204612 -2.54089384476127 -25.2271643990126 0 0
144.407614551132 -1.79236544922533 13.5257888524777 0 0
-49.5126743929645 -10.8770333360499 2.51099324257356 0 0
-139.820187005235 21.7603055866046 0.41828144274355 1 0
142.606451642208 6.59790698733137 -19.1395642346122 0 0
191.196058853286 8.28976377134935 17.3287352371576 0 0
213.758972423263 8.41942154256366 -14.9341775781448 0 0
223.811136447585 -0.525770965570316 3.9282627592832 0 0
243.047627995073 -28.1117257338416 14.3831479363994 0 0
108.596473198015 -8.17309926749799 -1.1229209268391 0 0
181.235390412008 -15.4897006542632 -9.69568062415697 0 0
-111.996817221637 16.3315067805948 16.9561389736646 0 0
142.731569258116 21.9486583584227 -12.4560118594293 0 0
65.2458206237603 15.7476832596528 6.62430337784997 0 0
155.762551559857 -12.2490881755131 -0.606667787152935 0 0
215.787010229406 -45.4726048809516 -4.90434521501429 0 0
232.529603203926 -17.8338551438185 23.6176107271435 0 0
-139.844585767928 -15.5651154782733 19.9206760927208 1 0
210.453777621527 10.6427359906727 -15.0090196845991 0 0
196.610359751991 16.6881837725306 16.1444695671631 0 0
200.233430113522 17.3123295158167 18.5764495713981 0 0
226.454120817599 -17.9218545504182 -20.8274429048033 0 0
-140.873357072919 -10.9352585646868 22.6681843004048 1 0
77.4954957496647 -3.47457436712068 -10.9270061913647 0 0
129.82684494183 -1.25188014035143 15.2600819150512 0 0
154.797627405379 -11.3122356538019 5.89413179327062 0 0
175.329882511231 -16.4804835761882 -15.1453463900069 0 0
190.598384128541 39.1868544959938 -1.8312363008006 0 0
167.13610601809 19.0892499972553 -20.7909629353437 0 0
-74.1603589310657 -13.1668599747445 22.0259504934458 0 0
-79.2462173009085 -4.02857309879824 -4.0040927297559 0 0
137.963866313132 6.47693145017106 -18.7815064936233 0 0
144.166964505739 21.3850814278844 -14.535708652253 0 0
214.974724637225 7.74491294442567 -16.6923102198182 0 0
73.4381068817459 16.0901216562402 9.20016833525028 0 0
187.156709896172 30.2288372691119 -19.576197453781 0 0
94.1335468899201 15.0546631759135 12.070776720203 0 0
224.0522023428 19.8197671150302 -5.77509407418027 0 0
69.2712308400935 -6.95747528979848 -2.60888412214909 0 0
202.076558217901 -35.2576599889129 6.04497038091279 0 0
-23.2263360774871 1.69523633552298 -8.56151058505256 0 0
-6.73255632665642 -11.9029902368724 7.27568324854295 0 0
190.645178729917 0.898723653686935 -18.7231425220421 0 0
195.980790729158 -13.1143913238584 14.1569170914824 0 0
59.5338628121414 1.98291919279757 -12.117947590802 0 0
30.5388409473387 11.5001754452036 3.31281783452281 0 0
222.198682741716 -47.1677004923054 4.74317571365838 0 0
210.460454952288 34.7756922053493 -5.40173203477204 0 0
172.909421176111 31.1784853417958 -9.57659646644276 0 0
187.463692281643 27.1652177559032 11.5059745662969 0 0
128.611323555312 19.5221538599513 -13.1504382880362 0 0
134.111416980333 -0.508240224220999 -17.2793606890539 0 0
