"x" "y" "z" "f" "a"
40.7558178326056 10.0422842074283 -11.8695350392274 0 0
173.881610683751 -4.35822722871702 25.7920578956492 0 0
49.7536160022123 10.6899167906779 -7.40903994028381 0 0
149.836278409359 -22.3378954871547 -3.53200501512248 0 0
163.201094917484 -29.5581766421652 10.4300109922058 0 0
49.0732382646062 -10.5574831830195 -18.9627400503604 0 0
111.01485564266 11.1750360875376 3.51056250570318 0 0
88.0502790343816 -17.2391265661577 -7.51664213671867 0 0
182.484725719735 -27.2412446234373 3.07915692304719 0 0
180.954785097671 36.0787798619191 14.9133323011586 0 0
172.925005772685 -4.29589687114906 27.3435817383684 0 0
145.797274756935 -20.8890967216442 -6.14304896062319 0 0
79.3766832618695 13.7756336467267 -9.88251226242342 0 0
167.805472047429 37.8254654275453 2.06810766175138 0 0
9.70740084748076 -17.4384320550015 -12.8582191684921 0 0
172.990494453761 13.1033678944904 15.0931429700998 0 0
21.1912060064758 -11.9609801789346 1.40893543816771 0 0
182.539155987028 4.71906776022008 5.2472336219384 0 0
152.753377970737 27.7237851439349 10.8568438260677 0 0
162.612152089903 -26.9265233977245 -3.58202863779327 0 0
156.888912954527 -7.0025294381428 -17.460693948122 0 0
168.927248795219 -25.1571930419562 -12.3191854002929 0 0
185.639777479347 24.0665287213198 -8.91796575812599 0 0
17.1774171560868 -7.70471976785333 -21.0186935448718 0 0
134.126607908054 -6.98854907243065 -17.0061379356908 0 0
153.032347048811 -23.9702339434536 17.554017582635 0 0
152.222025887128 -23.9482554191663 10.9805297323019 0 0
186.021048968142 27.8493349189917 -5.1055682459598 0 0
173.924638166372 27.9235845781536 30.8489881492527 0 0
158.514636427488 -20.0303606511078 29.2166564876673 0 0
146.043373872274 7.70756075253619 -17.6865516334252 0 0
154.993815424179 29.3496379666457 13.6019913042691 0 0
154.746551521673 24.3552487429302 -12.8684962249774 0 0
87.7691478258055 14.568140336976 -11.1700792311318 0 0
140.947972363803 -20.1316103003236 13.1108848666068 0 0
130.703812031799 -19.8031302293632 5.67679833527813 0 0
45.052751343091 10.5017637093465 -9.39044607125217 0 0
172.254737645618 -30.0096095918627 4.31351183376656 0 0
136.967791559207 5.1001220810189 8.6053593683612 0 0
158.053110636595 -25.1028942694763 -8.74018967520556 0 0
169.417457177245 -0.00689804572882642 15.5998543756992 0 0
135.874227756714 -12.6084863442943 -16.1817766055615 0 0
53.2138206369349 5.95173775332684 -0.061284227096551 0 0
152.961526028037 -0.37928563631018 -16.3950272365586 0 0
132.773637304805 -17.8284922360025 -11.2726338155056 0 0
170.491833723885 -28.5715842068381 -1.1832003644258 0 0
20.6620328014305 -10.0465830124131 2.92406734545914 0 0
184.436969823526 10.5510415713286 -6.94043950181382 0 0
154.445576737771 -24.2146980326973 0.856587814949571 0 0
123.506166430769 -10.5540432572321 11.2277907933763 0 0
128.72922412915 -2.3352714026083 9.55032347414182 0 0
145.742320856947 -17.647062546774 -14.4541842796541 0 0
5.46936742259427 -17.6832300319085 -11.9874537385317 0 0
54.7264202072192 -14.0588655387733 1.43510542588802 0 0
152.509820776699 -23.3162043886746 4.17762742172975 0 0
172.998942102652 29.9729675880391 -8.20409025698558 0 0
190.692232574646 32.7297516026351 15.706006395901 0 0
31.2305020687507 2.15565104857372 1.78438267640115 0 0
176.14212755409 -15.8442320572439 33.2170655954151 0 0
170.992732753049 15.5667463258231 -19.2109118685789 0 0
96.5516650990163 1.63496109927358 5.22878020073485 0 0
92.4883011825894 -17.7488457677333 -3.10320462701318 0 0
184.032569799783 -20.3539579106345 26.5429873446651 0 0
167.501752722872 -26.8551901834804 23.7861391026732 0 0
39.6563165957902 -16.8425537214777 -9.63044468859083 0 0
182.43840946432 29.1892092112875 -5.08184942256669 0 0
149.427268324888 4.33362771297072 -17.3158689151604 0 0
154.844902231775 28.6091345594364 -7.87645238577006 0 0
134.898511114369 8.32227330953907 -17.6221727192019 0 0
10.5609757579342 5.85710646342725 -17.5004808512979 0 0
125.679530329337 0.401461241329384 8.03072286078488 0 0
64.3440970978893 -9.88676224045975 5.55491069067179 0 0
58.9915638765839 -11.7149094354962 -17.9686328753768 0 0
12.1286676759747 -13.9994500796761 -18.5877623241168 0 0
167.598031513989 4.8945173312767 14.5539020797417 0 0
156.055777812248 -22.1542743790804 20.9997415081037 0 0
165.255341968025 -27.7048284730742 -3.82784292921362 0 0
172.444184968708 -31.5230715089517 12.2154835129822 0 0
173.335668876407 7.79742194500523 -18.7684990675909 0 0
52.8408091938437 5.50068915919128 -19.031245177499 0 0
110.249574497368 -11.7863359340121 -16.4517554610876 0 0
145.201929275245 0.589905433402916 11.2752782125152 0 0
36.3471578237617 8.13737457131879 -3.40600928545702 0 0
171.187553059038 -25.8245517446299 -10.206610704757 0 0
144.450266900962 -16.602593454771 -15.3626800248666 0 0
112.368707289283 -13.8049034934259 -15.0934413296833 0 0
92.0741336909335 -12.2397401552622 -16.3270422398585 0 0
146.911159960821 26.9607104886478 4.05372360512237 0 0
82.8670608207779 1.67957487788529 -19.680272326507 0 0
74.5042473887246 7.09577609233298 -18.3786976648758 0 0
163.82975028254 25.9392877414623 -14.3064157106045 0 0
172.404281576828 34.5187900488329 29.5570199993362 0 0
139.367455119537 2.62179671886055 -17.3445757484501 0 0
176.224683172462 -5.16944756124262 -10.7398459547803 0 0
154.126943670872 -25.5281635330435 16.6463090871193 0 0
190.185538763075 16.6231791586038 5.19591603847362 0 0
157.934036377651 8.54710236150335 -18.8593688059577 0 0
155.216286319804 23.6339089317126 15.8036531755703 0 0
162.668137404509 -25.1509936863151 22.0536450201343 0 0
181.014381323041 -12.2534889541253 -8.15849258636191 0 0
178.348748041067 17.902269029767 -16.1870950503827 0 0
113.08918065431 18.5877065405216 -6.12198820854403 0 0
25.5054753643804 -9.41349768228203 3.5533778207782 0 0
6.87314520571088 -2.11139671495973 5.48367455997806 0 0
157.883652868449 15.1144183562164 14.9423096449806 0 0
162.994769425581 38.3708450150488 7.51396205984906 0 0
156.483548468668 -23.4887119424688 -11.9163054444146 0 0
161.261775480726 16.1392776697331 20.4663809989832 0 0
157.884828678772 24.2741773857316 19.1468182210458 0 0
177.924452358269 6.8936189386701 8.85932059789754 0 0
127.703857979928 -18.5097921781483 -8.78983980697252 0 0
166.021483583567 -29.1221385547866 1.44772147196225 0 0
162.959813929247 -27.9769471982709 18.7245911312573 0 0
57.3041656046437 -13.442623848061 -16.3351027310995 0 0
163.655265731383 0.887833285198112 -17.8284233850499 0 0
105.731151693203 6.8912951021282 4.35437450870814 0 0
160.026388213187 35.8364927216286 13.5623515142582 0 0
125.827760433374 -14.1693131800901 -15.1034232263963 0 0
126.48455792281 2.31148087515026 7.68280195733377 0 0
143.921585016931 22.7270584678968 7.4962597867136 0 0
9.84683933042571 -16.845627292424 -7.05242139118778 0 0
110.256456906694 -13.6616177738951 -15.1606512805337 0 0
82.974519675607 -17.0411093208229 -1.24540481953814 0 0
157.328520176485 10.1980957956648 -18.9880737678434 0 0
3.66599811960535 7.95734036417532 -12.7386058488658 1 0
181.384991859909 -3.80481783583723 6.95101740594084 0 0
175.713463983654 -31.1076846611478 12.1730693647099 0 0
52.9925369228766 -16.6058926217588 -9.40705705307974 0 0
151.460440852731 25.4186545234024 -9.97912627296022 0 0
141.657644919592 12.1968122209948 -17.1146237518258 0 0
74.344961379068 11.3183291700933 -14.9890829563674 0 0
149.763664955964 -22.4384841214236 1.94688440747708 0 0
135.332759712071 -16.0179395166545 -14.1195147092985 0 0
108.265157423537 -17.151025779663 -10.0333642015782 0 0
190.922296634443 24.3149284717021 0.581551820810296 0 0
121.037790190742 12.6054987220979 4.29424531278949 0 0
59.4160430605793 -1.2258182031327 4.65728275109928 0 0
91.2313078527472 1.7355806790478 4.94350746996532 0 0
43.3271921035527 -5.80078348661633 5.93345035048256 0 0
154.294159095765 -23.8850434161784 -4.83924509084161 0 0
88.7287616397325 12.9934487450858 -14.30483525366 0 0
61.2408845000633 10.5120627255708 -4.10561973947844 0 0
182.9397183403 22.1592395038586 -11.8114973054301 0 0
114.566810447269 -18.0803873350681 -7.93371225268909 0 0
121.874082142771 -8.57866763936771 10.6520573266981 0 0
154.025967608336 -24.4864182572839 9.28265454964162 0 0
160.533905590832 -1.08404846893709 18.040481749387 0 0
160.065312155162 37.4086698867024 6.93884549880077 0 0
136.316962559018 19.1270078261364 -12.3792567732481 0 0
150.057581143288 29.0792272382666 4.76593423896316 0 0
59.0552353400397 3.24611241969132 2.2075109457342 0 0
168.876026977139 18.8303971904637 -18.6373313800403 0 0
129.606519043255 7.98611551925994 -17.6514514981478 0 0
8.22295745933963 -13.7979854167739 -18.7821562387385 0 0
66.5184496817294 9.29956092317546 -16.7146869575634 0 0
159.05273497939 2.83628594118083 -17.4873558659093 0 0
151.390624459492 -0.545266962462968 13.1777542150493 0 0
76.4654484179507 -2.27719096960194 5.38365200280476 0 0
150.281989621152 -18.3892445430686 -15.7041627430041 0 0
140.297513274557 -3.18721862417629 -16.8410040157881 0 0
174.248559626995 30.2993225887255 -7.11767867748705 0 0
150.738299303109 18.9399148785638 -15.6821498451703 0 0
180.209709672381 -26.8445123985335 18.9944223987874 0 0
110.335164110919 5.85639192329742 -18.2156803782757 0 0
176.600857983291 18.8627161677475 -16.2875186211838 0 0
127.11021837214 0.95024074123813 -17.8366445496117 0 0
175.644093670026 36.9165578132545 7.59226695706286 0 0
134.415537862759 -16.6346667939958 12.7175236353689 0 0
165.879396096853 -28.6134716195215 20.9880029957091 0 0
179.479411247728 -18.0892356791134 31.7599891675739 0 0
62.3431313769652 0.253641873936873 4.04785615556377 0 0
170.563462034752 -12.2747706322779 33.3288745573145 0 0
158.497006353952 -0.84374193698174 -15.9893134638025 0 0
157.344231123636 34.1055869229986 -1.26170180658534 0 0
131.715384790457 -13.7204642723256 12.4346411533904 0 0
184.140069190504 -14.0937412706985 24.7085484115595 0 0
122.806323600564 11.9832641976106 4.86568707246837 0 0
64.2207099384862 -4.49957909675255 5.93222598123192 0 0
156.241456481092 19.3208267494051 17.3330903182971 0 0
184.98165878962 33.4081510470551 7.36621253415237 0 0
77.7102737294983 10.1398010613997 -0.652634518929367 0 0
156.772177037803 23.0178006482821 17.7715425393339 0 0
78.7701952482373 12.3889716993334 -13.9849478662612 0 0
115.194774025077 -4.35518922365647 8.47841319179158 0 0
107.388754379035 -8.19510543932689 -17.9337892095657 0 0
44.1906746169641 5.42376353984916 -0.247516817440373 0 0
189.379727474322 31.9942656552717 5.08346576887902 0 0
186.65762451001 -16.5456087412365 11.5080973283425 0 0
150.089657104164 6.36117367254424 10.5220269257726 0 0
157.799432520606 10.632874098556 13.7217427221644 0 0
96.4419189396173 10.1586657172366 -16.8760174053997 0 0
175.080820539909 -7.64254733635527 -12.9622380634023 0 0
180.462533755586 -14.9757399623418 30.2332998926184 0 0
166.848757709995 18.693372404108 28.9593647266577 0 0
173.003857988963 -3.84750773550274 19.2085787300844 0 0
24.0830193913019 -5.8439301548103 5.6431077009826 0 0
120.954256288966 4.39600679788033 6.54194882030268 0 0
157.552855534746 -6.08625165617766 22.6213482937419 0 0
183.355489253887 -7.74004574168256 6.11675593877972 0 0
165.626923959188 -20.2458991350455 33.478705813832 0 0
94.8570204106422 -17.6159458130253 -0.0886641248670867 0 0
110.095729044218 -17.6978617103128 -8.78547999152622 0 0
161.746243366244 38.070855439416 6.39421582525395 0 0
157.332574970922 -18.3519204983042 27.8714099257456 0 0
184.266200755717 -16.5760295320219 25.6721518790808 0 0
69.8164447500364 -15.9995381703595 -11.3051803373184 0 0
85.7761853727067 12.454208326133 -2.34483098411619 0 0
190.493136997986 17.6560713713739 6.23103497218112 0 0
151.672473969807 -23.0593530573923 -1.89222369112957 0 0
170.587836846605 4.4416242446955 12.4462934346863 0 0
89.2683582745574 10.7461089427406 -16.3740321588941 0 0
5.705546422011 6.42365241780867 -16.4618942875399 0 0
127.431636609591 -19.4905202240409 -3.13102521194899 0 0
111.47664611169 -12.4939082517743 9.85686631272124 0 0
56.8495474523417 -13.4974116867688 2.44514705355099 0 0
125.207336808982 -18.7262887221117 -7.67353292821903 0 0
184.519571106784 7.43102030847594 2.21760757866686 0 0
150.341469451081 7.93344761852068 11.2751564055213 0 0
95.108358325586 -5.03889804680031 7.02235953703885 0 0
138.24451690279 -19.2221673526765 -8.71290319663136 0 0
169.078947109756 14.8501552099769 19.7806565005216 0 0
178.260348722007 -21.3637019349042 32.4020524989872 0 0
157.895185689814 21.6428187094461 22.1881630580948 0 0
73.2584675360658 10.093885146948 -1.40703112635176 0 0
121.274108665841 -16.3130908019899 -12.8039022558579 0 0
129.200831638282 21.45906054568 -6.75269424365662 0 0
99.7015501724298 12.5511119883076 0.713508620119584 0 0
127.935197451984 -19.4415512931683 5.62306899322071 0 0
12.2238292893509 -9.56101548820038 2.92852707507391 0 0
141.705000686876 -0.21589262965697 10.6056425427276 0 0
185.408696493231 -28.0137006937901 9.74104829339645 0 0
61.7984446848704 4.22131765775794 1.82787273516718 0 0
184.632976673858 35.3817396829687 15.1517386362146 0 0
22.1550411519189 1.82270005937627 1.63126643394395 0 0
63.714044139613 -16.5823955199889 -8.9808608236521 0 0
161.600681818353 6.22093062809229 -18.6960700566348 0 0
184.194548678859 7.75873853754987 6.51423347821406 0 0
88.2741371600981 -17.0971981333339 0.0406896799831603 0 0
161.074868669211 12.4596601668123 15.9384601273657 0 0
148.073956156366 22.9665665579294 -11.3040343038994 0 0
27.5944197740246 -10.7772192988791 2.73649925847017 0 0
175.381538591776 15.8522176449836 -18.1376152760433 0 0
87.6371576783596 -14.8039830874201 4.98738824839382 0 0
175.284727527876 -4.35621091693645 19.2705335128731 0 0
165.720382415596 -0.161992414216057 16.8603131874611 0 0
0.118522772241995 -17.7828144763079 -9.52638031479078 1 0
172.92929013982 -0.389988362688842 11.0359299724804 0 0
161.678952315477 29.1427998897442 21.2881945996792 0 0
186.698083434353 -19.3909356660924 9.41302464118483 0 0
184.52188861695 -28.7376298464248 11.3270975159912 0 0
60.0685689440336 11.0737494863864 -5.21235554821474 0 0
32.3245689359456 -13.1288674064811 0.696913063814685 0 0
21.9270020814883 -1.81225675010633 4.8322632427799 0 0
188.931962835899 31.2676125283671 20.9140896476505 0 0
179.827267499717 -1.96480032253496 4.95914302751582 0 0
183.93128217956 9.20950123563846 9.45085903519242 0 0
165.195538373511 34.6856943142503 24.3521865746189 0 0
95.7514711671608 8.97439479250098 2.46357222647753 0 0
52.7691397263716 -13.9582128215241 -15.9165620135128 0 0
181.291749192569 2.33333482477859 -0.967284113778557 0 0
83.6929902021908 -16.4811370124648 1.12109245453583 0 0
41.3047671473219 6.09233395975405 -0.907412837826163 0 0
167.412300575965 14.4357527124267 25.7243293655884 0 0
42.8404714989311 -10.7179788742428 3.62404381031274 0 0
148.094320188034 14.5045281092256 12.2461932428346 0 0
172.757282522997 11.1968275512532 -20.9121414858516 0 0
182.900949766587 -10.8129708905227 24.4042577552682 0 0
171.885132748176 2.68341153864435 -16.0360875775129 0 0
137.359465159532 3.30415563434908 -17.5200390689033 0 0
162.895456377429 -26.3764763050534 -8.2171935419906 0 0
160.011386116753 -28.2379959031276 10.7036490876746 0 0
122.215816852916 0.911779912528893 -18.1753031678703 0 0
86.4527117824889 -10.3370140777007 7.43054602303299 0 0
3.87232070422632 3.85589627467451 -19.1765774641353 1 0
170.829520087434 -0.209330359385998 14.4652053317704 0 0
176.204089205216 30.6490414530146 -5.89789331889065 0 0
155.806162734773 -23.9855086392693 20.1476941764654 0 0
141.65398232324 -15.6853054724016 15.5458210584658 0 0
153.264339796168 17.3269031722027 14.3633345520864 0 0
116.337010851363 11.3665758440576 -16.6346315608075 0 0
179.244083736026 36.747504618103 5.68121470167978 0 0
161.175861679017 -27.1043608973536 -1.62941853678835 0 0
157.945945822199 1.10507280009997 14.9773698351509 0 0
162.156279276052 30.6877538988314 25.9069251280748 0 0
148.921222609285 26.6964398251643 -6.39089953339877 0 0
159.463304314519 -27.3754914656104 17.9439139575236 0 0
149.276553412359 -22.2810331479753 -0.772759228752917 0 0
162.20989575304 32.2789656153724 24.4427072469725 0 0
140.963965665426 -21.2290647636133 3.90175185646004 0 0
163.163776688661 -27.6352473828058 -2.27933791128897 0 0
39.7873081838741 7.70098455385289 -16.9611900691062 0 0
146.790984920012 10.4896091711901 10.8092795352022 0 0
38.0232257718197 -11.1969290203898 -19.1342765581231 0 0
164.762299627489 9.26092667273125 15.5901389799028 0 0
149.15472861764 -4.22695410379597 14.1846147610935 0 0
106.488840221923 -10.5080025870685 -17.1371503923063 0 0
162.992528102075 -30.5849471669586 16.0008302827013 0 0
72.5005014694177 -8.29847496128626 6.41773310077382 0 0
17.5926985909964 -9.75423463714921 -20.4980592484395 0 0
34.4184365176728 -15.3199708702165 -2.94870486760376 0 0
171.555574688102 -25.1517963073555 -12.1497488705207 0 0
19.9884714512043 -13.9193227904318 -18.3169700083892 0 0
127.17111312609 -19.6985484253942 1.67308868652693 0 0
121.978266319162 19.6029267829963 -0.528016821998894 0 0
29.9224984596923 -9.72558615554125 3.57083205859068 0 0
155.916367922443 35.5030051981715 7.19869257232607 0 0
178.113284331391 12.3671379016781 13.6340414345023 0 0
140.755491220081 -20.3040914395563 -4.30730554749645 0 0
186.427252359135 15.8460422869022 20.0926971044273 0 0
182.838535137406 -7.14177941575686 3.86665162208495 0 0
170.675260832408 -23.9000626245567 28.311732837371 0 0
21.4259916456619 -5.0198189874909 5.8076654347275 0 0
132.697015575792 -19.6981988072027 9.9324214479964 0 0
111.436018501641 -5.47153774293464 8.50146404334181 0 0
74.3451071717104 -3.37866060342062 5.68012926371559 0 0
159.035561573094 -21.3304849724062 28.1585401741885 0 0
134.849570327261 -8.72604159164922 12.7763360452512 0 0
106.421048783622 8.89991009923538 3.75553485373106 0 0
119.637960143382 -19.097971435954 -3.99530913654473 0 0
110.905860470338 -18.5539834848898 -5.09058977076893 0 0
166.6671308714 -22.486367133668 -19.5741154812295 0 0
165.418688953145 29.6511052767486 -10.63789082537 0 0
26.7704257134837 2.31512531643312 1.62720634026844 0 0
144.766400355408 -19.7131154684376 15.1292384243324 0 0
128.968230122091 -4.55383967513753 -17.4611860934573 0 0
189.769335424026 26.1572495292023 -3.53879979842453 0 0
42.9710579048859 -10.9158958271886 -19.0151841790526 0 0
191.36532127572 24.5032578451479 3.19148052844851 0 0
21.5675962601706 1.14026189186692 -20.5790377236076 0 0
88.8647448332717 5.11999987747215 -18.8243552243939 0 0
114.713783887877 15.5523176009915 2.04186847529313 0 0
153.751563363601 -13.3909260354879 22.1395083830587 0 0
113.012444137159 16.5258051762373 -12.5129982721104 0 0
166.271966868551 -28.4139978790189 -1.54690444384562 0 0
184.376322746274 22.9913930055631 -10.5110398345472 0 0
164.491411660561 19.1872413410296 27.8444293269781 0 0
2.47515037591623 -15.794401855241 -4.71891065897755 1 0
80.3163579751591 0.579821586981314 4.71943753525851 0 0
163.415233929929 32.3048079406253 26.443022135033 0 0
32.7615235098038 -16.9833984034428 -9.85385694225102 0 0
50.1717485293189 8.20348140296321 -2.29265161020796 0 0
158.79097717248 -22.5151996077523 23.5258769828087 0 0
40.6601138125766 2.66857366950741 1.57726911256849 0 0
178.140806213429 -29.0208998273263 7.26834785576629 0 0
162.341455738751 -11.9099694505398 31.575754093227 0 0
113.287437601459 -2.31569059819183 7.61161806035756 0 0
136.68084016955 -13.1657924568068 14.0870484943655 0 0
161.068999725626 8.74168071752141 -19.4134279476721 0 0
72.0952767384664 7.31881601594845 -18.2530981544114 0 0
98.860066518311 -17.9898572594496 -0.513060124958624 0 0
28.4628119345821 -1.53504366241049 -21.0901336441723 0 0
11.0130540594101 -4.08248650480243 6.03340007566344 0 0
135.527422909029 16.6032093256854 6.93361267886433 0 0
158.837213706076 25.8627724180212 19.4342324470969 0 0
158.70400362454 5.5894222975108 -18.2366897077627 0 0
42.1729396525078 -16.4680853119391 -5.71621122014354 0 0
184.372341628478 -26.100035486034 2.13042009869914 0 0
60.475607460896 -0.988708973440818 -20.5622720902255 0 0
92.5038459996884 -6.87616399553055 7.57964339538962 0 0
165.030049606082 15.0958182734964 23.1160327214328 0 0
163.975301777631 -23.1498013566788 -18.0956430618061 0 0
106.722438538985 -0.767894490372822 6.45912877803776 0 0
131.317059288538 14.4292639007623 6.08739155473933 0 0
151.594182252552 -13.8261291078628 20.0123770204775 0 0
169.24638666359 -29.4100633539259 1.40224267831709 0 0
85.4364271688314 0.0242106381279057 5.15675587648497 0 0
92.2999263502024 -17.6010713621734 -6.33693659124732 0 0
185.641855155478 18.089108402316 -11.2482433994025 0 0
97.838986811373 -5.76971617382803 7.42828880375012 0 0
134.593615272278 2.11299106494316 8.56648214431137 0 0
160.101947146452 -25.8517286498333 -7.9594102412589 0 0
25.6675390762925 -16.0586285391439 -5.26945513699303 0 0
186.577830267312 -25.302900145358 9.36736149826377 0 0
161.675912868184 16.1192283283512 -19.9972462231904 0 0
48.4448316422965 10.7584059507388 -11.2773025310692 0 0
157.306432253796 35.419600998074 5.56971424937871 0 0
144.685206323098 -19.2116796198498 -11.3666703702159 0 0
30.2307293908043 -11.7219572595011 2.14162298981868 0 0
136.692081699774 1.55958558300714 -17.0988199583352 0 0
57.0299953318383 -2.22504129709618 -20.6578531223782 0 0
35.2346134322781 5.43729249140087 -18.7338734581536 0 0
48.5617669504347 -14.0962723765668 -16.1748845270781 0 0
117.139270364159 18.7933879733587 -8.85041468488397 0 0
123.802362797113 -2.11043231562109 -17.9663597391686 0 0
8.470647752828 -6.92281129861173 -21.3114789146016 0 0
77.5601608648765 8.90416090347984 0.678609147101628 0 0
42.0472131445432 3.42714974349197 -19.8375265031781 0 0
32.5823688579106 -8.72254247013971 -20.2903029135492 0 0
57.8354994716812 -16.4713257162249 -9.59204610868333 0 0
165.847664755271 27.5263876874339 28.6624334534523 0 0
148.059640376356 20.3100309221354 11.567520312502 0 0
143.054831529762 13.0901530170209 9.97115009900638 0 0
185.758522783602 -28.154214049423 13.0550274649709 0 0
122.821119495188 -17.4018738760944 8.63020959862681 0 0
69.2072132288664 -12.8477679022813 -16.3943493678586 0 0
61.0696657415868 -11.9012335602918 -17.7551964368491 0 0
179.903765634275 -24.3370927266545 -8.8993066080062 0 0
158.460768336877 -26.0939087028851 -1.21993850516433 0 0
177.776859189404 4.74506061917181 -12.6344534990251 0 0
179.770048746484 36.0709585774275 10.8930301252569 0 0
137.695183328153 1.37016934319981 9.30505781057775 0 0
174.569887489747 27.9431214094037 -10.530762631752 0 0
174.363473526375 -31.3767617983102 13.3558418689475 0 0
154.943735889408 8.12474721454383 -18.3719137505484 0 0
152.190498241702 4.0819522175919 11.4294594617806 0 0
169.597531549569 -27.6400118159897 -4.35634233247311 0 0
16.9094472060686 -14.0610956382623 -1.4226187387107 0 0
0.862708590574885 -8.9598090637975 -20.9759583143173 1 0
38.3301093809852 -14.3115402501244 -17.223683952711 0 0
144.905723270717 9.71716238208449 9.69596190483413 0 0
56.8396870732398 -0.0711396540011997 -20.5691453336792 0 0
138.483989871904 -21.2608344388639 9.89708662153366 0 0
136.836857744567 -16.7637897606093 -13.4704289071761 0 0
66.2842517206904 -11.295601977701 5.21842392441274 0 0
181.267950091539 -4.46435172403745 10.8519959597582 0 0
81.6059145033569 5.28669067160164 -18.9900700706722 0 0
174.930006129602 -19.9430483438413 -16.8192960764301 0 0
24.1540220873968 -15.1524554776406 -3.19016903608784 0 0
97.2960582388118 -1.76917470877054 -19.2246905383879 0 0
67.06376149932 12.1596723262371 -7.66756094278811 0 0
163.843091541765 21.3978024582063 -17.9122598905271 0 0
182.445339552374 -8.58027348898657 22.2493246953249 0 0
105.334507306543 -17.1851407792349 -9.64530492431073 0 0
166.752138009988 25.2579899377444 29.3184826620538 0 0
124.398165130438 -12.627202507317 -16.0255949930408 0 0
27.2417959140775 -0.903237536409398 4.20089051734673 0 0
104.730811996952 10.7073494987099 -16.6346873135477 0 0
100.328121332514 9.38942332886646 2.88107593566859 0 0
19.6563051864827 9.04670610307151 -8.51366911027336 0 0
174.577845587046 14.1401805237373 -18.8396494116208 0 0
186.355510058342 -16.5565186577735 17.4743569585297 0 0
113.623217436505 -0.549430531762877 -18.5635192941563 0 0
125.290443901443 15.1935231831307 -14.8694822558834 0 0
125.616410663333 -19.5528321483698 2.28570661002459 0 0
123.581850085481 -14.9133393268326 -14.4337286400787 0 0
25.8040556030806 -8.26942304348005 -20.5057870543399 0 0
108.620796809478 10.7484340313951 -16.7499869206098 0 0
54.5205913067028 -16.3279655792682 -11.2635754999219 0 0
163.130578093386 37.2487285514996 1.18710144924888 0 0
157.596213346488 6.93586413325639 -18.207688642161 0 0
159.612017692913 30.1138205317416 16.8614081981922 0 0
182.138071331993 -25.1645195853287 -4.56390058672873 0 0
161.298318199191 -21.8064728780026 30.6082600142872 0 0
49.5678190122458 -16.5760332810623 -6.4390243121705 0 0
185.585282163469 9.92509163972293 7.57170255242674 0 0
180.576634902246 -8.79802856300427 -6.07042796285918 0 0
113.970045537932 -14.5093430173125 -14.514627951543 0 0
115.523188305584 -16.0595071890464 8.21900131175563 0 0
24.2920174094601 -11.3184305367238 -19.597027785803 0 0
161.318458560916 -22.5636446598941 -17.2689518216516 0 0
176.974464987742 -25.4027904405246 27.6527883759841 0 0
141.532395603958 15.4924465933604 -15.8772397015282 0 0
55.7095804335864 11.5343850911586 -10.7583144214672 0 0
154.393196900285 -23.4046841891763 -8.19155647011108 0 0
151.583954300204 -10.2760983949691 19.161802230767 0 0
160.353774992255 -5.24492354253773 -17.7895063015988 0 0
12.9476303854526 -1.31027816010466 4.52642368606919 0 0
85.9346453463238 -16.9999020478188 -8.33960259537259 0 0
76.289251470784 -4.79119133067455 6.2394364695287 0 0
83.3432742705552 -6.3652916025434 6.92965962205253 0 0
167.506652391029 -27.3720082935556 -5.51581498037881 0 0
185.86157572775 22.0423492868434 25.0735141273678 0 0
114.893999511179 -18.1463638166248 4.31542548992995 0 0
104.14807199146 8.97842132000772 -17.3984424569986 0 0
161.444167057025 -29.6443554007389 15.489022799306 0 0
176.674460951649 -20.3787700330139 33.2686938653618 0 0
181.819800161183 3.21592191421364 1.85961328106918 0 0
75.0732011853269 5.48697930262449 2.34914986764209 0 0
149.541956993861 -16.9246071576678 -16.4459933890074 0 0
186.24773712209 -20.8221874183995 4.1666227790058 0 0
175.167850817151 10.5538868652368 -19.3642165341031 0 0
155.487379179572 6.38365165313453 12.4390555651113 0 0
167.84264833485 -14.8589801290074 -19.2925278629293 0 0
94.4862504475316 -12.4482784805695 -16.1438408570425 0 0
145.053544416687 26.9427175660989 0.782729637208548 0 0
20.1113906915206 -17.3281751731123 -11.5841798797852 0 0
116.369896925395 17.0397368299125 0.831256322565948 0 0
68.909018045259 -7.31824246968154 -19.4818021033036 0 0
102.901463209842 -4.57098697652057 -18.7801821126115 0 0
34.4238587828483 -9.28820220564748 -20.0773299431575 0 0
189.905304463611 32.3655598171025 7.04244112231532 0 0
137.550105096312 23.7845324176694 1.68148813597617 0 0
160.936533568275 -2.9512549664116 23.4128342699094 0 0
162.165780036477 -6.12874620010455 28.3005946189143 0 0
156.263405645651 -26.3089618131439 18.0329431284226 0 0
62.8777602113119 -9.71114137164969 -18.8447221831098 0 0
112.184063054066 -18.1791672257833 3.23191418712562 0 0
2.60040873386446 -1.36588931497221 5.07829077367386 1 0
191.624433517676 26.4993280511625 3.28890221767653 0 0
43.8045845138012 -13.6837009300322 0.853986027527943 0 0
20.648006558053 -8.36575949961803 4.20291180817631 0 0
180.47360494976 -25.3400252024803 29.4788285126175 0 0
189.709828697168 15.5184018079177 3.27543584339911 0 0
3.92907217737772 5.22751217495515 -1.66920505256402 1 0
4.21142565228543 8.66152717812155 -9.33735468534737 1 0
97.8022218960156 13.2312809808362 -0.366104254480447 0 0
89.3232252048149 -14.4389808234983 -14.1677432359122 0 0
156.092762710782 -24.9462259898399 -1.89440856555356 0 0
166.581932263759 14.5628104672755 24.3508065075012 0 0
154.15643593305 11.1225179155548 12.5348861826258 0 0
133.627145035947 2.87618498281804 -17.6239669693082 0 0
161.28962786715 10.9367840670403 15.6090484249784 0 0
18.8482672136446 3.22551085598595 0.578347902823188 0 0
169.004057703784 -25.9344028771236 -10.4956438358585 0 0
186.923940760779 -21.619778506799 10.2369424803733 0 0
179.760501707503 -28.6964368339214 11.8151688332705 0 0
143.043085447771 6.19451207496758 -17.5331803738575 0 0
125.327348335801 -8.94658828803493 -17.1938887405808 0 0
140.856787720682 -21.6494324161193 6.14029635402388 0 0
103.009378537115 -2.81696721773126 6.76867255240449 0 0
172.976184096716 -5.19255658959213 -13.7856371980069 0 0
145.04809837608 11.0057623992625 10.9731339995549 0 0
138.883134128044 -20.4254185891958 10.4633851124357 0 0
116.559348553492 19.1600515255214 -6.73530046798995 0 0
100.133321073882 -18.1270910206374 -4.35397049692489 0 0
78.3246898506404 7.65721900040853 1.47125095387624 0 0
171.287017418219 5.76805208005678 11.6788774134881 0 0
174.452634822918 -2.46687022613907 13.0469321145078 0 0
129.770537267344 -19.6421736458436 -2.86925566294035 0 0
95.1792618958431 15.9630254061341 -8.58606114492617 0 0
179.829437619725 -26.6823273779103 21.2593087979219 0 0
167.588861439552 38.0608465240328 9.23182176466629 0 0
80.6774064206308 -6.67683248348875 6.84616349008861 0 0
181.207080248557 15.3518559745308 25.5851312447841 0 0
88.9548662965581 -5.14093966182091 -19.2297856980406 0 0
185.739873459815 26.7475625936124 25.7148257515637 0 0
1.39994443931933 -4.18171591945959 -21.2502688752409 1 0
175.727153734378 19.5841016879456 30.1995646124962 0 0
149.945221786004 28.0281443930593 6.929072676968 0 0
14.5936473126126 -16.4687533396995 -6.03537902133158 0 0
66.4249672319386 -13.818907547444 3.13083363674688 0 0
125.450482670657 12.8550634915167 5.09595759425785 0 0
156.552664233087 -20.9361105540107 22.5529030536809 0 0
130.001565171898 -0.846171336593542 9.04513113349437 0 0
143.96774232015 -1.13650269583844 11.3287875049296 0 0
187.101721961193 -23.2649828899446 15.397898169608 0 4
180.719091582254 -2.94319821133265 3.43742644299227 0 0
100.10015395593 -16.0480376731631 -11.8711538976099 0 0
185.480035641133 32.0835633044812 4.68732990458861 0 0
70.0227009637137 7.45717372928417 -18.1115109534573 0 0
75.3558440308773 9.51648260300378 -0.229225060238222 0 0
136.963532031132 -4.41906213938717 11.3983789920998 0 0
55.7090816063745 -2.27238446907665 4.94199113985626 0 0
152.775989489507 12.1871040066214 -18.5626089276675 0 0
140.121436145379 -14.4106671352437 -15.8870518803418 0 0
131.805362574593 1.87719749217775 8.35812269322245 0 0
164.00931426171 -30.5803600042543 17.3833690494942 0 0
169.24409415905 -4.20080738289469 27.8778290822912 0 0
179.697675011696 -3.08419608038202 -4.60066233837994 0 0
170.557103309455 28.1251374424766 -11.8952564813874 0 0
79.2539512105042 3.48686228396493 3.66769674709504 0 0
168.2269766794 14.2360989638532 18.4203057905964 0 0
186.201371751748 17.6870319735943 -9.34833323005094 0 0
188.936278602186 14.1065329764294 5.60791714702165 0 0
59.867645635374 3.78506887103359 -19.7345036564729 0 0
183.598871553964 34.7573328911787 11.4885123877716 0 0
164.519538690006 28.4570442583559 -11.8349232647135 0 0
58.7737357529129 -2.50692427734907 -20.6174065877659 0 0
87.0560024449997 6.49876453966377 2.76212364084971 0 0
148.119224196939 3.73272154591001 10.5169577255977 0 0
115.385513655996 8.22578756937279 -17.6204950456661 0 0
106.806668299659 -6.20751545692769 -18.3947680172111 0 0
151.853793192473 -12.2678681120967 -17.4948231208709 0 0
91.6939632566379 -5.60732829763287 -19.0586766800644 0 0
131.043620102563 -14.9681278886016 -14.7361446655109 0 0
51.2699600509484 -5.07072811611876 -20.5616473461416 0 0
143.018939844373 -4.63643987142325 12.9834058697883 0 0
149.743681382301 -13.6298284108276 -17.1995576319358 0 0
173.795048404632 32.2693796246546 30.4411896677267 0 0
149.192542474884 25.7247628458281 -8.18227361883135 0 0
163.097210725372 -28.2779016771561 1.85744890725108 0 0
185.782727425377 -14.9585120342206 19.4711151031186 0 0
152.961707910361 9.07416223768355 -18.3275987892733 0 0
81.2432594857196 -4.33875408937315 6.28296486574112 0 0
138.263856630853 -2.77606250098631 10.9525381288983 0 0
83.7361524952471 -17.3048631726558 -5.67999382825906 0 0
9.1468800136036 -0.933542586064384 4.07707648646021 0 0
183.746236851657 -23.7373637772838 -2.95705846615008 0 0
51.3136801389649 -12.7874952012772 -17.3256892282669 0 0
71.5924564849375 -16.6778465694469 -3.24538696067975 0 0
146.792698147967 -14.0243140919467 17.7234146586786 0 0
106.808425356827 -4.31293246224795 -18.6528672440607 0 0
190.875753368757 22.489728960614 14.5465320522097 0 0
183.401759134905 15.5495405808777 -14.0557550775482 0 0
175.943489657518 -13.2859832298451 32.5692279128177 0 0
107.545723354815 2.1144981478484 -18.7482343163374 0 0
41.7048340806158 10.2310740767412 -9.39727845119802 0 0
136.457494357756 6.76004554061378 -17.6181865310616 0 0
162.927864017703 33.092046350909 -6.33467369904711 0 0
30.7589556041601 -16.511010617805 -6.68830114728038 0 0
104.127916805685 17.0011918683235 -9.46474735189685 0 0
149.095084180931 12.8133350699646 12.4803181544178 0 0
150.090519496436 17.2840766205916 -16.4681478058137 0 0
127.33922412619 -19.7430380951177 -0.161271723932224 0 0
186.345583524917 25.7162172605607 -7.16161386379688 0 0
24.6255229554944 8.99939952556789 -12.2197451821719 0 0
154.02109242927 33.080353916065 5.90551491277365 0 0
175.219684770932 -1.80311518527266 9.24209137598215 0 0
177.115566736461 14.8656727904583 27.4811029234885 0 0
180.652323645571 13.9744305336428 -16.2405053787469 0 0
167.293360512709 14.9350157360678 -19.8553931947193 0 0
152.967149856687 29.0737177767428 -5.42991442689299 0 0
167.688091858383 -30.1762460124035 7.76364474333569 0 0
173.189940353644 31.4717359177642 -5.26740601335853 0 0
188.724750614795 13.646396452836 3.89900959118124 0 0
158.022281654049 -19.6828365887458 -17.9255683767751 0 0
67.3411071986687 -8.17807028710787 6.02702376867879 0 0
68.1925634033018 12.5031419206679 -9.91236527768241 0 0
158.5498466469 19.8920803521599 -18.1040240882244 0 0
174.210684860072 -28.2238289642876 0.153258888695637 0 0
167.075779497453 28.7704451909045 -11.4900575423834 0 0
171.466789570973 15.1424350627698 24.0368919509728 0 0
127.704375295704 -6.09911550188879 10.6248179346852 0 0
89.6220907828359 -4.09152122373546 6.47122445446532 0 0
178.756517200451 -4.18702851763182 11.6620876538484 0 0
26.3229235652975 -16.9812966903561 -12.1894174202551 0 0
162.145656570466 2.75256132421865 -18.0480623275305 0 0
27.4535108357034 -8.5598731302277 -20.4133079714324 0 0
15.2407270813534 5.22917808264425 -18.4251957854281 0 0
15.5697797801163 -11.618932140104 1.43918211935785 0 0
105.781257951435 -15.5318043233632 -12.9805667516607 0 0
117.947577088259 -1.06511222452467 7.57128269716261 0 0
177.531915888927 -4.2486247188028 -8.8309103729176 0 0
66.6882909980535 -10.3048020405073 -18.3854172905482 0 0
43.943553978876 -9.12802717279896 -19.7442359011162 0 0
133.631129849638 7.17593662406363 7.68655382494551 0 0
145.584998172192 -1.76215876165849 11.8681244950462 0 0
55.1298586452437 -12.9910955570601 -16.9552554701881 0 0
67.3108097073185 -0.248431703319554 4.38704940538322 0 0
166.583048174138 12.82904594447 -20.1795414615561 0 0
177.18737776923 -4.0053739381926 20.2829000453307 0 0
157.365171891816 35.1057312646403 0.915536234726354 0 0
22.9803941442391 -0.754844846287085 4.09942992596642 0 0
157.371635318323 28.5925617420271 -9.31193412366495 0 0
144.628371643187 -18.20746814961 16.0463676445646 0 0
47.5648896929513 10.7674243981445 -9.62474428469246 0 0
28.9964403486227 -7.84134722669276 -20.5924869208153 0 0
165.543866929223 38.3865634714299 9.89845217023412 0 0
110.934148397378 17.8452133531991 -3.6574770230188 0 0
23.5715833462922 -12.6074506091104 0.816560921403687 0 0
16.3613586102055 -16.9798779160221 -7.49407552689394 0 0
139.622570228581 2.55290374133901 9.38728465466786 0 0
139.433240279926 -18.8901296385667 -9.94260365126673 0 0
33.4096000915125 -4.89663571828112 5.86408855145962 0 0
166.113975323154 -31.8733024755377 14.8634447771486 0 0
125.456897733814 3.97052432857197 -18.034441753848 0 0
175.526223017529 6.89844202452988 8.74428408767444 0 0
90.3337561621176 7.27461257373853 2.67295154470786 0 0
136.172111459669 -14.6252870744512 -15.3550858809414 0 0
29.607061220198 -13.058451726974 -18.3713708235247 0 0
146.186304964979 23.7575993561857 -9.51152160590594 0 0
127.564600312092 5.20026883546905 -17.8215170900785 0 0
165.868908828479 -29.5616752572728 6.45730954560576 0 0
50.9676651048209 6.79009699498923 -0.854991058071253 0 0
158.432638812918 -25.8263848887896 -4.75095357163459 0 0
133.71480853293 14.9429579757905 -15.5003465084155 0 0
125.716044414442 21.1064327671233 -2.17321349065357 0 0
178.311931138683 36.1074864090925 14.4442621676041 0 0
192.168332075178 29.1226932041577 6.2668711146171 0 0
156.826884485681 -0.326660306236235 14.6200309985298 0 0
97.3061734029601 -12.6784491624284 7.99681409404432 0 0
182.835041119495 26.3867356631306 28.2314862361338 0 0
153.195537891421 -24.5916610184988 11.9772697702729 0 0
139.41382104023 -21.3086829073737 4.91589511693331 0 0
171.990395252343 36.3724394540708 17.1205951307816 0 0
101.053470397558 -17.2403260614683 3.30529369438536 0 0
158.584681430554 34.8091840154017 12.295100479089 0 0
145.525346015225 20.2863938720303 -13.1372541093633 0 0
57.4335253567247 -16.4318409961754 -4.81347822390819 0 0
109.410378736544 -3.51344833235931 7.59553236024019 0 0
149.185606596595 1.15579838428204 -16.4777158908996 0 0
165.13503270735 37.9215399998924 14.2450188478518 0 0
185.6605072392 11.3872710672161 11.9025619574804 0 0
44.7857246657711 -10.6871973677846 -19.0277180696643 0 0
179.464951905404 -27.6097084684182 16.2305616318136 0 0
185.32016440913 9.04393323075699 5.63026999711706 0 0
176.476036931917 -12.9013222479969 -14.3481702293888 0 0
147.935739586327 5.31959681406045 -17.5058098302612 0 0
162.387339245858 15.072218069157 18.7008838115489 0 0
130.423971327901 2.34769974658743 -17.7625475497218 0 0
78.2720063405054 -15.1150495773209 -13.1950633575265 0 0
156.155610229856 -8.27585068135453 22.5078031338291 0 0
27.1456997760848 -3.86176445959305 -21.2155674384748 0 0
168.739988058523 10.9397670916492 15.1430513134237 0 0
156.163675509392 -25.070583726121 -0.171157067175593 0 0
152.383534481413 12.884082576131 11.7649144592576 0 0
187.644482044363 31.8550769896747 3.92082524152459 0 0
2.22472653564815 -17.7853711452383 -9.80012128639542 1 0
167.715295643806 36.2461490649872 27.1570804287255 0 0
97.9819748148404 11.6890186891712 -15.9534981968353 0 0
161.95729047806 -11.1113670431605 -18.8228485310284 0 0
30.2002566159808 9.47039949907203 -11.3513288392743 0 0
118.299966739291 -5.84584373292756 -17.9957786426314 0 0
80.1147738323212 2.42711239132776 -19.6210058101976 0 0
81.1901410818808 4.47916538640163 3.26831385634795 0 0
170.026333847816 -28.2519490418606 20.0686735108485 0 0
184.50889404686 31.2245813771803 0.943212126789427 0 0
172.218566147272 0.249163290607903 -14.4674927742503 0 0
165.664132702864 -23.4634678241367 -17.6507214193556 0 0
158.23538535599 25.0224341197942 -13.7212303761185 0 0
179.901805934559 31.5656992819479 29.5119140753668 0 0
136.138457449268 -2.36623558138614 10.3357175911874 0 0
57.5666898278796 -3.10317083139512 5.22918597874073 0 0
178.549657253996 -2.1016315715535 6.31154793170597 0 0
151.149414301392 27.4814053267464 9.10162571734231 0 0
136.016039215249 -7.26321849696694 -16.8099512886406 0 0
177.508870841045 34.2620583777898 -0.0952301846062749 0 0
52.3523919725465 -15.688773633429 -2.51346331472624 0 0
104.922386963439 -17.44632557565 3.52900436758457 0 0
153.742743619243 10.8055840874505 -18.6277644128582 0 0
188.694072179462 29.5163243813746 21.6399309361849 0 0
169.46029161217 14.2519876803756 25.6472805777275 0 0
146.659798998553 2.68772387068705 10.6272835939871 0 0
140.077815102559 -5.14727692137388 -16.7110646136199 0 0
185.409262972856 33.6292221191099 24.7795375758243 0 0
119.26862273601 17.2128852697539 -12.4242062685827 0 0
142.576604826972 -7.02147712845357 -16.385603923548 0 0
108.824075796411 5.04921379553217 -18.3792091730526 0 0
177.577735372609 -21.2586293419118 -13.9984258851482 0 0
156.978760144885 31.5958525876201 -5.09586572635443 0 0
8.60644475433481 -12.8239849979377 0.0348214461369668 0 0
33.271631423644 -13.4070957310023 -18.0590377215376 0 0
185.472311223762 -22.4405427515546 1.29687954709215 0 0
17.9172007106258 4.96057391986033 -0.883453919601432 0 0
155.096164816187 21.1933524004389 -15.8305423771356 0 0
151.547701179856 26.535605722667 -8.46799752493761 0 0
188.381491581892 14.3597841385259 11.4841232348003 0 0
97.1897474968104 -8.98590729254322 -17.9980764134821 0 0
147.806072943007 10.4487119466073 11.0295499748858 0 0
79.5265332954413 10.7290715316741 -15.9710838981524 0 0
9.66749191863673 -0.167932728522839 -20.7891219528563 0 0
2.48317815705719 7.90012330919272 -5.29361264155066 1 0
151.353413249656 -14.4122412523355 -17.4967783846275 0 0
165.812743848623 -2.78685987067881 20.1400392674065 0 0
182.812063222229 -28.350520708358 10.3494906734833 0 0
137.038865295501 -19.6335948803463 -6.04064444817374 0 0
136.499410899604 -10.4767727659615 13.8403821638443 0 0
176.617970323623 -0.593967654730626 6.73860389460734 0 0
184.547746776721 28.973661075199 -4.15195001870925 0 0
143.322859679942 -15.4348816334198 16.0551242027042 0 0
164.700864368346 -22.2759925685186 -19.8819135613165 0 0
161.387660345687 -29.255373992465 12.0452360457296 0 0
160.359282578884 -17.3513605337713 31.6095268971366 0 0
72.3539704773194 -4.94658587539896 -19.8400761347982 0 0
103.029033718586 15.7456687979202 -12.3703010700402 0 0
25.2307235133744 -11.5601494956852 2.00983810366537 0 0
28.6466221980069 -6.05876686842014 5.69163428550716 0 0
153.955183468586 7.31898606682356 12.1153171442449 0 0
179.596125265991 13.1356977699351 24.849841467978 0 0
133.957126693322 -14.7399413029175 -15.0973198936175 0 0
92.5560279526225 13.8472555728309 -13.6840496968576 0 0
131.605004331581 4.26402240731459 -17.7825706061458 0 0
189.704198415677 32.9396703632764 8.94611370463162 0 0
54.9151342081206 -15.8773894240534 -2.86807777369438 0 0
5.99850948251682 -16.1651491658058 -5.35751370440174 0 0
11.4518138510415 -15.5044999849026 -4.1291483856762 0 0
170.292164563597 -26.3823277848307 -8.42780164569232 0 0
189.367210489369 15.0060002081067 1.99676615231768 0 0
15.3593058664224 -13.5279098899408 -18.7477901794627 0 0
173.532573211083 17.5312504856674 -18.1720797183822 0 0
138.874202219545 9.22860616152486 -17.5123050974526 0 0
42.1947187034766 8.7330897661528 -3.74649047071967 0 0
157.947394300994 -24.4996360860196 -10.8288742038221 0 0
164.55707411134 3.89761241151591 16.1830063418067 0 0
35.9145243600421 -10.9946647132037 -19.2354757896863 0 0
169.608232057126 -27.1485482685336 22.4083609850291 0 0
171.160943459327 10.6664927941233 -21.1030110744135 0 0
177.183270717898 -10.6821623255075 -12.3379734664223 0 0
114.33537626403 -15.7443732118271 -13.1151482335251 0 0
173.857492978496 19.4700259087179 -17.0428064859553 0 0
141.839385385352 -17.9632464550178 15.0326242851643 0 0
144.354117316993 -3.08589655617945 12.3713521474077 0 0
158.322413155706 14.5289428742534 -19.6711014363032 0 0
46.2349798892252 -15.0419256560634 -15.4795945547251 0 0
100.610127472051 13.5451420274494 -14.6394717592143 0 0
155.393136678007 -1.33652412809854 14.620827029869 0 0
111.942965961324 -15.7225900189481 7.91478335350183 0 0
133.738467150117 -20.2549004112746 3.02115703320236 0 0
179.429128833076 24.1108940102079 29.9548922134957 0 0
67.5294748823248 4.65564038811299 -19.3427796505369 0 0
9.2986724045161 3.71737129294322 0.0524508369591858 0 0
75.7180347684907 -11.4004519464472 -17.3617557080759 0 0
144.836591970407 24.2881762075936 -8.16845504724784 0 0
180.434888313761 -1.82910908956376 -1.67996038860982 0 0
20.0711342259394 4.68102127922918 -0.430227344358589 0 0
27.9019833812715 1.36063524818617 -20.5284011422875 0 0
167.720336408919 -14.5829192971504 33.7704460501581 0 0
176.117137962209 31.6265971755361 30.4622034386972 0 0
126.586432600237 -13.2036380343163 11.6105242236077 0 0
170.803153282015 9.69811161330701 13.2511339478438 0 0
131.050615031371 8.94279545421817 -17.494745947281 0 0
125.738187037309 1.99889250612664 -18.0352076379406 0 0
106.66494224759 -17.9041939838396 -7.66190346908703 0 0
19.4764457078564 -12.6487857289917 0.594522943849867 0 0
53.2521949490716 -3.84629590138365 -20.6496442533139 0 0
173.115652580614 26.1146213886057 -12.8809410605721 0 0
18.3683084202904 -15.0693711920259 -3.13564497653389 0 0
86.3090873171795 3.96230307890855 4.00587375807263 0 0
136.370243968322 4.98914536372448 -17.6671671053971 0 0
170.991288137818 -14.8753474949263 34.0678914270497 0 0
156.53037945118 16.2788688617833 15.936626041378 0 0
177.627232082865 -26.4966739592628 20.1069502989934 0 0
185.269749349864 20.8058484584469 -11.0198270219364 0 0
84.2799066527499 9.06231074959483 1.16883336857843 0 0
138.847918093156 -19.0337059917959 13.4513830786063 0 0
53.0782460260242 -11.6838198388136 -18.1862880660446 0 0
187.336274879536 33.9635945971465 11.5942146422868 0 0
120.309031626724 1.74950456885287 7.10930528344142 0 0
181.177483660086 37.5347880203535 24.8361922594726 0 0
182.522315444589 -25.2662200626557 27.4668017867584 0 0
139.542646737855 0.0532964401995202 9.97982386991532 0 0
159.62616018575 -13.5508428951503 -19.429559974758 0 0
186.303410271443 -25.8606571405533 19.2013423759252 0 0
162.937516190552 37.9319514607876 11.4538121764473 0 0
188.316105937063 13.1087156464151 1.43657909497318 0 0
160.540478794841 24.1932207726244 -15.3832760263181 0 0
152.707309109636 -5.06594636670773 -16.6241826370236 0 0
159.928992317536 27.0984351024943 24.5908365806787 0 0
134.881401541208 -19.2115404183954 -7.76311341738756 0 0
111.481578830661 -3.01573555961864 7.65892798721475 0 0
177.638843674719 -27.4018374847428 0.527019449959826 0 0
176.255602368375 -26.4747084679004 -4.24404556629107 0 0
23.5762465679196 -14.1206134523683 -1.23218816899218 0 0
141.762707677447 18.3307810600127 -13.9703914963982 0 0
166.062858813199 -21.9506860511474 31.7224744669729 0 0
168.439695484146 12.3971935105928 16.2967434104313 0 0
62.6871092380187 -16.443505849038 -3.92679791792083 0 0
146.45337486685 -1.41785689315638 -16.4408140829823 0 0
63.6293608283811 11.7938627036154 -6.84645515482556 0 0
186.92221492308 -24.9321749300722 16.5331599034571 0 0
171.798076538253 -23.4820762685396 31.5712388669182 0 0
165.57766179812 36.942468160975 0.212749587782068 0 0
109.093441230222 16.3680323644747 -1.19339174111138 0 0
64.4376670049603 -14.0844606229252 -15.1288725792909 0 0
162.45380105179 -0.906358346823169 18.7709716318314 0 0
181.329616383832 -26.4999595793975 -2.89952995160664 0 0
113.410786166668 5.79682123600228 5.48457440441544 0 0
153.224446292378 -21.5833691893669 -12.5782222070186 0 0
112.334504805473 -6.92330996957619 -18.0817964608596 0 0
180.068978985013 38.0378153991467 22.8372555006605 0 0
127.501650152978 -3.08939836893673 -17.6781846753965 0 0
181.577096192901 23.7022922602066 28.9321483247249 0 0
156.425937301666 5.32935107713944 13.0479381228382 0 0
