"x" "y" "z" "f" "a"
177.666871233542 7.19279303995679 -18.2069174673658 0 0
159.850449636641 -10.7110839824831 -9.74625276542064 0 0
85.3464640287525 13.4749123604178 18.5214138958387 0 0
153.710447013931 -20.561889623781 -1.83713372988148 0 0
31.2278164506192 -7.80183182393694 11.9169067115258 0 0
197.435741401523 -40.3926288746631 -1.85915322966682 0 0
205.548622296684 -7.31516534540485 17.3426313469111 0 0
59.8283177150926 12.9711038340116 0.453688552456285 0 0
23.6801957570558 13.8096354555294 1.56115088972863 0 0
85.2912759454743 -7.82504622577239 -0.696395786852903 0 0
169.035617384182 3.67616273942016 21.7817348516243 0 0
208.34116844145 -37.2313872485357 -3.87051952306531 0 0
188.987985295832 18.0613802797166 -37.2164217817426 0 0
43.7286366017344 -4.7366639563752 21.016286206991 0 0
210.419317251743 14.7531188396705 -17.5680480839372 0 0
71.6991437653335 16.827706786875 5.57513927088171 0 0
196.888615674764 33.8941151784808 -8.95761743985244 0 0
175.170392131129 -26.6753627326872 -11.1013147151639 0 0
133.207949138989 -7.66289807870983 18.7834075421798 0 0
212.028297907927 18.5632376350975 -13.8544651949947 0 0
198.085778973428 -20.2590594146056 -31.8171109104475 0 0
58.5624510479847 17.267832572207 6.66354127567568 0 0
135.812008855447 -14.3658754120686 14.5507877627004 0 0
53.8879394222694 2.64936034925505 22.8007961886235 0 0
121.113386627291 18.4255781852708 9.33424474446017 0 0
157.447296115701 18.1163894161843 16.1212736551124 0 0
120.885926340987 -6.77600907863537 -5.51996570482915 0 0
181.986745149592 32.366485542861 -6.478245804673 0 0
110.598717936606 16.052364486436 15.6557368665512 0 0
77.6535186206765 -1.6618356038663 21.986180158269 0 0
209.045285642411 11.2343013749311 5.66993748552858 0 0
15.0746773301075 -6.18285543294021 5.12966614279576 0 0
155.433075042575 15.2628930547297 -9.43351331047874 0 0
117.178090949527 -9.65589235301144 -2.66572663130586 0 0
149.628622336441 19.4034145819642 11.4640398076578 0 0
198.886628814511 -17.5208608377015 -25.5928572351487 0 0
153.046027839905 16.7063263316992 -7.62361010131439 0 0
78.0563890270934 -11.0111650672146 13.9023020677835 0 0
213.975314946124 -14.7056854103725 -2.94021753843738 0 0
18.3740974098809 5.41173828517758 23.3521546898235 0 0
77.3536340295267 13.2663028763714 18.7994266134773 0 0
209.027768639326 -25.2698370818928 12.1977969677009 0 0
32.2120655582047 -2.93749581272453 -3.69249339366492 0 0
199.57786461403 17.8519132508778 22.1207470277356 0 0
144.701860302198 19.0996420383569 11.7193668509942 0 0
206.870679752509 -27.1809071358689 10.5303218518112 0 0
188.882405664169 36.5396033582371 -14.3427438651783 0 0
81.9689470700438 -11.4398450845411 11.7285252218905 0 0
209.826504640697 15.3863063186041 -21.9153875551051 0 0
163.332445918373 -18.3149788604192 12.3270924543852 0 0
70.2238785738516 9.41731312121 -2.684978695238 0 0
199.908072926331 12.0462857341981 20.1652108095385 0 0
196.463527540132 -16.9060298874271 22.0844836366419 0 0
48.9775437057872 10.8234667837052 -0.916491869121299 0 0
22.254103434489 10.9000695844082 21.6215323671944 0 0
23.4921597586008 -0.908752551656809 22.9548367583332 0 0
192.428521393862 28.3758815785371 16.411378413196 0 0
181.180986542295 -27.2725602792884 -22.2414309958044 0 0
69.89790030539 -1.70543174270484 -6.26787365255059 0 0
13.8881217464841 -5.14562556473962 1.98477212113543 0 0
186.788859542292 -1.69094723328557 23.5364760432644 0 0
127.102855845219 -16.180144362681 10.5205140260944 0 0
108.858171960581 -4.71632840199721 20.367898899191 0 0
132.031368050146 -17.0651057514699 8.93191890331882 0 0
116.924047087998 5.87238818853538 -8.27093434633394 0 0
162.816387701315 -17.1530816019849 -10.007112456192 0 0
180.459236891349 11.6790732304194 -30.7849176351069 0 0
148.608731002172 -16.4212370052137 13.1918335452968 0 0
205.854410857607 -24.7865841888464 12.745125141141 0 0
188.633543974536 -1.59238689378941 22.9917471610016 0 0
182.063348034574 18.0083036134303 -34.0595615939125 0 0
10.8942111757162 12.3441885433226 0.484954104696274 0 0
205.383341045584 4.52787642443091 -10.1848078542466 0 0
198.750018309101 -6.51415581782016 -9.90200755462522 0 0
135.525279783659 -17.8521398640117 6.97013680343892 0 0
189.239738023859 -14.9736464598053 21.5234997197324 0 0
143.510425540393 -18.6647581232042 1.96081391750442 0 0
208.352736033131 25.4158427300548 10.2490337253057 0 0
198.122300087246 -37.9303928429086 0.814478204851912 0 0
208.323703276608 -3.5691336517834 -1.31861767518711 0 0
161.488866781445 -24.3258172436793 -1.47858931676842 0 0
142.596323137698 -3.70440891118876 -7.15167289244339 0 0
194.250207352864 21.7885718758336 25.9339126533281 0 0
28.095158317508 -4.50509063520098 20.6965907328891 0 0
182.025058596858 27.7336178173899 12.9055766401107 0 0
99.6287270129504 16.9848776229636 12.9613005872878 0 0
137.590180297654 -17.9913567407858 8.30756804393064 0 0
185.903322061597 13.6735343851493 -35.2569814149586 0 0
176.053968160346 30.4200385066356 -14.4451959265034 0 0
197.430982498535 -41.7716058861296 -3.94593797743375 0 0
109.624732186183 -10.0807495714953 -1.06497958487385 0 0
138.230086150642 19.1031378238303 4.11482505789579 0 0
139.849768379425 -17.754432059654 2.08012721706603 0 0
47.7876673575746 17.8126921652852 12.7582892646583 0 0
174.656322161414 24.3478585399732 20.8821695639034 0 0
187.880338134868 14.7990029034469 -36.265293586639 0 0
215.088727119556 -20.4715312546378 -12.4415563964726 0 0
144.645124095197 -12.5703163362684 -4.61749438257111 0 0
183.326715380853 -36.450613848199 -16.7143320130977 0 0
182.178693927061 -20.6157221444346 15.881257090266 0 0
186.186922820611 -39.1818940097386 -25.1273965490327 0 0
91.9046257240705 -2.10693387451514 21.500180691991 0 0
20.938308040694 -3.74653482398707 -1.39201750957192 0 0
207.950045527474 8.96324133202154 6.61510971010528 0 0
206.036128710957 6.29564899910261 9.88297776939588 0 0
175.91432215473 21.7202794616345 -20.7750818221865 0 0
211.704840912245 -9.11413834428565 6.76254369726756 0 0
188.40143833415 -34.9726864800673 -32.1043525297193 0 0
115.304871670225 16.5921850904551 15.0214880574016 0 0
210.74202039775 -8.36570729183133 -1.00603194498275 0 0
202.769511392274 -41.8179173623844 -29.871187266572 0 0
80.7146906297705 16.3801213258058 14.7952205309369 0 0
120.652766832229 -11.3273323826158 16.8284650169243 0 0
186.813038891056 -19.7696127694502 18.275144851481 0 0
11.2392240117267 -5.53558444567515 3.22279092853752 0 0
94.884467152385 8.21023672408757 21.4780060477367 0 0
10.3561586493037 -5.39446592657483 17.4789323351667 0 0
197.158855842608 0.571024511218539 -14.4447855404257 0 0
181.547898989397 -35.9395087019208 -14.6272344947417 0 0
199.662116110134 28.7526115088925 15.6041261542974 0 0
217.901103788149 -23.4266216088988 -9.04090626019043 0 0
63.6827803451759 -0.711577650628878 -6.86019032073699 0 0
184.683854817148 35.0130824940408 -9.26354257648599 0 0
202.82583696043 -20.7984300257676 -31.2333427274214 0 0
205.105845438272 28.5374944143279 9.00900781668587 0 0
58.6830034023055 -4.09672063486809 21.5150134228698 0 0
44.7938601799215 0.0686654021305791 22.8883518730733 0 0
103.848580219317 -13.3529573720223 7.27413281404217 0 0
189.938378898831 -12.0077876985301 25.6802453096237 0 0
176.987237392559 -2.82941320697281 22.2672516216773 0 0
214.49131643048 -14.3292434191022 1.93149874731537 0 0
182.531060574537 0.227673536616943 23.84463247665 0 0
109.872368124831 17.1838850398211 4.19531285402801 0 0
24.0652916801185 -2.04628847354427 -6.76782971276758 0 0
163.005435243165 0.569654839857463 -9.96601172493101 0 0
123.082730517044 18.0851092774891 4.68028474545371 0 0
202.952029737369 -22.3892877462375 15.5244114217029 0 0
27.9111555809198 18.3399875158864 8.40676818220933 0 0
175.997643908379 -35.7291879110038 -8.44877464528261 0 0
177.786386727393 -38.518967831423 -6.96692904281868 0 0
198.750438685425 6.70892980188046 -28.1037537450282 0 0
104.626782883181 1.39641908559786 -8.29197655135129 0 0
60.8399343479919 -4.41736689760719 21.3333071741796 0 0
194.171710784777 -17.8387178040647 -25.2100481326312 0 0
189.714014204357 26.4323936035619 -31.8092015999894 0 0
9.15247886624298 7.98845808692013 23.0277171026308 0 0
185.168875909586 -37.691720540511 -22.7910172074569 0 0
153.769158627901 -4.82171718733849 -7.71752868430748 0 0
185.630221539831 -41.1540424389433 -4.08590333880655 0 0
41.5535418766011 -8.05006842840414 8.97874353305511 0 0
65.6109519623345 17.2517317626605 12.9510814267478 0 0
116.263540077175 -14.2909109939179 4.50432577656271 0 0
198.421945797131 -15.4833590903262 -19.4013896555971 0 0
196.891693833711 -41.1391586711539 -23.0825827269801 0 0
166.792866452999 20.9873245332048 16.0562309942185 0 0
192.697669468594 26.9320278247341 23.9523076373265 0 0
151.557214202982 -1.31082361721118 -8.33228635032582 0 0
168.075223110029 -3.55150159576903 20.4279346025341 0 0
181.678883686776 26.1321452195697 24.3032808889941 0 0
201.002834577916 -23.1215194891291 15.0821393637762 0 0
196.408382836614 -6.5388565437286 -13.6456752704519 0 0
158.017954751022 21.1710547930093 2.47232071366894 0 0
123.778233841254 16.5933277210042 0.959099325978333 0 0
177.28941012118 30.6425164385703 -11.001575565449 0 0
125.020142803787 12.8198599273813 -3.91993626719066 0 0
191.240882842636 -21.2696305506829 17.3598475823123 0 0
139.14770748724 -17.71807800711 9.87698912786037 0 0
105.878643442354 -0.463564821307801 -7.70680730268164 0 0
147.591156761031 2.52575984471812 -8.8389767273804 0 0
96.7359305676414 -0.878050721584634 21.696271993877 0 0
180.864380055255 24.3339250480471 -29.7547277790476 0 0
197.908269119264 34.0924366200095 -11.0324270477576 0 0
159.164732062161 21.24516839842 0.299417182397395 0 0
210.865762692184 -13.9756473992999 15.2410881065524 0 0
206.370599982246 30.4589396690347 -30.6671560710475 0 0
167.20424955484 -0.290768487986972 21.1152502528591 0 0
63.3261859082961 12.2829165398129 -0.229139668264271 0 0
102.392353929805 -9.24506393265898 18.2537025707322 0 0
198.725118553058 31.5632074104793 -3.71463600785326 0 0
178.892949361921 26.9455237442298 8.27596155187308 0 0
178.927170505465 -18.0948785841613 -15.8380686806213 0 0
154.2137927272 -16.2003398504567 -5.15847632024778 0 0
198.472374178946 -2.18046416346509 -11.2350312233893 0 0
176.923469760635 -7.43308684853329 -12.8880997439383 0 0
148.583347581859 -19.5153304850723 8.6474725257675 0 0
23.9937193433141 16.12812322656 3.85925729620979 0 0
145.252221330084 -3.86413322147298 19.9889909722619 0 0
192.537386731793 -13.0510438393344 -17.6646665886161 0 0
197.791589890169 -15.1321355484859 23.7866369568419 0 0
99.5079684976831 -10.6786751862882 1.7936951741592 0 0
183.954554138229 -36.6631575524597 -25.5006120843937 0 0
158.882880919173 -15.5642090074765 14.3808828598717 0 0
45.1213927479625 5.21527754672518 -4.69992528049359 0 0
201.612646508635 31.7008554521847 -20.2035553836764 0 0
177.750400024088 4.10618844035873 -15.5061476411264 0 0
198.138736244762 13.6981434711453 22.1033857176152 0 0
214.001829147904 -36.8731252889948 -24.2222608427843 0 0
145.334085049041 -7.65821308570256 18.6476265627798 0 0
174.010428244101 -15.6232068307304 16.6834105761336 0 0
10.0846674375115 -6.81488978175106 11.5333007707601 0 0
201.518791890747 -14.029640082664 -16.4780421928066 0 0
91.7663094604223 8.48768800596279 -4.67316924013341 0 0
212.072912319578 -12.8704451740486 -3.70099868170999 0 0
7.63739298166958 -6.75733071168008 10.7809292765667 0 0
205.810750053243 15.6735170661627 -29.7858826623883 0 0
199.866531512549 0.449534574926171 -10.5414763227532 0 0
28.0317602902686 17.9712820081748 14.7493154570836 0 0
85.2854503049341 -5.61389126037144 20.5158971355449 0 0
48.8907469580187 11.6675238200527 20.4892015178198 0 0
186.176567504953 -9.88041059532641 25.6137565125229 0 0
202.180055430845 -24.3959475279678 13.6645887673063 0 0
202.986757502464 -28.7049498053077 -34.1179007239544 0 0
93.853902612227 6.51852789898451 21.8843886856236 0 0
210.901620857229 -15.6601386912379 -8.88721837257511 0 0
83.568382620531 -3.29013352081317 -5.40351078109908 0 0
89.0065009678326 -3.1445000736666 21.2482929694186 0 0
195.021963889401 -10.2463586050106 -15.6393054412757 0 0
93.6609690967941 -10.7294054026567 3.41135902570059 0 0
194.027536072169 -8.74767902527211 23.7858831998469 0 0
211.593766635053 -40.2703272481479 -24.6873128342621 0 0
18.1701759510101 1.02564547343454 23.4377894994339 0 0
203.760663168893 30.940183758852 -5.75864731591037 0 0
201.23408332149 10.5375894671193 18.5048566267427 0 0
203.673727093863 9.32208945470522 -26.1973192410142 0 0
189.183837232141 27.5065200422241 -28.497180732358 0 0
210.043493536729 -20.6954805406105 -25.1458262694608 0 0
74.0668718008117 6.87560078666972 -4.60830052717221 0 0
201.816974663509 1.94535947750111 -9.83491704798315 0 0
139.088359628446 -7.02490893535094 -5.99485138179556 0 0
208.496812752043 4.57080320824778 -7.26164013366241 0 0
194.812543964401 32.3632003881402 -1.6517925824531 0 0
186.99263492481 -29.268720567016 -31.3455981673944 0 0
107.549344230115 -11.4388106175513 16.5301583888876 0 0
126.003995120492 18.5715749366732 6.23672031825736 0 0
165.208713201705 -21.0208419496924 10.0010792117456 0 0
95.583588268986 -7.27889786137545 -2.60440764479097 0 0
201.836728661086 31.5338670239966 -7.48821113987181 0 0
210.406488184504 13.8199187756989 -12.3741345905671 0 0
187.626382067059 -22.8839433462835 15.2668592675487 0 0
94.3490135756585 15.5420561004475 16.0518931012442 0 0
187.829683190653 -41.3010020420464 -3.21199295526155 0 0
183.78406499051 28.2803760059737 11.9017442309209 0 0
210.673015742111 -16.3835817192162 -10.7823654766469 0 0
177.88260879791 10.1730578298418 24.0151050391559 0 0
127.431785312061 -10.6137286891309 17.2992507460554 0 0
189.494155645634 6.00420627347528 -29.0782263887841 0 0
204.929364511288 32.4918613302314 -18.4875813999314 0 0
122.918270485326 -2.17384703621184 20.9216149823207 0 0
190.33723786552 -10.4747026052113 -17.1535846737762 0 0
23.9199715677261 5.65211840935683 23.2193165569941 0 0
194.19832522817 -17.6279873734524 -27.4280967686626 0 0
108.069832781288 16.3938797863905 2.524445468705 0 0
182.317753571538 -32.2956293532123 -20.8511276204361 0 0
214.891622735759 -24.3526325464839 -21.5145445085582 0 0
180.470024765639 34.7767303060125 -13.8952253640213 0 0
198.149576088729 29.9590496759364 -35.2049841677321 0 0
190.836905428662 26.8337254055956 -34.6507503624371 0 0
191.718227866745 29.8157258519942 5.63305510857583 0 0
209.71186277758 -21.4945456140837 14.3836145305402 0 0
208.64410457776 8.2878044609193 -9.00496589866068 0 0
179.111295983379 27.8713610254211 3.22328875934204 0 0
190.455860290794 -41.7123906689701 -17.2251385414586 0 0
75.9415481035635 8.08481844273907 -3.85767034989064 0 0
106.653367677142 17.5598698960423 5.87017565919053 0 0
113.640736560357 11.1980328072842 -4.17465641769344 0 0
177.547985467644 27.3866854954293 1.56986222294246 0 0
108.506837589358 -13.6868560076981 6.22788580036579 0 0
216.337760784939 -18.2663472176263 2.90305853358798 0 0
184.693146669211 29.023733367537 7.47657679649357 0 0
3.94075134036646 4.40116720185077 23.722602757313 1 0
187.901316803251 25.7712542334284 -29.7984834240461 0 0
148.394796095699 16.8478142088302 -6.79777762387124 0 0
198.672291543853 -40.7764177710342 -19.2141260131674 0 0
201.242691205265 -21.7603735685069 16.3228565119938 0 0
184.337388558032 1.83863996091823 -19.2392862270274 0 0
195.428751210608 -41.1720748201267 -15.3390930961447 0 0
149.005870400116 -10.6316212926417 -6.08051495325614 0 0
213.749146570059 -24.6326074775755 -23.9358604723765 0 0
27.5329551913008 11.6731519220056 0.0319995070366883 0 0
54.0977993229767 10.0420072347798 21.1821606805154 0 0
212.443905428038 20.7094678820336 -13.5970225759984 0 0
186.917599915519 -36.4119550183088 3.96991286423984 0 0
66.2145118232602 15.2146527955232 2.55219238958202 0 0
11.4986811079217 -0.0277614327986331 -6.97165565487874 0 0
176.786941040263 28.2206507176007 -5.26767430686021 0 0
123.248679241919 -11.0805050655035 17.0168638657384 0 0
188.191234170834 28.1549205657726 15.0937874786397 0 0
148.58076672829 -1.07415292651475 20.6790959684602 0 0
194.675895993008 -41.232146573643 -24.3038789349606 0 0
175.990474300018 26.8557607372044 -0.0914300786956049 0 0
197.638576937082 -11.6681950440818 23.6651555384393 0 0
186.251230840673 -21.7680388820775 16.1816854289718 0 0
209.378541598517 21.2112551834558 9.41116960646854 0 0
180.824000745139 -3.43728475591936 23.3950936332982 0 0
207.863337214577 -2.71056893956809 8.95613951777522 0 0
176.982417496009 -34.5659318488383 -4.30581951404629 0 0
205.47626452028 -0.803675093301246 -2.65613772878867 0 0
193.439908153117 -19.3245702853971 -30.3015453876957 0 0
183.813115258916 -32.6277311416622 5.47528711298774 0 0
82.6268586945477 -9.9344625991417 4.44726864026544 0 0
103.479157868417 5.45427621311175 -7.20762065945304 0 0
140.618500688109 -16.998312688813 11.6953847554857 0 0
168.423126885878 22.6102830849908 10.8139382334892 0 0
195.100408519157 2.42628205618282 -16.6718861540321 0 0
203.261023088776 -2.79621944693925 -4.79503262779853 0 0
206.030237070763 28.1789397462861 -32.2060816129389 0 0
196.971807879275 29.0133399101618 10.7743737952831 0 0
192.998939702104 -10.6276831783911 -16.7414549014206 0 0
203.02750588171 6.26182708729672 -22.7877880669315 0 0
102.74020206033 11.2562784952252 -3.39413458108136 0 0
95.4286974505131 15.726727671054 2.26466931637568 0 0
109.790293331559 1.40497949068388 21.8669154637966 0 0
205.933400241003 5.91300439994565 -12.4596711146262 0 0
218.652425201278 -33.7255985645082 -14.0702308895948 0 0
214.832480451868 -15.2067200107837 5.69426354759349 0 0
142.935714208549 -1.81387908546293 -7.62673520546984 0 0
209.602588058671 -40.3092498971317 -14.7323921480227 0 0
95.2776443730663 -0.694465695564319 -7.35755279781272 0 0
207.692936850827 -0.520654750817605 -1.5370677665474 0 0
183.464623348631 -19.1525554977492 -24.7222823901084 0 0
182.121146493471 10.3981686207335 -31.2850775908852 0 0
121.961426631119 2.13037867225695 -8.42344561972343 0 0
117.401849529408 -13.4489373281068 2.34864705543497 0 0
201.392150713792 2.62820574144167 -11.4573788180677 0 0
210.783688844128 14.9469848534133 -15.2517916477991 0 0
54.5723143808326 13.825273492068 18.9181372448584 0 0
203.135378933873 0.87962155372652 15.2271358485536 0 0
143.166068157409 -17.5758577083821 11.0741103029174 0 0
165.093391270921 9.2695611874426 -12.6979985841443 0 0
209.538561190685 -40.669744754206 -26.9438402524465 0 0
182.536671146081 -28.086754874252 8.68269731538854 0 0
177.900943082757 32.4346058019469 -13.1871796230411 0 0
211.698009324068 -16.1407737815205 14.733168488362 0 0
202.279453026873 17.0567468018047 19.3237406238521 0 0
105.418843244675 -8.54733819087809 -2.27045824237537 0 0
195.830601136747 5.55062620118456 -26.5147718005142 0 0
12.4532811643026 11.4625188100722 21.5907661751948 0 0
189.222532833833 -17.5165117871536 -22.0999736603812 0 0
21.9425044924402 18.2076594985577 14.7959753115701 0 0
186.807718710137 25.8898545926367 26.5776638757335 0 0
209.960909914027 -41.5839859804339 -24.0906237648708 0 0
189.828970463697 34.6581706665495 -8.83054978009041 0 0
179.83570954198 -5.82007963463073 22.2744961953075 0 0
205.441137241762 13.2566920978975 14.3253597292262 0 0
5.90860571148578 -4.74375093969708 18.2668123525701 0 0
195.440635364936 -4.84168234192415 21.6687833445786 0 0
201.421900134819 -1.16355608641546 -6.631077126977 0 0
5.13665407609991 -4.20332940191843 0.0319056952439398 0 0
48.6018180404103 -7.9113164840257 17.2848117688135 0 0
207.393408366677 -14.455818758849 18.703686203548 0 0
193.040862612139 31.0566047165323 1.58595670026723 0 0
84.3039193082063 5.36928316169724 22.1507546102412 0 0
56.5124931437019 8.04212403236479 -3.0713453911437 0 0
106.718118767069 10.3077273313624 20.7188409226527 0 0
143.961260827964 14.1051632618511 18.9663287784718 0 0
190.305325834591 7.90502903174933 -31.1106700829539 0 0
103.647964748475 -9.31103529253063 -1.06804568479552 0 0
193.014533869714 -27.3295898915172 11.147566778492 0 0
194.599452507841 3.98969697017815 20.7425617399156 0 0
165.867262571928 21.8677888331267 11.1268872628193 0 0
112.892024509815 -13.1797242942776 14.8922519610283 0 0
168.368879779912 13.412715007821 22.2294427724536 0 0
200.672485089992 -40.1951314103329 -16.969175856345 0 0
171.579637472248 24.4847424652144 3.56892537758551 0 0
128.583988100933 -2.25288126146896 -7.08134618474725 0 0
139.594206338611 -9.51873403693545 17.8798091583674 0 0
157.532350020498 -17.6524295821896 -5.74209449228537 0 0
99.6860730249882 17.5898050814533 7.465290171735 0 0
177.673000845213 23.4797925042224 -23.2528870522791 0 0
214.321751791275 -39.1165464745833 -12.1737031867654 0 0
216.692989019295 -23.5115624795011 -14.4265315814621 0 0
192.3330810437 17.5771430670448 -37.4581670332714 0 0
194.828623591161 1.57106310707296 20.4092910676665 0 0
212.523011529837 22.4806201016517 -3.96658717626427 0 0
192.969546012024 -34.5358917546896 4.92789109447426 0 0
210.662389336656 -11.9593829624664 -5.3312586012296 0 0
179.874227182952 -21.6497615318732 -19.6441109253816 0 0
190.596916587516 26.2237730909469 25.5884366386897 0 0
204.847325681832 -39.9929821340451 -10.9419319800445 0 0
172.552927980055 18.4670403935172 24.5851450724783 0 0
214.299699564587 -22.5751945476228 -20.4078301682237 0 0
128.604263955569 -8.05509262630857 18.668976227098 0 0
192.923835769147 -21.0924187273783 -31.7535891167748 0 0
121.803040328421 -5.17929801017482 -6.1704254924648 0 0
201.3942985962 28.7764478278153 6.10081864445456 0 0
173.449661763874 -7.03447140663714 -11.4082541097812 0 0
206.589609485534 26.0858578984283 12.3404818138405 0 0
106.042862650466 6.30748346628752 -6.95992333134717 0 0
189.309092929574 28.8717341015863 10.8160751924377 0 0
185.633790893196 8.25655965682011 -31.008793820996 0 0
192.780039851065 -17.6713482814353 -23.6516801464697 0 0
7.91434565789013 19.3900384791635 12.0028428286422 0 0
191.970448117276 -17.5233016339461 -28.3210073385105 0 0
72.637393578113 16.9405857694127 13.5153194032768 0 0
134.697183208976 12.7275112601989 19.5603464467596 0 0
92.0688079431371 14.9963907616175 1.39668946377116 0 0
46.8927210763359 -4.44248476995219 21.2676890728799 0 0
97.1107706099966 -13.0033433004265 11.94274471865 0 0
180.015315077098 26.0696763336233 22.4116635387892 0 0
139.901695341732 6.18212147187475 -9.0849605510428 0 0
158.871195171755 -0.84947242181475 20.7579516322019 0 0
208.545340422949 -23.8866309649584 -29.6199861666734 0 0
163.538762483676 -8.21314797759787 18.7564978599437 0 0
168.640957168171 -9.19611967297232 19.0024151753843 0 0
73.8717413747361 -5.58707880411214 -2.63652536826048 0 0
146.489120881946 14.5155647609522 -8.12491855844838 0 0
209.478660289355 16.9461664222961 8.35535369059571 0 0
158.357463562538 17.2390827501169 -8.92440443744012 0 0
163.671616737008 22.2506991489489 3.32745718055407 0 0
3.70840306331017 19.5121294529159 12.1253897815473 1 0
197.400416690943 28.876683993897 9.12306982991748 0 0
166.024564537052 22.714083848748 -2.15452967128764 0 0
21.8513451095499 14.4550101752786 2.11031362484911 0 0
168.383203551307 -11.2305392608884 18.032740234356 0 0
66.7142430342081 10.3136125614426 20.8291584762374 0 0
182.768939422914 -2.3757209448728 24.086891962327 0 0
210.819682506887 -11.7498602056312 14.0475604483547 0 0
180.138239104342 -35.8521906542545 -13.2757681965048 0 0
154.9375486949 19.3135966791145 12.9203382893927 0 0
200.700521496751 -9.24620673978661 -10.0522439568005 0 0
142.509573584505 -15.6576415633859 -2.70804197447776 0 0
197.824342718464 31.2591528740555 -2.22272084426061 0 0
6.8701449761739 13.9083930423838 20.2497211214992 0 0
200.201987867153 -17.088231174923 -23.7771467671575 0 0
210.164877675734 -35.7980992602334 -29.1697363844222 0 0
85.720120664385 -1.7222092844324 21.7747904635745 0 0
11.1563360590496 -0.986485236113873 22.8345810750244 0 0
172.912305704537 -7.00866056081135 20.1402018419751 0 0
86.8221238731642 -6.64262035410258 -2.4721107041811 0 0
92.0892359031305 10.812821861402 20.4495309724432 0 0
84.7140639453771 -9.17193859112695 18.4334076390734 0 0
115.900008053815 18.1431730950411 9.90361457810219 0 0
171.116390630074 17.7674341019587 23.8952285119556 0 0
141.71863304593 -5.73173055684891 19.4075234385831 0 0
184.000455598425 30.3324916760332 1.44428446146272 0 0
185.078743701986 26.9263827549328 24.9081952796889 0 0
198.134264618137 -8.43319051907484 22.3446457743627 0 0
212.667815580405 23.7969519623022 -6.24570965802974 0 0
148.95995317246 -3.54364888418397 20.0447401048452 0 0
175.054709930726 22.0313157886429 -18.3573024536325 0 0
29.6133019401441 7.28437641176095 22.6680135495757 0 0
64.3664147612432 17.5934494079215 9.1618686125402 0 0
119.105153799561 11.8381747354669 -4.10610580905039 0 0
176.090750166973 23.8168298261964 -18.7111578144298 0 0
187.687696470299 -22.3016370104208 -29.2941786649436 0 0
140.021370390865 -16.5683676327093 -0.171994761413439 0 0
183.135987648108 3.78503662383079 -23.715568010197 0 0
186.065423845785 24.7695011057427 -33.0299303566678 0 0
93.2332120056449 7.38212390685963 -5.4166739299086 0 0
46.2418013462452 8.09951054924477 22.0118621643043 0 0
203.426442880501 3.28049220629746 -7.87727428093242 0 0
163.194483945673 21.7239756978472 7.83614974398312 0 0
196.042958591722 30.3063224139553 -33.2569679173149 0 0
141.243616107221 19.5252560168886 8.48538140385948 0 0
190.959871456441 -1.29031947087473 22.2312464333858 0 0
187.809757075924 -41.3615620644832 -18.5114500221256 0 0
190.195664351562 34.5920408116863 -7.11509481896683 0 0
214.625239973569 -18.6916745097269 12.088379072428 0 0
71.9666871702972 -10.5789205209737 13.12583022551 0 0
89.0978133950387 -11.4242883258391 6.82156569198285 0 0
209.250575387717 -11.3834383187718 15.8519467642796 0 0
151.046802563795 0.947825266326454 -8.81285425678711 0 0
196.765429676622 -9.74871482224429 23.3918914433408 0 0
158.497797419571 21.0311758371513 7.40493563940403 0 0
189.936549593884 -41.8406929452704 -10.9003317162405 0 0
212.857498714203 25.7225279927833 -15.9262839696227 0 0
218.209824440957 -30.7007390751686 3.31963687046964 0 0
177.002352774343 13.4535913959316 -28.3828925729063 0 0
217.436762234682 -22.1403461172587 -8.50754513874833 0 0
203.030611824316 -37.8647617934115 -33.2112000725408 0 0
206.467622221847 -20.7901568905405 16.8529397487125 0 0
123.658908209636 -15.6923691802552 11.1206978381106 0 0
206.309027116721 11.7245125459456 -25.2376329081761 0 0
162.21567264007 3.25499214445891 -10.5535580202288 0 0
199.029140907399 21.0033286818596 22.7890551073045 0 0
195.84016577778 29.1238501311079 -29.3595978498062 0 0
23.0777896579355 -5.38048693578305 2.02932119413913 0 0
206.041249494668 -15.3800236145011 19.6392250675394 0 0
150.835155222687 -14.1983162608888 15.1168924692124 0 0
119.634144521397 1.04116923807803 -8.16572590409663 0 0
14.6831249848885 11.2739832834061 21.5925758260045 0 0
192.189219989256 -16.0755006311335 21.9202217108718 0 0
162.85219838883 -18.4138680680484 -9.05592861751524 0 0
210.04357241345 9.41741220831549 -0.213386972256748 0 0
37.2919091447947 -3.47570140951495 -2.82054442012606 0 0
218.813841171215 -34.6574417391785 -12.1163016379382 0 0
145.212092039301 -19.5128733644113 3.29268860273649 0 0
24.4504587495379 -7.37784906946459 12.6211154914105 0 0
143.134312852599 16.732245694144 -4.89145927986537 0 0
95.460492527894 17.2411499596118 11.9117235190178 0 0
203.071896170458 -39.9418926875111 -4.26662477420455 0 0
148.928210148556 -1.24013845918096 -8.12541860656616 0 0
216.32388020698 -31.3203483824772 4.30480778032646 0 0
160.352749953179 -12.6599763548305 -9.62263476055711 0 0
204.241499375907 28.7341717215377 4.32628629202822 0 0
131.835915177162 -17.0359746523993 4.80398828808697 0 0
16.6924845304528 -4.09816729021713 -0.544478946031055 0 0
53.3532937733981 -6.30885484982125 0.773538593306781 0 0
101.223337645247 9.74203125511055 -4.4700126917417 0 0
93.3799533507008 -12.2309138707363 14.2763876931879 0 0
187.998327892521 -31.5788438071473 -32.2166473703884 0 0
138.309843490522 -16.7872864065968 0.850584801856154 0 0
150.337611262606 9.1197045994839 21.2907240546649 0 0
179.602990531517 -6.86564788541681 -14.5128843911883 0 0
169.273288446936 23.4690282587234 -7.89817310750957 0 0
165.485880015026 -24.0964406789267 6.17996004886508 0 0
207.845444604464 10.3625982678111 8.00603183028104 0 0
147.03943667681 16.8079867847492 16.4349832244132 0 0
208.956807953539 11.1572170891689 -11.7570669616023 0 0
198.72349392708 15.710193080753 22.2628985942912 0 0
181.429654034112 31.1394361114667 -4.25147589160867 0 0
190.398205862414 28.3981857938243 17.9141201951369 0 0
169.415165075667 -27.0627390817676 3.2890226858452 0 0
184.71038033941 -18.5264058234129 18.8868107943992 0 0
153.106977866542 2.13697360756646 21.2697191409055 0 0
167.075804661058 19.1065864627357 20.2340769535538 0 0
197.826925630304 -26.5448494562122 12.1655810942485 0 0
108.490556939474 2.89236817154404 -8.68592041974914 0 0
211.461496508827 -31.4927976139225 5.20622292227354 0 0
90.9917953606942 12.8995789524598 18.9816337047007 0 0
212.345036815202 23.1850489821957 -1.59456831304156 0 0
186.555512845594 -12.2075050103862 -17.4846528939446 0 0
102.161048283041 -5.35144143670422 20.210227598889 0 0
178.589718417883 -5.86184905711862 21.0595319575085 0 0
93.3829531918731 13.6925386710452 -0.33023585102652 0 0
183.108395875929 34.7516317210166 -10.2597301584317 0 0
205.239718519685 -39.0677590671519 -5.2512940977038 0 0
182.083283194241 8.27362697447369 -29.2688503987286 0 0
10.6096497193661 18.435695930098 7.11263305490066 0 0
181.184647871733 2.69868645009238 -18.3239139862443 0 0
204.222754661764 12.7951450623061 15.929963716646 0 0
3.81070125666054 -6.41143079260475 8.23877296363472 1 0
3.50404374784412 -5.43675164595919 16.6190180113238 1 0
149.966767877146 -10.5979006720769 17.367331366505 0 0
201.668480554511 31.1437626460355 -24.9661073646186 0 0
175.890073227018 -32.9644773240197 -2.98467150434214 0 0
93.5583472976671 9.21405906956938 -4.28953613206647 0 0
217.035554950817 -21.9283873236679 -10.0060617978345 0 0
190.491604944351 29.2263102919736 8.93525529330278 0 0
217.896814410498 -35.4739980826812 -15.8182975662969 0 0
19.4117498415822 -2.54892912447494 -4.55625137490166 0 0
213.474588470737 -29.6168647998278 7.10023402401909 0 0
206.548402332918 28.2290056627493 5.00909860398453 0 0
179.908434478756 26.8920053000763 13.9399494966517 0 0
193.709824013579 24.7855634733757 25.8768868015964 0 0
202.419101822012 32.4021909385773 -26.5186176077718 0 0
177.423204361843 15.2826627106871 25.112190252721 0 0
107.185083595785 14.102780105908 18.0477871520901 0 0
190.704488501052 -13.575916973697 -18.2451119633282 0 0
115.517705319828 17.4967597453197 12.922607629939 0 0
193.237569163694 4.77723198328834 -18.1308454646186 0 0
185.314634060024 -7.17464310625657 25.2434999412623 0 0
199.567560614818 32.9328965735242 -11.323500610921 0 0
104.001602557063 10.4096445297331 -4.19356260213233 0 0
192.828193175898 -41.5693059212046 -14.3513631254092 0 0
187.602862944918 -16.9298945673233 -20.6903811307295 0 0
79.4765278427589 17.2289552771697 12.2212850841547 0 0
190.299902143162 -41.2472779599138 -2.24273337430194 0 0
53.7925213957257 17.634558110439 12.6441317028974 0 0
116.128165996781 -14.9528419074424 11.4271671673484 0 0
30.5476965140858 10.024701339149 -1.07386046935558 0 0
156.67150274277 20.3900178514626 9.80917949280998 0 0
195.345371343375 29.8750046692497 4.50297694919281 0 0
184.099673988409 33.5477545340771 -8.30220381645803 0 0
178.985226878235 6.34395364284994 -23.732580301637 0 0
164.675345323854 21.8266183307119 9.18994441746999 0 0
169.115643043424 -6.97706999933312 -9.80778141075095 0 0
58.3675008202282 -6.32044201046068 0.13335063917471 0 0
187.850357987834 33.3731269755171 -3.29381983086902 0 0
209.429975237639 -17.4429832858164 15.4821717662926 0 0
196.076131007193 7.84571700049753 -30.4919746366199 0 0
140.238763376512 17.6515416749009 -1.27255032527513 0 0
207.518877624994 -39.9852285220709 -15.9796128320863 0 0
200.58970149814 -31.5408348956693 7.51225648415228 0 0
187.978113152826 32.7452991829976 -1.58788113300347 0 0
172.677671173169 25.5351161883866 -7.04931116064339 0 0
206.902841933466 -4.79734088792443 -2.51933844018989 0 0
165.510255379787 -2.54886210983082 -9.86457803315021 0 0
79.0980400600784 -9.00445773309106 2.88035722742039 0 0
185.528070192698 15.8059593166189 -35.7572292585097 0 0
188.265319170825 -36.1255887034232 4.2950257087407 0 0
161.247286893021 -22.7897687991964 -3.40489265368803 0 0
115.461179347515 14.3173009997456 -1.142660717458 0 0
167.690531480002 22.9287904692138 -5.17285841919557 0 0
80.5088000944749 16.5836330882809 4.8198667833737 0 0
182.069889200395 -34.4875274070523 3.01723997710436 0 0
32.0691132872162 14.8553767580141 18.787315482747 0 0
206.176330454187 30.0502136802865 -2.17870861629892 0 0
185.29739502486 -17.0517274804657 -19.8406544770647 0 0
176.007780087885 15.1385958694208 -26.7883590757415 0 0
219.72802711654 -28.5749511099248 -3.85671362680627 0 0
141.220732929583 -18.6014311612359 3.51723026993709 0 0
154.046599450523 -9.96297705183521 -7.30381123714503 0 0
111.375543731486 16.3708800082362 2.1299399271207 0 0
97.5827668516859 -8.12756496398573 -1.80503565527747 0 0
69.226852954921 16.8345953797851 14.0124688659113 0 0
168.111007158396 -24.0802749467595 7.18665115528112 0 0
195.122808456949 22.590279625854 -37.6636153478794 0 0
211.8378453921 -10.2016296383155 -0.863542360420639 0 0
148.802425841712 20.1181728064505 5.15859077139357 0 0
90.8716054906564 -9.04885725153706 0.522729735319076 0 0
116.028518226959 -6.85623227517373 19.3848666880297 0 0
51.9889465407419 11.7973143499115 -0.305218135229917 0 0
216.070739820823 -29.3252928913958 -20.9222540435443 0 0
117.914583736606 18.3046780715699 8.00152787075901 0 0
195.83269191911 -36.8959355970521 1.85808662917031 0 0
143.424916933577 -10.4438086122861 -5.26346448498473 0 0
206.907565548484 9.9127324753325 10.2038725280397 0 0
104.492758841465 12.9433440708126 19.0259851831346 0 0
92.3854097131466 -0.668339729449827 21.8317942469336 0 0
123.264540593904 10.363460504419 20.6866122248061 0 0
170.711164616914 10.6120077550243 -14.5289224492661 0 0
153.064970357058 9.71497856736087 21.3669851672702 0 0
174.374196153053 23.1358238679811 22.8007740004183 0 0
180.037695640306 -25.6333140439889 -20.2782347809113 0 0
214.381188071809 -35.7023176133265 -2.34087177064337 0 0
180.0472318296 -39.6072404724705 -6.15777625564325 0 0
201.906767319293 15.4365669157363 -33.1217434110613 0 0
196.626073630743 32.5652827287811 -3.85231833512291 0 0
68.3609131044517 -10.086540755626 14.9893452168218 0 0
92.0221404493881 6.01516058972946 21.9875084158912 0 0
162.8257428246 14.500407295821 21.0868235962727 0 0
25.0832948042473 -2.5677294509048 -5.18299159069984 0 0
38.9626533796903 -8.1885949588816 11.2585337221302 0 0
140.553673080688 -9.20584713452832 -5.40274902472226 0 0
119.220651882557 -9.80977608608537 -2.82802190533086 0 0
106.539633800488 -5.45301221411519 20.1256110010533 0 0
69.2275010724704 0.128916748742331 -7.26118340386647 0 0
200.729364893322 -1.7645622189604 -7.81827978351755 0 0
211.693527549926 23.8983255081468 2.85444475313054 0 0
95.5930776444567 -12.211865740365 6.90361310764962 0 0
159.440232789096 17.9056041915545 17.1041964378357 0 0
196.089380195533 -2.63320620200471 -13.2561679532419 0 0
37.1704662260535 15.88377129029 17.5202690286491 0 0
175.561843361782 11.4390923020524 -18.8158661599751 0 0
192.62596266774 -15.0499921996211 24.369999320157 0 0
177.275945580168 0.869466776514485 21.4625310927911 0 0
175.910359919145 19.107780325994 -21.9797082552578 0 0
61.0577064012864 5.66776641378925 -4.86957158611229 0 0
184.728937829337 -20.3759247771157 -26.2450302373753 0 0
149.639927077856 -5.53847224532255 -7.17659414359171 0 0
133.007305761006 -16.4105080610598 2.41046759127292 0 0
123.607472576011 6.9166302718963 -8.40093958883576 0 0
95.0530652797766 0.596998990985544 21.9795775552144 0 0
109.661602173062 6.42491879113416 -7.21049299413887 0 0
168.98650105234 -15.8077067778035 -11.1543096684951 0 0
196.470143205416 -29.6036789036596 -35.3329339106854 0 0
165.834958346862 22.7169505952762 3.95730741942596 0 0
215.533592695951 -32.4363507711551 -22.282056774817 0 0
55.6972721566236 -4.03312080347252 21.5713402619878 0 0
187.689365887032 25.2144304160404 -31.3957218803055 0 0
189.893592212967 -41.2929811367419 -19.8131925675019 0 0
130.886024348305 18.8685830290727 8.95168535667453 0 0
197.961683725722 0.554273082434964 -12.9533800227661 0 0
167.174294200103 17.5836150758079 21.4698615510648 0 0
139.816661249747 19.491575169522 7.20685696760126 0 0
199.980260335338 -1.49938492340444 18.5739386293125 0 0
42.0416783861487 5.52918632335542 22.7893207710583 0 0
129.968864011137 7.34072332521154 21.4188044750987 0 0
98.7107923200653 -13.0475502051115 8.92702129549162 0 0
47.3883120995957 18.0019557362675 9.54371337138463 0 0
107.4348587527 -13.3845121332615 13.9167795541088 0 0
112.478482219017 17.4091654360741 4.31351792733842 0 0
208.413541382577 -18.7025942516054 -21.1068117434682 0 0
170.410300830797 -9.85015183932374 19.0266643322618 0 0
212.242021799362 21.1958751176929 0.241327009346829 0 0
111.614676161571 17.8840718018675 10.6944125318924 0 0
187.191903145383 -17.7312550203505 -22.5318885860069 0 0
92.6707436702634 2.23274772596267 -8.0601255940432 0 0
46.0649845792787 -6.62847771480643 19.1964762410457 0 0
100.691791215765 -2.64671196672282 -6.58848816592649 0 0
11.6189194597212 19.1961059520949 10.3710887120552 0 0
180.580782150832 34.142142399655 -11.8060308420155 0 0
210.460829881282 -36.2490128477487 -3.11273040445141 0 0
123.734190727356 18.5046173723416 9.73903031982111 0 0
160.987647951731 -2.59759011239836 20.3175672756743 0 0
122.787114519042 -15.9656370177292 6.59146851414345 0 0
210.33185143548 23.090450118534 7.15077312637996 0 0
191.696257989369 28.6325659509802 13.9278443501303 0 0
173.181374999949 -8.73978673889585 19.6587720405835 0 0
22.4435173080489 -3.80176008553957 21.1518774316969 0 0
155.24993643974 -14.1853330737804 -7.10288552292468 0 0
186.050322996414 34.3339741361625 -18.7867104891674 0 0
141.680679780003 -12.2251802397019 -4.43024918438786 0 0
216.116276989449 -34.9500489775323 -1.49449591991688 0 0
192.723399438834 -6.46278313076317 23.1504367196493 0 0
59.4963075910895 17.6956619092548 10.5228090146656 0 0
105.83682011527 17.7565202070703 10.103823368784 0 0
177.34918913053 -32.9982317941069 0.462004578874264 0 0
48.8752995013146 16.6769755968528 15.658715589815 0 0
133.538174074452 19.066161113881 8.75226642530548 0 0
180.484453826181 6.07840967476397 -25.851447577483 0 0
51.9380196436281 15.2192430225728 17.635858714167 0 0
175.013991771425 24.8363630808912 16.8898936896704 0 0
178.336801448527 -11.5847561830225 -13.6933695354916 0 0
135.218628487017 13.9118030008835 -5.12461601779474 0 0
133.411626989341 -9.81921074210901 -4.79278538023704 0 0
14.1341340981273 -3.98344833523555 -0.677199589624668 0 0
40.894796796772 -1.3326324818639 -6.99062145180775 0 0
199.961850870243 14.1372458756035 20.8116628735506 0 0
204.752429492905 -40.8366627346482 -30.730242244309 0 0
214.376771769381 -34.4129901133937 -24.1315372616798 0 0
129.641031684805 0.122273568487017 -7.77097296005282 0 0
210.080622574789 13.7908677103231 -16.1206166107551 0 0
157.641587490626 -11.7938998973469 -8.50708462799691 0 0
178.076199734927 -9.25786481156841 20.3846125344644 0 0
206.162392454302 -32.1353530083221 5.65806161000495 0 0
136.694052705688 -2.73601890972505 -7.10147728500459 0 0
171.043121521237 -6.72963726911862 20.0603177345019 0 0
154.531572476017 -19.979475500136 9.4368639057576 0 0
2.24278239473444 15.1405467186631 2.60136500245845 1 0
106.185217604936 -13.3828974386117 6.2602649042473 0 0
193.502354963115 28.660395543579 15.1381998090593 0 0
200.483498853008 -18.1698903457462 20.6449129981115 0 0
212.08253400678 -37.0512661930127 -5.52571727926431 0 0
200.69610972001 31.3761067658553 -27.9474027725307 0 0
80.1094613062744 -3.51114690209269 -5.06835010764326 0 0
164.910567634115 22.2796280503512 6.09903013163767 0 0
195.102241953412 29.7199914321986 -24.8747148356717 0 0
181.385258852766 33.0690702913925 -17.496163992027 0 0
206.066567707717 -2.90740401676165 -2.32064629280589 0 0
136.151899433731 17.0661513491181 -1.07040569446827 0 0
208.61837471584 15.1974548300443 -24.917665974227 0 0
204.818697001227 -6.5142279225832 -5.50418882800873 0 0
118.950443300767 9.99244587382474 -5.76145576172821 0 0
211.528481389825 -34.9019366655461 -0.123624343843801 0 0
160.19061591548 -18.1457478848886 12.1945826327997 0 0
70.1125910280895 4.19676064115989 -6.36434946480653 0 0
193.218942139656 -31.4645049064963 7.68349528762017 0 0
215.813416934131 -30.0637031930982 6.06111124300791 0 0
187.251842007166 30.3236722200917 -25.334642027179 0 0
123.245201087531 -12.9886533045671 15.5372004965979 0 0
56.962616475782 3.39740629958057 22.710362966924 0 0
3.65712180628336 13.4400443037673 20.6103078479611 1 0
190.70198353697 34.2873753452155 -5.6809892115615 0 0
145.055352404042 -14.5143505682654 14.761933410542 0 0
169.680258810895 -12.3213117609734 -12.0513780502885 0 0
137.580776143511 11.9314762446461 -7.68190937486952 0 0
166.32099385911 13.7830567826298 21.9455243199698 0 0
212.157360080462 -13.6074251972962 13.5937793677325 0 0
21.8025369181197 18.8791791124526 10.8974940334466 0 0
153.871230252105 -0.812559559678837 20.6697163740575 0 0
22.673493838782 1.36280536042986 -6.91315425032513 0 0
213.261743192355 -12.8103583186745 9.85224427533398 0 0
132.691464118624 14.5336037217377 18.2207084105957 0 0
137.593642903353 19.3398604238761 6.97738541002067 0 0
203.126585817416 -41.8019026346396 -21.307382704658 0 0
134.037267258919 -15.1960903754292 13.6012386495242 0 0
155.826529646228 -9.12792783493356 -7.71834012715807 0 0
166.719386794514 -5.63211232678717 -9.61434714094523 0 0
188.205974836515 -24.2616929406686 14.1197272670442 0 0
190.417091095049 26.5628582548248 -33.1239155495979 0 0
188.51596223474 25.9159494857017 -31.8061298056362 0 0
204.146565747085 30.7957622230501 -32.6169769270807 0 0
199.097238601734 -21.0570681130324 16.735119746166 0 0
153.695728325969 -10.7717959478616 17.2793615195657 0 0
129.173963112117 -16.7111875300507 5.2158637927972 0 0
153.782748747674 -7.82373423904997 -7.29678179092549 0 0
104.885475891246 3.83972742989052 -8.15037137504191 0 0
94.2819880897788 10.7959722681459 -3.15359033924124 0 0
139.092527922868 14.6128656859424 18.3599099691642 0 0
145.30239368918 2.19230768215711 -8.59571944465994 0 0
177.178824630009 7.56492661318593 22.7116601659804 0 0
160.504521559695 15.4956362630501 -11.1245388237393 0 0
95.019743422688 7.93270992572917 -5.22214126550279 0 0
176.147694280137 27.5511410903562 -4.19772091595722 0 0
10.338501808376 -6.64131366951676 8.6110707036269 0 0
199.781383378776 27.0480729579833 19.2680000971703 0 0
38.9145456043826 13.9194667179772 19.3386431750564 0 0
39.8433607029378 -2.99680434368402 -4.22459327785674 0 0
146.403040673873 0.138117070840422 -8.24089963210682 0 0
199.861865385488 -36.8412264597429 1.92530820438783 0 0
121.95753807231 12.5435100374942 -3.79042469247954 0 0
172.205331955221 23.6342571759242 13.6387125185405 0 0
164.745261188161 -17.2688361044043 13.4670153594323 0 0
90.7720529416548 -10.1377841456393 2.70593697803409 0 0
80.7463828566246 0.617181625713068 -7.53290102049354 0 0
100.322240060571 -0.657536375796099 21.6573837674711 0 0
157.503304177851 3.11297310903903 -9.98594509783056 0 0
184.588972808884 -40.1920463121699 -14.9084886237674 0 0
91.4888920598944 -11.1340427413001 5.08757609170149 0 0
180.594053459327 -11.4934663953047 -15.4105051328535 0 0
193.543902740786 29.3382875926398 5.96004542348749 0 0
182.345487348021 -22.8823617986565 13.480569616683 0 0
161.190705569402 -17.430075721696 -9.01886209563781 0 0
25.0352747477067 10.8267926015923 21.5612552203425 0 0
165.81162643754 20.7924850172454 -10.1936682534355 0 0
2.07385288262072 17.3268399699864 4.84475388509714 1 0
168.992220904625 -22.6826799407118 -9.22899384897712 0 0
210.364979129977 -31.5209441476115 -29.3511860593909 0 0
172.650827405031 -30.0697795335083 -0.9491620879217 0 0
197.234690767441 29.343963295566 4.80722557594911 0 0
178.70009567359 -35.2860950028436 -2.75863740177319 0 0
149.257654733767 -20.5853080245377 5.07564652467422 0 0
159.632919848846 16.7385065666531 18.682121748909 0 0
200.621070512626 -30.3168169169834 8.64205121612228 0 0
184.311737868795 -29.8041764010926 7.98636298206149 0 0
181.954684876727 -15.1275067217296 20.0289902803729 0 0
177.973652303763 7.8509171827015 -20.015627824783 0 0
105.422160727375 -3.70323483140578 -6.221108219854 0 0
208.225851177159 -7.16980112809998 -4.92120082631319 0 0
64.9336822301337 1.95560618303151 -7.43438336695743 0 0
176.717296477535 -5.12958710803145 -11.1633322693135 0 0
29.8681423333816 -6.6778908923169 17.2696316636712 0 0
112.989505508546 -14.7478967123165 10.9355285406413 0 0
5.01664931852394 4.91097298001567 -3.98100091133426 0 0
118.575740172482 -8.30690293345599 -4.18084085748893 0 0
148.106505545589 13.9880972539576 19.277430294433 0 0
182.135647948503 -2.00463424558717 -16.7691965112579 0 0
204.133595695832 -42.0654352258426 -27.6798006104346 0 0
171.017057989356 17.2753251197891 -16.15168153185 0 0
29.4093563861162 -3.01447118642882 -3.23785337239344 0 0
155.069795928996 -1.95824017937029 20.3247476528442 0 0
180.854099960012 -19.6186182304289 16.2893921806032 0 0
212.365773317785 -35.641826943836 -2.07265672998498 0 0
78.1942222611981 -4.93008935816476 -3.78524603539478 0 0
197.95058052401 30.5181359819388 -30.1332567605218 0 0
178.224410380227 -5.68642104915897 -13.0444877708955 0 0
217.559480965592 -36.1687898716234 -7.093076128295 0 0
25.1305724369454 2.89895020992182 23.4281388878167 0 0
215.042086951198 -28.435069332557 7.79884358526328 0 0
109.659358319733 17.7026508423422 11.3295095553085 0 0
15.9060273242619 3.29734890451105 23.5842470388074 0 0
159.256411327862 -13.9420783316568 15.4589768421 0 0
42.35320160216 2.84001834769254 -6.51968122397555 0 0
162.025083856962 10.6990069557538 21.7817507296511 0 0
188.846164735185 17.693819986926 27.4330727812444 0 0
192.690265386858 -18.9957808857618 18.1288127913449 0 0
182.71571159704 25.6360509933905 -28.9092244728491 0 0
143.037109476771 -9.94446643863244 17.6907889348718 0 0
189.741090555657 30.2363798154219 5.10804836420574 0 0
176.524997544481 -18.9000974471729 14.7155151486637 0 0
192.436247530655 23.8510325648907 -37.6032763422034 0 0
151.043472981219 -4.63662285465582 19.6963161996827 0 0
180.391270809806 28.2954119579263 -23.7647142426716 0 0
217.571109532686 -23.5909382084679 -10.8293385634426 0 0
96.8254683267939 8.31632816645555 -5.13845624769204 0 0
191.340898199272 6.56984515796002 22.5797333632062 0 0
117.910021837574 -15.4020193987964 9.46017031102982 0 0
196.340805710721 5.98168332660719 20.1591072185735 0 0
208.652026447609 15.7566736712063 9.76305733509028 0 0
209.598768278763 -8.94316965318314 -5.24710347273335 0 0
97.2761768645755 -6.50726836082643 -3.57624525388005 0 0
215.907473143472 -24.2107514132446 -18.8374804492124 0 0
185.311226353347 23.5895335611453 -35.1629461827871 0 0
