"x" "y" "z" "f" "a"
8.49853622356005 7.9017207213503 0.441958306778671 0 0
-85.2270262414021 -3.08546076308709 -0.839737457278992 0 0
-185.168128848236 29.819971461633 -15.4665528374035 0 0
80.8378389237473 6.59365916873525 19.8204522125976 0 0
-131.369541966001 -4.1977201749211 -8.49643711907108 0 0
-204.318617049113 3.59566220340638 4.90037681668571 0 0
-140.842751620488 6.61381481013643 -18.5761092666585 0 0
78.5333420219762 -12.9099918197682 5.88601923463515 0 0
-68.320039450703 6.89299608259789 17.1534723863264 0 0
-201.035721017773 27.8844412339226 -10.5926880709563 0 0
-214.87229416094 -15.2887663786838 17.5069652807452 0 0
-172.455465082404 -8.64525810683655 -11.4816693944526 0 0
-119.753603586377 -4.83948102325927 -4.39322601194913 0 0
132.114757011878 5.17973258565922 20.3475473670947 1 0
46.5271579264805 11.49621032277 16.0448173718414 0 0
131.461583597929 -5.68926874748909 -3.3072359808526 1 0
-137.205599387397 16.4287168073026 -16.0344679456042 0 0
-120.094090341009 15.5019580262859 -14.5008118644089 0 0
-192.266458789885 21.0497889485278 -23.0089296423546 0 0
-147.194175634415 -4.88247331631057 8.03841572583502 0 0
-93.4635050019228 2.21124601646097 13.9638097251688 0 0
-178.865790654488 4.71189971777959 -21.4177757378479 0 0
-195.783762462676 26.7184534647178 -17.2193768491726 0 0
-98.1819088638735 18.1586942680747 7.67468690931906 0 0
-211.041362971732 -9.74853991471458 0.648628846020455 0 0
20.4637974497596 -4.31250487494165 19.9963583061853 0 0
-54.6387483814392 18.5452664019877 1.1482251037094 0 0
-107.623697344175 -3.14776974394873 8.17874976743326 0 0
1.71486187769344 -8.37537519906034 14.2990978223346 0 0
100.76209345463 2.61697072192831 -3.98582533338845 0 0
-33.8392068495624 -4.05037589788506 1.91803321212273 0 0
-124.220585211314 15.9376343311094 -15.2990488843033 0 0
-118.369448772589 17.790185435384 5.10488628477282 0 0
132.985050778207 -4.02046204043843 18.5728956851325 1 0
45.0448559129219 5.34478923274276 -2.04131597282801 0 0
-195.811419201693 -38.0964761205702 17.6396259912857 0 0
82.4554845544226 -5.47449184291429 19.3775593038607 0 0
-191.042903335437 17.0955962484419 6.90752933078935 0 0
-166.538709247305 4.86061116560442 -23.6982379302955 0 0
95.3799080340321 -12.811415967674 14.3449370556186 0 0
-176.717971605353 16.7001078913466 -24.208144717542 0 0
27.6115643336877 13.6509118333739 13.0773441211034 0 0
77.5146061788238 6.6570854897854 19.8567417478268 0 0
-174.747381969283 0.429780006962595 -18.1663457565367 0 0
130.624897486168 -11.474958010138 -2.1242264803496 0 0
39.5306945632081 9.76205695487958 18.4651964590728 0 0
12.9717157484439 -9.44790291657536 12.0113710950573 0 0
-197.509873909197 29.1148068798642 -8.84512248385905 0 0
-32.9284776469806 1.98510155040345 20.0554807315736 0 0
-119.752917984647 -1.48342844830338 9.49652028154418 0 0
8.47317576651632 6.06918179394581 -1.74694912588329 0 0
76.1038385447625 9.87595901775019 16.865135541522 0 0
-189.028239788224 -37.0524597613794 -0.803175506187207 0 0
-36.6293712556934 18.4428464887081 7.00439912231444 0 0
-197.336315844294 -39.7608216794687 -10.0003312472289 0 0
-108.981234538209 8.3605233280514 10.7551850352041 0 0
-192.533084950571 17.8734976584943 6.96979635610982 0 0
-191.148029089177 -33.6939665015028 2.77579075467987 0 0
-153.390801052065 18.3790896464997 -17.907421764528 0 0
-179.001738867866 -0.0807389380463957 -16.0322204694869 0 0
136.353974023041 5.54347797250113 20.3187182987155 1 0
-107.106165937389 6.19055107772948 11.7007970115496 0 0
-148.985426920071 6.7875288718586 -20.7532152654997 0 0
-87.9093646282517 13.291183733145 -10.7803229525521 0 0
-200.49636589741 8.04766813999296 -5.84781104290712 0 0
81.180191399561 -10.4404048657375 2.6672179447301 0 0
-188.18107901442 5.51734252918673 -14.7890530048116 0 0
-105.629389594214 1.64366521055886 12.3334964996613 0 0
-44.374461920559 0.00297420371359375 -2.37322053116758 0 0
-162.657659579584 19.2192784419426 2.70158888099027 0 0
-204.854923059656 26.2306335848989 -9.26696184119013 0 0
-81.862266058981 13.6217314412876 -8.53718348471995 0 0
126.243459029775 -0.996406473778437 20.420188931076 0 0
-88.1195702378689 2.1988004842301 -7.33412932691922 0 0
57.2890290625808 -4.94896826860965 -0.336616751627665 0 0
117.469032732184 -2.80013139283387 20.0244260400874 0 0
36.4824842557603 -1.00100559128957 20.945419002101 0 0
-173.851702901481 -4.06072552682789 -14.7411168413709 0 0
120.975646161013 -16.5552117562084 9.73454155815186 0 0
77.4133001640282 -4.02471745535564 -2.31427642137427 0 0
-123.966822729351 0.983130606921145 -12.2519035318001 0 0
-60.5595497094509 14.0813858345689 -5.03443225882786 0 0
-192.904231103698 -30.7223550745386 -3.67332757760338 0 0
-163.391125487843 -2.36884528219425 9.04157310821827 0 0
-197.674468223082 -2.29078101180372 12.657524217829 0 0
-185.663272562405 -4.37564978629663 -12.1936980902105 0 0
47.2169551482711 6.40736694215375 -0.390226021195302 0 0
0.932928226716882 -0.940230850554937 20.8199694608985 0 0
-121.777130743964 20.8601871629923 -0.186406710910145 0 0
-115.545421057654 19.4977085754866 -10.3194482083459 0 0
93.4278667555129 4.92996699907567 -4.0763725355647 0 0
-168.31142368311 -14.2089406033714 -4.09558473989012 0 0
64.5062006231052 -1.25415065842254 -3.66246125934213 0 0
-156.984987109636 -13.6768465302523 -19.7381739075867 0 0
111.061962734761 10.5236242752683 15.5067034061942 0 0
30.2539531073968 13.4494386620015 13.3000277796242 0 0
-216.822970049425 -38.5553426679485 -11.7522110817962 0 0
26.5777169735976 6.71557609011478 0.0617365849699932 0 0
-175.587051963696 7.93518827310388 5.77109013853818 0 0
-31.6727804297463 1.37841851538216 -3.40387137699127 0 0
-24.1931061136399 4.34749848230181 -4.88180274382546 0 0
-199.052229262581 -20.4737995573884 21.1053094016042 0 0
-189.42933823695 0.826375650658652 -12.7849660420899 0 0
-101.029020677853 3.52585303592882 -9.87636783776238 0 0
-195.376679695162 -20.9163336370158 19.1671401192701 0 0
-185.315648198925 26.2000115987117 3.20805904320627 0 0
12.7860440437875 10.5403818768044 18.7950329677504 0 0
104.360334503328 -3.81673316200486 -3.09876654888961 0 0
-185.321527184872 -13.843786758641 11.3124707597868 0 0
136.112531710415 2.25783600936051 20.809414532647 1 0
29.2305249322226 -7.31154817643366 18.4937463953143 0 0
-127.647612153406 -1.72300966359084 9.1024326251003 0 0
-207.961706959085 11.1825848405129 -9.77945752946639 0 0
-104.46278992386 -0.279241051102636 -7.76394170432964 0 0
-195.518864359365 8.96388789256364 -21.263705958887 0 0
-114.283396692914 1.78165892894718 11.296281599406 0 0
-37.5618804801239 7.82425237915523 -5.4722988150329 0 0
-41.6183661756435 5.17416523630159 -5.53823486797901 0 0
32.4455668689945 7.28148712698246 0.7931482347008 0 0
-16.8494177344317 3.48372235852774 -4.51954052324372 0 0
-174.293915714195 8.7033722045267 5.4033587660552 0 0
-183.342243740169 10.8964803175262 6.49900808975495 0 0
-115.945126339637 3.96743565720643 10.9505723766013 0 0
-106.9483600049 2.38012158662123 -10.0349021177074 0 0
-135.743703303407 -5.29440716783846 -7.68369091418921 0 0
9.49601931896804 -3.70942600217533 20.1166453585798 0 0
-203.7864334646 -0.564941021960006 9.10649850367504 0 0
-207.236467997474 -14.923763526481 -12.9314591359273 0 0
-91.7316112612796 2.47135338583226 -7.97754914330973 0 0
-75.6593732778067 19.3308683449438 -3.0772188922053 0 0
22.9884530450558 4.25909000287414 -4.05742213568811 0 0
-180.872639278669 30.0456715829747 -14.8156644121315 0 0
-181.169886166176 -12.5415109296209 9.90030727065625 0 0
-187.857799444366 31.3227900602917 -10.2655549677139 0 0
130.055689019237 4.77568668191364 -3.94867133819843 0 0
117.395166792355 1.34093858495369 -3.79349500490566 0 0
-87.4227044267509 20.6105330425648 -3.08508481253332 0 0
71.495147485279 3.17132083599118 21.1940264176724 0 0
-17.8738127398546 -7.00687821171115 7.39980274127988 0 0
64.1793430701884 -4.48790995852425 -1.94720292597889 0 0
-147.429522148696 9.02479606973603 5.34356488869825 0 0
79.1208319457591 11.089945584124 4.48019026246204 0 0
-9.85463167347497 -7.12826947670155 15.2649705329902 0 0
83.5372898306285 -4.88161291933838 -2.05331703237411 0 0
-112.462767303221 19.441253363762 -9.82524539971281 0 0
-182.029625085315 1.6962787371946 12.241814888165 0 0
-193.071221342576 -27.4569344882952 15.4428937101818 0 0
23.3833980056934 12.6099604078654 16.2517365778602 0 0
-212.185755448711 19.9923985820389 -9.32477150960464 0 0
-148.487307308622 8.80345950688532 -20.0141392654681 0 0
58.5214263239125 9.80489185642038 17.6617370534805 0 0
103.088649821715 -5.75849779106506 18.7350965675519 0 0
-184.95497629978 -9.71646125843171 -10.5095899781971 0 0
-202.276962462422 -13.9999676012328 -11.052688124457 0 0
-5.31736812712284 13.298702494268 17.0643050871951 0 0
-129.98600885019 13.7507232382615 6.18115964930617 0 0
-3.99379669644566 7.7327813335422 20.2093180632794 0 0
-51.9170311130013 2.21528112394637 -4.35115978044916 0 0
92.8769543339074 -12.8458976185303 14.3926512868084 0 0
-191.673196990101 24.4111332653127 2.5545669729775 0 0
-80.5285731297702 9.97519712688153 14.7241108482909 0 0
-206.625617256233 -7.82886887820511 -1.82615973820678 0 0
-80.5170983193128 15.4711468513599 -7.57885667046312 0 0
107.478032484559 -8.91534545340374 -0.547962240420844 0 0
-204.441622491258 8.57644729250456 -23.9793613768964 0 0
11.0876522626945 -7.23290996669806 5.12515200666735 0 0
43.4053942209443 12.8799208177606 13.0656776378533 0 0
-182.324683481127 -21.3440396400912 4.44836534876969 0 0
-206.832061694265 7.38260455840557 -18.5018267325079 0 0
-194.492346054352 -27.1243035505306 19.3823317846457 0 0
-217.468185149342 -8.86393412944235 1.18024702261512 0 0
53.3164979082536 -2.34649668132844 -3.29718109556731 0 0
-180.720507713634 19.479056705143 5.04893353147431 0 0
125.686876514139 -4.03623535999772 18.9437044081853 0 0
-195.439510379239 13.602480302124 9.68524023540897 0 0
-157.750482755006 12.4943031070314 -21.4321096108511 0 0
-8.37171011117382 14.2098425467993 16.0062414656146 0 0
-210.216326904793 13.2400275101565 2.50177361819432 0 0
-227.127634419908 -28.5530164977389 -2.56383648679118 0 0
67.1327637884049 12.2189077454982 10.3449180262329 0 0
-184.234401245833 31.321539494611 -12.1536864143525 0 0
-197.994440288935 -12.5282556598689 17.8567410422484 0 0
90.3187930951105 -0.136843388160428 -3.40153362846695 0 0
-204.729691141767 -3.54397743156064 -2.12904759676169 0 0
-127.679757918283 20.1315440653485 -12.1135614632305 0 0
-173.931785934345 10.5251406769159 -24.862923506958 0 0
-220.810982294157 -39.3310487895256 15.6316396890933 0 0
-133.129056488611 -4.96371995639541 -7.31049005362893 0 0
6.74856017661778 -6.70717404090445 4.1594209873515 0 0
-190.158742341668 27.6970769782608 -0.438425356540372 0 0
-224.494281500261 -22.9439489867341 13.6416463559636 0 0
-61.196733927688 -0.224256962439071 16.8961417888598 0 0
-53.6873743421397 13.8594358333889 -4.07490445842466 0 0
-25.6475480485126 -2.29784119368489 19.129416229644 0 0
-64.2732401513105 20.140907098345 4.20804663212285 0 0
-191.794665805324 23.1737125471703 -21.5761813536234 0 0
-205.225658047462 -46.3779541205191 -7.39504719467535 0 0
-173.931894578306 3.04935929057025 7.131900149418 0 0
-163.920565853181 -9.88617036662506 -12.7362479755506 0 0
-53.2073612773949 3.85740192774422 18.7770149565339 0 0
-179.177187121851 11.618288135718 -25.6541146940353 0 0
-202.614266020534 26.5687072382767 -0.449067960133317 0 0
-33.1833464795551 12.6307980915204 -0.472430713477411 0 0
-207.325680452979 15.8647945600639 -24.1685830278725 0 0
-83.63724362216 -3.83275403576385 8.95230063461153 0 0
-102.202191893949 -4.4885474343495 3.66857166194645 0 0
-119.334834182839 3.708440769531 -12.7651359155418 0 0
-163.051853497734 -9.81904237919211 6.35520905975284 0 0
-177.579506625585 3.10488544696621 -18.6471861895287 0 0
55.0117251341052 -9.58298634306984 4.61307537858423 0 0
-54.1085849352236 19.332323695133 7.37985083181284 0 0
-199.111153607579 -25.5634520966131 -14.4174882787393 0 0
-145.143805297194 17.8831619986129 2.86047112887125 0 0
-194.906947564757 -35.7815649007692 -10.0829024862397 0 0
-182.101509198604 -20.7334352760975 -1.2381594309408 0 0
-85.6278293297465 -1.81392583381285 -2.95961687603743 0 0
-190.671200521888 -36.8728974120243 -4.62513893663983 0 0
37.029263665479 -7.83624457054885 4.42676676670058 0 0
22.6028945573742 -8.27154080800792 17.3393675375397 0 0
-102.80867972439 -2.69880133722414 9.3445988318317 0 0
123.412991566136 -5.20785113370655 18.3031463012292 0 0
-214.554131289773 -47.6854074647054 9.95977937931125 0 0
-171.839755967029 -1.11204397567308 -18.1024360697034 0 0
-189.102135214556 -35.2986511423736 -1.18792479790554 0 0
25.892056416358 10.1033291047438 3.22812927284853 0 0
-146.579215888263 -7.83900119239301 -3.81270746838082 0 0
-126.386896039254 1.25093232253725 -13.3194820517233 0 0
107.404972253722 12.1566858974204 11.5565807194591 0 0
24.8322065659092 13.5693171051068 8.87433989972216 0 0
-187.851941680129 -0.698625764767479 -12.8854241893912 0 0
-160.811102442196 -0.33791758770408 -23.815518741606 0 0
-95.8289808413906 -3.18673520282038 -2.26521533532419 0 0
8.75959892331091 -7.8723988371839 6.4203831897921 0 0
-174.766275165622 15.6055569890309 4.03470554704163 0 0
-180.892300202198 31.3538644966189 -0.937797250148423 0 0
-139.412141176432 21.9687981190225 -12.0710170702813 0 0
87.9541250270992 4.00212171858667 -3.94214968958836 0 0
130.714646954764 12.1991521563794 -2.78143939931073 0 0
85.6363026529523 5.17076630172758 -3.47469654201489 0 0
109.031010649304 -5.77033115660582 18.5560300776507 0 0
-83.6651990765375 14.6329875621546 12.2883829183001 0 0
129.240390595093 -12.0077007795945 -1.53797300724366 0 0
-67.197712197484 11.2296636650527 15.8891120493643 0 0
-121.897595284214 16.7953253184095 -14.1727237306968 0 0
29.4248704426629 -3.84173390249802 -0.259197574232522 0 0
-196.122166937613 -14.1797630331106 -10.9769443294208 0 0
-172.292734989081 18.7141640819124 3.87664774193798 0 0
122.614867387821 13.6488406553113 4.22750545830921 0 0
16.4902785577983 5.99161533556105 -1.23503739793806 0 0
113.503969717275 -16.7336223653652 8.53002342631697 0 0
132.214501764455 -4.48087779825258 -3.52823384748077 1 0
-202.408938611757 13.3186888849905 10.1119605340662 0 0
15.7918953495834 -6.41982481501846 3.7051543374353 0 0
116.808356867799 -13.8205966694149 1.35947250653869 0 0
109.503888266673 11.0335544286952 14.5740147358223 0 0
-134.616414691874 7.75082219350321 7.11348581706345 0 0
-152.96496921735 -9.34126382613534 -25.885337425422 0 0
-204.125599322273 3.66810841955506 -0.51953453516536 0 0
-159.632044586801 3.1662896800337 -23.4350988881106 0 0
27.0426517994647 13.4422189116685 8.72559762623758 0 0
-155.62696500475 18.6629461560097 -18.2468052843056 0 0
-3.58846058915786 -6.08743416447537 17.5730331127636 0 0
61.3645868593703 -2.48827022251663 -3.34574163017878 0 0
-129.387903765264 11.3869463404219 6.715576890415 0 0
-174.527962938779 24.9902189123686 3.59198187071812 0 0
-189.575646148417 -2.11288908225986 10.1542356759349 0 0
63.9459445398541 -10.8584318347478 5.10794837485106 0 0
-190.584414497956 -38.5367481354648 -3.05410826653725 0 0
-206.813886365319 20.4763311324188 3.48111301064642 0 0
-79.433256940896 0.299129167364619 14.9592860339253 0 0
-177.026952359818 22.2027840776397 -21.5667701913301 0 0
-127.618183699078 12.2202887069482 -14.8491609307186 0 0
-66.0463790251107 -5.3288173856184 7.89226517294307 0 0
-207.432444396162 -47.6507912960841 8.58754619284996 0 0
-204.069808710151 -40.1706866183623 -12.8887960859951 0 0
-43.28104249933 3.23016728700459 -4.67653706085226 0 0
-96.1596965263236 -3.85373302082591 7.51408233574968 0 0
-141.926528673994 -6.50645767951317 -8.0751850914358 0 0
-227.464442205059 -25.0780668871239 7.34517219636404 0 0
14.4756776499902 -2.23463540933973 -2.03175778652825 0 0
68.170322888325 -11.8104919651171 15.267637487335 0 0
-225.956174749003 -23.6580789129268 11.1874878297078 0 0
-194.584791195309 19.0761728529458 -24.0297926246835 0 0
-168.314029664772 17.0208404084395 3.4123089026301 0 0
-190.404222474638 8.6412465218637 10.4514327422042 0 0
-57.3617632453893 -5.97556325034796 5.87709152715669 0 0
-93.7443479751887 21.0482692339758 0.984108850520386 0 0
-211.921928895177 -33.9990814872957 22.8492326181334 0 0
-158.352306339598 -9.93066246052763 4.58322139881674 0 0
-218.591869197934 -11.4622396172319 10.4988281926492 0 0
-198.80503420949 -16.754921067699 19.8845548533737 0 0
-211.607628517075 -49.2868956385187 9.32364848609079 0 0
95.7792632319461 -9.7549668454896 16.4357832670195 0 0
-205.850517999518 9.19786983463564 3.61708142272074 0 0
43.0686105940043 12.2738204619896 6.89163956516391 0 0
-196.837960146029 -6.39690887884029 12.8491999381362 0 0
-203.916107703252 7.11295514796245 5.31280775094202 0 0
-1.6262917329875 -2.07694739765107 -1.65165085198068 0 0
-165.549957201445 -11.821678561697 4.30500426089421 0 0
-211.840398013418 16.5161115095925 -3.79276427782551 0 0
-199.535120474633 13.1420412697609 -24.6321438662936 0 0
70.0863684443143 -0.349218851506801 -3.71645584292951 0 0
-153.947025434338 21.9463447758109 -14.7279811350493 0 0
94.8481012473198 8.50364082356897 18.0200257428023 0 0
89.1875720438327 -6.51161639622118 18.6423501094976 0 0
-182.095848836772 5.11394350036914 -20.5584938684846 0 0
-103.607131994908 14.8809082461936 -11.770054251684 0 0
10.781504860686 3.68124109760012 -4.71628166798709 0 0
72.4635647991019 -6.91914631635704 18.7324755067178 0 0
-65.7932725261835 14.8514116332644 14.0347493536615 0 0
5.4851937135555 -7.99166339264237 15.7699212041755 0 0
-183.009462714707 29.9918383356579 -15.267952390499 0 0
-146.663557072168 -12.4008835747364 -17.9685961545717 0 0
-174.862341718149 -7.9718042794465 -11.6883303171582 0 0
-36.1951051493809 0.797941728618492 -2.93712333128918 0 0
12.8608772042173 13.1692481797403 6.54380532933295 0 0
-108.416832549962 -4.20233543904691 5.4135062324479 0 0
-164.943825572426 -3.26325465765235 9.4042222301819 0 0
-181.235302978181 -9.97714853786212 9.81368007609243 0 0
-6.24639042778401 -2.79171428062782 -0.710725301904517 0 0
-190.444659575911 27.8633387736599 -16.6236267581089 0 0
-154.135912178558 -14.4015449771333 -16.8954674163086 0 0
-173.479155615678 27.682977212506 -12.7412556532662 0 0
22.9255929387716 14.1512959868845 11.9275335030006 0 0
-147.359816074164 -8.27968918030779 2.39639922681828 0 0
-51.9390248446313 0.268014734655242 18.3046928690547 0 0
-143.009099585944 5.43770628533814 6.85446012280803 0 0
-136.170814885624 20.7630261476369 -13.3878872368415 0 0
-203.245573102049 -34.6741558423364 22.7283461600242 0 0
109.616492403991 2.22787929815182 -3.90028924553118 0 0
-87.2741380055928 20.2865473647338 5.23637502543276 0 0
81.0532130299892 0.302212768478515 21.3106305805126 0 0
-122.502208927681 6.74273717994733 -14.1453498845906 0 0
-193.555450051107 -30.7791414644954 -6.15060291383358 0 0
110.037261110907 4.03521462680794 20.7188677676681 0 0
-76.9903496928203 20.2408506411822 6.52179810885169 0 0
-48.7336093713632 -2.25052238073913 16.8194137114024 0 0
69.657756664281 11.3558055696447 14.2962428124862 0 0
-196.763634668258 10.4722021336551 -13.630500676757 0 0
-40.2952983509338 11.7077030630522 -3.06417812039298 0 0
-207.064021756812 -47.3978801498967 2.94948074147679 0 0
16.7944401818566 -9.49173109768187 14.3274912160865 0 0
-169.116520347027 27.6951185465302 -5.94885060107188 0 0
-223.773211830358 -17.3001625180544 -0.802143743106896 0 0
44.1170948798036 9.21847482341595 2.85739690150112 0 0
-2.67835182730944 -6.86166442477877 5.138539537997 0 0
-184.134380866156 -18.0964360099226 -6.30643093638337 0 0
32.6488436921103 2.54430809360592 -4.70855916767707 0 0
-92.6551069353388 -3.15013134472758 9.41557761346915 0 0
42.543170419962 7.81229312605532 1.35298188447022 0 0
-209.741988417683 9.56308399885046 -16.5472155307772 0 0
-73.0220212450383 5.38935947820274 16.7507729949117 0 0
91.7890446691297 7.86129867791575 -0.848506270847498 0 0
-209.01294468636 12.8711011704741 -22.1305948115513 0 0
-173.894242207837 17.988589031494 -22.9538881721284 0 0
-197.641434325804 -46.2399056170914 -1.47079317531663 0 0
41.105664908149 11.8148703215301 5.8401676479718 0 0
-112.834170489415 20.735397602152 -8.49009266281199 0 0
73.8246489999974 -11.8449431120943 15.4772799835992 0 0
-131.447521745712 21.544672509161 -11.1052828363811 0 0
-138.950616538135 -5.64686817747421 -11.5438921736559 0 0
-218.095692649976 -33.9667420242402 -12.8580929518346 0 0
-103.832348933009 1.64194591020797 12.5330968869277 0 0
-97.793300188272 1.18399712554707 -7.85073682901083 0 0
-59.6275109637903 18.2619710620794 -0.64545932032416 0 0
-42.5165778062242 5.25869347676321 19.4174657196769 0 0
-185.808464643077 32.7487828079403 -6.21862620703814 0 0
-162.455879571837 -12.3149994441101 -2.71979198128176 0 0
-60.8616641941329 -3.09309730759126 13.8888159688964 0 0
103.918541401443 -7.08322858341026 -1.29167448709347 0 0
-201.01677903025 -16.8940328820883 -12.2979392847106 0 0
-203.921547084051 25.100508678032 -15.2064503529506 0 0
-2.75857366493278 5.34182092472759 20.7140567014519 0 0
-206.070074923358 10.8070538240898 -8.55802983859913 0 0
74.8694535339731 -13.7873364739227 11.6222677892665 0 0
-208.471882810139 -49.0972523865081 9.2180115492594 0 0
30.1465841109253 -1.46430811389074 20.8707231333175 0 0
-12.8150137884929 11.7454087025668 18.3147574906152 0 0
-145.624375696791 5.64854519095242 -20.223518333691 0 0
-204.905649910332 1.69133688157653 2.74223822395424 0 0
-62.8202614133096 13.6651183426144 -5.57378705636633 0 0
80.9296454993289 -14.3677735517959 10.5792684473918 0 0
-211.203535043898 19.093385141031 -0.780262987572434 0 0
12.3783781634028 7.64779864793401 20.3038435203204 0 0
-145.991447954539 13.2859470162019 4.55799768656459 0 0
-71.9092632488301 16.1424977007202 -6.00037487785046 0 0
7.51776837652635 10.0420438029897 2.30126586808647 0 0
-160.727736421256 -9.70136673521323 -17.8817449315791 0 0
-133.148711739159 19.4111047781575 -14.5554308032753 0 0
-207.054649820835 17.2312692788199 5.06357524245254 0 0
-213.70709907049 -47.399456364986 -4.33640153709174 0 0
116.986692334494 9.03717976161052 17.5571692868229 0 0
-169.989288246086 25.8786565495494 -1.03001210325938 0 0
-138.423571093145 20.5423752117661 -13.8666028562745 0 0
-26.8628255637217 16.9982426178853 12.6422695608407 0 0
44.3310923430617 6.36736368811836 -0.46795061368377 0 0
-147.185283887216 23.6950244632725 -9.13524179960427 0 0
-200.827428718923 20.7742686621803 5.86901010256176 0 0
-187.511024102541 6.69867645480364 -20.0380564141094 0 0
-157.505772959661 -10.0580218456995 1.659348732992 0 0
-213.044055052072 -12.7518315208841 16.127294122986 0 0
-155.036898370994 -5.54541658555245 -25.3309288722092 0 0
134.318017814893 -4.95544271753475 -3.59696345064082 1 0
84.1935519630268 5.74205480893745 -2.84435049053999 0 0
-159.065775998933 12.4294771397529 3.93960530649535 0 0
-153.990756657494 -11.2934963891051 -12.0262612819843 0 0
-96.9314910755032 20.1943214397508 4.11132684586974 0 0
-202.796138321732 4.94602572023899 7.34025892850962 0 0
-189.636991818753 -33.9957225516842 -4.78968968578441 0 0
-201.493198462015 14.8790796193362 -24.7182606321721 0 0
-149.089393401492 13.7175179930629 -18.9557179202342 0 0
11.1043061074475 -7.94220337955875 16.607015665966 0 0
84.5154413295365 -9.74452883496932 1.81872137346624 0 0
-220.724477891162 -20.8248388670127 -9.25727975244087 0 0
-142.537131595814 23.3649572074229 -6.99019886178994 0 0
102.703843025797 -16.1368172181769 7.80125466155001 0 0
-189.972001430808 30.5318357424952 -11.5787476935221 0 0
-122.153271310433 -1.14868529144879 9.59780825092241 0 0
-16.861906519454 -5.57926635957944 3.99422833223158 0 0
-67.1125120030567 -4.58856968424195 10.4486302973122 0 0
-205.278983208272 -22.1943977619773 -15.2624846060857 0 0
-219.740859323246 -18.9991262899948 -8.8917082043037 0 0
56.0348669451085 -12.4120283711767 12.7668286026422 0 0
-163.852599649827 22.6355704944225 0.394352748472672 0 0
-110.970024359799 -3.37355405020911 7.54371135044757 0 0
-126.16587793663 -6.05468331875936 -1.68008247099501 0 0
-151.698739903862 -9.01553963770648 -3.15760221906481 0 0
-215.408418076494 -21.6861532561011 -13.0808576249281 0 0
129.342497565778 7.36404830585916 -4.03425610096139 0 0
-17.5676059823635 16.8647376964857 8.49991203022472 0 0
-193.261941845979 -43.5573393186246 4.68860962616007 0 0
-221.978704750233 -13.744318533272 5.31209752651465 0 0
112.842458278442 -15.5046548439703 3.64881568250277 0 0
-206.035624123572 -24.6825258134791 -15.4779936881848 0 0
-149.424792765568 -8.76913870071832 2.66109920937208 0 0
-7.22556461148874 14.2241898827569 5.75560900507317 0 0
-114.608487400205 -4.77575339181163 -2.6174615096386 0 0
58.1450980774023 4.57951138663389 -3.64251267199653 0 0
-191.144260701558 -28.8024153036124 -1.8585293922909 0 0
10.4672914911413 7.41025861025014 0.0648719067509548 0 0
-20.8770007862303 -7.07266127875332 7.9460650971257 0 0
-213.27494376122 -47.6271339898502 -2.17668398779896 0 0
69.1371989523433 5.98565287020553 -1.3887876388802 0 0
82.6171509502869 4.91457921332495 20.5981224820389 0 0
132.727737962018 11.4418929792636 15.0322590974037 1 0
5.69221812894715 10.4272897145048 19.0459480419535 0 0
-4.7663198659727 -4.55982763823729 18.9325412633555 0 0
44.5383820763246 12.1269601021092 15.1390929712205 0 0
-193.358553500191 -40.3894585294575 -5.42467596969367 0 0
-43.8341575015164 15.8680336841251 0.379490315500056 0 0
116.231307104484 -0.606680082358458 20.8389972580498 0 0
-42.3092808154266 -5.80515241057079 12.6574913598234 0 0
-190.314155974842 -22.4169112429867 11.4838078268809 0 0
33.0891647866631 -1.4259300415784 20.8802700052636 0 0
24.3413093681731 -1.24766100000086 20.923251193242 0 0
-51.990488690343 17.9132708998529 0.902592045833803 0 0
80.1949960288321 1.04400332597932 -3.72153771886518 0 0
-203.588356183464 8.84091698721825 5.73755438839729 0 0
-145.343822713856 1.05607732458063 -21.6689960990968 0 0
-192.446730643073 30.9147136322291 -2.37983494229569 0 0
-90.7847800013207 11.4974892738547 -12.477135910952 0 0
-172.016549291002 -10.7032841660151 -9.83950262067805 0 0
89.60922267921 10.7363405628667 2.94987209415731 0 0
112.783783278634 -12.7663871787841 13.7940726754287 0 0
-201.314895286166 -10.5042489725665 18.1374432732271 0 0
34.4319718058223 9.81391566081894 3.30583383816321 0 0
119.689998105438 -2.4077959431155 20.1316527951986 0 0
-187.267240947194 29.5664559251433 -14.6227007312384 0 0
-68.1854850766965 -5.19488766092919 7.56352322209933 0 0
-11.7077007471401 -7.94391441105093 12.6357115684252 0 0
-52.1711829297953 14.8891057728563 -2.93703860432318 0 0
-168.64678143189 22.968481675083 2.02032731692653 0 0
12.8514351803162 -5.89470690022323 2.98586890120634 0 0
-208.53467447775 19.4450450835555 -16.5773837521687 0 0
-55.7401045415508 15.9210738197485 13.7585502185112 0 0
-200.720812088354 -6.97081173787763 15.929972348788 0 0
-208.259678420608 11.6944206379312 -4.41846456087275 0 0
-200.996925849492 -20.7664859994617 -14.8830990820456 0 0
-211.844279659639 15.1918292818691 -5.37199240009237 0 0
-210.937811673956 17.7176762971655 -13.8781297392266 0 0
-190.670945216019 -33.6850932886561 14.4964325462328 0 0
-164.655710353305 -9.87809659898342 6.80644782869042 0 0
-192.475719077648 -42.5352101710785 2.58709380305244 0 0
-164.17171564745 11.0678211582185 -22.7163398718397 0 0
118.193457882353 -16.6439524703636 4.30339337577267 0 0
-190.95613534594 6.19671268187848 12.3089008039192 0 0
64.1503092500261 -4.73075277760524 19.8359937925495 0 0
-62.0785888551101 1.65236573271684 17.6130920302668 0 0
-131.138055965547 6.12100716262953 -16.2913225783978 0 0
-9.15570566243179 15.5715355175945 13.9757707324322 0 0
-123.009141767051 -3.74062776802735 6.56867094433295 0 0
-38.9947735028234 18.121552719978 11.2164252773246 0 0
-176.041561758042 28.838000553395 0.00584437755878852 0 0
-157.661321676955 -7.16919518748555 8.77179187922176 0 0
-94.9588877156223 9.32674810899417 -10.3167818781922 0 0
68.9392265556203 -3.20576999516194 -3.05464049117022 0 0
-181.234782334844 29.0098852636897 -16.3659724968282 0 0
-188.095940553386 -7.64862932575921 10.3085942511677 0 0
-74.3955458709455 6.96603160210559 16.3378382752215 0 0
-181.140291627553 20.6373183200751 -23.3456750112926 0 0
25.1229363685056 -1.29510331480539 -3.82051300888071 0 0
76.5526789580213 2.06134656977431 -4.06744118786911 0 0
-109.250555290382 6.40736535309682 11.3429770421267 0 0
-191.418960765626 28.6651537448799 -14.8942963019629 0 0
65.2502700987627 -13.0717996557476 9.64996980557869 0 0
-181.40230794078 16.0321772639663 -25.2837130542289 0 0
-85.3908659896085 10.296322344103 -9.87670291878511 0 0
77.339168864625 -7.15122408541661 18.6069570942648 0 0
-162.636351398985 25.8977541334984 -6.30997615441573 0 0
-198.252977253877 -19.4092667317084 -12.9488986584293 0 0
-112.237832164727 20.8742544143539 0.567956680767562 0 0
-125.625313993816 22.4636346868468 -6.34715814188377 0 0
-208.835323153805 -9.106841251699 -0.225678535779149 0 0
-86.5727863402568 3.97811515190137 -8.27877621434181 0 0
-146.301100760869 -10.7567082013689 -15.0039147553589 0 0
97.4128633121703 12.285124361906 6.07324152984741 0 0
-183.18320154016 -16.0134935969935 10.2445185580788 0 0
-201.1451864454 26.7578719858445 1.31269714666779 0 0
-7.41850276453299 -7.21648119670824 15.3780424615046 0 0
-198.637338733113 -45.0283303862685 13.0580198509516 0 0
-201.978265880135 -45.1917233789748 -7.84584475824707 0 0
-5.22879804180758 6.76982296263418 -1.98704625759366 0 0
-139.337920544293 16.7991512106303 -16.19266059301 0 0
-60.7988241430349 -1.81181159970495 15.6293106364213 0 0
-217.861401564433 -22.7367587829269 -12.3641150748865 0 0
-86.4911561580874 10.5831036574515 -11.1557719403583 0 0
-114.513006314593 10.9087843353314 8.98481438159533 0 0
-221.785839269391 -15.0179674696252 -2.31635179265413 0 0
-224.917839397185 -18.8983214497234 -0.409089147696657 0 0
-172.688852826569 23.1803266139529 -19.8115801981892 0 0
-223.221664582779 -16.0001242660369 0.515741722766566 0 0
70.7565260944879 2.96619470145977 -4.16202421306633 0 0
-217.793151846625 -39.6540731037251 17.8238900309232 0 0
-212.545890552749 18.5172593997375 -4.24799215770535 0 0
-201.412357724184 0.610079420053353 11.027381685549 0 0
135.212695564922 -4.91429236567011 17.9049594347907 1 0
-125.644028617558 8.78329811514339 7.83761919316736 0 0
-95.4400211740983 -2.89140223706088 9.58218274727814 0 0
-120.059755621096 17.6935280874783 -12.8983983413601 0 0
-204.547612898176 -38.3499301522499 21.7002101201404 0 0
59.2550700616494 5.41256991458198 20.6433504325542 0 0
-199.859600392271 17.0919892837121 8.46480808574892 0 0
-51.8408764505462 -4.38540070433337 13.1223807837898 0 0
55.1127501448795 -7.72951109617498 2.56841159450628 0 0
-200.097789446185 -25.8954047867152 22.2461507982728 0 0
-196.872179576124 -20.0234547226501 -12.0465722424542 0 0
9.10647396291416 4.22782781806853 21.089079662055 0 0
-202.626037328872 6.6292892169214 -3.50015099834115 0 0
-56.1499930024933 -3.71118150404774 13.6079201118252 0 0
87.3493719161409 5.96424244821965 -2.66846713765454 0 0
-198.822273799554 27.7413646779081 -4.99694360474221 0 0
-47.7935931325944 11.6693718705041 -4.75252812214604 0 0
34.1628969963907 -8.5888858072833 5.9182441358119 0 0
-103.687493027548 21.2528607113132 0.165953527600097 0 0
78.8292951626374 4.92160380287669 -3.44518596678768 0 0
-43.3329841542604 -6.6578476800206 10.4185784054901 0 0
-189.120519014675 -9.956636725867 -10.9339316030393 0 0
-208.994988435986 -11.6546480770609 -3.72042342182372 0 0
-97.9709457794502 13.579460414174 -11.4502584294311 0 0
-228.137613591395 -28.2173727558177 2.60515845618951 0 1
-200.652952469074 -30.8260238431605 22.7379193291729 0 0
-110.672360617712 14.3967613577604 -13.2242061920653 0 0
-178.242504535551 -4.57270748112893 9.61274176247637 0 0
-209.876689248391 12.4556011528278 -9.76595257256811 0 0
-217.794670027515 -13.4460532283424 -6.70399878921917 0 0
-121.290109805147 1.91870150431618 -12.2110221158843 0 0
-186.744590722214 11.3140700192427 -25.4226982938484 0 0
-78.6603040574109 -1.99204527387769 12.8606544498808 0 0
-168.121503923789 -8.86417778190741 8.44783802037096 0 0
42.2605307615465 -10.8292248154745 15.3130191631179 0 0
-201.366019507844 -4.75384747394321 -7.64223072576937 0 0
-180.367655364672 24.8766401142462 -20.5617784653665 0 0
-154.257548136652 -5.58326272851292 8.67309547885824 0 0
-50.858305640156 4.10007557474649 18.949523572926 0 0
17.4742952750998 -1.73577178777733 20.7709168194167 0 0
1.9092162725356 15.2599409318705 9.29841900276618 0 0
129.776518677737 -7.48033236800405 16.487560544704 0 0
-206.659512211238 -47.1646926527511 6.61185933084178 0 0
40.7156207381801 -7.00922374122517 18.8542179493062 0 0
-34.1083560778832 18.0667177656573 10.8168805002046 0 0
-196.262325890364 -28.214183881813 -13.231965836568 0 0
-88.601536451116 -4.41280356730874 6.43362827835058 0 0
-102.401736082734 5.58118556673828 12.5666727948182 0 0
74.2187174614808 11.9762655227901 11.6385561224529 0 0
81.3979733529398 -12.5356540387138 4.83906058070633 0 0
66.5745593939693 -4.93277502804373 19.7553761416745 0 0
-117.01967213303 16.5433407577499 -13.2257777605985 0 0
-19.5206717203657 -6.30961862008934 5.6531530193808 0 0
-220.103474856516 -31.2157867913558 19.2709803206453 0 0
-12.896615839398 -7.11477744709768 14.8726832877299 0 0
-201.260056033114 27.3432614837783 -0.416938186277603 0 0
-104.601329722125 -4.27522484135158 5.42325965477821 0 0
96.4061484119375 -7.96798784770801 17.4995306339467 0 0
-55.5472179915844 14.2732548416538 -4.15034351109789 0 0
-85.2336477537953 11.3109505557834 -11.4351114582027 0 0
-89.8742161161503 5.25378555363755 14.5152395206268 0 0
-158.021839924887 -10.2156358297994 0.24839834764734 0 0
44.2524864384524 -8.09008880698807 18.2624004153534 0 0
-27.0576303687764 5.82262938108956 -4.82519232237288 0 0
-221.613424445362 -36.1668857846964 16.6357159101558 0 0
112.966475618873 -11.295404935967 0.0641137209182139 0 0
91.0641164241931 10.7467554725776 15.0098991095183 0 0
-194.073283221657 -44.3883456061108 3.15397626350252 0 0
-18.6562324831927 14.2208244880091 16.3606378545223 0 0
-209.520123910584 18.5688365599191 -15.2022387283168 0 0
-138.29240052279 21.7431870598103 -2.40654022985117 0 0
-104.958673969386 3.25850061887038 12.5064997203364 0 0
52.2631053571899 -12.0541146908544 13.1295042434767 0 0
-86.3901264648619 1.48174248415674 14.6707346192506 0 0
-221.598031351483 -39.8477914260515 -6.86315082985623 0 0
-183.587148182867 -2.43525656016841 9.33045116124529 0 0
-196.87397842811 -16.0276488632034 18.5211179789714 0 0
-88.8312091168986 20.9648243223142 1.57533473051084 0 0
-36.5278490757663 18.5009307034361 9.41017352366744 0 0
-108.788496894874 19.9423585681915 3.00380400157996 0 0
-159.345127660279 -11.3835074759853 -18.0671317818799 0 0
-194.58222833047 -11.7563073382312 -11.0453312074873 0 0
-70.2708159512853 -2.81028132411913 -0.0476046524157198 0 0
-203.731297013542 5.51223343654879 5.72350803606237 0 0
125.278652856756 -16.2331064158069 10.33842623547 0 0
-205.89531507101 20.1267113273808 -20.796216605039 0 0
-102.031815384668 16.1808701082461 -10.3260746535659 0 0
-99.5902329749035 14.6836681154447 -11.0220787533554 0 0
-39.2879517028452 -6.83308498860094 10.6416534089703 0 0
-125.669269919071 13.5148363318396 6.75849614000054 0 0
-183.221681119584 -19.8380845200223 7.67729194303138 0 0
-120.348472181362 1.07658932970086 10.5307405809685 0 0
-218.647532892837 -11.0257824872243 -1.75581035683616 0 0
-154.987341696425 4.33494270464756 5.99809876564556 0 0
-24.0222393116953 12.7132955099315 1.28798600982838 0 0
33.4179086014842 -10.1376273153899 9.04906685836091 0 0
-28.7912250542521 -7.16260697060695 9.74361973905499 0 0
50.8285724281539 9.91477845536148 3.58699286816264 0 0
-197.55473006594 9.11174894676834 -22.271801060358 0 0
-210.954011748744 -34.4257426270162 -15.3478003454219 0 0
-220.65306922085 -12.0606926013117 4.76367229573524 0 0
-77.6273737173146 -0.247831003692627 -3.94443575110239 0 0
107.641894839999 -10.659476695831 0.330815964441588 0 0
-9.5859536199136 -4.3159500384554 1.49316257870029 0 0
18.0277267885707 13.3447288503454 7.335916420252 0 0
-224.925960077643 -29.112085680193 -7.09513206410695 0 0
-148.766481516304 -6.36465639301635 7.50727780480472 0 0
-133.053702462111 -3.96981508715682 -10.3525324508496 0 0
100.30111821178 -13.573131288217 13.5291436193539 0 0
-220.993359998028 -12.7154952962039 6.60164540644333 0 0
-139.209716853087 -5.05745838390177 6.9100172035201 0 0
85.7792973803007 -14.0431971618346 6.39472389113001 0 0
-106.811526934538 20.7626022549445 1.35004364930043 0 0
-177.911393444024 28.90432265815 1.86184232918132 0 0
-177.762933911572 28.1278834699893 -17.0709223439169 0 0
-200.247542207728 -35.3741242480407 21.600746091795 0 0
-160.791234889408 -3.39531941776164 9.35161771399865 0 0
-12.9778810626063 2.65029235392337 -4.48932635827242 0 0
-159.824414533952 -10.8985364583064 -8.73447755317348 0 0
117.193657448561 -5.45693189609504 18.4177369885942 0 0
-206.649367367375 14.5042356942306 6.58722201643963 0 0
48.1279306965691 -9.54262865490446 5.45292349220382 0 0
-5.34623173887434 -8.2608534015488 12.1978353574322 0 0
-150.340190516453 19.2744743414698 -16.6097826421711 0 0
26.0789810620656 -3.37391966061212 -0.757680023410706 0 0
-106.931881841635 16.5343800801789 7.87356792284243 0 0
-187.39261584874 1.53560914016082 11.5614718881757 0 0
-1.29824948439767 -8.16804819424164 14.1936068040205 0 0
-201.681227837761 -26.8561851748279 -15.0316998638755 0 0
-192.587362965241 -26.1050434863125 -7.51785631240207 0 0
-9.65258071879047 -3.97461149056631 19.1311266423403 0 0
-204.136763025818 -31.0576418676365 -15.6666278092037 0 0
-169.70099704202 -9.26640711742998 -11.3623648928272 0 0
24.9303577352477 7.62497983816833 20.2473465271681 0 0
-195.163656801301 -19.5401681872931 -10.7387379441987 0 0
-26.9009554246936 -7.06594110678337 13.0383785778869 0 0
98.7452816015106 -0.508358815823568 -3.51028771326823 0 0
-195.864152567701 -41.3016824873354 -7.4428630770477 0 0
-149.053824764956 -7.92069434246993 -25.1500153948031 0 0
-184.223169308887 26.3362458153264 -19.5991886290799 0 0
-205.629028816899 -34.4898808156182 -15.4120635819138 0 0
-192.139628061574 -30.9472355206118 -9.38900108185659 0 0
-143.590604528941 4.81784581134868 -19.87101470799 0 0
-173.11149716855 20.1434071161306 4.13408226447891 0 0
-205.483585437813 25.439619897921 -11.1501728757971 0 0
-201.112307316493 10.8963071732624 -15.4718157942103 0 0
-198.947973673481 18.2657707708017 7.90636542004309 0 0
-210.787104133749 13.3821920223461 -8.26588604284916 0 0
-29.4894531456559 17.9949642564882 9.18794305411691 0 0
-200.371936027701 -1.12337524564308 11.9521975568908 0 0
-216.941568297515 -25.1695638864626 21.2824529497833 0 0
-106.342319698912 21.4617939461883 -0.697379394708922 0 0
-129.171746024071 22.6441402473787 -6.84124536363796 0 0
-2.04813639642716 -7.20987175622824 16.102844151594 0 0
-215.580740168725 -7.35989998869745 6.6536310326331 0 0
-223.751695444019 -20.2812288965157 -5.12012963409622 0 0
-151.941907240414 -9.34677511535427 -1.3428031421352 0 0
-190.33551292579 4.89653421419477 -12.3653947826444 0 0
-192.458163408681 -29.7352337623205 -6.88544093414141 0 0
-177.12711135982 31.4126212282294 -5.76985478448192 0 0
-126.58150857031 16.4077903923784 -15.6780026070109 0 0
87.5596014752251 -11.120753126207 15.9128530761617 0 0
2.92060514622013 4.61069123836278 20.9578069408397 0 0
-102.333503709655 20.2553741439215 3.29750208001731 0 0
-151.909347030522 9.27134319416215 4.92211315731808 0 0
-185.639840554414 -2.18193770186071 -12.9910410980468 0 0
-98.8851289820487 20.6779182790426 2.440114941256 0 0
-151.23537273061 24.1333636951459 -6.73839552529577 0 0
-181.561834974068 -14.6885171524992 -7.98094988783136 0 0
-217.692874886736 -40.718764333663 -9.76976390667282 0 0
-209.592001725038 13.5085249922179 -20.2606817968413 0 0
-11.1583388272929 1.0446125353211 -4.19912560861419 0 0
-194.923586289056 -21.5752765837913 -11.7405233554265 0 0
133.68823581503 -17.5015910014521 8.38504793796516 1 0
-184.268239348224 -6.00547742076352 9.31443374761574 0 0
-190.819294216345 -16.6013015524821 13.9135203057969 0 0
65.4481355117654 -2.93709075376635 20.5469731559982 0 0
93.9012811049966 2.24315722140672 -3.92229888192138 0 0
-155.8751718004 20.983070949124 -16.1403363100239 0 0
-208.484128230727 16.3597760434259 -19.837414661387 0 0
24.5913555558342 -7.15998474510928 4.50720169870984 0 0
94.1716557118597 -15.1477603473561 10.7767439427786 0 0
-161.684677488764 -12.0108239892301 -5.46432460015184 0 0
-157.791189795179 20.1384900998722 1.4856340282521 0 0
-154.336544896466 19.8306808826471 -16.9986239553168 0 0
-143.597911109729 2.43568215946943 7.73523108352027 0 0
86.2039609832481 -9.22813286425079 17.2052758379718 0 0
119.111654795777 -17.1074916782906 7.9450031456971 0 0
60.7452552412816 -0.0838954083223237 -3.851925203577 0 0
-186.211213753268 28.3415957297903 -16.9416417287076 0 0
100.839716467166 -4.14941240012769 -2.84539434801143 0 0
113.793656765687 -3.31128255419609 19.8927270358135 0 0
-206.288151721889 18.8275770742218 4.58547765270637 0 0
126.109716249333 12.6092289021997 -1.12318502310755 0 0
-155.255193154438 -10.1117926756788 -25.2766826407623 0 0
15.1735349988467 9.09311064887149 2.15728434767519 0 0
-65.9456524209726 6.0064532604582 17.4407034465638 0 0
-0.517090221186575 4.22721026526721 20.9274526966605 0 0
-153.29613070407 21.9313653798357 -1.30963503796099 0 0
-203.377731996796 21.6365778531165 5.01567537897516 0 0
-190.684253802363 -31.5736277341799 4.30249607703395 0 0
-129.949303670068 -2.4142806746555 8.77732837907894 0 0
-60.6688564512089 17.2063396247929 -2.64171013771151 0 0
126.993873666214 -17.7768448937991 6.51735367029156 0 0
-204.02423049649 -23.6194477929286 -15.1764650082267 0 0
51.1898262531822 -10.6091617097978 6.76646559644544 0 0
-158.555378941319 -12.1581540418445 -14.9465909506932 0 0
-192.883443429468 -25.8645677886453 -11.0427617796929 0 0
-203.036328917171 -0.713485019736693 10.5033422710708 0 0
32.742371830437 -6.3799877714571 19.1215581300583 0 0
-129.126430723883 13.829060773126 -15.1375208119457 0 0
100.391042937166 9.59589702451023 16.7378116598729 0 0
-38.3311314256542 14.692104054129 15.5300117366925 0 0
-88.4878132320729 15.2773053370313 11.2711964016517 0 0
-219.358586183453 -44.0220737713436 12.1428203556009 0 0
-117.691565713186 2.25465032184335 10.9024981717683 0 0
-176.107874244239 -1.25893770742574 8.38184931580885 0 0
-80.6742956275832 4.4165239607336 -7.91638653127427 0 0
-213.436805280014 -10.4264985526936 15.1928339693836 0 0
-42.2006999174974 11.5360202016385 -3.66806721099752 0 0
-220.753675371925 -44.017168007872 9.69893052121025 0 0
-37.6632129135487 -0.766829535367305 -1.64682511498056 0 0
-176.354638462363 1.94236292065128 9.21748608343863 0 0
-54.5728578459921 8.6984876841426 -6.61830134579517 0 0
-22.4358459110571 1.55569829592452 -4.05513590890856 0 0
20.5276257725459 5.35599826386643 20.918143190584 0 0
-195.887887050787 29.4142873194945 -4.94303316867278 0 0
-192.62541901399 8.08148484109197 12.6353372721604 0 0
-115.911473410093 4.94541076713194 -12.4938179323802 0 0
-154.183795179342 9.22818188934771 4.80384962757983 0 0
89.1343584375093 -4.19922006691343 19.9313488372939 0 0
-169.927701960501 -8.68514604913629 8.79442081763217 0 0
-201.467916390435 22.6200115254367 4.58475158881509 0 0
-130.535287019787 -6.41974193362517 1.55602653844052 0 0
-42.8046537264303 -6.21692731128836 6.68680420254111 0 0
-170.402702880546 27.9997079090923 -5.49556102604946 0 0
-171.415605136165 -11.0618301648325 7.66819865760278 0 0
-186.006248821541 20.381117387417 5.74582275807904 0 0
-148.101655255165 3.04810156947454 -21.7997480042694 0 0
-208.759673542948 8.45344182919989 -17.9492037791609 0 0
-212.948089283799 -13.2940072053705 -9.26555568148549 0 0
70.1039984821062 -12.7563050483596 13.8001290435722 0 0
-59.5994807122461 11.1815314637622 -6.80992818729134 0 0
-203.503319902635 16.6849773983609 7.58835930195865 0 0
51.082164938649 -2.97292810650876 -2.28893179929217 0 0
-149.022242277225 0.120847488265194 8.17515247199155 0 0
53.3195459188892 0.672645952263832 21.293724193732 0 0
-78.1537466089408 9.53202373301422 15.2105715165222 0 0
-208.342190819972 -34.2315271461259 -15.6144532210327 0 0
108.482097730576 -15.9349996470952 10.5706560326034 0 0
-195.375635101632 -4.96826739327331 11.9628464912962 0 0
33.0797974851391 8.89704592663912 19.3595140102451 0 0
-158.575748886688 -12.2291338862904 -19.7764821084969 0 0
5.40667579561143 -8.94555248802864 11.957684781902 0 0
-72.1549839604553 -4.50890469355576 9.48270795019649 0 0
-146.823499267566 -0.267740691454046 8.48615709214878 0 0
-205.636459101805 -49.9687890776458 8.65768022377162 0 0
-167.091560744129 26.6352264163765 -10.1916896686409 0 0
-58.6423934567717 -3.12328426128063 0.969466934981635 0 0
-179.407143373886 23.8792910064743 5.45673446682892 0 0
113.997356583946 -11.1115994542653 14.8467685400861 0 0
-144.233575888655 -2.9683518372407 8.65077185370756 0 0
-193.242600679691 27.7117334659593 -16.2415181619752 0 0
-146.519815987835 21.0320515584269 -0.58019569943509 0 0
27.237751525498 -9.82438439835536 9.35154546786822 0 0
-169.20375094309 -10.8675168969905 -9.75477812649314 0 0
-171.957151689483 15.593490059232 -23.5156791300884 0 0
133.044092940612 -6.6277901080921 -3.28582878028637 1 0
-170.154472025044 -6.22937579462909 -14.1482521802623 0 0
-29.4610285450531 -2.40048636228266 -0.173415132042976 0 0
-131.993601116621 18.9594119726869 -15.0737040213981 0 0
-69.7470692581688 16.1006905226371 -5.59958877932067 0 0
-9.5194275694509 10.5246826763413 1.13101240939584 0 0
-208.787890554027 -8.34759015749118 1.44214938325238 0 0
-137.793651969807 19.5659950514434 1.25405092697321 0 0
83.024974146802 -0.664864509643003 -3.35739858711229 0 0
-162.878510977479 1.44414648248104 -23.6169290138737 0 0
-187.242862849564 9.99146438574182 7.95394301098374 0 0
-201.355375412948 10.736562000881 -8.21688090205732 0 0
-117.098239188648 9.72649005023576 -13.1095084890367 0 0
-65.9053935536847 -0.0966270293214819 16.4479298171648 0 0
-175.139620267018 21.3440785930497 4.59064577107775 0 0
-120.217874581218 8.6090826669858 8.73316362728852 0 0
-33.3024204838455 4.89322655174604 -5.30819299870256 0 0
-192.065476322497 -0.229490543520879 -12.1494542414658 0 0
-162.04536323211 -2.93395120739731 9.03590314764123 0 0
-54.3806850066648 5.265971119558 18.5180245895372 0 0
-173.547215543111 7.10615165833528 5.67256690922972 0 0
-166.76398620456 2.73449855410636 -23.4784875837422 0 0
-144.769052485131 -6.28025856928886 6.2919058095335 0 0
15.0478699477124 13.4169159865972 7.3121757584422 0 0
-104.163390820039 -4.46944414084659 0.308845225387803 0 0
-44.1712178868177 11.2812791934758 -4.29501835249567 0 0
-176.053642269501 29.7325712742062 -2.36870294369245 0 0
-6.90006075727948 -8.03024548454503 13.3363264268986 0 0
18.2391516837001 7.31816892231246 0.507929812062061 0 0
-199.43249453775 -1.89752165193393 -8.29185392379007 0 0
-213.029715850282 -46.3929976493486 -6.48110877790095 0 0
-205.916867075788 -46.3326936437227 14.3282958074551 0 0
-62.2868159864397 15.6734908116363 13.6368711389711 0 0
