"x" "y" "z" "f" "a"
-40.9965364016674 -3.89093530028271 -6.69710317217432 0 0
12.6761752997848 7.6871008596121 13.1269677432079 0 0
-161.619073528386 -10.143022792862 -24.1958650383834 0 0
-166.895522526164 14.2470347411037 -7.10131505306881 0 0
-185.070103443175 -21.7002048541941 -23.4135211156353 0 0
113.855789899971 -2.03835591639106 -6.95202565505121 0 0
-128.205748685468 -9.14941785772315 -14.0978295658304 0 0
-129.329094584444 -23.2088089661369 -7.16536055331866 0 0
-179.063126682463 -5.08784319747776 -11.2739308846211 0 0
55.1094551803414 -15.8952728388106 11.8891096685843 0 0
-0.538643197754824 -1.61870340039051 -6.99340746855456 0 0
-207.217755355946 39.657704040154 13.099953163018 0 0
39.7391781215084 -7.44340764908718 -3.78608337490204 0 0
107.373273538185 -12.1388645933084 15.1839606261314 0 0
-137.858753850198 -14.6728262162971 9.70059397682636 0 0
-78.4366573263417 -14.0762409202047 -10.3652252731553 0 0
-158.16515521767 0.423783910843067 -18.2897237870132 0 0
-189.029426682146 46.3050826494895 7.19437981030956 0 0
-137.499197415227 -3.09793492562465 -17.3365443932389 0 0
-205.950106970077 9.81963317937298 3.67326814912835 0 0
48.3947577750737 9.4179692721363 11.0361871704759 0 0
76.6235905514156 -7.98306597470788 -5.73143272052435 0 0
-170.371680694591 6.09262267200057 9.96322412985508 0 0
-133.411661608791 -9.62796519024002 10.5235025259554 0 0
-195.898337753607 7.61632976349024 -3.25907154190731 0 0
-180.497282703337 23.6270481917493 -7.68388304387784 0 0
-186.515097806623 17.9711947292038 18.371164360915 0 0
-204.150550167175 10.28534890539 3.47555178784609 0 0
-136.021011556236 -23.6012250329835 -1.62185254642554 0 0
15.6517267870872 -6.45064874573359 -5.0073405075118 0 0
107.851054257762 12.7394738135491 11.4251012069967 0 0
114.412675014037 10.6893346737284 13.9105621275937 0 0
-61.111582170822 -18.0042257088593 -0.198688853821772 0 0
-154.68758462685 -6.3381120499785 -21.4862395677723 0 0
-188.300613478061 43.5755246361495 12.5493944155119 0 0
-178.091253420405 35.4307779031668 -4.88980069741977 0 0
-136.4768357522 1.46921527355875 -17.8588463030159 0 0
-67.167083708104 -6.0800011654364 -7.8034204321184 0 0
-208.498786494666 41.9786874795246 7.84556049922642 0 0
-183.382050944832 -4.13553445430748 -5.12390139219609 0 0
-214.250454625561 19.9564709147434 2.88711280124541 0 0
58.0109323216865 -10.4199740962703 18.8444196596697 0 0
-28.0993975488408 -17.9978603328606 8.87154045457917 0 0
-177.214785863532 -33.3453804984415 -2.84123264150887 0 0
-193.462122142613 -22.1261152298287 -14.971568546174 0 0
-177.645489818363 36.0764623226842 -2.93295531243986 0 0
-196.206075379014 -22.5083038679885 -6.03733375469725 0 0
-205.036132512948 30.0642271406146 19.9905190071074 0 0
-186.539206176877 3.99293565508423 13.8464787971987 0 0
14.3433182758704 8.06029727123508 11.2831082539075 0 0
85.812393628448 -12.8113784890866 -1.42056306495979 0 0
-164.999866181103 -5.22620150459787 9.55788231987328 0 0
-49.8962644924286 -11.7710958164595 19.4792531935302 0 0
-143.367589808429 -4.89654900856298 -18.9688947544968 0 0
116.985910956036 -9.64309922965758 16.7895868397959 0 0
-134.612672612347 -2.75694172722302 10.7163017680889 0 0
-185.849739719451 -12.486410761665 -24.31397152434 0 0
-49.7217123568522 -4.10636499277941 -7.05597636162885 0 0
-163.643755171615 12.6973272736667 6.65009161256203 0 0
-174.414633261556 -8.9624936772915 -20.8503747943882 0 0
-36.7913263985131 2.68957544857056 17.1200630813017 0 0
-131.073215948796 -23.2650680777578 -1.41221573094543 0 0
-187.362400714331 -21.5208273619301 -22.2413853469138 0 0
-159.600382441505 -15.0486061630791 -23.6050009849242 0 0
-144.522818562877 -8.33252672435485 -18.7846967415874 0 0
99.42546372611 -10.0535185565733 17.0892421986728 0 0
64.140095735038 -4.38740038034299 -6.69698970317623 0 0
-179.749300996909 -10.1323632811837 -11.2892202463872 0 0
51.578429394851 -3.33919827684418 -6.58924323012971 0 0
-166.369756034312 -14.3319816716219 8.29767870820181 0 0
108.882432293637 3.27417184783982 -5.19989589448216 0 0
-123.852855047446 3.9732985267748 -6.16189732420675 0 0
-47.3812740958826 -2.47928083940367 -5.95292221679866 0 0
34.9582718154154 -8.27204494282748 -3.01082702170135 0 0
-78.3902713254134 -19.4171367478037 10.0252275052077 0 0
-74.6912764352438 -12.3378327524953 17.781314757195 0 0
-165.750289016996 -14.9320785451093 -25.3433489267961 0 0
-135.328364757199 -23.1903813276551 0.250043894707648 0 0
85.4976601921202 -10.5580017377933 17.5855698074528 0 0
-3.46851694747397 1.22762566951073 -5.33342172923839 0 0
-134.839034692648 8.21523381408817 3.37425241426208 0 0
103.038723361148 -15.973635053607 7.93413033875454 0 0
-198.12674102372 31.8252332721117 -16.8194989552164 0 0
21.397611028685 -7.32138887434315 -3.88941705714537 0 0
66.4797801519895 -6.70809751969018 -5.88644872959952 0 0
105.806468688001 -15.3579781483332 10.2038529486595 0 0
-170.535024966358 1.41249216362304 10.234170926491 0 0
-60.1093471419774 3.95246926845814 0.489841012005608 0 0
-163.194915684117 -2.68100328987738 -17.5214599802259 0 0
-136.532341201324 -1.91844992085655 10.3398478190727 0 0
-170.483372410643 8.17739730225424 9.54608729102713 0 0
-31.5013633015176 -8.71723991562276 21.0093291077126 0 0
-197.418263180005 9.51758302294742 13.9616147004175 0 0
23.1116085771763 -5.41191238897185 -5.62882116393722 0 0
-24.70558559608 6.85355053164762 6.75799638673921 0 0
113.797057807767 5.98124698495242 -4.27950647250768 0 0
-206.731423410107 40.7249359796475 -8.31046424522434 0 0
-159.89177484568 -6.33827268181065 8.69976992541354 0 0
-177.890988305249 32.3854870694936 0.139056220981459 0 0
-73.7334285417516 -20.2909445554131 6.18723015363675 0 0
-34.6255155438522 -1.2283599421921 -5.33432657270655 0 0
-80.1805184863243 -18.4988590369854 11.8201646314872 0 0
-25.1978144145641 -3.62491924020359 -6.64181111503917 0 0
-139.997778167797 8.74030981779731 -18.4581238811315 0 0
-126.213827371639 5.94241205036265 5.69885378246725 0 0
-9.84169679536123 -8.49910051966973 21.307536407673 0 0
45.9745360401536 -7.07491042507928 -4.3786288149341 0 0
-45.0447513630905 -15.496137201023 -0.602167805547816 0 0
-143.908031514 12.0743378059864 -13.1942671907872 0 0
32.8516355628437 -7.43295072148953 -3.69046948821448 0 0
-196.265728322208 35.5916449017544 -15.8455751398813 0 0
-24.8010166910189 6.40551648099785 4.46533202054301 0 0
-61.4640821948547 4.70531541150096 1.71311130002669 0 0
113.802990725468 1.98334517962146 17.6347964817295 0 0
-81.762926343008 -4.22778159414015 -6.92857327715723 0 0
10.4024430225016 -8.38403197254357 -3.09927804816476 0 0
35.1017789147999 4.25323612860123 -0.107167891244046 0 0
-83.1178053130511 -18.7012894676467 11.4294136017575 0 0
-49.7978955943813 -10.4765370538889 -7.72113299714332 0 0
-209.742285567086 36.6436064552284 -8.58992504800715 0 0
-73.6905293020179 0.609159948421178 -3.19353742235183 0 0
-2.05162667057322 -2.45485397343883 -6.94234506775351 0 0
4.18552019616196 -11.8747485831831 19.9800829416835 0 0
44.4940649585364 3.10540723619923 -1.6365680933492 0 0
-54.8260798238262 -6.16181475525119 20.1728547183169 0 0
-197.708953156523 44.2081732190444 13.0564889827273 0 0
-147.84893198149 -11.3522814923856 8.77589229345013 0 0
94.416094208773 -13.8962470842748 13.8480448942547 0 0
-33.1475624550753 6.33345618544734 4.72858817249889 0 0
-214.898560405632 24.528045167786 6.48625702695944 0 0
100.545875628409 -15.9391121236472 7.92470545038369 0 0
-155.226344330658 4.25785140236489 9.29724275331023 0 0
-99.3864991219735 -10.3476672030519 15.7830323842307 0 0
-193.89791449422 -4.3539913903484 2.92019513813746 0 0
44.5670404042794 -0.863955923435002 -5.72402698623406 0 0
-190.344565113737 -16.1433235032632 8.41501857487733 0 0
-37.7526096080509 0.585224712126576 -3.61764232185731 0 0
41.1812280218491 -15.8495251678702 13.5511395299747 0 0
-174.326616437143 -11.5319744207097 -23.8217410755965 0 0
-189.323607030518 4.25676203759624 13.3053730905706 0 0
-211.409339932399 40.6243499715195 2.43289961950204 0 0
12.2183391681874 -5.51273184300685 -5.96623897269981 0 0
-88.4186446729051 -14.8497197986851 -11.2902154573397 0 0
-174.277276875916 -8.86451523429077 12.0002331241991 0 0
-208.991307001909 40.5453228676303 9.52174377510408 0 0
-42.7970509446754 -16.0445673495786 0.905316708888183 0 0
-152.790977825555 -25.8308719823857 -1.4879052797821 0 0
-45.3744806790698 -1.18527113678708 -4.87373957452788 0 0
-165.2443662818 -32.3037058623576 -5.23336305888961 0 0
-15.8934362524392 -10.6218626758421 -2.34821308957952 0 0
-94.8713610832641 -20.429149537055 6.59873112919392 0 0
-23.582492507383 -13.7081177567487 19.0010692644901 0 0
-214.633023464072 26.7907059238819 -3.57981095920409 0 0
-89.386375964664 -18.0798287673804 11.9836953999689 0 0
-166.219618725503 14.7985083666578 5.75301485477232 0 0
-4.26126487561851 -6.80957045184834 -5.09991947979827 0 0
-58.9479305012017 3.4629159917501 14.0900637486274 0 0
46.5995711385578 -0.554317076301698 -5.48208524705543 0 0
-160.730971758743 -4.27867966442187 -19.658022079602 0 0
-98.8692955530548 -20.043558340877 -9.15259957734306 0 0
-117.034085249744 -21.9601046295151 -8.80764919489106 0 0
-136.417615793773 6.70629838137594 -10.0595609023005 0 0
89.824827182041 1.32937579760788 -5.22346910252958 0 0
-214.489077709323 30.2966722490867 -3.47852369993235 0 0
-35.9293435677145 -13.880951782983 -1.26151216015359 0 0
-21.9552997783651 6.4665922412879 12.325983448844 0 0
-75.653113191245 4.08996963160418 0.512623044275262 0 0
-208.883724453985 23.6778847616777 -11.7556000024273 0 0
-192.856238297363 4.63254252783141 -3.30337773292684 0 0
-176.566579552569 -27.8140957951805 -16.5092024626997 0 0
-176.69775292625 15.3058915281686 10.7253298909617 0 0
-194.772899831681 41.627160522947 -12.1005203729689 0 0
-195.848330244628 5.00336516801412 10.2113756832498 0 0
-195.844827109882 -12.4418905514054 -8.89474453212358 0 0
-182.200680340108 36.756803186755 -10.0089899332917 0 0
3.65842051150638 -8.06419151928318 -3.48595159452971 0 0
-167.612625652233 -7.61135963313295 -22.1193746268094 0 0
120.732084644209 14.0897205542999 10.6426632121293 1 0
63.3748986719087 -14.7283273746116 3.1077888658625 0 0
38.7218774432709 -14.5295457717434 3.77292626919284 0 0
-205.213641817148 10.6669993091842 1.81803512467357 0 0
97.8093301075703 -14.7533795365109 12.1243904509797 0 0
-155.298002051628 13.0993763880846 -7.08079783622389 0 0
-182.244501001522 38.0320664576933 13.4505716378941 0 0
32.0099367490389 5.32030256697151 1.31930479159185 0 0
32.5514532059187 3.42189599705107 -1.23395394065901 0 0
-202.182381545007 11.0728096447192 -2.2789832028642 0 0
-166.021850342904 -19.5316176292272 7.58902559426492 0 0
-197.523010051443 4.61221217800488 6.26849188682891 0 0
-41.1923930332711 0.878209391842749 18.2726632056471 0 0
-134.42539871111 -0.398213977387253 9.94665419834325 0 0
-163.003594645402 -11.8971724784977 -24.7490248276056 0 0
-134.529967449334 -10.7778860039827 -15.9105511273115 0 0
-180.53007035326 35.6054859167273 -9.13045028489626 0 0
-165.144138096599 16.2063110250194 -4.65894920735336 0 0
-159.463469824007 14.2256414924016 1.89629072113286 0 0
46.368596347158 2.34193462633502 -2.57825244320946 0 0
5.61443765545094 -16.3340528482176 7.35359592584207 0 0
-4.53053996283898 -7.01164558599061 21.6093144357437 0 0
-180.469621661923 39.3359209855222 9.30316259846828 0 0
-192.611611676468 9.69138103818674 -10.1765393932365 0 0
-189.661270974692 -26.626651820695 -2.76445769726823 0 0
101.819829459464 3.07554705922601 -4.91217281678229 0 0
-207.994400676542 40.2092161378362 11.4391045607706 0 0
114.740312979448 -15.5563149444362 -1.29028801679907 0 0
-172.973039189218 4.13826092398697 -10.6787725933092 0 0
39.0032473045731 -8.96636266748545 -2.48921844495609 0 0
9.26610596198647 7.63736625704502 12.6673798696135 0 0
-182.62987631735 -22.7523724573973 -22.9349787134777 0 0
-198.52180959237 23.045372013224 -16.7274976868445 0 0
-123.067377540487 -11.1345103833435 12.1054418769792 0 0
-31.0990447185103 4.34678717031018 0.248214160554295 0 0
-17.1583301538314 6.99295300899846 7.33885498657363 0 0
-200.616077708497 12.0659948534874 -5.79487445262291 0 0
77.2202393969395 4.20902498382299 -2.74882664499576 0 0
97.9089733000398 10.0378701259724 14.2451248190033 0 0
-107.080265603914 -16.4762678467325 -12.3477241675592 0 0
-31.8609483380893 -9.42286110516876 -5.85779174896294 0 0
-186.885099747082 10.610589810975 -11.6533991800921 0 0
-214.148879694129 22.234671348079 7.84978955106216 0 0
-2.79850572189498 -16.7126023391728 7.8464947247075 0 0
-179.403066816212 -31.4392861216038 -10.371697778662 0 0
-178.331696287728 -24.1970106439496 5.16298551474841 0 0
-44.0289312049923 -16.8435139572594 2.37062704228015 0 0
-157.623794944459 -27.6145307566164 -2.26636820710293 0 0
-137.459307364213 3.34423523809153 -18.4727342943777 0 0
-176.265795438818 19.3898109527269 -5.51602605106856 0 0
-82.8124183923398 -19.8498360917118 -3.87212208311655 0 0
-16.4675267293207 7.03745458374286 9.7106402997032 0 0
-181.665927151531 0.0401213551429333 12.3977850019721 0 0
-90.6074463604343 -14.7819865968592 15.1511410584135 0 0
-36.0514150502353 6.02117264718715 11.5790103819142 0 0
-119.90105026035 -20.2352367820588 -11.3594631136727 0 0
-196.861447166351 -11.5279270976053 -19.312567430424 0 0
40.4628805954322 -16.3954768695122 10.8287827213704 0 0
-144.891032781696 -11.5894327992309 9.00591022558725 0 0
-88.5068823186364 -14.5000716244609 15.4960301497622 0 0
39.7519196772539 -5.70961959763295 -5.41382208457341 0 0
85.1319499351927 9.4085535278195 14.809569493861 0 0
-178.040652262611 15.5783255256254 11.5769272536961 0 0
-182.042623870495 -8.26548916451157 -9.03892392660245 0 0
53.5339572013497 -4.86416642443074 20.4475490732341 0 0
-60.3242801117062 -7.4891599886325 -8.22815382057575 0 0
125.273094801116 4.14963930752186 -5.78344321398671 1 0
-214.980739418223 32.8242554808837 4.9180052775967 0 0
74.052126321417 0.939463230627421 19.4095116229389 0 0
-185.742148330231 0.210331706318003 -8.55515178028611 0 0
-170.213080112332 -33.6434412461193 -2.26847033399863 0 0
-37.5140323203152 -0.675364824194819 19.5842207632781 0 0
93.5467131547963 -10.2820576871649 17.2321712448041 0 0
-206.932038585267 36.5243195512125 16.4443437808026 0 0
-152.254552361172 -22.805254684057 5.23238294700941 0 0
-69.9945795127402 4.3819407540003 1.0419830830767 0 0
-46.3491681666673 -12.6931124184893 -5.09025340912747 0 0
-180.602978476284 -9.91412136294096 13.4726001300766 0 0
71.1267735071308 9.08528219283915 5.07478518961978 0 0
27.9870342252971 8.33411708853598 8.02690649671846 0 0
-189.504523811138 37.6770885301738 -14.1179269302528 0 0
-145.516779056913 5.43820662799662 8.03276874699038 0 0
102.349679358612 13.3155287530358 7.08666801057448 0 0
-186.106076857439 41.6628109628667 -9.00136715621623 0 0
125.244473715105 3.45244310204511 16.9523234786024 1 0
-140.72035892468 -11.3997491065294 -17.610382106146 0 0
-140.934670147131 -18.1798456691148 -17.1224568320543 0 0
-197.858627209148 -14.0412009866397 -5.95137603075409 0 0
63.9585168208528 10.0379218333803 12.4919826563709 0 0
115.368397660245 -13.4678770129547 -5.26257134613684 0 0
-161.701135253758 -4.96082888117224 8.97458153307945 0 0
-77.1262848725643 -11.713708515111 17.8550293797483 0 0
-195.024023380154 28.3934752502229 -17.5496237996103 0 0
-171.041941818218 -3.94911430647007 -14.9117955273499 0 0
2.50143414298977 -4.65804019519488 -6.58966361252017 0 0
-193.775123926809 -11.6527673300603 -22.0614075129536 0 0
-76.1681656393207 5.86723749471773 5.37181964743365 0 0
-174.323370908368 -17.8542514657054 -24.8620816258726 0 0
-100.241608777791 -19.4517939227974 9.03486968655814 0 0
75.0747172190689 -14.2501628819809 14.3672941872418 0 0
59.0386170242567 9.83669709529045 12.0780658234492 0 0
-204.337211224782 13.160651848812 -6.51394107663357 0 0
-7.38969995579098 4.11600263300581 17.6255504570636 0 0
-155.500784165625 -20.5003837689722 -20.7315890324972 0 0
-132.17379021402 7.65242649493809 -1.53652972170268 0 0
-159.864475915318 2.71218478773003 9.52817938662905 0 0
-178.166639906624 -15.531597591109 10.3488211463084 0 0
-185.375279694184 20.4551852529343 -11.7417355958422 0 0
-196.709566204393 19.4291600032226 21.0385866238985 0 0
-139.015956515142 8.08326367096213 4.90930993404151 0 0
-190.578087642655 16.4901328427154 -14.0464332706618 0 0
42.8768405022731 4.26529646231166 18.8563331050372 0 0
-196.906162321682 4.73079486681147 2.20143843013667 0 0
-193.798386073609 -7.83496957118481 4.24651271951157 0 0
-23.2793400624165 1.05821522711162 19.3653864969627 0 0
-194.147901862022 7.2738073987678 12.7606909023822 0 0
18.0123574782462 -12.4710539839883 1.46283547517027 0 0
-211.689053079063 36.0332585221309 -6.11865428885713 0 0
11.7010677820871 0.0331151120742241 20.7017514341628 0 0
-48.0448600506659 -0.890356150625549 -4.57763082235271 0 0
112.144238246225 -16.1040431701964 7.61630276314624 0 0
-59.1142882509354 -13.9396822414478 -7.2854006110289 0 0
-24.4414086880841 6.48813850485942 11.9290580841207 0 0
-154.971518410295 -10.2196544347961 -22.3296041638371 0 0
-193.952686605443 45.1897765018969 -8.54100562713393 0 0
-175.097578176317 -32.0421534066635 -11.2365698389183 0 0
-195.770286786463 2.89215209021779 1.56832886671724 0 0
-151.147084391344 -21.474084715166 6.35340034658105 0 0
-69.3255563861427 2.96124957501357 -0.849098467477018 0 0
-23.8873784085773 -6.73996831090159 21.41792621375 0 0
-184.162861450454 37.8992077315641 -11.1057455339404 0 0
95.789199658362 1.06071808337813 18.3323345305301 0 0
-123.544432681089 -15.2161197135557 11.2631490891755 0 0
-175.078821836409 -1.10981041551187 -11.9342683434913 0 0
-64.135237015923 1.54361740072605 -2.22698784173711 0 0
-56.564541793546 -1.12848819823014 -4.64502102771193 0 0
49.5533235582385 1.58729727575992 -3.58328455657414 0 0
85.9567313288849 7.97573060889425 -0.0488203289897352 0 0
65.8085252716678 -8.11523270152049 -4.39064466678671 0 0
-55.3599725687014 2.92302059397956 14.9932034273974 0 0
14.4263306641378 -12.1901886757873 19.6763828592778 0 0
-46.3176556565683 -10.6729040323559 -7.09841443936077 0 0
-191.050931890816 1.01033934783405 -2.49367698846996 0 0
-188.303275591586 2.97258439492415 13.2851231589859 0 0
-7.19714180175766 -15.6852103811772 17.3214071851927 0 0
-65.0080748079073 -6.02699142902079 19.4414138308245 0 0
-85.0939798516532 2.44478085485697 11.9361761026487 0 0
-26.2634586282054 -6.83276100347241 21.3837118165144 0 0
-179.157810288035 39.5504129658822 -1.412186351561 0 0
32.5036036781535 0.377629107663409 -5.7256848482545 0 0
120.250161867462 -15.8099242906786 -3.38151890377162 0 0
-29.7681522921746 -14.6129975514107 0.728347524545422 0 0
-206.418691229653 27.9315565777979 19.3954268635265 0 0
-213.751841564928 34.4261152873368 7.84448027241727 0 0
-86.6787382858295 -10.2294256624138 -10.1141167918898 0 0
-142.801871576973 -22.9734094332837 3.04777759819526 0 0
-110.098529148246 -18.3056898036044 -11.591082842722 0 0
-79.3762986765733 -14.7964559215107 16.1380400618851 0 0
92.6632478515998 4.42647128003468 -3.77712913366097 0 0
-170.661701024741 -33.7709169148864 -7.4057780252004 0 0
-184.421138265324 -3.33850408075171 -4.8439906294747 0 0
-20.8468569679078 -13.1637885618438 -0.0178131598967136 0 0
-39.3037229932362 -11.7164649691144 19.791666226194 0 0
-199.054412121681 13.4042029321388 -8.24428677795072 0 0
-64.7887890274217 -16.6242274075407 -4.94420476832627 0 0
-160.53335042577 -4.57854416800715 -20.9586304531503 0 0
-175.575058412811 -20.013775185435 8.73985562180548 0 0
-158.111881699888 -28.3299940033709 -7.67306092483611 0 0
-139.60758614724 9.34772173650417 -10.0198466616099 0 0
2.89261913256656 5.30742700605607 16.9421031770346 0 0
-144.76039236421 -19.3728046508195 7.58935809610464 0 0
-97.1993043641651 5.50851094486964 6.28872756192766 0 0
-204.352831048646 37.3690954095846 -12.6724437516291 0 0
-14.5812073419024 0.814609754384919 -5.18991974275636 0 0
12.9134294495847 -15.8391119466401 6.26102030007332 0 0
-203.830175831299 35.2527706550602 19.1587477918993 0 0
-203.708547204355 11.6910014680925 12.4248392739885 0 0
-143.215992328533 6.26343327179121 -21.636600598558 0 0
-20.6665346036346 -7.68485901466454 -5.53437931119225 0 0
-175.350406437632 13.6694176251598 10.2219301418508 0 0
-146.920020216834 -20.980296571538 -17.4440315450017 0 0
96.0082168478044 -3.57342467269147 -6.70222629187718 0 0
-174.045539703826 -32.8752704432369 0.350815650636189 0 0
-52.3322520066833 -13.4572600251429 -5.84961697457049 0 0
-51.3315404283345 -9.22440193499811 -8.15725515670918 0 0
-8.13050670421329 -11.8692396370161 20.1983702578565 0 0
-177.075688517446 -6.64350366617646 -14.1982717798032 0 0
-30.3004839712236 -17.8704243479901 8.02391931926233 0 0
-158.8867314803 10.0604905092622 7.10135630880131 0 0
-117.390246858579 -15.4863545474687 11.682904874641 0 0
-59.6507069975488 -16.3285457603365 -3.63754566923523 0 0
-178.654415469186 3.61259210298695 -10.1069269372823 0 0
121.201985860767 15.34204477187 3.19870654794932 1 0
-105.714216019731 -6.16668854713264 14.7896085550761 0 0
-60.225420587673 -2.78740417471299 18.9120841437797 0 0
-157.725170183009 -12.4791913761014 8.20700284071618 0 0
38.5815481031452 -12.6404847010076 18.2353461942931 0 0
-200.705942737341 9.26563517892883 1.76895495269643 0 0
16.6125490474478 -5.80601178430252 21.4208050505375 0 0
-157.963141836923 -16.1390868492889 7.82859088808353 0 0
33.991190095936 -1.47488375947488 -6.77130935299349 0 0
-214.878714655937 22.2590657700905 0.357806959534476 0 0
76.7095076199784 5.85586417306292 -1.34067185330255 0 0
-178.867476322783 -8.7657191803774 -12.341448667974 0 0
-97.6056556258577 -19.7638035633999 8.60914778776807 0 0
-210.317979190825 26.3173059155053 15.9951813974831 0 0
84.7905341589422 8.63872549124841 1.65872010418338 0 0
-109.012346560247 -17.2036393389729 11.3989759261585 0 0
-210.284873904336 41.027210932712 -2.36983665876295 0 0
-0.570384597253204 5.645790092888 1.62532807914012 0 0
0.923029171870472 -7.56750152977447 -4.08480733181933 0 0
-111.999349838135 6.14894137591566 0.0940653619135052 0 0
-202.85479972491 46.2138363795785 4.1903518806016 0 0
-117.96607761508 6.85468636175185 2.38843927627615 0 0
-83.3082278975358 1.47008941183456 13.0734890948259 0 0
-183.977520930418 -12.1887392866256 13.6662474096371 0 0
52.5708258747817 -16.2724024012781 9.25668262205158 0 0
-38.7004580304906 -3.89462814120085 -6.65945226742039 0 0
-60.7165709129387 6.05571856244801 5.56281810199766 0 0
15.3034175059463 7.46165048711109 14.238841083458 0 0
-25.8177201697316 -12.3061535948236 -1.62777264467117 0 0
-172.188743937373 -18.7161411660446 8.19308232083343 0 0
-195.696368013382 -9.2300949583989 -15.9984106277283 0 0
95.6781816599074 -10.9157651545725 -4.98155638812998 0 0
45.1611095471442 -11.6670654750373 -0.140533374619327 0 0
-30.5499925450357 -7.88705858740091 -6.82262428799619 0 0
30.0484152585084 1.00654681397632 -5.22242550458869 0 0
-31.0278524308438 5.35091361558137 14.0485492585815 0 0
-114.537766413938 -22.4235922085098 1.18184687158791 0 0
61.2464229576344 -13.2006772329982 16.6456273486784 0 0
-179.967976533421 19.6437417689007 12.860502777722 0 0
53.5643551161711 -0.357622245097927 -5.26142947215804 0 0
-109.744501074145 5.26590836598383 -1.68767550324395 0 0
42.2662146213634 1.79782606584313 19.8695674863996 0 0
25.4317424755195 -9.22387318809979 -1.99561355193253 0 0
-212.665704383975 20.2541598938376 9.92601005042521 0 0
10.9247347982083 -15.6888501938125 6.0279981762935 0 0
117.491300217166 7.82919772888341 15.4383626146531 0 0
-192.046069092739 44.0786360485998 -9.38171657546962 0 0
-184.377842257208 34.6411278008514 -13.0475301882757 0 0
108.4391065668 -2.03017948875179 -6.79715849666037 0 0
-15.1594558187605 -17.2882588273506 14.3929859280624 0 0
40.328232076461 8.76762194725085 7.80570038789516 0 0
-20.1327679364746 -16.7792754509149 15.6776258538628 0 0
-159.184387299322 -8.41082698899116 8.63603491078081 0 0
-206.13449460217 14.2419359224896 -8.5234810662696 0 0
-194.291857430764 1.3802955271986 0.873909356093524 0 0
-100.118146073047 -7.24143527815994 15.6844185631132 0 0
32.665406508357 8.71487915968651 12.4777506777078 0 0
-181.622383184913 -19.6921350847072 8.3314260483617 0 0
91.5023451538608 -14.2884601169301 0.00927997134796902 0 0
-118.685374600178 -11.4349830427734 12.9469963109699 0 0
-63.5218336017822 -9.72435693408826 -9.17458768135629 0 0
-162.516281916487 -11.6749721499635 8.43037793485017 0 0
-135.305551191246 -3.21562911431672 -16.2053339739259 0 0
18.0402602410525 7.1847855813357 15.0619648302072 0 0
-151.28195397557 -19.6062138357666 7.34494779443931 0 0
26.5006463359509 -16.4434405944032 13.2905815402634 0 0
-188.17042689316 -11.407528892261 -16.1721590752923 0 0
-163.553428639579 -4.18845393481078 -18.6053314777312 0 0
25.9250393685089 -7.30602652896448 -3.73916814583839 0 0
-150.364981076276 -13.5962529734036 -20.5780707014611 0 0
84.7174649789283 -15.0157524945741 12.3367526395179 0 0
-44.1348689782383 -18.5474590561745 9.76360666746914 0 0
-187.176560944258 -13.0325671938399 -15.6577424797204 0 0
-18.749977499277 -15.9835237914836 17.0228601937628 0 0
85.9509543347393 11.6843440660861 9.23497605501314 0 0
-179.62683151344 35.8103721824024 -7.73419455579293 0 0
-16.6830380703745 -10.6832896460942 20.8511588247798 0 0
-59.9306737015355 -11.7912289675189 18.890979577194 0 0
74.3779861701025 -15.8348608797009 10.753070695854 0 0
-188.168582081885 41.3902677523839 -10.6825678849383 0 0
-164.307411257252 -31.9098803778325 -7.81450322844298 0 0
-182.217971073215 -30.79007679527 -3.65123957589029 0 0
-193.194767207011 34.0836330375785 -16.4081576318652 0 0
-169.812906419371 -32.5226161530708 1.87448559336752 0 0
-215.355573738911 25.2154066067026 4.44947706099068 0 0
49.6492830154479 -14.9164757758262 3.89679934803748 0 0
-215.543421182648 27.102658770973 3.68982407365149 0 0
-178.749679277489 25.7340629635172 -4.84730007185709 0 0
-101.576723180819 -17.9840858187974 11.2717269172286 0 0
-183.522717705287 -29.2403692628579 -7.47409343449952 0 0
-128.520276139251 3.09759478582182 8.20639954400077 0 0
-62.4311194571941 -19.2448984314237 10.5406434907986 0 0
-142.162191526644 -22.5582870752343 -12.254103018528 0 0
-208.112358025063 39.4176615343624 -8.24548611073944 0 0
-198.582658972618 14.2184354337789 -12.4132211726621 0 0
55.4386620585913 -6.29657609909976 20.2401255132245 0 0
-179.759470919768 29.4265646075135 12.2613840325519 0 0
-138.974954070552 0.950932529383119 -19.7416748071048 0 0
-182.101210533111 -12.2460996128762 13.1500122698048 0 0
78.5856555346369 -10.8449153390807 -2.77979690679507 0 0
-153.121236883511 12.6079929872636 -14.1837898350968 0 0
-95.094145170859 -12.692503813599 15.7230029701877 0 0
-34.7992213772267 6.52975975322053 9.37536427834566 0 0
-40.056729675222 0.467996494642836 -3.61247995052157 0 0
-164.596743661953 13.6133910755253 -7.65998861817211 0 0
14.7479939655264 -15.6702855459685 16.3803669736255 0 0
-164.561603173055 -31.9162623850349 -6.55031350521401 0 0
48.4726462301664 -2.94408429651281 -6.66789434734675 0 0
-194.820095200602 18.7362132672202 -15.6364615621072 0 0
-163.285191240815 -0.135358149106216 9.60192303280627 0 0
-181.33070730646 32.6931230788475 15.0747565303012 0 0
-198.516731789049 44.9845462870156 10.8787479122138 0 0
-186.4355376559 -16.1770905031563 9.34715042806961 0 0
-173.403350462586 -6.19903325436482 -16.0086357952935 0 0
-200.970285224454 21.3186848028038 20.8620004293159 0 0
-210.235083532817 30.8198670911598 -10.637807766965 0 0
-103.185954801777 -21.4326071161954 3.58015098937878 0 0
-31.9761038424838 -18.159970014253 10.1523676255834 0 0
-44.9359297662217 -5.46235280996921 20.6962025784494 0 0
17.9162904401299 1.68765274744404 20.1005513107707 0 0
50.0582868357812 -1.82771211102394 -5.95055669757524 0 0
-174.057010939238 -30.833180119138 -13.8989576559654 0 0
-194.505511797755 -23.6786135041959 -5.77365835606871 0 0
50.6880958574128 0.389360959140635 19.9308179146461 0 0
-196.033648351849 8.88063201933246 13.4943684351212 0 0
-34.6224975845442 -12.7234088407365 -2.86499694211857 0 0
-184.203555800231 -9.12717890046556 -5.3859635402958 0 0
40.4973026905419 6.04830684599429 17.5363731240503 0 0
-193.33387420052 4.62430532302393 11.7827234220859 0 0
-88.0961196758957 5.37742023505572 2.36840864645346 0 0
-196.868240918611 -14.5516715315796 5.01676238101298 0 0
-163.16965705925 -0.699721063685224 -15.9074573419055 0 0
-102.436869749624 5.77206274078648 4.95055842675196 0 0
-160.481961670573 -5.85042262917927 -21.9878513713083 0 0
-187.892568979879 20.0913272881814 19.8576631089973 0 0
-214.728595875237 27.5520259774677 8.13102939179392 0 0
-177.580358013949 -32.0298552324582 -9.05343260858377 0 0
-64.8163234118062 -1.49455274275023 17.8210881003725 0 0
64.3531850250636 7.18128450449245 2.53237478252941 0 0
-85.7455118433087 -20.5074666744874 -2.90900727088823 0 0
-196.711600255691 -12.2032292170783 0.739835517038522 0 0
-86.0612906635563 5.66838395809373 6.25987896380137 0 0
-197.044117975274 3.79956788769368 4.81973278459202 0 0
80.64130546424 11.2450642917578 9.21778670612361 0 0
-155.178002475696 -3.62411691705414 9.02224257150054 0 0
-174.140334160764 -7.10095603994615 12.5194883907417 0 0
109.840166684877 -2.91590823626985 18.2371765825351 0 0
105.044989185613 12.9859181197515 10.712469472483 0 0
53.5559061269471 -13.8073536589396 2.01698539526899 0 0
38.2324166110389 8.8225305050954 8.65263495789142 0 0
120.286374221711 14.9274645930323 8.61774238318626 0 0
-196.925668112877 25.4794925699979 -17.3621131633038 0 0
-179.883420908743 21.3910472014009 12.6661737951996 0 0
-186.448525076989 -14.7678697543228 11.9382067823482 0 0
-189.901050383554 -25.9248340786371 -7.16517441530918 0 0
-53.4193719637207 -3.94816029280565 19.9129424930731 0 0
-160.582380846121 -26.1363498551932 -18.5559062091077 0 0
-149.996640811924 -25.2634059941392 -1.25426778833795 0 0
-170.145803539589 -1.51040374753019 -13.583667799657 0 0
115.535406958294 -6.62208049424144 17.7967531604502 0 0
-174.367442842716 -4.65325110758163 -13.9760225391071 0 0
-46.456934175017 -18.628772273731 9.29342098466742 0 0
-187.270517706167 -12.1373373798685 13.1127744996338 0 0
-29.3296938568244 6.03051746890288 12.577937499201 0 0
110.440491055205 -16.2227452243235 6.29183033776196 0 0
-76.9909828296134 5.74834420626452 7.1913166924691 0 0
-179.05990081687 14.5004226135501 12.6303533073808 0 0
-161.550418283689 -9.66779721961791 8.71211909519009 0 0
-57.7126962448792 -5.38985015448038 19.8570540164332 0 0
123.10961282322 7.10560126830374 15.6183246881608 1 0
-195.783995230192 47.0150946072909 5.7451720695188 0 0
-88.4250464413693 -13.3283263691714 -11.3308948695669 0 0
-210.558908757022 39.361110952938 -4.72126433747008 0 0
-101.220446718105 -13.5151022110313 -12.5164002085328 0 0
-64.9315492009089 -11.4297302359665 -9.85441037915349 0 0
-77.3495717808429 -6.27595863260165 18.2747381623821 0 0
24.6162922146417 -15.3561692477027 5.86931926339515 0 0
93.1553188086244 -15.4755153995709 2.66622689917593 0 0
-182.775752691308 -7.51638967207334 -5.69747953048623 0 0
-194.73583550201 11.2811499972764 15.8391208275602 0 0
-92.9762630020148 -21.078132660485 3.96927104799083 0 0
120.74206243884 10.0574823075977 14.2598280596392 1 0
-50.3014741424637 -18.3810999602629 5.32613356470661 0 0
-197.284041046412 -19.306627646617 -10.5657371429607 0 0
79.7769788754265 -7.45508874769016 19.0816884165766 0 0
-170.814516323208 16.748602128256 6.91190952277788 0 0
-178.969414392369 -32.0285730674419 -8.65563932237864 0 0
-204.103295666825 42.1353774804823 12.6214276503756 0 0
107.758166303716 10.7657000355671 13.569346805161 0 0
-153.899156554572 -26.0760778151338 -10.7977349934243 0 0
-70.155998870535 -0.80970614102503 -4.2837783004621 0 0
-181.358992352361 11.0129686283307 14.1695172231471 0 0
-40.6738381296686 3.85113496196325 -0.0970455667045918 0 0
-16.0726680931967 -17.7057201402392 10.65094174249 0 0
-109.918296703782 -19.8038260045884 7.93672796104686 0 0
83.0332860352272 0.465771407682136 -5.3110783170656 0 0
-50.2684618384134 -13.3615545570413 18.4696392366785 0 0
-14.8975652183702 -1.24052103612293 -5.79207183265238 0 0
-186.422184305383 -13.4324955987351 -16.7610046108905 0 0
-93.6120909792914 -15.7376220514214 14.2402969429777 0 0
-65.1212064003113 4.49844594487483 11.964171411565 0 0
-143.657021674082 2.33004034983927 -21.9456979861802 0 0
21.9935837383961 -14.4618747817056 4.29375885295241 0 0
58.256633116334 -5.00302593674806 20.3427639733646 0 0
117.748220909095 5.6862262056946 -4.69555660998778 0 0
-121.686895946748 -16.2637853445887 10.9602533989468 0 0
-195.41089092355 -21.6491038538863 -10.3712047195899 0 0
-186.168480032821 3.66637709715636 -9.85687529034298 0 0
60.54343620801 -15.1924757018381 13.6818585497862 0 0
-99.8526324540615 -6.54844643419806 -9.15664695901065 0 0
104.220933326231 -4.69465725556457 -6.95491177653194 0 0
103.879470014565 6.43452003390013 16.3022765428526 0 0
-180.406313618906 31.2047679908242 13.7887434926107 0 0
-7.13900463737335 7.19106467514916 11.2310297910939 0 0
118.474706080847 -13.3972909918654 -5.5681617531738 0 0
-38.6708261539835 5.46860815860317 2.55356328407904 0 0
70.2187400059636 -10.3678661270183 18.3716733213667 0 0
-171.079238258885 -2.78665105886627 11.1739037255971 0 0
-11.8298675978731 -9.81130940581632 21.0674387100917 0 0
117.338970294245 11.0197773526042 -1.68193843803713 0 0
31.4535727508568 -15.0490814587076 16.2692184524536 0 0
10.0897383775022 -9.56503384193545 21.0044013441078 0 0
-143.535842004666 -21.3064100852763 -15.7475283826057 0 0
-185.630118182596 39.7044410191861 15.3116021191926 0 0
-202.323040366377 43.066766690527 -8.88510321432271 0 0
25.1962796778844 -4.14215578118012 21.2974374103458 0 0
-47.5164878208281 -15.2101285231926 -1.70326001044616 0 0
101.847437068374 -2.11059575402321 18.6160177814997 0 0
-131.826780455814 -22.2612434265123 2.85958597197288 0 0
-173.446052146477 -7.87496918335811 -19.3452577138758 0 0
-111.506843303715 -2.84732961541549 12.8934611618983 0 0
-39.9677904131503 -2.12866767122799 20.1421698017254 0 0
93.6117389604917 11.5682925630187 12.2082237843849 0 0
124.625229898939 -0.610981931118631 -6.99260731696661 1 0
-165.017850833551 9.82395664086459 8.6619820209181 0 0
-137.92172121868 -23.8389666541683 -1.73223157196828 0 0
37.3675787758772 -2.33296915451128 -7.04271322337442 0 0
-171.7903483852 -0.442630264754282 10.7251983532716 0 0
-121.139752947362 -11.8689388917448 12.4010583639388 0 0
-214.638644054183 31.8003931172143 7.34999421449767 0 0
20.7084589801871 3.9718319111543 18.8939129206696 0 0
106.708233126702 12.5053391370044 2.47230740122742 0 0
-144.647929421472 9.69461760234182 0.493338237424556 0 0
-113.671470918059 -21.587635226161 3.81784294649849 0 0
60.9761165573186 -15.1069976506382 3.85108264340988 0 0
-160.383303479755 13.8534594648344 3.97439827514145 0 0
-161.142032793325 -29.1931045496174 -1.93355734914106 0 0
-69.3970265115769 4.79241442253107 10.948596690945 0 0
-190.108725968114 3.06254391535684 12.7023524992258 0 0
-169.610089672968 -6.68205809702515 11.8219217834743 0 0
91.5427137701799 10.8510437616852 3.94371332929349 0 0
-174.210066208731 -19.8920960887131 -24.1389364663024 0 0
-143.800280943199 -6.65940191907867 -18.6382916150431 0 0
-183.360393431152 37.0002027949319 15.3750755423099 0 0
59.952158337801 -13.6051913660183 1.45819914555358 0 0
-47.5918701963863 -1.10651837367613 19.1322124562459 0 0
-203.792452434191 21.2687514398897 19.6656536717731 0 0
102.122236967529 4.92887049024649 16.9715785974954 0 0
-184.855661853923 4.59854911286713 -10.2656034920611 0 0
-211.709889172759 28.7221306532694 -9.09290124689674 0 0
4.12272344556186 6.84830295796665 14.5789666964567 0 0
45.4022311585593 3.88297024172246 19.019900513701 0 0
-171.947967672801 16.7843192337851 -5.7394223564181 0 0
-37.5975709348033 6.20606699589641 4.47938405065755 0 0
-156.559895169477 4.76100625136934 -16.8443076601757 0 0
-207.869095802511 43.8909510274735 3.53182473061311 0 0
89.3393216391649 11.0491006036252 4.93410399728801 0 0
-165.720486600964 -21.7951320188849 8.03657340075775 0 0
-165.206254446998 -32.1515468183999 -2.42715829223948 0 0
-186.632617269758 5.84511468956908 14.5292660851635 0 0
34.3808326981888 0.574889618925635 -5.57964203500495 0 0
21.4565717171841 -12.0698835073345 19.5074890884418 0 0
-186.060353008928 -10.9909881965163 -22.9114366987002 0 0
89.0895358894122 0.0882914309178552 18.8673160985514 0 0
45.5736069383967 -0.878350831738005 20.247904300424 0 0
-195.564305279862 8.97682356943961 -6.56341967350029 0 0
-53.3289993320082 -10.3907075489457 -8.25277393691023 0 0
-153.084369442047 -17.8688424472609 7.76235697136583 0 0
-198.195116194139 17.4313889809662 19.9028882365359 0 0
-185.397483943435 44.6271046505931 7.46868431366288 0 0
-151.025187454212 -17.916428041193 7.90127349655385 0 0
90.4553324887003 6.69353247701491 16.6954649872231 0 0
-192.431010167674 -9.24000054614185 -0.0188922461600879 0 0
-25.7282005608912 3.88563172712545 -0.912121287330532 0 0
-12.5336709389406 -16.9007532572653 15.3444293162425 0 0
-83.5416820190544 -4.14982968852857 17.0400940703058 0 0
-91.5755929027018 -0.815013403830363 -5.37960528673966 0 0
16.529188275526 8.20816314407982 9.69334692322986 0 0
-62.3888144743837 6.10212641470426 6.62953424590723 0 0
123.80773182589 -11.1763127826099 15.5827193917384 1 0
-191.023874684153 -24.1532976847306 0.796605363784461 0 0
-198.285365021399 47.0052606954369 6.55610209026377 0 0
-195.57811223094 8.79740285326599 -4.77714247184662 0 0
-146.124634245374 9.91879878451027 1.87381753351098 0 0
-196.436902300856 5.03946728863959 0.608066802256619 0 0
-25.5125526883606 -13.5996620286075 -0.0768309552771602 0 0
26.12104998253 -16.0223094964457 7.42491653221556 0 0
-44.1481633206347 -7.675899273769 20.7216098658512 0 0
-131.263146813687 -20.6591335978483 6.22045988720306 0 0
-148.537042871299 -24.5527940208674 -9.84389446195297 0 0
-145.98866240295 -18.2528177711472 -18.9375052551648 0 0
30.6641494416424 8.28862697074064 7.5113355706403 0 0
-23.3027096568456 5.98491332312009 3.11790965338456 0 0
53.8406697221289 8.80588402200951 14.5178284580211 0 0
-146.962474561626 -23.6653467736883 -11.7363643596395 0 0
-211.69640210245 18.6177215744695 -5.30961008937464 0 0
-126.294530454281 -22.9344636431929 -0.505410813565275 0 0
-176.972570384647 17.6354585810398 -6.60809846626889 0 0
-110.151913822714 -15.5900022623802 -12.9215968147454 0 0
-161.169414233501 6.46640718522119 -12.0623987348617 0 0
-182.485565394779 9.1358115448281 -10.0062541558265 0 0
-53.1521962882315 3.08218410159825 15.0260360395187 0 0
21.2662870355805 8.34445894694537 9.99735677011033 0 0
-35.0314674934808 -1.5950031180732 20.1889008255468 0 0
-92.9859195386841 -17.6824463349876 -10.4484526984915 0 0
73.4630257964717 10.3831392595585 12.7333402521171 0 0
-190.254310849107 -10.0928693154145 -14.6693164835387 0 0
-194.432794752501 -14.853527083692 -20.8258350930679 0 0
-32.4111988924477 4.63534854022502 15.1541893389489 0 0
-122.598427488972 6.72260887822582 4.02403992455259 0 0
-214.660758089816 34.3311490963962 3.04735700524236 0 0
-178.587078375903 -30.2042379316 -12.5196137836152 0 0
-131.922082212849 -11.0748084925704 -15.3837015909474 0 0
-110.91806361226 6.27663233058616 2.36418073462887 0 0
-147.196620044421 12.0651016193708 -17.9179935595094 0 0
-78.82239133009 2.60445929728305 12.5530462430824 0 0
-36.0722032409211 0.528416626050512 -3.76586941395735 0 0
-11.1828366980701 -6.68565216618729 21.5006893912871 0 0
-212.036153562033 34.5894103679773 -6.5697023272426 0 0
-65.7084019116479 0.272208064284396 16.3355211178846 0 0
121.588002821499 -8.47544765719373 -7.19391169545531 1 0
-168.219821972849 18.5583261463407 -1.87292944604188 0 0
-187.04683555557 13.7181508796425 -11.9986850335186 0 0
-102.34387672879 -2.36179150261218 -7.64699599415998 0 0
-183.904319862324 44.5352756373165 2.8457484273577 0 0
-191.404075919188 45.3799831440532 -7.89815778716021 0 0
-87.7999603519348 -10.1293833132641 17.2847136511502 0 0
60.3384212345581 -11.2574286717871 -1.27399470317331 0 0
-197.888520963367 12.07583280754 -7.13230929868314 0 0
-202.706224143513 45.5959150461394 6.37579577146914 0 0
-89.5106527365365 2.29661966042662 11.5364357148992 0 0
-186.980078172806 -21.2300349509317 5.83425094186669 0 0
-178.99690325384 21.2327663807163 -6.68802152958274 0 0
-133.51479669939 -17.6392709272033 -15.4873893969989 0 0
60.886549581538 -15.9485081946973 6.07560426125067 0 0
87.4778251211183 -15.3968535680394 2.92359293171048 0 0
-131.085463470265 -21.3400506018085 -11.5445636619949 0 0
-51.0869638450255 -17.9733970957385 13.6112290856977 0 0
-179.003923503859 38.8354887297072 -3.0885345390491 0 0
118.224654446176 9.4347868212718 -2.87367084556886 0 0
-141.747588530911 11.2759195514574 -15.1512966924143 0 0
87.2960036277686 1.44718796412125 -5.03654626687133 0 0
-18.3128909973749 -13.9047742790929 1.34032169237114 0 0
95.8551694680081 -4.39441507367771 18.7300824199574 0 0
-23.8333567503243 -2.91202193679887 21.0148557627412 0 0
-188.606832832257 41.1484144074782 15.8585384606408 0 0
-198.726015798326 -14.9826848733479 -0.0828751050537993 0 0
-196.936126164711 40.5264684343006 -13.032463615677 0 0
-115.72280676847 -10.2347586188787 13.5206867850938 0 0
-195.121659309345 -21.0968237709589 -14.0061976308081 0 0
-13.2132835777046 -7.63183822339636 21.4117802923985 0 0
-192.871590456522 15.3036707565359 18.7578209992241 0 0
-175.568456257924 22.8301181201855 6.66828387154578 0 0
95.7892363420076 11.1468463718429 3.35194411324694 0 0
35.106938674222 6.063149993027 2.34494922089253 0 0
124.565419016977 0.779280693643151 17.5431357778509 1 0
15.2116294432466 0.321059246470681 20.6190575024279 0 0
118.58285084845 13.2419622161047 11.6361254218702 0 0
-46.0697378701491 -9.12370465496623 20.3975730366486 0 0
51.0508909702457 -2.02235331437969 20.4493948419045 0 0
-103.321870843701 -20.7818608842132 -8.98109004358576 0 0
-185.015829068889 20.597315836071 18.4104161003719 0 0
-74.8241293873423 1.07764825013868 14.44056243375 0 0
-125.729804329925 -3.52628818104772 11.6962079390394 0 0
-186.738432852064 45.4692900191032 -1.86897342282211 0 0
-201.204293440264 35.4942095921849 -14.8695997473658 0 0
36.6064384919696 7.30793584460469 4.26556824480901 0 0
-161.121794515294 -28.3784018460094 -14.1042326737002 0 0
-117.517211123284 6.33943570471327 -1.16364545045261 0 0
-140.490851942172 8.44063503402896 -5.71299064730999 0 0
49.938590500775 -16.2468878608749 9.54673092674079 0 0
-178.340697535698 -9.71780165401618 12.9079358196067 0 0
-128.531844981451 -20.2380334024935 6.82768362057249 0 0
-116.299208277448 -4.76024269107713 -10.6006272039681 0 0
-147.471082282 -13.7283011618948 -19.681430803485 0 0
69.1541013265372 -13.5420485483456 1.04758267889144 0 0
-80.861206271442 -13.8244768725402 16.672568416443 0 0
104.679658550091 -14.2970018373691 12.6412498104159 0 0
-105.169701255754 -4.6625332777587 -8.89033864756189 0 0
-66.8853496325649 -14.0910704202794 17.3378387974532 0 0
-193.856202452958 28.1372407051476 22.7553545761275 0 0
-191.121861428533 37.0064201326308 19.7930194380911 0 0
-2.40000688873562 7.11157698994097 12.8383283856794 0 0
-194.439755831256 -8.51604649297527 -17.5700999435831 0 0
-70.4111475669145 -4.07599614360504 -6.78576058502216 0 0
-150.948037671976 -11.5601185257926 -21.0739452640634 0 0
-168.959957863874 -27.4714055695492 -18.4723870677707 0 0
-207.885191292934 12.0279237645914 -2.37860228722467 0 0
-181.668531260944 -22.1668934804632 5.66751947546855 0 0
-53.9706052991482 -18.2650944301474 13.0235894213357 0 0
-58.7696488319052 5.9526880185939 9.02279978468801 0 0
124.85663306634 -1.73934503210117 17.7736639359803 1 0
-125.851677504942 -20.542289891808 6.48074640623738 0 0
-134.306330568771 5.04303816872223 7.17795299937384 0 0
-194.108696802377 -9.87341135224534 -21.1681370698174 0 0
-82.365250453448 4.16219089068177 10.3559979185833 0 0
100.019425084802 12.6954544086986 10.370386490978 0 0
-207.37831635026 34.7159475485424 -11.933168447586 0 0
-186.297612270059 8.77376039451961 14.7809996806739 0 0
-189.620171996045 2.57748240529905 -5.86616459474828 0 0
-167.074075891664 4.15411873852931 9.9992617832443 0 0
-182.931160372779 23.0995871622922 16.881801733064 0 0
-190.334985767233 42.2713070965694 15.3218571381118 0 0
39.8998856237861 7.73540859494494 15.5790504880521 0 0
33.790403046025 -8.82337796408879 20.3315526225852 0 0
-3.40846034308455 -9.12655638914006 21.2469576377665 0 0
-190.707099281477 -3.33532626187795 -0.458265502052002 0 0
-121.172446965583 -9.39416507667867 12.5340788807345 0 0
-199.359113793637 10.0161214931088 13.3699794791776 0 0
-154.699182978013 -3.63536296463547 -21.3427703327628 0 0
-144.700738263148 -13.0403669237738 -18.6737481870186 0 0
20.6348441530543 -16.6654640020558 12.4938461161847 0 0
-190.845941144068 -10.5748342246588 9.83178851019982 0 0
-75.8880198561838 -16.1434114451794 -8.69181534092799 0 0
-38.1138175617422 -13.55296549132 -2.1895879770256 0 0
-49.4161176575497 -13.3792195142795 -5.00970716510408 0 0
-192.805829133145 -20.2383011181351 2.96136979253643 0 0
87.1456843235153 -4.82332612210655 -6.71188287006975 0 0
-154.749062967941 12.7825965106386 -10.9122182975725 0 0
-163.180842701195 15.8137246134235 -4.2083708640069 0 0
122.704636714291 9.43159347218427 14.65573344446 1 0
-184.859852580474 30.9748149332202 18.4300061435434 0 0
-204.234242654828 13.6378314328322 -9.94451065691243 0 0
-170.820712086009 -31.1606789116908 3.74380254448125 0 0
-54.690460714611 -19.0941625223509 7.40956849675271 0 0
-177.092001437017 -30.5103422112009 -12.8128157296909 0 0
68.5367159232423 -9.01512612089488 -3.78297614468673 0 0
-107.464841046914 -22.5899774776046 -3.97964442726389 0 0
-88.4460944197182 0.378262502900769 -4.1243965768047 0 0
-175.48650272259 -32.9625884581987 -8.16712025702087 0 0
-97.541956291657 4.35719768531443 -1.00480335280087 0 0
-169.806303164113 9.78864271688965 -8.84097350989056 0 0
-13.8216214013664 -0.401518431635215 20.5291239893024 0 0
-174.906299226704 -33.7957295196055 -3.87910898587368 0 0
-182.856247360348 -28.3828860139897 -15.0869993698499 0 0
-176.585281097995 28.4650502745904 3.98306121583364 0 0
86.4248743331496 -2.96255422470269 19.2213941784519 0 0
-188.630854452432 -10.3492816612517 -18.3259976941536 0 0
-41.4568904569648 2.77573808917163 16.6218968719554 0 0
-13.940050193218 2.96218684002149 18.2750154432287 0 0
-183.212559656775 17.07620306143 -10.9791982114019 0 0
42.3584866813189 3.57222703270823 -1.06775040928588 0 0
-186.629649033297 23.1163486339281 -14.7384139771879 0 0
-186.624280385221 46.2154188595735 2.99582960276433 0 0
-67.704098993433 -1.80126883868451 -4.99809976732803 0 0
-65.0287887908931 -9.23676759502034 19.345657906315 0 0
-52.3487684537455 5.99980706290446 9.77007890537784 0 0
102.770625602397 -2.98016952111354 -6.83326690337807 0 0
-84.2950649607138 -19.3548858797085 -6.03627026747827 0 0
-138.322991391935 -2.6442660250643 10.3345324421803 0 0
-13.5663991778197 -15.1340835878604 18.0406626652229 0 0
-185.409169983996 35.6942506584299 17.7392401433856 0 0
-153.70028223778 -24.869799676903 -14.2807428338406 0 0
-19.7398797383035 -8.38458034531359 21.312931448362 0 0
81.0511365441979 10.8569831600443 12.5064006016475 0 0
