"x" "y" "z" "f" "a"
-195.129392232836 -20.1394371927507 11.4791501620637 0 0
-227.068350802337 43.2702958119238 14.0265506748205 0 0
-173.410043903651 -2.02724186912784 11.1545184679455 0 0
2.02473829309072 -14.9486961529185 2.48446682008695 0 0
-209.913159895298 1.00036211341983 0.932407126140308 0 0
-208.856403957011 -11.2576942828604 -23.9233516768333 0 0
-196.231017018638 34.3294721547036 -14.4262037058962 0 0
-21.3277684438892 -10.7791576606986 -1.9771262710059 0 0
-193.147883477235 -30.8063418248945 -18.7028266821334 0 0
-201.513240532527 4.67235623272166 17.7335389085618 0 0
32.1016493514388 8.20062398585478 2.5646061801162 0 0
-140.673669537454 3.83043163537778 8.24480064032364 0 0
-205.605303115671 34.4516947819879 25.8991923785753 0 0
-157.141782151457 5.25452053084185 9.8097037963862 0 0
-176.933572054246 -11.1578127722786 8.71217793683843 0 0
-18.6040697989271 -10.8329915324881 -1.72298852155167 0 0
-163.576490368123 -22.2261613822338 5.0720390086802 0 0
25.3532918122057 -18.7939079760919 12.60255574441 0 0
-211.061631743714 -9.59212217989786 -24.5559845902729 0 0
-213.468517217757 -31.0524305009766 -1.69008723488244 0 0
-76.1762466260838 -22.0654401784106 2.10476895621183 0 0
-112.091672981908 -13.879331359396 -13.955735801155 0 0
-194.385477554892 27.7299019930643 17.920552647127 0 0
-198.129479967461 -8.17110138056715 -16.0055625923558 0 0
-41.7664543818159 -1.88014932518615 18.1606708952081 0 0
-203.615591062781 49.7714629358238 -6.41721679585748 0 0
-44.1115633467875 -0.473848380086478 -4.9002835582208 0 0
17.6946328625565 6.81508953097444 16.7087179141493 0 0
-125.497228647433 -7.72251605167974 -14.1135772441249 0 0
-159.733805315841 -9.57944307336366 -19.245744671099 0 0
-29.4645336878446 -15.289801780203 16.8946375934781 0 0
-182.380429246906 -13.4224038280032 -25.465268215718 0 0
-180.629568942727 -3.83454965533428 -24.9247727724326 0 0
18.3719972507373 9.42131929931649 14.5928405516584 0 0
-205.834809582135 16.8656436633597 -15.0599146979927 0 0
-207.829795772183 -0.561744383777158 -3.5689517358652 0 0
-57.5984253935917 7.46436495899645 11.2273818058704 0 0
-109.892791616203 -16.2544951538069 8.87047961840458 0 0
-194.967903714771 40.3124773402 -10.4968244375181 0 0
-103.021885582167 6.13742745449017 -1.67828976771694 0 0
-164.822969648132 12.3325278301025 -5.40098346545491 0 0
-65.6023697112152 -1.32548715851676 15.5328472374209 0 0
-6.6032721332593 5.60879837193731 16.188087450939 0 0
22.4260396057374 10.2803573804467 13.3907521751595 0 0
-150.908723386793 9.88795966264549 3.91338319674913 0 0
-229.581602853405 43.8303529861998 6.52324912825078 0 0
-208.389071009484 -16.0870216303356 15.8864059616735 0 0
-151.151803830869 -10.4610772785786 7.24038798173666 0 0
29.2524072136308 1.24294225978996 20.4483264732836 0 0
-135.683851818409 -14.8281025094478 -18.4528790801326 0 0
-177.873154531576 5.91118395072896 -14.3837894446345 0 0
-37.247884244102 9.85004860823814 9.43585161749507 0 0
-0.759777636946216 -4.1717631360993 21.3503838229919 0 0
-170.593683757074 5.33007728117676 -21.8413182170124 0 0
42.2827946793151 5.61080219475776 0.376044549699972 1 0
46.0229003960243 -7.92519300318659 -1.26108132055662 1 0
-221.022675493316 -22.2016142461338 -4.84158690887199 0 0
-141.978129328013 -4.65386235515095 -16.6065733976652 0 0
-104.638825128075 -6.34155126644018 13.3151348421954 0 0
-38.5192056978963 -6.07969531548771 -7.10355138036307 0 0
-220.76379216884 51.4053816794341 11.0404105940864 0 0
-148.879730673909 11.3969883421332 -15.013864058282 0 0
-212.973165825779 3.53691107243743 2.30951941013339 0 0
-136.004588726145 -1.55359500392702 10.0845745570356 0 0
-87.3743695981899 -20.4999055005912 6.83459100278758 0 0
-104.307483927032 4.92256948120368 -3.77496005275064 0 0
-154.603074630648 -26.4629416532053 -8.87494061293283 0 0
-207.173558631787 19.4618966074106 24.6670218082781 0 0
-155.495304110521 -11.3364615863167 6.90350859612613 0 0
-207.835193547944 49.7882927135501 -1.09384151076974 0 0
-36.3235929885413 4.02079674086585 -1.09901591603428 0 0
-199.883222213684 8.62590042323787 -10.4098249867183 0 0
-193.177315601862 4.97935064870405 -11.1252762957923 0 0
-35.7081415109186 7.03710396836048 1.27760079462529 0 0
2.8394124728936 -8.64848437788202 21.1650353195674 0 0
-219.386943316653 19.7071879920185 -16.9173655398363 0 0
-161.241058569459 16.0634996665309 -10.5055762898118 0 0
-178.861673127541 17.1094339696812 5.18543942322774 0 0
-160.743510550508 11.0407760905083 3.58462041988438 0 0
-36.0026218438475 -16.2741210581149 15.7199799612384 0 0
-194.209856519087 9.65423168326742 16.6913096700076 0 0
-182.487676708307 -23.1735798378746 7.65077030783885 0 0
3.84134693390287 8.59212871222646 14.661977337346 0 0
-177.26509433901 -37.7915788355286 -4.01216385150794 0 0
-212.627977236261 -12.4747127806861 -0.57134341596826 0 0
-134.727325607537 -17.8905497006 -16.2815696274182 0 0
-129.750517660692 -9.54609332007272 -14.6907869892897 0 0
-64.748351588672 2.42069065928464 13.1285788048637 0 0
23.032797215093 -10.4341977464639 20.8390022510251 0 0
-178.876102117034 -2.20438729840578 11.8464760240611 0 0
-190.931866486432 -16.2093637793665 -26.4014622299172 0 0
-47.7680622469998 -8.13962096830379 19.0916247085643 0 0
-51.2129467921907 -16.5338343939319 14.445059333017 0 0
-216.902882161397 12.4406005291191 -10.1628812622515 0 0
-48.1416383090211 -5.27080251727188 18.9556308866434 0 0
-204.516183328504 -7.67327260453967 -5.51691356754185 0 0
-209.557316046979 49.0586367186054 16.3870170622534 0 0
-126.492194413727 -9.89752381851834 -14.2318241507935 0 0
-146.18841778821 -18.9376263182896 -16.5527538928557 0 0
-169.376064173558 -22.1311576691633 -17.3159942493746 0 0
-94.4589684394353 -9.04308421149186 14.1525351230051 0 0
-189.499665055575 26.990218123239 6.72420301625838 0 0
-174.971148905458 -34.8437317399415 -4.76269332018847 0 0
-149.437831516208 -22.7512776140684 -13.3026408129838 0 0
-212.320676258939 5.75089437277678 16.3273990607414 0 0
-192.517686413109 43.1383504105524 8.66650723882264 0 0
-99.7129938598441 2.79430771208497 -5.69420792490151 0 0
-203.954403122173 -33.0956967727627 -13.2773919407128 0 0
-201.635497676491 -10.265213513549 -10.883205403564 0 0
27.8518967827388 -5.29464983371602 21.8122636715253 0 0
-199.068950777254 4.43230484427138 17.2232521045901 0 0
-6.80573312489538 9.17985605319551 13.2872525428101 0 0
-167.493515743961 -21.7081061670398 5.9338827115186 0 0
-161.478543209282 2.10555043038728 -22.0003979300815 0 0
-17.3165186419077 -17.8976502347218 3.8821131092929 0 0
-134.682487145455 5.04445430944188 -7.76675624320003 0 0
-209.831869565135 -7.07959312157359 -22.3192462049161 0 0
-8.63491851639147 10.5733054750012 8.77813054114112 0 0
-13.8617019101065 4.74037724149923 -0.302960258756413 0 0
-150.760832752249 -15.2971032402438 -17.917819624457 0 0
-210.640772301618 9.96321416717423 -5.97395623808481 0 0
-207.435093199365 -14.0725385516256 15.2162715136003 0 0
11.1521242017748 -4.31403306158609 -4.69620014660534 0 0
-212.756882323486 -2.92194615202859 10.7779882538467 0 0
-105.699559897686 -9.4794660202625 -12.633501646228 0 0
-223.906139024816 37.230430925587 21.7626489438908 0 0
-217.435553329965 -28.1665600637081 -4.41221153727778 0 0
-158.251735617737 -18.5485248988532 -17.3770762944886 0 0
-228.441261072102 47.308242631168 3.83694093289126 0 0
-176.788775525298 1.57557065900855 -22.3724385251202 0 0
-166.773937596878 -7.16603354152197 7.79146696036535 0 0
-206.000385569267 26.2331540953152 26.196527119085 0 0
-32.906736078439 -20.5374851624732 6.75349472197023 0 0
-195.337826060826 28.5177679370099 -7.01929358946767 0 0
-195.846277484837 44.4789609899769 -7.28084945754871 0 0
-90.1156114580265 -2.41075268140808 -9.11660104693508 0 0
-205.106033790928 12.0028307403591 -10.8355016991531 0 0
-13.2082995161029 -4.84495206561523 -5.78865960988163 0 0
-101.646809786807 -1.66049986804869 12.4759834152834 0 0
-180.065509759819 -22.0469778919228 -21.2409648487412 0 0
-93.3473520242573 -0.26394728624429 -7.42281270511741 0 0
-146.735789990591 6.78514990230097 -17.3338839121637 0 0
-97.6067894395345 7.55302529709558 1.74305700854615 0 0
-198.514826861468 -6.32709353020868 -23.344319011793 0 0
-98.4185490771954 -3.18042960716808 -10.0255440413528 0 0
-197.031611960505 44.1562127663517 -9.17600442717231 0 0
-141.518486553529 -7.4010575711381 8.81900201324956 0 0
-191.272904727547 -21.3956972272033 9.71461425423449 0 0
-152.052978174493 6.50093570593936 -20.8027030152155 0 0
-123.504828410439 4.69881920224594 6.89373591835783 0 0
-1.09117966940165 10.5953864755179 7.97840627329831 0 0
-93.9194053883467 3.03488925316808 -4.96838763924653 0 0
-98.1457987999103 1.13623185858302 11.2330897690495 0 0
-203.412533221407 48.6625224010785 -8.4161540182148 0 0
-40.9756861294471 7.80457532642272 12.6102586285966 0 0
-108.018466376973 5.00498287547928 7.67714978012344 0 0
-201.743330346519 17.2371405966341 22.0376548154103 0 0
-78.7284107862119 -22.217700941968 3.67180059131476 0 0
-234.220076946003 22.8353938018755 1.99628658876181 0 0
-52.9539382836989 -10.6643512069637 -6.88342735142538 0 0
45.5142952901402 -1.45294784301257 -5.16049004823776 1 0
-190.453173099084 41.1570085842105 1.50791244456407 0 0
-145.695723729237 7.19652479295805 -5.41699230337929 0 0
-221.927661308071 39.0146654061513 22.2861137520389 0 0
-211.685524682755 39.8935198606022 24.7383806793106 0 0
-195.350112473512 8.05428135081259 17.5273478632079 0 0
-193.686663009391 33.6314006193886 18.4483359058071 0 0
-122.88127653398 -11.3567039929705 -14.1788396266234 0 0
-186.654946057468 19.6854191974375 10.1786708157874 0 0
-160.486914970529 -26.9063976026722 -10.5473047353564 0 0
-120.530964402644 -17.4857764773391 7.12587124629294 0 0
-93.4436902864666 -20.327368169247 6.64922007283334 0 0
-78.4202975192704 -11.468157487429 -10.3157915314766 0 0
-79.7970446163116 -0.761796152813566 13.7533709378867 0 0
-220.225334192587 -17.8608782722989 -15.3677683046981 0 0
-5.04161114126916 -9.59445000963272 20.657103802735 0 0
-205.151963617428 5.38396703719774 -7.83271538568982 0 0
-117.171016801403 6.02493438803754 5.4582103094301 0 0
-170.610642578186 15.0269283873365 -14.2620280172864 0 0
-185.59057213816 -32.1079380540464 -17.1763633637217 0 0
-234.795701211008 25.6582890844133 2.38467585108465 0 0
-98.4967443128987 -12.3949016572092 -12.2326987540369 0 0
-224.374664014784 50.020562291238 7.10108921200943 0 0
15.172643712443 11.0419000190062 10.0898670212046 0 0
-68.0419565412709 -2.74366422674633 -7.51288494613274 0 0
-204.681475691093 36.2173784217274 -18.4291411070043 0 0
-211.586499168563 -0.456500105347851 14.352321172655 0 0
-207.398823635957 53.5153941220157 5.38159288656031 0 0
38.4868274408377 -11.2603268704341 20.6061168746787 0 0
21.0612945353176 -13.1873278899554 1.76810338652301 0 0
-183.884177983273 -40.800117861658 3.89151051865525 0 0
-161.742776031208 17.7831743744995 -11.3155004977326 0 0
-200.659948185735 50.5368103500685 0.0742202016255322 0 0
-51.4431332804395 -0.796467082190968 16.386089123579 0 0
-72.0523328575733 -5.0879601919246 16.7900030665044 0 0
37.3019010315837 -16.3930055724535 5.01190597234386 0 0
-58.6087321388323 -17.9578578883482 -2.12071467871039 0 0
-72.2285462640274 -21.8466203426219 2.97937901594826 0 0
-159.229768041717 -24.4130886769145 3.28819841691698 0 0
-195.025801365879 -7.0325712313001 -14.5083403157524 0 0
-0.148468101656033 8.48520885532796 3.24722226624207 0 0
-188.301977608837 -2.54626245819821 -23.2934435267049 0 0
-67.437474891825 -13.9280796462176 15.2230070770421 0 0
-213.29083089258 -6.76407765100302 -15.9550814999527 0 0
31.3955034357392 -16.195741218109 17.3667320754453 0 0
-214.440457167196 -27.5045294832455 5.95970478569989 0 0
-178.842779091709 -38.3713612615824 -5.93341962437166 0 0
-212.855145097239 50.208140208988 13.5461455804165 0 0
-136.372571804107 6.54519452779521 0.274416644072062 0 0
6.80597158602234 8.98101605594463 14.3987907143443 0 0
-217.571583939302 31.328893505388 -19.4112136362468 0 0
18.7451473567157 -13.4602870748965 19.2763011186404 0 0
-190.177587517468 29.508584041609 6.88639518209623 0 0
46.4151478887069 -17.8579202945801 14.5818980508219 1 0
-154.886629699744 17.0983546885544 -19.6319660151814 0 0
-214.151558744944 11.8794880585168 20.2108970131895 0 0
-104.030168215542 -0.486243506305165 11.805057778291 0 0
-37.2888147389986 -20.008794262791 11.9965891497679 0 0
-120.599003062503 -2.46331422967696 -12.3436113875865 0 0
-206.970519863074 50.2257452447136 -9.14776167666488 0 0
-134.082040015337 -5.00289608046118 -15.123492435887 0 0
-165.957161370503 10.5562826574309 6.2610836678502 0 0
-228.05830690219 46.7245193953653 -3.828448059485 0 0
-137.326133286898 -9.65369485701901 8.73469650856192 0 0
-1.55066250720534 7.21246045618626 15.4186315175465 0 0
-163.296745237315 6.32952776550866 9.70750763760483 0 0
-187.136312222323 -28.169553738958 -20.5218804291896 0 0
-90.4138559519736 6.56350749291076 8.45453970544918 0 0
-224.506855346568 39.8382881546174 19.8753139647122 0 0
-189.616648905297 -20.0589079420914 -24.7493478279528 0 0
13.8464226292655 -18.5628137516931 7.27020369434853 0 0
-195.504503738054 29.2441477312331 -9.73087636911973 0 0
-207.792156843975 15.4004655079347 22.5050345216462 0 0
-25.4289367472704 0.289617360537008 -3.70026356232429 0 0
15.8318130182927 -15.2162822075128 3.27710017607487 0 0
-183.415388098849 -0.906119329561356 11.6765464079654 0 0
23.0367517117866 -2.72611164901014 21.5602718163082 0 0
11.788635720284 -15.6736794159523 17.5835119697202 0 0
-163.83861015425 -12.8626486733385 6.51900488215506 0 0
-184.011866705682 -39.8074924568077 -5.76769229969166 0 0
-24.5512675640797 -10.4989879644132 -2.41983601139952 0 0
-215.293138014112 -25.131034017972 8.54002534781524 0 0
-229.065256605121 25.5844795746568 -12.0408589847359 0 0
-153.506984961781 10.5590038292711 3.92670578422835 0 0
-190.574116865437 -30.8549054661551 10.4837714025467 0 0
-206.031633907842 9.92985126838205 -8.63702343657883 0 0
-163.707630211058 11.1216012875867 0.0907347621027671 0 0
-215.785089005646 -16.9906590017025 8.95970642357769 0 0
-192.296591818232 37.3022375137984 -3.73359587648567 0 0
-67.2085987674081 -8.27272143981587 17.5467907387893 0 0
-143.212956841511 -6.6907288965493 -16.3234056264786 0 0
-231.397748386608 37.1835982957241 -6.43285457355601 0 0
-195.093083967454 16.5958932733998 17.9648630755421 0 0
-40.8332257980874 -9.29952192762018 -5.71406779628733 0 0
-122.455783306954 -19.4840159856139 -11.6251795251893 0 0
-62.7441380401732 8.62181425781986 2.26196650817939 0 0
-158.342769324212 -20.0340909521972 -17.2111451456772 0 0
-1.04761642597317 7.11314215516056 1.58533052389005 0 0
-134.269172834389 3.57576242767314 -10.8010041398201 0 0
-175.322327459855 -32.9246837127891 -10.3588056012227 0 0
-231.955042145658 21.4089574803457 12.3260113339081 0 0
-157.543916134047 9.75185489481398 -22.7501305455836 0 0
-46.5866189947786 -16.9891843999481 -0.910183490876123 0 0
-12.8200344697709 -19.3569925253008 13.4876699316912 0 0
-84.285990125363 -3.65074503884485 -9.3194476431124 0 0
-211.148601806922 21.9967588567117 25.8514770405137 0 0
-153.467956545873 5.28606114287001 9.26786899332699 0 0
-233.245101193905 20.121853903155 5.31152287972168 0 0
-143.588814384708 -24.5665686406188 0.799624115201024 0 0
-222.803313508332 45.0048462603158 -11.0527254011911 0 0
-96.8321575597896 -22.0629496926704 -4.75120639243033 0 0
-155.90406800615 -2.14168184487222 -20.1028743138424 0 0
-152.383529681769 -16.3038391599612 6.60402220692345 0 0
-184.219845842972 -21.2671877832057 8.16142815180927 0 0
-211.957027763483 -13.0333610579871 -7.82392281121027 0 0
15.0655830515689 -10.9119328889798 0.407052451451681 0 0
6.98799002722683 1.55302945166512 -4.27964171237553 0 0
-60.9134083233322 6.15617942421422 11.560794833707 0 0
-191.135257044911 10.8882768505192 -9.94294155514465 0 0
34.6549504039596 -16.038807758557 17.4052693303921 0 0
-106.674464307529 -17.1315274109551 -11.2048711940656 0 0
-107.507413053311 4.98036410244343 -3.56605790824608 0 0
-188.016445439613 -15.0728669838639 11.8253983207531 0 0
-213.952985860252 47.3946760011774 -1.57662139519314 0 0
-188.622684248707 -8.00193862495219 14.5519990245556 0 0
-227.667766889707 37.6611297757939 -11.5569654794657 0 0
-228.697996441517 45.7206832834266 5.69663355402329 0 0
-131.970919862455 -9.30737075751376 -14.9599588897469 0 0
-125.214869908435 -0.889104405252072 -12.2986689421118 0 0
-29.7657962992767 9.49986666720831 5.54260272048786 0 0
-234.534282947991 28.4346103488809 7.85510621219322 0 0
24.7664923831243 -13.039072764635 19.6475897825194 0 0
-205.107716131928 51.6950366789308 -0.0658843787925397 0 0
-192.632564121272 -35.287666203013 -13.6346754036074 0 0
-183.016774229225 -31.3469958066029 8.92038685390574 0 0
37.8557875370199 -8.60967841386322 21.5842016889473 0 0
6.47867616845711 2.73636842995653 -2.20323418579753 0 0
12.0352561161982 -6.00803835772734 21.585968897238 0 0
-198.249026578596 22.8246169627168 -13.0592358100168 0 0
-201.877489655932 -18.1771718580807 18.6760196502728 0 0
-201.719670546581 -11.8245709956831 -11.8987359361809 0 0
-220.250650522356 -19.4845460309671 -9.79969018549495 0 0
-216.871007253976 18.6986184687648 -16.9745494650261 0 0
-147.546486774215 -17.1687300339802 -17.2778326800744 0 0
-73.8011600211377 3.88835499192229 -2.8183975859626 0 0
-139.089443313327 -21.0435053743357 4.22974825063557 0 0
-58.663273143498 -4.26735869578315 -7.75694916493921 0 0
-69.9308070975781 -8.66797418144395 -10.2280684936045 0 0
-1.48195170334312 -16.6723277180343 3.72207492158808 0 0
-189.153899484785 -13.8015491934815 12.9098819248706 0 0
32.0059196793671 2.9408776296236 -2.28737600185403 0 0
-175.80145356868 -10.5814573646506 -23.9182114566781 0 0
-170.310417332926 15.212995278635 -18.3775395032615 0 0
-110.670404857311 -11.0046727162579 11.4929816919114 0 0
-78.5203991602307 8.70208588246594 7.31858653386174 0 0
-178.986853385126 3.38497389204105 -20.4913815734691 0 0
-136.093570893916 -11.0755834200512 -15.4482339710975 0 0
-193.778568102772 -13.2473445189527 15.4792595518041 0 0
-230.736886424442 32.7509014562701 -9.82763824014534 0 0
-210.205394831403 -8.00669413148175 -17.0360175021134 0 0
-200.736182730188 16.2449985857789 -12.54114962573 0 0
-216.670503892059 -13.3827690769761 -22.6879940438151 0 0
-194.688613164085 29.7028970048848 19.3942737695141 0 0
-122.989345459058 -2.86519738748335 -12.8321515262632 0 0
-216.481338657562 6.38320799121694 0.0155316161226036 0 0
-87.1045045819029 -16.8721994332995 -9.03705549005176 0 0
-212.175615175292 -9.49363676529326 10.3241982662476 0 0
-45.0275724691935 -20.8461599228802 6.6386968937463 0 0
-199.175361395368 33.7112600791985 -16.6175802488382 0 0
-35.4347161762791 -7.19884330098443 20.012854045506 0 0
-165.264934492038 2.84487359330432 11.6097011075135 0 0
-193.300451411678 36.1902182251366 17.3122913329953 0 0
-218.276263664826 -17.7341284787651 -6.38406961380158 0 0
-114.719792750431 3.03551665682383 -7.50059603135567 0 0
-229.662487683436 38.7296059653255 14.985486263939 0 0
46.2756025203599 10.3597289430876 14.4158382220403 1 0
18.4549157786398 3.98372416398539 18.4284895275276 0 0
-171.348325077163 -21.0536355496516 -18.4464111626294 0 0
-189.246276671166 0.618362855244435 -14.3056625101875 0 0
-211.261616848607 -5.48022557187687 -21.0732693279878 0 0
-189.159852049486 -35.4009634988593 8.47155182540273 0 0
-210.279919848609 -26.6306477736847 11.9529940473468 0 0
-194.170941730219 -29.4115068331932 11.4931568905298 0 0
-165.161307286221 -27.9989087628333 -10.9224262587637 0 0
-217.867316395052 16.2484355110275 -14.6892314127329 0 0
2.87617248623414 1.52357986604508 -4.24223973598805 0 0
-203.365361091313 20.8674539042402 24.2779055703208 0 0
-28.1842827991252 1.29408082160489 -2.82849205454602 0 0
-103.450755231696 -19.986906334823 6.27380398858378 0 0
-208.280070787083 38.2625391851619 25.2183887425516 0 0
-78.1219653249666 -16.1957563364983 -8.0150263353096 0 0
-134.502578206083 -13.58576952097 -17.3130464204259 0 0
-208.937248303945 -26.7927840463839 -20.7551344131472 0 0
-192.955236799225 27.2515507455573 -2.92358722289767 0 0
-173.040869645985 -13.7876086387702 -22.1779495198532 0 0
-185.440929311549 -41.8130519065926 -0.059930857176595 0 0
34.7442149051769 -12.9109064371763 1.76737616983568 0 0
-5.50740231545983 -15.0789334303319 17.8716215457434 0 0
-151.076030705065 4.5798817207316 9.38832399115703 0 0
-61.1726112836751 -6.67978344912396 -9.31179787574945 0 0
-192.769305638598 -33.6803793064646 10.1067377868371 0 0
-158.801245147805 -2.43896192621131 8.73171406719989 0 0
-160.124789480048 -20.4233834687175 5.56273857946628 0 0
-209.17468171939 -22.0475688247642 14.1837286276952 0 0
-227.37826776533 11.4694109062061 1.73906598971792 0 0
-68.9210705770219 -15.3453611000975 13.8778831930537 0 0
33.4652364428007 -14.9641723441422 3.4614846916259 0 0
-226.976427847191 11.3129913237417 6.77921946897341 0 0
-3.1154808913588 8.78257912416175 3.7044556712832 0 0
-86.1785901380271 -10.1238456318798 -11.4202056374465 0 0
8.93065320395916 -10.4909198634571 20.6003582617037 0 0
-84.4480537312174 -19.1598818854062 8.76715052524053 0 0
-71.8776541150737 5.56685236772656 11.1889995623063 0 0
-196.491364065354 -5.61261502210786 -13.0760166787718 0 0
-187.13842572122 -29.8571973450355 -19.3373199814677 0 0
-187.257377881647 -26.6529549639763 8.681512439465 0 0
-195.389983995427 -16.1437404839945 14.261867536327 0 0
-208.802975733729 -24.7970960338846 -22.1814362094143 0 0
-102.488843757029 -21.1941947418626 -7.10761358063392 0 0
-216.500081271281 -11.6896367910342 -23.6387753623882 0 0
-1.29023752703417 0.845164448997772 -4.30033649364297 0 0
-230.592722004627 18.1063759372927 11.8847823505551 0 0
-176.635405962529 -34.5457882177376 -11.2868378296125 0 0
-182.782123024037 -31.0478464819139 7.76802701075864 0 0
-132.085125040959 -22.9346677967607 -9.08828429881047 0 0
-134.436516109776 -25.1327968639804 -2.03504632509451 0 0
-207.534450021155 -12.6073077914939 -15.1874652299028 0 0
-138.142747888292 -22.1325004955113 -11.9021279158778 0 0
-175.404813994076 8.11929496692714 -18.2005959001167 0 0
-210.067363361236 47.936400897874 -2.93116247452598 0 0
-32.8651748434589 9.54681604066248 5.80430789840908 0 0
-185.84001554931 21.5612179313731 -1.29968163613134 0 0
-180.156838702612 -38.9212556840032 -7.05433431045989 0 0
-192.995090840211 -3.68186653246271 -16.1917709294479 0 0
-175.706970278339 -30.3250894612316 -14.5996521598591 0 0
-29.8124873201118 9.92347103263189 7.66434740733738 0 0
-200.941158587293 -23.6283483505358 12.6989141535142 0 0
-112.200130665086 -23.6794588750346 -4.35806035567327 0 0
-195.812261420336 -35.1606627704387 6.51782955376092 0 0
-145.201237804507 -18.0504422928953 6.10561578799727 0 0
9.48365108245213 9.34492983555598 14.1300410958351 0 0
-147.524546172237 -24.5940483285154 -9.79523226065185 0 0
4.64706734294535 4.06488344396301 17.6521543002326 0 0
-195.504481505755 -3.28820915458852 13.8192460044393 0 0
-181.099718581477 -4.44267060327976 11.6523014533016 0 0
-89.2760113820966 -15.3543282229708 -9.83281355072794 0 0
-159.575667850457 10.588719789426 4.83566830038795 0 0
-122.604306356911 -8.57763027200359 -13.9229215633037 0 0
-176.810386759172 -3.42480462700648 -24.0668662633492 0 0
-208.168855529444 -12.012207104789 -9.66414364342975 0 0
-104.513589504391 -15.5370795857678 9.91573282450494 0 0
35.5081907198797 -17.7261751506463 6.78226123745615 0 0
34.717008084173 9.68734032386401 4.24841125362891 0 0
-34.8519701423189 -19.7963513673573 4.80912670641631 0 0
-176.461670129692 12.4605738389802 8.35619283013041 0 0
-161.791083759291 -0.0560845170386195 11.2800752680264 0 0
3.63809185549227 2.60455231286932 -2.19015673059452 0 0
-209.82045856762 52.4255226024529 5.04949832377639 0 0
-207.831497002394 -4.58612759144093 -3.2554355702208 0 0
-26.6632895864 -16.6676275053684 1.63648161359312 0 0
-188.249969262125 10.6185289008637 12.7010360082524 0 0
-182.25016763886 -40.0608138164871 -4.18233553514177 0 0
-57.7807842067929 -10.4230074592723 -8.02882304026966 0 0
-52.4286151538119 -3.44216067814125 17.9459051287533 0 0
-136.241797955832 -18.0256526461421 6.23720457918136 0 0
6.42191963538489 -11.5387792729137 20.1335080018701 0 0
-214.084156672551 51.2907559710978 -5.34323900526841 0 0
-192.570830600684 32.4581492738619 15.7898534671023 0 0
-191.826620947123 -15.1086440716939 13.3337230739742 0 0
-173.156496942134 -29.1178050754016 3.24579366696276 0 0
-136.342423864146 -19.1795786526115 -15.7664755981319 0 0
-223.313355808922 43.885505848516 -11.5680609916963 0 0
-212.111615177037 51.4873554727621 11.0013167872607 0 0
-185.598522706329 -33.5020424155542 9.11947023173397 0 0
-217.669372618118 42.816711518676 21.7317907648553 0 0
-63.9864108015181 9.74232180481184 6.79257118951629 0 0
-140.086283993366 -16.5007414134115 6.84846028829552 0 0
-206.897199631227 -16.1918213253084 17.4321888048658 0 0
-191.593859973934 3.32572087728568 -12.0154357439729 0 0
-209.518470038341 -33.0482286373807 -0.902398746732826 0 0
-52.7340252012243 -6.89221320443437 18.8013657764581 0 0
-107.823605686165 -1.80778560138496 -9.96520332863422 0 0
-197.916815932365 8.48617092527742 17.7321994258028 0 0
7.69297771979009 -12.6935650895444 1.17695172134595 0 0
-213.537306335759 0.522353717292082 13.1875255722 0 0
29.7363438004179 -12.6280820011584 1.49326745529279 0 0
29.1958676697775 -17.2960364819622 16.0368204904614 0 0
-157.213871001013 -17.5346911320479 6.36869823671956 0 0
-165.785346197539 -18.0818177936559 6.54861090455854 0 0
-148.405160658626 8.18338917133731 -18.5746381413795 0 0
-232.443458521846 28.5801881980812 13.8668810936236 0 0
-56.5279204937406 -4.83887313440498 -7.78380746002364 0 0
-29.8372999314248 -2.2275657126798 -5.53556064724095 0 0
-54.5673969437793 -17.7516599005204 -1.55556387956249 0 0
31.1112801565296 -1.77621892617657 -5.20197857825885 0 0
8.92387004715787 -5.72287323669691 -3.05225168455257 0 0
37.3912900976625 -18.7475349064414 10.942112873451 0 0
-206.301924030727 -14.7531138103131 -14.826213936754 0 0
-190.9010168218 -9.99078443651568 -27.0903748568325 0 0
-2.18005990666628 -3.7323495038046 -6.41345921948074 0 0
-213.970406940252 -23.9061307062279 10.3702584457001 0 0
-115.673934797797 -12.0808826694826 10.4994450186408 0 0
-14.3461698557836 -11.7502774367344 19.5919745978873 0 0
-99.0193274018012 -5.43906676778286 -10.7366433862759 0 0
-213.95800582975 18.1923221787372 24.3047350423924 0 0
-211.700544445531 -12.3869394523843 -9.93459736786121 0 0
-97.075223345316 3.25235074666962 -5.07433573888203 0 0
-209.137987202708 -3.06655203813615 13.8534093121743 0 0
-205.578011029048 -23.7839789829161 12.1955440790213 0 0
-222.901731204963 12.1165384765154 -9.11091513273762 0 0
-117.588770072653 -9.57417138124629 11.0216944537131 0 0
-194.495986927123 13.6043060554545 17.2876623875925 0 0
-194.658305991691 -2.38837517864199 -12.7506225150987 0 0
-183.243595471925 -30.1008926529495 10.2745500952042 0 0
-65.4542438843474 -18.4328606559421 -3.23217487095706 0 0
-196.136171444272 15.9994642175188 -9.93492598895464 0 0
-132.767750694934 6.47359421020418 2.06502216625118 0 0
-65.6067815277737 8.25949382840324 1.50144267551162 0 0
-171.444358459227 -24.4508718622114 5.38406519959077 0 0
-74.3208152872886 -9.77534849820167 -10.6480676866687 0 0
-212.929072940057 -4.01539295171516 -19.6047416955907 0 0
-218.762704966492 51.9763098664098 10.2966308544512 0 0
-161.247240738967 10.7930016592616 -0.342171568074284 0 0
-91.6374989881238 -15.5972107685766 -9.93272451110754 0 0
-205.453002305182 15.434802318084 21.8502571276116 0 0
-210.933180698175 -32.5369314692148 -0.277632093894584 0 0
-224.79126591641 14.3460367015025 16.4978849488935 0 0
-202.221197490911 50.6942281165041 -1.23636052037946 0 0
-189.407514420467 -34.7314083373546 9.98716717885789 0 0
-2.84541253767973 10.6034607322026 10.9423664521649 0 0
-197.740238211742 -16.4517236148299 16.6676241410792 0 0
-178.59335210439 16.9418560002766 -2.28138095615466 0 0
-61.7860958531533 9.76710751375835 5.02477145965027 0 0
-100.692963356254 4.93081753082299 -3.69224534994911 0 0
-175.945389391566 -22.8452614084198 6.76929544900895 0 0
-100.455052970745 -17.9377820941108 -10.2746738666615 0 0
6.06695979819984 -4.55175294931165 -4.63670239334901 0 0
-73.620219475259 9.28000061330669 5.36568665279341 0 0
-113.062408497591 -12.1780733868277 -13.3819496570182 0 0
-216.883639294124 -19.2868272792793 4.19320943341233 0 0
-201.629857653758 -9.47560406487922 -7.69977247050177 0 0
-181.884368491603 -26.5061397728876 -19.9282517338839 0 0
-231.33708018439 19.7296986108315 -5.40386069519007 0 0
-196.27708991281 -31.2621265630953 13.0542997180285 0 0
-209.318197664232 51.1853402407666 3.72098354500658 0 0
31.2894057779132 3.95537578134915 19.0565967470383 0 0
-204.438677390101 -10.8603627035414 -8.30320525335614 0 0
-126.412490954169 -14.0040604117441 -15.5284395299317 0 0
-36.9933396052331 -20.2996847148703 5.61605396462695 0 0
-193.961923498239 20.7597943417214 -7.71476951057271 0 0
-9.50892752657646 -19.9742874340593 8.58547915161895 0 0
-180.014338067861 8.50925722264653 -11.2002984479335 0 0
-7.26757159959029 -18.9762871637312 14.2580910943474 0 0
-68.2345702103745 -17.2121961848305 12.1242494070677 0 0
-157.690298568033 9.98005178922014 -5.56626128684461 0 0
-198.643944808554 18.0183300986023 -11.5703912942093 0 0
-178.524080742814 -23.7639720556829 -19.9022621898259 0 0
-219.772912533099 -13.5070572470818 -18.3730461524813 0 0
-32.8076105476023 -19.1949400437156 4.08154647924739 0 0
-194.133819366122 -32.8720814785491 11.5000332314292 0 0
-174.101411419827 -21.4112208342794 6.83821218747967 0 0
43.7981569040203 6.36398716012646 18.0551041271232 1 0
-5.48379582264985 -2.92025881489622 21.0466091604583 0 0
-192.382043919992 9.550662532875 16.1644460836778 0 0
-169.820861439255 14.5162808221152 -11.572412311972 0 0
-79.0603790194496 -19.3434425050146 8.95689273506822 0 0
-129.541596517169 -6.75680046788514 -14.3880483675738 0 0
-178.018052208075 7.43631042430081 -12.4329241929048 0 0
-81.3431467485455 -6.63509605374545 15.9494413777912 0 0
10.2384227801783 -17.3234216510104 5.10859541984811 0 0
-213.21585285445 -15.0866415604352 -3.9294863299815 0 0
-231.873845353832 17.2983315092984 2.19323379575931 0 0
-162.532446640844 -19.2574007358973 6.19322396050683 0 0
-115.462523811667 -10.9740912227793 -13.5391219673046 0 0
-214.913330685729 -14.4104565001472 4.73969109305826 0 0
-210.110790493276 -17.4099992618143 14.4772142403394 0 0
-127.033485200402 -6.15077660707947 10.7851201896185 0 0
-227.417961102353 25.3370351916073 -13.7836143086665 0 0
-128.959768176444 -4.20269806109829 -14.0521642339399 0 0
-131.855206549626 1.48604020143848 9.62231562254379 0 0
-57.5867508527594 -21.2255429336583 5.49898588515267 0 0
-208.907667627902 51.2852343320537 -8.56538375772757 0 0
-192.515739708198 14.8578899303857 -8.97956637068342 0 0
-147.089279016774 -7.61588215162592 8.09559440673869 0 0
-150.540359704175 -3.15710497377305 -18.2549213237031 0 0
-181.145251207975 -37.4075562549463 -10.638962012897 0 0
-56.3076010113473 -20.2625718778708 1.82116019054317 0 0
-147.223923426905 2.37103436222992 -18.4636617253223 0 0
13.186484171896 -3.68038953260004 -5.71166434391448 0 0
36.9731803811209 -14.779509709935 3.24189550047107 0 0
-219.836587471068 -24.9974018373175 -1.47804446531699 0 0
-216.209768117722 -14.3967134103521 -9.87008258305143 0 0
12.5093033746428 -1.49112758097401 -5.5819565152059 0 0
-165.036918140934 13.321898571466 -22.28053279626 0 0
-45.2366781334337 -10.6838331632508 -5.32193618613026 0 0
-120.185220605682 -8.18197595968115 11.1502509776732 0 0
-195.730706801866 20.5760072348574 -9.28754662845257 0 0
-185.326681672456 -25.4036838858438 -21.204142650396 0 0
-203.932368874324 -28.3778158268338 -20.0951522867562 0 0
-133.834208695128 -25.1196071052336 -4.58631045871822 0 0
-177.981513602972 -33.7690028030671 2.41616224839273 0 0
-211.98381225386 4.83477778406979 -1.07462944439123 0 0
-191.563346005264 -16.3485379819477 12.4906488990107 0 0
-225.099006992605 48.9503215607973 9.09409998705172 0 0
-6.58183050882159 -14.7175351898735 1.86255901495025 0 0
-199.693047012588 21.0085888846291 22.2691352958537 0 0
-197.370305890079 21.9924369249053 -11.084872111844 0 0
-114.733657315643 -0.895621088605668 -10.5076250516611 0 0
-163.429505792469 9.37569267404716 -22.8845546720499 0 0
41.4661534194975 -1.12817730074547 -5.39146518083828 0 0
-210.353114009342 -10.1712064359956 -14.3882102892907 0 0
-230.471219932696 21.1365762697 14.80711521546 0 0
-193.400260351743 -24.7999163965043 10.1360126978521 0 0
-69.9278815709907 -18.285411489468 10.8129293956825 0 0
-181.221997366798 -10.7761994718726 -25.7047665578845 0 0
-117.834155318888 -15.4951200454852 -14.2729235564935 0 0
-136.024143569086 -12.6116200104805 8.22736190117078 0 0
-225.44452335172 21.7209936194119 -14.2425686045796 0 0
-215.612345517838 50.4148288090584 -8.47552462014393 0 0
-122.227993901208 -15.4609310506834 8.28040468542097 0 0
-141.244793766079 -25.6672351972712 -2.90964746312893 0 0
-63.3918847231379 -18.7316007302507 11.1302784269835 0 0
-103.234138666293 -15.6400177814351 -11.5566897031648 0 0
-192.922261664186 33.7791148343532 -1.86262280641676 0 0
-131.467290733935 -9.81198639881196 9.36071599958383 0 0
-140.766696448084 7.07777403318921 2.22939897164958 0 0
-105.284063183047 3.89703423446329 8.91104265508439 0 0
-201.128876845274 29.5317471970998 24.8512701191003 0 0
-187.104288211662 -36.2274437873143 -13.4458760219399 0 0
-157.253244395982 -9.39459116981851 -18.6992978641236 0 0
-164.015924181224 -22.8677556638466 -15.3088973215381 0 0
-194.527714530772 -5.84267877343465 14.2437084388161 0 0
-134.079774964836 -12.3065829232333 -15.6631375078299 0 0
-147.978293466376 7.65572992053461 -4.20010837688726 0 0
-176.981060126787 6.44367644859872 -16.2862386836061 0 0
-136.159164330692 -21.8187365314589 -11.872250867634 0 0
-217.597589167786 4.8515828939661 11.5132520514177 0 0
-121.570035950066 -24.4650997408536 -3.9128178525387 0 0
-96.5461352288258 -21.1785163520804 5.30480794871023 0 0
-219.522437403558 -16.8406220297601 -9.8415662233226 0 0
-230.952890581623 16.3331573981922 0.0502327454183566 0 0
3.32684567905357 -1.28978818273573 -5.56733892052458 0 0
-6.43886421061475 4.27018394529671 -0.665075421366483 0 0
-187.213116915219 16.0206344918417 12.0990603968531 0 0
45.6021611620438 9.05477970396189 3.21815814805982 1 0
-53.8941740619426 -19.5651112503666 1.06615679012923 0 0
-207.154640555002 -8.61737901880937 -4.75298870056654 0 0
-152.75051324324 16.5491842885077 -17.7660469159906 0 0
-150.162547427887 10.4768764661373 -19.9448507035734 0 0
-185.084910336624 -34.7642039610081 -14.4962289147109 0 0
-194.377992592557 -8.20397762455025 15.5179688767358 0 0
29.2589165836753 1.31674565786874 -4.14586287042264 0 0
-131.300374867133 -19.2972217476196 -14.4233148941927 0 0
-221.26353146662 26.3039565958117 -18.0964561265034 0 0
-195.12783004068 42.1344041154383 -9.13776274191609 0 0
-209.498568195257 32.9515319808567 -20.0818178840307 0 0
-99.3040546819964 -22.7640096635994 -3.59754436797571 0 0
-191.080364392144 34.2075159185804 12.7182484222009 0 0
-209.513462808504 -14.3804441335912 13.6583361522324 0 0
-38.2591978961221 -16.7166396376044 0.155145007628177 0 0
-169.017580154298 12.7052590972688 2.67818397220904 0 0
-0.426945184535501 -3.95196071832903 -6.31122895742474 0 0
-217.391569971681 -15.2382916817412 -21.1338810077022 0 0
-31.9444556132892 7.96151939935493 2.27908678325125 0 0
-203.124059207714 28.8550887275912 -18.8642890748661 0 0
-57.4143555900787 -16.6805635193176 13.7145734958057 0 0
-218.693269806384 -11.6941536764583 -20.4262628472415 0 0
44.9923510254569 11.1145303080806 6.24225704591807 1 0
-178.842568116212 -1.84823640329047 -23.942776613023 0 0
-183.494510949951 -38.1197575451748 6.66264714945561 0 0
-90.2024821998943 -19.3409442431247 8.05776134210491 0 0
-200.33458259775 8.67146773112488 17.9880593901667 0 0
-149.141746324125 -11.105479816719 7.35927307094961 0 0
21.5366794200402 -15.0443170762741 3.20459617763336 0 0
-232.079630023399 39.159949759715 9.14923428046486 0 0
-203.05908071433 -37.0492804682722 -1.88555269673838 0 0
-121.204311322171 -14.8732925543018 -15.6250915030605 0 0
-181.231233307795 -34.872732354984 7.86171747379594 0 0
-109.867429040238 -23.4268720597851 1.56055109068858 0 0
27.416810555895 -3.39633759087226 -5.14939884327571 0 0
-104.475487181454 -11.4339685880307 12.1641052738622 0 0
-86.0851676376685 -2.56976408349322 -8.93135847423082 0 0
-188.684685885784 21.5256598571155 -3.58985113051349 0 0
-88.198062509101 -2.39105043488824 -8.87176796554495 0 0
-124.405059627657 -24.6914880590893 -3.09358547679878 0 0
-192.047221175787 38.6186937528884 -7.25620262192782 0 0
-221.510372653365 8.92320230397601 -5.44474385429083 0 0
-113.940175140671 -22.3666662214841 -7.19716729850295 0 0
-183.165468390168 -25.289956186736 -21.0042434284841 0 0
-112.001353462984 -0.0323493008909261 -9.47219968382847 0 0
-8.7155090789606 10.0818733168691 11.6837697730894 0 0
-13.9865725257139 2.61706878606558 -2.00786588154682 0 0
-179.295921003293 -10.7503083916512 9.77008817665165 0 0
-191.102494563523 27.706025631591 0.612680495506987 0 0
-218.637038065027 -25.6900460627214 -11.1296803193793 0 0
-182.65680358561 -28.7881573857003 -19.0806894916601 0 0
-165.841253796305 7.18326972291772 9.72073464513846 0 0
-102.486357125497 -7.82854106518059 -11.8337605765207 0 0
-220.784977960867 -22.4263315986464 -10.9201512046636 0 0
-159.352960353835 -12.0573376389952 6.66913181887284 0 0
-174.261325523597 8.13725339740911 -19.9698643782216 0 0
-218.481687391325 10.0110190065108 16.7234648880985 0 0
-19.8511493852163 -19.7847683082153 6.82975783934288 0 0
-156.584062534538 -13.6335810443219 6.72852724814059 0 0
-209.659773979155 51.8408148266582 10.0337037460417 0 0
-144.29951666589 -22.1594324318901 3.55314872875253 0 0
-231.03530883309 24.4264490693594 15.6433480616873 0 0
-95.2818967823106 -7.51640916222593 -10.9761255164323 0 0
-183.126848741589 18.9576790439681 7.47475848403428 0 0
-206.836491807026 24.4385983755254 -19.4637288209364 0 0
-219.390511360092 -22.9980213638755 1.30212297764017 0 0
-167.361309705447 -10.3609228678997 -21.0550289469815 0 0
-34.9237113010314 0.155276950217104 17.4192552892242 0 0
-208.512103778491 16.5364357609541 -15.2636244674439 0 0
37.3977683501063 -5.41021037952684 -2.39916881338671 0 0
-42.4806726009439 -6.49488744990955 19.567208050361 0 0
38.4541489219329 10.792520764137 13.3185098225752 0 0
-234.361080917763 25.7757698204913 7.94293075265218 0 0
14.1909874780155 4.0128763194979 -1.37684762780686 0 0
-119.562802929855 -11.029738105435 10.3750839629456 0 0
-217.247889018991 -19.2622141125238 -0.497634016500752 0 0
-42.862889081287 -13.9764553738017 -2.64024623358599 0 0
-122.424545443403 -3.47999818963635 11.1938356551303 0 0
-207.980509186475 -21.6298542755415 -23.961741181361 0 0
-105.082972887135 -22.661048623601 -5.00430165963088 0 0
6.54081739471639 -8.48769421331188 21.2234730969705 0 0
-204.490907307139 51.9569034915932 2.21850591728288 0 0
-213.584108091182 -12.4748158690873 2.01228849679031 0 0
-224.274539691858 47.8993732868302 -6.0145559771897 0 0
-169.712234211815 -26.0440703551954 4.30676194533031 0 0
-228.218121399959 13.9558606755018 10.6232435095598 0 0
-68.7568233982705 3.75971348654131 12.050618417001 0 0
-203.167510846591 30.6260865371033 25.6182759039053 0 0
-137.782631943551 -13.3424689345166 -17.7786386213483 0 0
-148.08521104413 -25.5413026154397 -7.78365117803478 0 0
-199.802284740549 -11.2863646512777 -15.141757579856 0 0
-113.986019601196 7.00962558553019 1.13507246043745 0 0
-183.947333248885 0.842313777890285 -18.1587941519065 0 0
-138.157260796177 -16.9204418761235 -17.6529104924042 0 0
-233.335545686754 21.1633913775714 7.42172815859812 0 0
-142.445774184047 6.17954069366331 -9.58068448327581 0 0
-77.6837814086519 -4.64461124166872 -9.24257985610662 0 0
-164.488050942643 19.5843708147494 -19.1414984009069 0 0
-136.909343166809 6.58509528800895 3.47220855739641 0 0
-192.346154994801 20.1318720207972 -6.88750808983288 0 0
-190.896012285772 31.6425548402737 11.1899415058143 0 0
-217.147166498033 -6.96943639980306 -17.3226333557966 0 0
-82.5994992428321 -19.2678662800188 -6.08949432901811 0 0
-177.2038401628 -35.1393224116245 -9.78306710851421 0 0
-229.641359049782 46.1683608300271 0.152560609193249 0 0
-91.3100093006321 6.86381195911155 -0.462081804820827 0 0
-85.3835650009429 7.57019734629657 7.73089175216486 0 0
-112.508812084461 -19.3111584324586 6.21005412545277 0 0
-64.6024451408557 -13.5245501635676 15.7172096448814 0 0
-176.132370016406 -33.4783717924268 -11.6815336887457 0 0
33.2982917635166 -3.90923233000502 -3.77283320617243 0 0
-138.134057709247 -13.7584200370984 7.74854919310463 0 0
-204.9033223856 -29.4932325824367 11.0591569923935 0 0
-218.403964128745 -15.0462201765083 -9.77783953398022 0 0
-205.711720589543 46.7786161423261 18.6103914179157 0 0
-134.039140332849 -24.3345853940971 -6.97340215954675 0 0
-158.526271893458 -25.5431724087341 -11.5587723871803 0 0
26.5952895105172 0.948508120794007 -4.25180365745876 0 0
-31.9425946850576 -5.9542421359435 -6.37542639498922 0 0
-200.515462895478 5.21877811296039 -10.1561623010031 0 0
-225.101068914332 45.6173355997986 12.723727554454 0 0
-211.63449251249 3.04202396046764 1.02824410447457 0 0
-165.464828091048 11.56978319186 1.08817613021713 0 0
8.97579734017626 -14.0985840688485 2.16448610063576 0 0
-51.0224089941637 -18.1021108853506 -0.449546327056518 0 0
-225.400356526578 38.1110617969318 -13.5150679891058 0 0
-216.588957530687 49.2988304838788 16.4427630785644 0 0
10.3932492485294 -18.0374256682267 15.2885514618359 0 0
-194.116467641103 -5.11470312053913 -24.0784082619003 0 0
-15.8153941774556 -18.955376759477 5.48604007321886 0 0
-198.476051987097 -0.225968360807641 -10.7390799621149 0 0
-220.318115501967 24.6047018706181 -18.1582539243334 0 0
-214.17852702979 41.9776304972127 -16.5102133147471 0 0
4.34677235004088 -5.20240395194625 -3.87086386897538 0 0
-120.351904905926 -8.57769636100877 -13.5745050412054 0 0
-29.1729660617052 -12.9588703690898 -1.37834482145521 0 0
-153.311469999857 2.08866988673852 -20.3024295985027 0 0
2.12709942796186 -13.4388971572072 19.032374944172 0 0
-194.646482712843 14.001348216284 -9.68377306310042 0 0
1.37054950809146 -4.39666567567123 -5.82365096130981 0 0
-213.436920336605 -1.02858783441652 6.17527238682583 0 0
-15.1166368893618 -20.2736809148921 11.0214663453423 0 0
-185.632259551828 22.5537720216871 1.07712749675336 0 0
-81.2891002322275 5.6681662734337 -1.89654736025932 0 0
-224.003346216711 25.4217562795831 22.9088225681651 0 0
-75.7220595089944 8.26752365897341 8.76644702245349 0 0
-122.748603223397 6.68145953797241 -0.973998801794512 0 0
-212.462235991254 -22.4594704303311 -22.2633872603092 0 0
-14.5709094719924 0.773597607559723 18.6037649995429 0 0
-15.6462684674088 -4.72146661318194 -6.07069879031657 0 0
-219.707381932276 22.2191610424592 -17.6988559610752 0 0
-95.4096896855038 -12.7669620113015 12.695827019336 0 0
-93.2018405422722 -22.902050660416 -0.373178217210151 0 0
-156.697181954821 -22.200568216822 -14.7920362083199 0 0
-107.305111731974 3.15534607381324 -6.06230517034358 0 0
-210.831462029048 47.1015491645769 1.27773444444035 0 0
-219.363608284835 -11.5843408466929 -13.0593901413431 0 0
-100.087667681528 -6.88969751545033 13.7891222204469 0 0
-213.484252518694 -19.6877407403001 -23.085251447282 0 0
-161.342314443746 -13.4672860721078 -18.8227903983934 0 0
-188.317753727688 -39.1872833076077 -8.46144287562991 0 0
-218.503838787058 44.3566304434489 -13.4655754895122 0 0
-205.124313093523 -21.699421924767 -23.9498465580614 0 0
-215.34417044886 15.5679481838937 -14.3902052873095 0 0
-204.348530576189 -21.7659891361837 13.7134425421099 0 0
-232.703396378531 20.6313069425818 9.37233346392983 0 0
-204.985108154582 22.1972708554386 25.0266171939583 0 0
10.4553649305746 -15.9268691091955 3.65232457960899 0 0
-147.137407552366 3.76319209887833 9.02322141875521 0 0
-186.621398851778 -0.340732908401902 -20.0774082087195 0 0
-30.5919777141133 0.278136116446911 -3.52012570693902 0 0
-117.813218193863 -9.33980377379019 -13.5297506383474 0 0
-195.629175893003 6.37161832395555 17.6254247782118 0 0
-212.59132583313 50.3420689623541 -9.76851388371251 0 0
-40.4167305679955 -14.5300761075336 16.751382408703 0 0
-139.166231854077 -15.2228116872786 7.3211743169602 0 0
4.3008632680937 -19.7954586420669 11.5499292140225 0 3
-149.796603967061 8.41173691436579 -3.0319581476117 0 0
-115.388236438414 3.15899790995061 8.78586043659847 0 0
-1.24794500598134 2.89549240992737 -1.81078394649767 0 0
-197.988673055791 3.7541357499146 15.8433352783477 0 0
-205.962829968251 28.4718190180207 26.4495034913716 0 0
-21.5348542882169 -10.8102219315496 19.7622173115026 0 0
-176.259509795104 -35.3723537424719 -8.31084336297707 0 0
-34.7616442936371 10.029015376983 7.92692153579302 0 0
-160.725735893558 -0.823696144680297 10.425657766688 0 0
-196.576687448741 -17.148875211502 -26.2405508262603 0 0
9.03389129713964 10.2197640654403 5.67942899066147 0 0
-161.317943434592 -13.0074577998901 6.5044466823926 0 0
-3.65833093567504 4.90658188598762 16.641573966527 0 0
-169.621129420844 -31.7830233436162 -4.24726596524414 0 0
24.2022653343602 -7.08023220789859 -1.56297497176989 0 0
-192.819627151111 32.2212409951453 -0.389633474165046 0 0
-69.4028975520508 -11.3421854685335 16.4400515311106 0 0
-111.49458503871 -10.1463859612482 -13.2229203229033 0 0
-176.896607535813 -36.2311025228058 -6.38008964055911 0 0
-226.72588772424 45.8174665166402 -7.59862102047368 0 0
-199.806393563734 48.9983857577124 10.7693254962199 0 0
-229.208398601053 35.3302550173463 -11.0194847700289 0 0
-85.3976963518683 0.826036925953885 12.3377894310081 0 0
-192.311507079277 1.85695932704065 13.0207569301641 0 0
-201.187891440347 -16.0062671544385 18.5406903323628 0 0
-94.1546002763146 -10.6010030287001 -11.8885227445005 0 0
-224.034433437269 9.41771133594674 9.85692521217677 0 0
-128.141797281241 4.44688347588856 -7.30186593142074 0 0
-125.017557019166 -22.6047467173672 2.60132009294288 0 0
-203.190566510365 43.0166834610205 -14.694433746692 0 0
-217.586228512136 -21.0719431804242 5.17803388143424 0 0
-215.158596850714 -21.9430732227778 10.6787046142048 0 0
-186.400719093077 10.4099321196371 12.0646791691728 0 0
-52.3790360208035 -13.3558789683519 16.6931417301009 0 0
-189.253989126781 -2.50794150790214 12.5307382663524 0 0
-194.788417219324 -5.3613748047152 -15.8203460213802 0 0
-147.886818988564 -19.0845580385573 -16.948450563136 0 0
-111.503779071615 7.08452782862575 3.18464096071246 0 0
-211.528995413489 -19.2680901210186 -24.6215553927656 0 0
-69.2482900713664 -5.73007390512552 17.2966492522358 0 0
-154.76157503681 9.77480810528075 -8.24172213856371 0 0
0.581586489176277 2.39230236122347 18.4753583399987 0 0
-47.5027584217474 -12.5074654787845 -4.50381302135991 0 0
-76.6772676204937 -10.8650566297661 -11.0686206839101 0 0
27.8653170589537 5.04854339355107 18.196434815161 0 0
-216.812319578107 7.49948059230413 15.3814702977786 0 0
-158.434541413617 -27.8936509863197 -7.58941464226782 0 0
-201.100496170186 21.8758992957878 23.7812030322224 0 0
