"x" "y" "z" "f" "a"
65.4638333626288 6.92083622858156 1.11830189919006 0 0
-185.18653207376 12.6107661490306 -6.91408618451121 0 0
-18.3902989831954 -7.38971609957067 -3.49138634197416 0 0
-100.794481304392 -3.81359873114941 -8.3611456679659 0 0
-210.768471256309 -10.0364239846365 -19.0223307929689 0 0
-206.234705543056 37.241248381967 -10.4031818527972 0 0
-199.723924665321 2.07971221591038 12.8245878705482 0 0
-159.641628390471 -21.2427630380641 -15.981258876048 0 0
-139.188494446538 -21.4686068477316 -7.20192890158688 0 0
-206.193003853237 -12.7549084499811 1.44508312627467 0 0
-34.9469462008252 -0.786420085563663 -2.6111822599918 0 0
-30.4789478725224 3.08945202396976 17.7610134881459 0 0
-173.109131590985 10.9462616724007 -8.53038777107525 0 0
50.9875323235846 -15.5199809415163 8.63667596421607 0 0
-170.898869785243 11.754566269367 -8.05229377882789 0 0
15.0659203298503 -14.8118910625016 5.55532510290378 0 0
-177.614900542611 10.1561330815334 9.32006619712958 0 0
38.4016863497986 -12.2801740828224 19.0099995725278 0 0
-190.42887785133 -28.3761367215138 -16.7214184623834 0 0
-135.44969499579 -12.488962857708 10.8251433829823 0 0
-203.037548541902 29.6670606004684 24.9961061485976 0 0
3.92043302951296 -10.5243792357853 -0.0762902458003361 0 0
-150.809680396627 13.2458098950047 -12.6113555506528 0 0
-89.0717429360426 -10.2853395075898 -10.2457604903976 0 0
-111.020387943081 -6.80082977396276 15.6714124962954 0 0
-113.6009690428 -1.93462282181656 14.1805716507275 0 0
-127.263265575139 -8.40519428408541 -14.5971533224593 0 0
-27.2206347254872 1.72950555070717 2.17807554586511 0 0
-30.1363494480322 -5.90479087511894 -5.00633390599561 0 0
-70.9085509971089 -7.20098855956505 20.2203554633052 0 0
-81.613901098073 -10.3554884105068 -9.04209840835524 0 0
-185.055489751262 -24.2733650919368 5.32834987801335 0 0
-203.838746502884 -24.2446528288026 -13.6248062399131 0 0
-181.588030771227 13.3557182564401 9.41289276084247 0 0
-218.026047753168 17.2168871275575 23.3484322557599 0 0
-164.215744057186 13.1774799360207 -8.22099217632817 0 0
61.8095975196932 3.64746482382058 20.3508299745608 0 0
-81.3362708570467 -2.52958758246008 -5.61351751831867 0 0
-67.5818963319016 -3.58822963154798 -5.84060573156969 0 0
-183.094036868755 -1.68961164792351 -21.2641730931952 0 0
-207.729516252163 23.1406383296046 26.6497321487683 0 0
-192.048529541422 -2.84691152115679 10.8715679522891 0 0
-62.6939043936973 -7.59839448525268 20.7807572755699 0 0
-189.264008224259 22.9091673865307 1.24357315195331 0 0
-146.785737505153 7.20478001043255 -7.09653610921313 0 0
10.8675718858319 -3.52089293741467 22.3981460784549 0 0
-20.6213709644071 1.1485520320279 0.631714239074239 0 0
-128.643802886089 -16.2577245274218 9.69869285380464 0 0
20.7266503004477 7.66131141071904 12.7776682928205 0 0
-171.556572598036 -26.917764661117 -8.57063873851321 0 0
-203.899852123098 -19.4335858597123 -21.229093066826 0 0
-227.061622882691 34.0927169861585 -2.55271669998361 0 0
-197.808295089896 12.1966405510499 16.4001697702465 0 0
-229.350202155337 27.6732263780863 -1.17669369668648 0 0
-52.9789403291672 -18.6038554698476 5.42629643743341 0 0
-77.1702963996352 -14.4411107227148 17.373580424194 0 0
-214.691324574839 29.7648674068868 -13.2282621166094 0 0
-16.55302558908 -11.3609442524417 -0.123863362472234 0 0
30.6651316660753 6.11768568109221 4.73569259196934 0 0
-171.677882657607 2.85745031658321 10.6790529764573 0 0
-10.6227690616446 -7.46601456895787 -3.24724094502784 0 0
48.2938174641455 2.63541442385548 20.7192920590613 0 0
-199.508027334512 22.7308786267308 -9.02288470408165 0 0
-64.069976190453 -6.12347968613619 20.7330575235755 0 0
-138.885559900888 -1.83208822969234 11.3274740611908 0 0
-103.978474561847 -17.75653135164 11.0731648279817 0 0
-176.793583775722 -6.09531001337349 9.5687666971551 0 0
-196.429239832838 6.06896964719304 -10.1057892919279 0 0
-220.107225550529 39.4222459657494 18.7427771576719 0 0
-194.58341688674 -6.10939961838145 -20.1617235038241 0 0
-199.268938452907 -18.5401460459022 -25.0444454735031 0 0
-87.0450537637655 -6.88593198642511 -8.58325868165365 0 0
-67.8156160379651 -5.91076379292047 -6.82694586034919 0 0
-195.828633401849 30.2527635042102 -2.39674984221662 0 0
-222.092537487327 41.7134313688427 0.141561578667786 0 0
-55.5222412065461 -12.9523332334443 -2.64283710960785 0 0
-28.9608966016828 -1.38012529104663 -3.22638001413909 0 0
-27.2654653454562 -18.1516721314854 13.3058450984652 0 0
-8.46109871064743 -12.0940355983853 0.89595366140241 0 0
-207.551900532281 8.82346947011484 17.6199070009703 0 0
-199.002179356488 -25.0337743110444 -0.144033282372094 0 0
-57.6780653132277 3.13045998676701 8.98078412012115 0 0
-168.869275165832 -10.7890720691527 -25.6821126096413 0 0
-122.250533675077 2.66244165766314 -6.03170894453791 0 0
-181.75625975062 4.17699871241724 -13.3014723666381 0 0
-166.392227832663 -10.0501265377244 -24.9478005641304 0 0
-72.7310320308623 1.34584679325904 14.6215779403949 0 0
-141.560563396861 5.16333634357389 7.13285360647724 0 0
-15.1705735072314 -9.80562558973944 21.5351783875635 0 0
35.5951391659886 -1.52464998987383 -1.65281700406466 0 0
-83.8874075558726 -13.6206215085148 17.2160193900034 0 0
-39.4672554750088 -17.9152497866557 14.6698389001131 0 0
-195.274428125666 19.7758003145439 16.8466938742126 0 0
82.2955958611461 -8.99145415313656 -4.48694066304976 1 0
42.3163901722992 -4.24811447908326 22.3593487315196 0 0
-105.849418568359 3.61748770342672 5.25404207662862 0 0
-144.374090988922 -10.3665071682895 9.88041873123534 0 0
36.7899725398751 4.99318526561378 2.56932106567976 0 0
-204.65757891657 11.4843818165655 18.8897144845351 0 0
22.8827153183593 7.33801424817355 15.0190490961631 0 0
-76.4388127288406 -0.758559317408338 17.4743590919752 0 0
-184.925346624333 -18.7104024239553 6.49041777602079 0 0
-54.9428818800667 -7.34904917590967 21.2989048624246 0 0
-226.369340607729 18.6422391549814 -4.27729463466635 0 0
-171.195632207545 12.8222493204332 0.092923531743322 0 0
-174.6282163244 -13.1659753892085 6.66540998419976 0 0
-189.220918739164 -4.23609155451508 -19.5530405449448 0 0
31.2955164684488 4.67817922494547 19.2752437707661 0 0
-183.398164312402 -9.76724230759822 9.91896070255167 0 0
-152.103859467861 -18.0036558865961 6.82952300704532 0 0
-210.052691955743 10.2842175046362 -7.16918363406003 0 0
-118.557715062112 -20.8412382488023 -2.69525332164974 0 0
54.6155573883577 3.52467697318963 0.330513201543648 0 0
48.227318337953 2.56901544479309 -0.0259921469524877 0 0
-6.94832962472756 5.28387886471779 8.87021252604239 0 0
-24.8512707559677 -2.06203950260057 -3.49011223670163 0 0
-199.924669841569 -24.8165877809529 -16.0777208256128 0 0
-205.928597675559 -18.249374598473 -20.8474087177885 0 0
-130.398536238102 -17.5049461296905 8.51949195210485 0 0
37.3005318268111 7.83193206833005 15.7359107370821 0 0
-20.8496363177796 -0.152188595092391 -1.74477702622261 0 0
-136.776492364769 -0.385446112233052 10.942050409603 0 0
-178.671556878103 -28.603790426056 2.28975381275415 0 0
-220.16498361686 31.1223638555174 23.9118373161535 0 0
-206.42106355872 -2.96175594941539 -22.3769998716451 0 0
-177.106906951278 -9.66708016992344 -28.1303897712863 0 0
30.5339793937905 -15.4316173380607 8.84848714545675 0 0
-173.227669795289 -8.84856061712885 -27.2912497903163 0 0
-189.314937749758 -9.48447659575895 10.8177515095561 0 0
-129.906373860394 3.14191779344616 -6.8557455069814 0 0
-145.911225373396 -10.1708626736088 -18.9202947237646 0 0
72.8281951110036 -6.22985842091759 -3.41200778723703 0 0
-209.035220143576 -11.5019434589034 -12.5870909204218 0 0
-121.025014845448 -4.72102212835402 14.1782389593794 0 0
-58.4389953758575 -18.5667525265419 13.5410502972815 0 0
-210.551265369936 40.4711831138491 19.3880089903866 0 0
-200.127590732533 -9.20680051319466 -11.2741711526418 0 0
-194.867386122294 -18.7311088883772 7.01580715694197 0 0
-36.6099478108173 -11.5950653890183 20.5538406469316 0 0
-204.891171849839 7.12957357236501 -7.82130979249671 0 0
-112.957906254307 -9.2927903625148 -12.3784295032784 0 0
-145.671096281735 -14.192475422831 -19.7436012119417 0 0
-201.667093246612 -3.85881612290587 -3.37728192444632 0 0
68.2392172209059 -15.8174798989187 8.81174597445864 0 0
-130.130596006478 -14.8396227468568 -15.2832968107642 0 0
-179.364215830807 -1.45505818307411 9.93894859007922 0 0
-147.93245943505 -19.480949577723 5.63616381427976 0 0
3.70149222020138 -7.43434085861712 -2.69279760940099 0 0
-34.236458041981 3.93280120733309 8.79046952517778 0 0
-72.7676287486033 -11.8144254856281 18.9169872173046 0 0
-137.954988354348 -21.0260583993113 0.0804538070424175 0 0
-208.774597020143 -13.7816160210418 -20.6616356951471 0 0
-209.710514714652 -18.0820623522307 -13.2783952503898 0 0
-194.55365896839 9.00795924530265 15.0440192099604 0 0
-177.013218383319 -30.1141356203232 -1.18738719902728 0 0
5.02478134489699 6.58645277017391 13.4479340733305 0 0
-161.476575066871 -23.2405016301763 0.96840684382213 0 0
-194.269875089015 -18.7017628541131 -25.4516604980852 0 0
-203.020694860907 42.3126827024487 16.0009670965125 0 0
-163.379543210505 0.608425521472229 -24.122244084475 0 0
48.1034952452069 -1.37326724795096 -1.31075471566201 0 0
13.8077531283381 -4.91346212176878 -3.28963940092151 0 0
60.2850044056501 5.16317300035533 19.4452279870795 0 0
-177.979311245634 -7.45197802634417 9.0846231688941 0 0
-8.5005093326853 -16.2262178314523 6.64526047558691 0 0
-85.0652771047166 -0.190662631665281 15.7522471927124 0 0
-45.3807323637025 -15.422189478985 17.6124458151862 0 0
-116.674160818734 -2.99887770112112 14.3034099939184 0 0
-201.388875149154 -4.94590860726336 7.97703704389608 0 0
-192.236307144597 34.4447239880893 4.59418349796929 0 0
-228.165388287259 36.1331622066383 9.08118063456659 0 0
-89.7568034024016 3.05309692702699 6.36001018463284 0 0
-195.115924340168 39.0797260621981 9.16413201354687 0 0
-180.495636443268 -29.6465716993065 1.74952376355342 0 0
10.2786229694664 -14.4678236500329 4.62004296917113 0 0
-51.2701217391071 1.55404402286206 2.36825416588911 0 0
-177.896067045578 4.3354503972845 -14.4776227539162 0 0
-109.273035866648 -16.3222461208846 12.0071471734936 0 0
-92.9644663235158 -10.0827987976425 -10.6463042564025 0 0
-211.194411299978 45.8195244334405 -0.459690098165718 0 0
-203.304690504057 -3.92235769116643 6.71025690847927 0 0
-186.794737666984 -28.1748004552149 -17.1909604097032 0 0
-210.699189597515 9.49770898756988 18.7419009877436 0 0
15.1687895761213 2.86891664804289 20.214103830861 0 0
-176.900639719981 0.965676193147684 -21.9195122337753 0 0
-150.691060455509 -22.1342528735233 -1.10808289654302 0 0
-193.063372446059 37.0801827708519 7.66416350352412 0 0
-54.8928588167669 3.10948642940708 12.8820001115444 0 0
-188.542113051617 -28.5734341746968 -17.1346453884718 0 0
-198.591979453181 39.2457411760656 15.9684154149279 0 0
-189.679630120402 -16.127215867621 8.36061130011443 0 0
-194.740662215669 25.4812051070601 18.3411060376065 0 0
-104.365620122595 -8.01940388242924 16.5526496711967 0 0
-229.250729944407 23.1419038219954 -1.30304219363628 0 0
-90.992189073368 2.9422286667687 4.25252148983295 0 0
-190.057988555556 -26.9938652028953 0.64983183424388 0 0
-145.027140464751 6.91391707810436 -1.58401306038411 0 0
-196.011183397239 -1.81154164655471 -10.4076972456607 0 0
-114.804409406792 2.62586627309054 9.40272592058114 0 0
-70.2763349421103 -2.16354394544761 -5.12236561301213 0 0
57.3804244423855 -14.8576179562727 13.5226656222435 0 0
-185.398996727055 -22.2948626554889 5.99261910719453 0 0
-105.653054800326 -16.2372560374721 -9.65880135833807 0 0
-90.475411104426 -5.86275722594456 -8.41707792036492 0 0
-89.2610207574891 -13.7422703856165 16.5376470818448 0 0
-196.432465248515 37.1052044656607 -3.37027708955438 0 0
15.5396722645896 -6.12250396794498 -3.20955353816944 0 0
-206.157415058084 11.8791666934832 -9.84382159120506 0 0
-165.728538888519 -0.283185662656357 -24.5138755695987 0 0
-228.895454349445 19.3633995797614 0.405781078996316 0 0
-87.7294782757511 -1.4505432696536 -4.91012835020354 0 0
-61.3882681629671 -1.89904815193315 20.0660187672287 0 0
-201.964487773749 -3.10746976542543 8.74605552826799 0 0
-72.3262897608021 -5.48903894088788 20.146971338197 0 0
-184.261448657689 1.13580732415592 10.1499347017194 0 0
60.9372785319906 7.5408738385865 17.5537124564959 0 0
-161.6563199951 15.3996075582718 -20.7330705620882 0 0
33.4486778783686 7.18235870938563 6.08934142159766 0 0
-204.5521270234 22.4126734414296 25.7422964239707 0 0
-85.55280735219 -2.63377627685202 -6.06472574874487 0 0
-125.706029014525 -10.6563728247004 -15.3598276126733 0 0
-117.986454610524 -6.01701310163537 -11.5793469702898 0 0
-10.2698307741651 -17.1832244013753 12.649428362525 0 0
-149.74810869135 9.25125909032758 -10.8094890972871 0 0
-47.3337812424604 -11.2017675176372 20.402494695662 0 0
-204.121068754605 -7.22456765339293 -1.6894686957573 0 0
-192.107639924615 35.3984982661071 7.10517718537435 0 0
-111.28914865434 -11.5852014315983 -13.3833391431578 0 0
-156.95252048282 16.8655034716218 -16.3644096301781 0 0
62.2635007406079 8.81252420826399 3.21826160275492 0 0
-148.565006624517 10.6349197489868 -16.3963521414022 0 0
-130.019388319565 -10.3587326918571 12.2429213128842 0 0
-197.714090017441 -7.45095756848958 -18.3839367775178 0 0
-26.1056948995154 -13.3589144673567 1.2799739156542 0 0
-176.161494873131 4.02692223200602 -15.6704816328874 0 0
77.0192340990627 -8.96983023115246 20.8594707068781 0 0
-72.5274301740043 -0.779534440104801 17.9012205254539 0 0
68.4290687596415 2.30657279896549 -0.543704727947573 0 0
-153.228960668777 6.79846149034026 5.58762132178141 0 0
-193.052480962389 -30.7721342202038 -5.08558243262667 0 0
-15.6897677723887 0.22804647915048 -1.46773871663549 0 0
-100.540254635852 -5.18740538690096 17.0924591269148 0 0
53.6437128604761 -15.3587386853921 10.8724640487603 0 0
-132.181426943498 5.14077857424555 6.17844145363472 0 0
-75.1446779461922 -18.6611112164641 12.3810775613394 0 0
-197.188519222446 -10.0158391201321 -13.9544279494446 0 0
-182.617937664171 8.71895043079946 11.0979471854999 0 0
-84.7611956107873 -6.15699244497741 -8.16434295628267 0 0
-93.6712613536279 3.08879082431307 4.40179189722201 0 0
-206.509598357095 45.7917432877661 6.01462551120462 0 0
81.8239586737348 -15.7087234344577 11.0227184996218 1 0
-207.291659806155 -11.8585122377418 -10.7166133350938 0 0
-224.562133369952 20.50050499167 20.2213716920292 0 0
-56.7725563805331 -0.974000756310996 -4.15274142430281 0 0
-171.041959202534 -5.49503539680825 -26.3473788275414 0 0
-184.889283601657 -8.17049651182534 10.661164793371 0 0
-86.3709654479175 -15.5369155618152 15.5749999009326 0 0
-101.993227795567 2.65831803455505 -0.313111391446508 0 0
-44.7728310114235 -0.164600414929042 -1.95090925951642 0 0
-191.564192391262 -16.0266445405307 -26.788136584223 0 0
-39.1360537250648 -19.0226035164186 8.47554258022638 0 0
-86.6233840552066 -19.2300090047275 9.70869011039433 0 0
-13.950331523977 -14.7382799627809 3.975269549202 0 0
-208.241879129257 -19.4796494379374 -1.42414632897634 0 0
-217.868482843393 43.5898556016171 4.70793397004541 0 0
25.3910941583944 -2.50062368247776 -2.31575900805954 0 0
-159.829043227275 7.16673132056629 7.52073927584795 0 0
-174.961749652477 -26.0228291213755 2.82253634576157 0 0
-205.091972618671 -13.4408331934606 3.1135187685275 0 0
-173.816359221094 -25.7589934472632 -18.6002146321366 0 0
27.9573205808873 -14.9261859964245 14.8513044405374 0 0
-166.857032820785 -9.24918679064633 7.08666303315001 0 0
82.4351537349831 0.661950769908554 -1.60932213877396 1 0
-87.3548554572176 -20.540826163067 2.39535093624157 0 0
83.2934278555628 12.8071795624604 12.1475600846607 1 0
-224.390709279703 35.4993557518188 18.4545726458397 0 0
-23.1425758082861 -0.505356545849346 -2.3024546585949 0 0
-221.609761449286 17.0207072432588 20.8444103805944 0 0
-199.703394733993 -28.0976172064197 -3.146234737107 0 0
-222.676358395803 19.1785556664619 -9.05869883893845 0 0
-208.650180578619 -20.7923621639153 -9.50904205692524 0 0
-172.992055741168 -19.7027304349159 5.48640712922572 0 0
-179.083219287502 -31.7414743257512 -9.00031423436102 0 0
50.0939760227433 -15.2970001561632 11.278391637553 0 0
-174.250972495729 12.446727312673 -6.30152368544842 0 0
-118.646053240545 -12.28775526267 13.3107914476958 0 0
-30.512792974152 -14.9462974894951 2.8220928609696 0 0
19.3069010275481 0.536773931962224 21.4416711429873 0 0
-113.083769111064 -17.9563903216551 9.55053843271839 0 0
-191.909300418214 21.222917123343 -3.53369785243187 0 0
-8.68347107916338 -6.75758778710786 -3.56416737882664 0 0
-144.487315660432 6.50558685382375 -8.64448092648179 0 0
26.3251144164876 -14.8244564082462 5.56437885857253 0 0
-190.04145649922 -5.9207359011296 -18.3406260429523 0 0
-204.407024793266 45.2264885112456 5.08920901444961 0 0
64.8391100877076 -5.95867372037655 22.1302993523989 0 0
-177.509710850406 -9.50872298826335 8.14083311656408 0 0
-97.8674866883696 0.433798104605129 13.585698879276 0 0
-129.855301980254 -19.6422060567255 5.22537338782998 0 0
-91.7516415435888 -19.6253730637575 7.9993407587749 0 0
-222.917117616546 9.35202436833795 9.32312809071544 0 0
49.7706930014822 1.11462803177597 -0.646986781686979 0 0
-172.190167044275 -11.6677748633135 -26.6895211445063 0 0
-188.095608236774 9.01852490560124 13.2934823387015 0 0
-202.406855961206 -7.44911539544636 -3.77467907931231 0 0
-186.387548713463 5.33205454800495 11.5756085644493 0 0
-220.923432969189 39.3420918844071 -5.16105963788954 0 0
-64.7394902298623 -19.5584158910299 5.26331141461844 0 0
-221.574635093955 8.9024856313527 5.89124687367549 0 0
-169.47844481528 7.28461616772561 -17.7673843280286 0 0
13.8950709075059 -11.1781339268034 0.4709550207347 0 0
-25.11413407986 -0.497131187481022 -2.1848742381122 0 0
-221.485790546538 35.070704577895 21.3853562501392 0 0
19.4376319763502 -4.54480443844486 22.4582599054697 0 0
32.4744668686733 -14.7851169742232 5.22172047759097 0 0
-104.154386256539 -12.5212027304282 15.3611702152659 0 0
-226.858593350091 38.0265909394091 3.54469817120137 0 0
-185.3695462048 -1.67911178827361 -18.3344598290026 0 0
-224.884552310569 13.9325027168428 14.0234446963908 0 0
-161.866995296978 -21.0226383144368 -17.9543420245277 0 0
-157.001602814987 -16.3735752960622 7.07577635778275 0 0
-165.292532590522 13.8285043855297 -16.5159294894164 0 0
-211.131805272285 8.18700542749847 0.469801564448735 0 0
45.729951740509 1.7015396157839 -0.454612859435828 0 0
24.594242304329 -11.8636871637124 0.916777979513807 0 0
-81.5336672947731 -12.5344295370579 18.0452149546373 0 0
36.215794904199 -13.9272956076119 16.6103754349754 0 0
-189.572663622105 -7.41619538557948 -27.5192684082722 0 0
-92.3521752656702 -5.33402391701232 -8.38374958267932 0 0
-228.795477771996 29.4340926131454 -1.9209718953511 0 0
71.4198642917221 1.32079942895045 21.3222684580836 0 0
66.2907049012926 -1.33898324285301 22.0540000929101 0 0
-214.375391863831 7.15298586317187 4.54916757722069 0 0
56.850930404141 -15.3604419331959 11.0305157850767 0 0
-194.66963669458 -23.2182716196011 -22.6251835093005 0 0
-32.3359968079599 -9.80443536521339 21.3114632124539 0 0
-192.808515028304 30.6274565775353 2.30371543352442 0 0
-201.986909673187 -20.3365652349046 2.39759351881589 0 0
-224.254939864817 10.1446208172542 4.17687270452095 0 0
-207.606355449315 -22.9352146601587 -9.21504640616098 0 0
-165.79897971098 12.5991068093512 -18.5588698107584 0 0
-39.9332848262027 -1.35996120712807 -3.74512253473528 0 0
-118.781107480504 3.88823048561663 6.91069039366653 0 0
-136.854741105514 5.82192307619204 -1.45917324824793 0 0
64.7345575701586 2.73542298434445 20.7678407665462 0 0
-12.9407579097867 -17.3315890382351 12.7690564223533 0 0
-86.1808238663874 -20.0275998156978 7.35481535933826 0 0
-194.442578059796 34.3440444828821 16.2449098912378 0 0
-131.472980486167 3.74500104046747 8.47798547468102 0 0
-181.955392581137 11.5234602631327 10.4486329920493 0 0
-223.158936326271 11.7533733418053 -0.957801668274529 0 0
-169.273578941785 -4.13431666377923 8.33773877149032 0 0
-46.1843727472355 -11.599431341025 -2.39188991681488 0 0
-190.676927241751 -3.64226461043291 -21.5293110596263 0 0
70.6676269254569 10.5097889572361 14.4151726889274 0 0
-76.7199662247996 -7.67035384662878 -7.84877164430946 0 0
-116.498099115511 -1.27346351509654 -8.95346149243371 0 0
-210.594976214844 38.4746808075982 22.4894229058497 0 0
-27.2504532236388 4.73746740876362 13.3040518866568 0 0
-9.55590324186865 3.27011459471133 4.34787258810946 0 0
-99.0246180562928 -5.12978804014908 -8.93649220962074 0 0
-213.503013478612 6.79472015567027 9.24712846266094 0 0
-89.0028920639954 -18.6909410660464 10.6139786278778 0 0
15.3268262165267 -5.97792431159776 22.3846878002982 0 0
-124.406027426119 -20.5154434340079 1.3956489234734 0 0
-191.276533305851 16.455214448396 14.1445463989532 0 0
37.2547462573819 5.96121642449957 18.2719500631256 0 0
-49.9919708190232 -19.5831647474575 11.7289596775487 0 0
-86.0527430230819 -17.4165965205851 13.3120699862044 0 0
-73.9461599361144 2.72458563185353 10.4221282327143 0 0
-165.948796180144 -23.0151017061064 -16.391360920804 0 0
58.6729149617066 -13.8694647458823 16.0411121723128 0 0
-26.5183803531453 -15.2283162921981 3.69244204809864 0 0
-97.9958276376477 -17.5334414582572 -7.15040249861366 0 0
-80.7534628371949 -6.5904384132986 19.4708453133622 0 0
-194.100342148348 -4.98317980359079 -26.418485931366 0 0
-191.652293222997 -3.29972305992345 -24.58935925067 0 0
0.630319193348907 -15.1650469560732 17.0516539171565 0 0
-201.534981525632 -3.95220285926912 -26.5737767269826 0 0
-65.0996170998711 -2.92513537267355 -5.53191685652071 0 0
-59.6537905125961 -15.1096136668332 -1.27929085972947 0 0
-17.3690379629284 5.15535899959184 11.0790998763742 0 0
-18.4577674937554 -10.4782444087693 21.3397112468333 0 0
-224.479668309642 39.1420936130937 -0.46140472318789 0 0
-199.347930117501 -27.2683060003664 -7.58854484236939 0 0
-204.086549070447 40.3946466214684 19.2746608294686 0 0
-128.854689936253 -8.22836946538996 12.8157388977083 0 0
-51.8847255192138 2.52841703981258 15.6417895816136 0 0
-51.2978083849612 -5.45052508216711 21.4638603030645 0 0
75.007115471371 -10.1453204532038 -3.92524496642752 0 0
-75.2143214506959 0.615812322246592 -1.26345038103772 0 0
-194.043989127382 31.0201025636914 0.422363625828613 0 0
-174.199296613322 -4.65055129605841 9.11505773976033 0 0
-139.910062017672 -9.53559689603835 -17.3473793244333 0 0
-116.278838650839 3.52362570100718 7.66638826009069 0 0
-189.662042686793 8.08055245473469 14.1369548800604 0 0
-142.867918927843 -1.92890104757186 -17.3118927524408 0 0
-201.413658013919 39.4497826226102 -6.26477230978705 0 0
-166.202177214466 -25.2641402187377 -2.65860132141772 0 0
25.99911882613 -5.51519778170353 22.3937484653356 0 0
-200.039731777773 12.6024435974274 -9.70520398304228 0 0
-172.912888309616 13.2365819311744 2.0474294761493 0 0
-25.3298059682554 -6.17347262765075 -4.49824697419345 0 0
-210.723971863311 26.2305062796214 -14.0375033541423 0 0
-12.2693367575881 -16.2222770143026 15.8348831492547 0 0
-166.811566036828 8.44349920525152 6.79808908425206 0 0
-217.199658896784 29.8762317852308 25.4327370851357 0 0
-218.7743623071 13.6540930030983 -6.76070705474554 0 0
-17.1891409125619 -7.20348780011964 22.0659745522545 0 0
-25.1875250888319 -11.4258960733973 -0.560521176555119 0 0
-194.799630821068 34.1586141296422 -1.67272340339136 0 0
-207.547899757402 -23.3180729889798 -6.34730837370432 0 0
-218.72387576793 37.59313059927 -8.26208555406564 0 0
-45.3221421561589 -7.49291757829078 21.6159786903357 0 0
-166.492039603777 12.7360666711663 -7.94114309491966 0 0
-143.463166198487 -8.13454487259676 10.3850818586808 0 0
-64.3405418342903 -1.88925568794892 -5.06112829195435 0 0
-113.093499393579 -2.58479554361117 -9.09029580555112 0 0
7.14620199272601 -11.2346781815755 0.502946392547982 0 0
-127.588051435983 1.62841450871476 -8.72637004056383 0 0
-95.9897396127017 -19.4012638974393 -3.59005793737993 0 0
-179.741146102482 -27.3500989459383 3.64465596744428 0 0
-184.272756309017 -0.130658298472468 -15.5053536191822 0 0
-195.211986697356 -26.7661188240643 -15.4556777903244 0 0
-3.67115159904717 -10.0641098978126 21.5060573210344 0 0
-107.391372765805 -14.4302222451047 -10.7771774410685 0 0
-139.202285955298 5.41519812138671 -4.803328018413 0 0
32.3761536875453 -12.6380806095072 18.7163750764623 0 0
-224.638264581056 10.8147583518738 8.01111017427826 0 0
72.7166972287223 12.3307408521445 8.14156661688921 0 0
84.1916862589477 3.58224586716636 -0.985238727687639 1 0
40.9822996177931 8.60850255344545 14.6014138294766 0 0
-153.586322820027 15.1044074040869 -12.3088610371057 0 0
-132.95825448309 3.52880948739497 -7.21738362588044 0 0
-187.581790834627 -3.07514678009929 -17.8188657648593 0 0
-190.41695377398 14.5321215844475 13.9486825818682 0 0
-190.884634109473 -22.3611040448877 5.01982839306326 0 0
-147.323787806546 -21.1827873464545 2.00680180909327 0 0
-180.845510939935 -7.96311453165284 -28.3971543208135 0 0
-196.141711900104 22.7310840989109 19.2987428116812 0 0
-121.054185525028 -13.3331859470505 -14.2533950494442 0 0
-196.591569689111 -3.0105455845547 -24.3356727548071 0 0
-209.346081697399 -15.8628590189847 -18.27609126443 0 0
-188.36163058534 10.8162061662069 13.6765504322961 0 0
-194.728518331621 31.3751851537977 -1.03309266705315 0 0
-180.660905857517 -32.203645682075 -3.9524557867629 0 0
-168.775391735319 10.3974949935271 -12.9208806189803 0 0
-167.83614672452 -15.8194682110134 -24.5487779477785 0 0
43.2991185700238 0.73791770071401 -0.814566474068962 0 0
-186.886907753001 10.486601928855 12.7231000359398 0 0
-19.7349052010201 5.11786475260098 12.1126655763144 0 0
-197.159408596458 -24.9968756574098 0.162233879131774 0 0
-173.634818009494 -17.3380443070397 -25.9219700713276 0 0
15.6800278758414 0.884607497559738 -1.11838312595014 0 0
-22.9244973190816 -2.27740260870651 -3.49080949814083 0 0
-185.756580579892 18.3113197899698 -2.53715351708146 0 0
-87.9799303347546 2.49209507958291 2.44357964181144 0 0
-172.474996823653 -25.8118009878988 -16.202453984722 0 0
-216.826604710675 18.1993545027762 24.3571294320008 0 0
-186.790136573193 21.9267780189537 4.43316790771349 0 0
12.0473263186676 -5.57382448949488 22.4617607839546 0 0
82.8638648623404 -15.5897774352146 0.0114759560139175 1 0
-147.238898208241 -14.5947137987857 8.5902279157898 0 0
-202.368652227952 -5.46714019867503 6.96464630371081 0 0
54.3574391919963 -3.1504004831531 22.3719916016375 0 0
-150.100428611077 11.2290775708946 -19.96109758977 0 0
-196.359368263863 28.717235169535 -3.78545629049751 0 0
-159.681235718309 -14.8378769386393 7.16131033135926 0 0
-183.898757794728 19.0482140934184 3.57885259075533 0 0
-182.214740676311 12.9124203811656 -6.46091896509776 0 0
-114.059234857973 -14.5219974369858 12.795576500401 0 0
-230.524995800808 28.1070337990267 10.1608658403585 0 0
-176.808858101017 6.87334217784594 10.0917832229055 0 0
-63.2009953138868 -18.7734888346421 13.1287554137421 0 0
-194.911875831141 37.7883277870106 0.682647756535499 0 0
-225.300867691926 18.6773749223311 18.494442385155 0 0
13.2129922060774 -3.92545832020852 22.4447049655216 0 0
-24.434191172459 -4.55341654141664 -4.41524638771205 0 0
-87.8361687375089 -16.3329310329404 14.5242153690479 0 0
74.9976301943575 1.75369683280792 21.1513232065589 0 0
-28.8038017921 -3.13821371038677 -4.13432598182241 0 0
39.4336562040712 -8.20048573401234 21.6820441790371 0 0
-187.721139030639 -29.3938721284238 -0.274421737468131 0 0
-212.935775845557 12.9055657792369 -7.77410020903143 0 0
-79.1655430958725 2.03330566257058 2.16320205572106 0 0
-222.629390595098 9.29622577955513 4.80497436325396 0 0
39.0980668582307 -4.5057990959218 -2.58693415436829 0 0
-177.482909491077 -30.1556650565229 -7.13439645363937 0 0
22.6382522692436 -1.92106359697777 -2.28407694262783 0 0
-75.4702165147903 -17.0591775268881 14.6487310596113 0 0
-172.420332953062 -21.6304535826661 -23.2064357757768 0 0
-13.8288109811214 5.36300394229139 14.4074969224089 0 0
-154.232501629985 12.1192737846809 -22.974989026826 0 0
-1.68023458357195 -16.6384414821002 9.34017497719737 0 0
-87.5637203159989 -3.02747352176922 -6.54596086783029 0 0
-179.730592350861 3.33093303595505 10.4334309407542 0 0
25.6321166746414 -11.5134561900535 19.975419408584 0 0
-157.258873307088 -18.2750326934521 -19.8325641508847 0 0
-204.082474983743 3.13989107992948 12.7735461231985 0 0
1.89817940919961 -4.08345044140113 -3.52470646855366 0 0
-90.9710651171461 2.35054999041494 10.4289379555375 0 0
-176.33805699665 -27.437103563182 -18.5527813115553 0 0
22.0720863882014 -4.36954781889278 22.4637277178728 0 0
-70.9223490292122 -19.0005302322592 2.04747271867002 0 0
-170.333424184506 6.12514813464577 -19.9229460855069 0 0
-41.0999686652247 -18.1420452841545 6.39600819407841 0 0
-211.230133784701 44.7543717509414 3.26565276062635 0 0
-192.271434673969 26.8716466541267 12.5584663142671 0 0
-153.033135286842 10.4350729606294 -22.7403942070773 0 0
1.2254704683969 -8.99634392529274 -1.36586722672522 0 0
-142.228664741376 1.26293729972504 9.83007794101144 0 0
-188.958396526364 -3.11244154912063 -21.5324535327374 0 0
-99.019414052087 1.07015753100604 -2.94470353941126 0 0
-59.6714653842574 -0.747101144129534 19.3719133240632 0 0
-224.674115473517 12.6542836776798 -1.28898280308426 0 0
-41.7478167069241 -6.82905169521509 21.7069866147739 0 0
-229.528806226863 19.2155596228964 9.67936513059316 0 0
-44.8720096458915 3.03372545063 15.6792566900701 0 0
-215.226991607617 26.445357474679 -13.4148580291873 0 0
-188.125532190683 -16.0509388464981 -26.8592007403078 0 0
-205.157328304457 27.2045877287802 26.1248745888571 0 0
-208.219094464246 37.5862057844647 23.0451028178442 0 0
5.87172914448482 4.78437608327356 18.0876191142362 0 0
-197.177851666363 2.55717065218861 12.9920785756604 0 0
-194.053406653101 -0.761055720008672 -10.9406104671375 0 0
-110.983586904596 -20.2843897190413 2.61038433486969 0 0
10.2982710346249 -8.09393345286982 21.9919342622969 0 0
-201.098051850734 0.494851219194385 11.7722126258817 0 0
-8.91227401246064 -9.60015600125627 21.5553936002867 0 0
-118.928139606856 -1.15389366132781 -9.4446504608767 0 0
-14.8540577226321 4.14939955547804 6.82511658561967 0 0
-197.804981680397 -27.0945071277337 -10.2551404986558 0 0
-73.6605154089248 -19.7059817317424 3.27984527108289 0 0
-144.161883468122 -19.3958509391887 -13.1767687886107 0 0
-56.0186082330475 0.818831483805504 -0.279225881947332 0 0
-111.053470455794 -15.3252311634422 -11.0227812041726 0 0
-182.316784404239 -10.9691265809335 9.03270529655345 0 0
73.3322161308629 -2.92157243182622 22.2614732600323 0 0
44.4607084810003 -13.8606747673688 16.4180492771672 0 0
-122.48639425127 3.81276730817135 7.64183056092395 0 0
-211.02834898774 30.6588545130607 -13.5503307220445 0 0
-174.171978476372 1.46746579523877 -22.7856118005756 0 0
-145.328453867439 -1.60097655666481 10.7059988087373 0 0
55.6931393381691 7.29813556880911 17.6562797578554 0 0
-42.4701331355877 -12.625287003718 19.8405964505769 0 0
11.6407186291221 -7.51066360871611 -2.76274240325782 0 0
-174.80461481651 -2.49330904612888 9.4082474781911 0 0
-204.410606396548 -22.223932843064 0.349474365330647 0 0
-226.329579302684 30.3712117307339 18.8150878238273 0 0
-197.096422821053 32.5434216464922 -3.95417348387262 0 0
-195.830527654088 23.8599884304709 -5.14306926253911 0 0
-159.276843519802 -23.4989408742178 -3.37927049131425 0 0
-102.591135238244 -6.60960432835077 16.8431191190642 0 0
23.3302784734209 -14.9861588789179 6.15537058009334 0 0
-207.62381405484 44.2162609952461 -2.80650137441912 0 0
82.8675902929499 -0.824359619807845 21.818940086782 1 0
-163.13335380322 -11.5182326352243 7.21465019094359 0 0
-168.286527922546 2.70860031951588 -23.435343421036 0 0
-104.779611180558 3.02484383669825 0.243030360926072 0 0
-221.855926935211 32.5518908237434 22.381208095486 0 0
-194.115871281879 22.3268535295654 -4.42058900511262 0 0
68.7555795247953 5.64405757166066 19.1779995356601 0 0
-30.4543740125794 2.86765164145094 4.99940864764958 0 0
17.7984935834588 -10.0108418090328 21.1035677380143 0 0
14.9844661473087 -12.9165024842151 2.05719360564946 0 0
57.1879911241651 -5.42639397757591 22.2939604765791 0 0
46.9846175558621 -0.283238152714375 21.8139450727257 0 0
-196.420229860213 -27.3169702627587 -9.55598844598538 0 0
-201.682015701038 -27.409929948743 -3.48288432232578 0 0
-118.260656771151 -14.8434420933608 -12.1879269946325 0 0
-12.3994268395794 4.8262573218385 8.46393861003955 0 0
-174.961495710399 -8.70250266156984 7.76405806022936 0 0
-150.789298412925 6.30332220264516 5.52966957272096 0 0
-206.795717272913 23.9622312312675 -13.6556147410875 0 0
-201.441612453768 3.6194349067061 -7.63814194071256 0 0
-188.783299088244 -22.5335364654673 5.68160211855018 0 0
-118.712583286143 -19.8277949686209 -7.01309257321474 0 0
16.6269398422387 -15.759351985583 10.5437843355254 0 0
-165.337459384456 4.80987447809219 -22.8242792317675 0 0
-46.6366549008436 3.41174889457827 14.0692142424753 0 0
-171.113000327618 -18.3292010398506 -25.2129750790813 0 0
-158.930611559747 -17.9199891880272 -20.7300600365428 0 0
-203.029796654073 19.9339760633441 -11.2775345128154 0 0
-32.3379553260715 -6.09745541960253 -5.09682368217955 0 0
-177.439264655639 -22.305097775707 -23.834934185883 0 0
48.3625601817308 -11.3250109099827 -0.795733707875756 0 0
-24.2605941637072 1.52281798561516 1.55152744764236 0 0
-38.9169847974774 -9.69945359802072 21.2208652535079 0 0
-62.7462738117013 -19.9805783491576 7.14589307801844 0 0
-226.270532532975 14.4130263914484 12.3790679359572 0 0
-179.462328422125 -6.70759938292678 9.85830916816123 0 0
-126.666652036171 -16.5630936552766 -12.8248819608828 0 0
-155.413809419577 4.76658125164 9.43668295821163 0 0
-194.174233066561 24.9103344665159 -3.25544272887696 0 0
-94.8212798726656 -20.53531406161 3.59094295814497 0 0
-139.195407497112 -20.438026741667 3.20236158955854 0 0
-69.9349592441489 -3.31599317399717 -5.9777117155611 0 0
-111.671255027781 -9.03675026089726 15.3351791016204 0 0
-175.228031961772 -28.6395455995065 -15.055314806298 0 0
-92.9797780526345 2.74089980309476 9.11712893372987 0 0
5.856681924137 -9.32075130181479 -1.02663536042572 0 0
-215.115370730276 11.1227987765646 19.9708233682302 0 0
-175.416827354881 -28.8792156214802 -6.8362106282329 0 0
-194.37140141498 -22.6456157720713 2.94239273146761 0 0
-157.37018492812 4.31498531713492 10.2973624901008 0 0
-195.915264390301 -13.1151820765796 -27.3514510918353 0 0
-147.411574518798 7.30101711493813 -2.66125838731291 0 0
-225.125967959038 32.9103633102755 -5.98346879738126 0 0
-205.466027045687 8.84147418845117 16.9953751346774 0 0
83.4025806251713 8.06578223926596 17.7570345909719 1 0
-214.92185813866 24.5076237538152 26.3636532466354 0 0
-178.500568798992 -30.3493737580112 -14.7978766920079 0 0
-193.216602092502 36.3439101498747 11.4315928809052 0 0
-16.5924794121166 5.27794493838474 13.7884837744765 0 0
8.21087224822543 -15.6172869058518 15.2057087199666 0 0
84.0044257457205 -13.8719944144591 16.0587120133648 1 0
-197.284644151938 -19.8355446747104 3.34765416141116 0 0
-142.747964364587 5.98167428855016 -5.88746408927392 0 0
-193.934636015564 32.6462555792438 16.3934439018474 0 0
21.4562558668564 -15.5067674310351 8.8612511899246 0 0
-201.581633487775 -25.4617266279182 -9.84856631358366 0 0
-201.558300279392 -25.5113253597984 -11.6527545623294 0 0
-11.3304401716512 5.6298179206586 12.6320956836147 0 0
-174.636107211118 9.31128152530265 -10.2712404012793 0 0
44.4916971238553 8.91649044302155 14.410752987171 0 0
-142.411274759545 -19.941357028063 -11.2175512019812 0 0
-141.448212627022 -21.0130591436271 1.21716229552264 0 0
-188.446370743985 -21.5719123344119 -24.2554953630516 0 0
-200.750389134994 -18.7956927019152 -24.0845589328591 0 0
-207.315831435745 20.8745217433811 26.2232656700338 0 0
-65.2669959630568 -4.17987763896354 20.4818821538809 0 0
62.2792071993281 5.81749611958134 19.0311994854651 0 0
-225.460412658207 12.0788910960791 8.96648895105182 0 0
-230.19820507339 20.4747274397593 6.84656055283428 0 0
-202.764678214889 44.6959061297018 8.31291295586576 0 0
-54.3445238678348 -3.24402591244054 -5.20854558480278 0 0
-197.039892362543 37.3712907052608 16.3524895899642 0 0
12.6196272885015 -12.4902969138293 19.5606810867821 0 0
-71.5700179862361 -13.7981410078018 -5.15761065632611 0 0
-138.683484599959 -8.75373915260107 11.1289520998903 0 0
-190.159896252715 -18.4396290476645 7.7143412200498 0 0
-152.31654748285 14.1746463334498 -20.0529997548217 0 0
-148.244967586068 3.74587001861872 -19.6409090041722 0 0
-93.3366743892624 -19.0037601379067 -3.78418037141831 0 0
-227.72987474128 30.9595731925693 -3.22244762261031 0 0
-58.7426139628215 0.306519621127953 -1.51556678099268 0 0
-204.327696551407 -24.938894668952 -7.94252220839306 0 0
-191.750662429162 32.0167101607708 6.8305367924366 0 0
-196.321044948072 -19.8849248522073 -24.7622867140088 0 0
-175.419451525375 -7.913675548255 -27.9235622553938 0 0
-25.673286330332 -18.5392721880295 10.7827249559812 0 0
-130.467240974609 -8.87242489680439 -15.3632552777081 0 0
-62.851000990879 -19.9534182301856 10.6046225124263 0 0
-209.286465793538 -14.1151197628428 -9.61566103774292 0 0
-106.12440213647 3.05335267597298 8.00020096455905 0 0
0.786160989447548 -2.06670891393586 22.1043678423175 0 0
-59.9493924652058 3.09410607603778 9.8149856497573 0 0
-103.014708694094 -2.08642763215454 -7.29961663216028 0 0
-229.774319425785 30.6539320392513 1.5292853164907 0 0
-136.594634565034 -20.6772543023281 1.9157644467967 0 0
-204.976842973321 -0.280983001916472 6.65402097222366 0 0
-211.386618182604 8.98418953752938 -4.50151719697008 0 0
-162.87165308698 12.372405476249 -6.67059785803367 0 0
-175.020698607565 3.2871742309817 -17.5043293857739 0 0
-127.359118169124 -19.9302312578226 -7.97344220584414 0 0
32.1684578549836 6.46913497077465 17.4007488367344 0 0
-157.375223539738 -1.9738527240952 9.68393901526672 0 0
-135.89855231184 6.18172526625068 3.67192196633795 0 0
67.0702524460162 10.6204379717234 4.9363490705627 0 0
-98.5350098150824 -19.4465338288725 7.92852323192059 0 0
-173.178385147679 8.68522783295231 -11.6841799842017 0 0
-75.3765137084919 1.06281456776059 14.8366657447235 0 0
-58.0614960060041 -5.61470514236249 -6.24983293733785 0 0
-212.828799321792 12.0532676949491 21.398922064292 0 0
-128.284514653228 -20.9774498325117 -2.65835607796429 0 0
-169.243045476619 -9.0226216130527 6.95257326868599 0 0
-193.970735083476 17.1398853986888 -6.63180030208261 0 0
-228.835785961566 17.4537540397758 8.99289457341261 0 0
-221.92210936741 39.5062059457168 17.1639379686956 0 0
-127.626713807543 -20.7170627288242 -5.29788052391919 0 0
52.5773339131458 -7.93182457642133 21.6935323856638 0 0
-187.553783183017 9.53872057458811 -8.87583184414162 0 0
16.4027360729793 -14.1013716996329 17.5701758131901 0 0
-183.921406732817 -4.9328407409168 10.498556558834 0 0
59.8247155065342 -15.0563822120441 12.7359579405646 0 0
-94.5147656834756 -0.453849197198191 -4.46399523715731 0 0
-165.610917965029 -16.409654052639 6.38752624843665 0 0
-56.103155415455 -3.80013607039446 -5.45561442529687 0 0
-205.761834492888 43.2784811792656 -3.71359517377878 0 0
15.3397140617389 -0.97274615226288 21.9360103349829 0 0
-11.1137589834535 -11.5092595911747 20.7812414855902 0 0
-208.474228645612 2.71166549668247 2.56575724836509 0 0
-63.8048625725563 2.78041021335239 12.0971526097925 0 0
-186.068319373339 -26.6662797660713 3.73964800380582 0 0
-199.982610818474 -16.1974740270597 6.76534168615926 0 0
41.3464539219177 -13.6589685014843 16.9270162362407 0 0
-88.1340033446281 -8.83177912011512 18.4790482794706 0 0
-18.1238082196168 -17.6781460052752 12.5238464472914 0 0
-77.4496406944214 -14.2147281053832 -5.95746876740437 0 0
-191.869236524993 30.3545061738434 7.9862827823274 0 0
6.06698657449446 4.23632631755746 4.96802710181314 0 0
-182.815457990211 -6.41601087185831 -27.7477165517421 0 0
-139.605011436771 -20.231568024081 -10.1337149530624 0 0
-219.326525474827 39.2722554328972 -6.42943528290491 0 0
25.7251587173568 -9.01457058610122 -1.69441202935179 0 0
-83.5794708766864 -1.75068896014257 17.5998674887356 0 0
80.1527818644538 -9.05028561602383 20.7923381505461 0 0
-194.921434790422 19.9590023836268 -6.07733728145149 0 0
-81.3934892553299 -14.1443794744082 -6.73183571737466 0 0
-98.8775592050768 3.33793564796448 4.82401173193668 0 0
-129.845666567719 4.31543587397675 7.56989242700844 0 0
-53.4737089693976 -14.1061999254704 18.55119899351 0 0
-195.505097055251 36.9059840469703 -1.90173657051499 0 0
-106.199755559597 -18.3707615617436 -7.69231564102156 0 0
-86.9379447125937 -11.1092902547107 -9.85448036948658 0 0
-152.921826299078 -22.2168591823788 -7.11365384948048 0 0
-51.748523556115 -18.2542380545295 14.2879802484561 0 0
-188.489316465166 -2.69686927190716 -23.2143123681638 0 0
-160.112176731821 -4.34548721997258 8.92246715084617 0 0
-197.429956430575 38.7970235395548 -2.62330213212777 0 0
-202.798215485826 -7.19981963519298 6.20633961576239 0 0
14.2495534588533 -7.0725681416511 22.2459774307145 0 0
-174.553994943566 6.68380516749358 9.88293714311963 0 0
-179.524411017652 -4.75759939281366 10.1103402044914 0 0
-23.6855479217994 -12.747866348969 0.759689546102746 0 0
73.0836531988927 -5.67399253728364 22.1068449983511 0 0
-229.334793068451 33.716650759207 4.09026526480289 0 0
-177.179134541174 -0.273047341668457 -23.8374333669432 0 0
3.53868112361177 6.04634675307996 15.5702537041615 0 0
-201.745912632815 -6.26646078439573 -26.8945139890827 0 0
-132.929067587185 -13.1198870074385 -16.6332288008121 0 0
-57.592954409926 -7.69337703038342 -6.27727005308008 0 0
0.833053973738355 -7.27068587566613 22.1871974852477 0 0
-169.039211494459 -13.4483015189493 6.65955201072557 0 0
-97.0960240008038 -13.244141302369 -10.3409078272143 0 0
-43.9647111405085 -14.6339314061591 0.708358969650885 0 0
12.7343315481414 -15.4973687433176 15.0735577444413 0 0
-79.4678595332723 -17.5700041445573 -2.89342330441713 0 0
-182.103926013195 -0.87450216910061 -18.7050861276219 0 0
-52.2680907837154 -12.6331513442731 19.5574646885962 0 0
-147.84167553421 -13.9154500320922 -20.2814894622589 0 0
-84.998998540734 -18.2605346836754 -3.13947250400469 0 0
-192.538876316617 -3.51895211179531 -22.3508250059959 0 0
-134.494792446557 -20.7217525303254 -6.59757062697714 0 0
-18.4552159566333 -16.2417217640135 16.1308036551908 0 0
-194.848780723413 -7.61960744487839 -27.4444944906336 0 0
-193.335978950721 -20.8380349432196 -24.3643788487084 0 0
-200.68708291461 10.8901694251264 -9.76736992338797 0 0
-41.6105403252355 -9.35678029374841 21.3616652132891 0 0
-154.379783233278 -1.89112117495222 -21.6977573503164 0 0
-197.61940536973 16.3570870486979 -8.42961699591318 0 0
76.0473204067661 8.26611013000862 1.10748486910824 0 0
-191.799819916458 -12.8576400451982 10.3286397353017 0 0
-153.034159110888 11.5271294969184 -10.2851794882839 0 0
2.34468595348026 -14.1585966696477 3.75762948284137 0 0
-41.7983447528635 -17.3361487980965 15.5500499774818 0 0
-55.388379733374 -5.48749665070787 -5.87139841349875 0 0
-128.224482585036 5.13481847444697 6.12523063820857 0 0
-87.6307524644067 -18.0796345070917 12.0511468353842 0 0
-155.490887768443 -19.9868348675422 -16.8814590437302 0 0
-85.7141005681069 -0.628418245941327 -3.81145115064565 0 0
-68.7596424413287 1.45943188304823 1.27134748031516 0 0
-200.154858524292 26.6454802183298 24.0185187606631 0 0
70.4351202162805 -8.73004399838957 21.1114323899885 0 0
20.9927056251478 0.647947425411666 -1.26402732385918 0 0
-108.527971289445 -1.99779969674731 -8.02267972428335 0 0
-64.5486598542169 -8.23683731665258 20.6650652031796 0 0
11.9622617261673 -5.45425068859095 -3.32550072536135 0 0
65.1425388717905 -6.30389316811577 -3.23206294707458 0 0
-99.0381139797121 -1.00707276086176 15.1128058988084 0 0
-162.496434896376 16.2242619037217 -18.4435632668469 0 0
-219.527211346265 42.1342166695752 14.3479435158302 0 0
-203.335012535036 -24.8171619228189 -9.44473834083953 0 0
-128.750710884752 0.285710893881648 -10.6975685170495 0 0
-174.339510542823 2.76747072650762 -21.4412859478552 0 0
-217.217806420069 8.2831750734095 4.55189504716425 0 0
-197.608939063138 -12.8745194744575 -27.3275682514063 0 0
-175.856620022744 -21.2338616001453 -24.3028530839256 0 0
-202.004668079394 -25.9225866588302 -1.7516518791639 0 0
-151.622692719472 -4.10834281473225 -20.5361125800651 0 0
-81.7245224078459 -19.6445976377949 9.46250840577883 0 0
-58.1816328731286 -16.392307653412 0.573538044351187 0 0
-138.385812021001 -5.87006149932908 11.5058280567182 0 0
-189.92625310038 3.83182873493418 -10.9378055811608 0 0
58.5180170028463 10.1175128918729 13.7192648247462 0 0
-177.80868330772 10.970957312339 -7.88438884238235 0 0
-20.2791786492288 -5.51088149177959 22.1666310499362 0 0
9.89215587239905 -4.16575593903175 -3.3155869823422 0 0
-183.82545241585 -22.3964254317091 -23.7979629146427 0 0
-220.064197116288 9.17543878231473 6.53408136016705 0 0
-20.6672022645662 -1.50661421971551 -3.01672399034005 0 0
-20.8627268581689 -18.2204874340711 10.8372536026674 0 0
-196.860790480712 38.5513401501413 14.5708248018581 0 0
-184.562568336189 16.6716913375724 9.6811141835765 0 0
-203.891836434282 35.606781899165 -10.6083486564341 0 0
-193.37744901225 -3.17109509022172 -24.345166921889 0 0
-112.885872058501 -4.77621831369038 -10.1465085641877 0 0
-176.939370253376 -24.6724315799716 -21.6073566806575 0 0
-166.19889311291 9.50685907729973 3.7190044580816 0 0
76.8584900429957 -16.2923002802641 5.24563500325764 0 0
-103.821539904032 -18.4450202619696 -7.11985108701162 0 0
-116.565139364299 -10.573992379808 14.2327093173038 0 0
-178.547283081422 15.4145931339262 -2.74210703582386 0 0
-216.212911662448 10.4572426474119 -0.801168203720644 0 0
-202.562295927041 13.2554099514013 18.9074730697496 0 0
13.8374393460852 -1.20055860482945 -2.47254280901964 0 0
58.9169877602956 -0.259560589915825 21.868860568666 0 0
-202.067305399402 -18.6065838528375 3.33630861191971 0 0
-163.222012742375 -20.2187051917574 -19.9773218424844 0 0
-158.192330409288 7.46575320919388 5.85665853191152 0 0
-37.546588391323 -15.2447347234331 17.8489405008348 0 0
-124.024816633529 -20.8563816698898 -1.68632787537877 0 0
-95.4542079771526 1.36901241934637 12.3716250010552 0 0
6.94009320411279 -5.933007656641 -3.34668961755824 0 0
-172.268176943999 -23.1100433304451 -21.3001903134705 0 0
-224.300982180737 32.8584075438796 20.1407067016817 0 0
79.5528143783873 8.71427124056266 1.02992182037863 0 0
-124.911493351499 0.491112942615106 -9.2781142213443 0 0
-137.068564510396 -19.8112852881449 -10.4222198790364 0 0
-185.266968466367 14.9827715181482 11.2888929722689 0 0
66.4571957243085 0.671496478028084 -0.833906083187283 0 0
-155.670745517123 9.03844338583677 -2.21244848710429 0 0
-216.000455713939 41.3315578151508 17.1432977152003 0 0
-80.136853292522 -18.0221026942458 13.1085500470199 0 0
-33.8660823540208 -6.12860368605043 21.9395650386785 0 0
-181.776248555459 17.591342129656 -0.484693876275268 0 0
61.1226609861904 0.636457894322232 21.6130923506499 0 0
-35.3829908712379 -12.880149953389 -0.0852471085937501 0 0
-12.524200277527 -3.44532372373587 -3.91151496745565 0 0
59.782794638222 -5.02752304398825 22.3249830807572 0 0
-8.77700675672977 -10.4499139384109 -0.458111304320272 0 0
-139.860333502291 0.428921902736739 10.3673852545683 0 0
