"x" "y" "z" "f" "a"
208.037675210435 -37.6762431268182 17.0533290636417 0 0
248.847773363222 24.2561338602478 6.51691560485648 0 0
243.449834540975 3.24523732794289 6.63707691058598 0 0
212.446239442554 35.0815418021987 -2.85813423492133 0 0
220.006481984086 41.3957843607434 18.547780540843 0 0
5.70467236368987 -11.6348830544197 -11.0871721922021 0 0
213.915330063454 -38.5022451815991 -1.15567500122639 0 0
196.771348509121 -27.5560863333302 5.70396105714163 0 0
169.266386494207 -22.045921779608 -16.9205856260715 0 0
257.871460757394 -23.925265659475 0.143660026091872 0 0
220.946076597498 39.5451097845672 1.08961143102893 0 0
246.844891008882 -23.9276283463038 37.6574541168897 0 0
228.077436673591 -28.5313852247721 -15.4847701194684 0 0
165.688341972947 6.18116857530108 -28.3032522610394 0 0
114.620276766092 11.9140436489351 -25.9856652837768 0 0
85.3419582172241 15.6634265524875 -5.24741082173222 0 0
64.605467679535 -4.37643663062128 -27.4208726695267 0 0
249.868482617953 -36.444603181869 8.98713437208517 0 0
222.359776897445 -19.6742209942332 -23.2647417071654 0 0
236.859706987745 9.46276081513821 15.151810072318 0 0
248.41109550072 37.9149062673394 7.05948078057526 0 0
226.9585004407 10.2122315795982 -26.8069470229769 0 0
248.76462552318 -20.7688945582895 34.7058854365112 0 0
204.794499521103 -31.2790349862134 -7.27056861563022 0 0
136.085297303665 4.93792549459434 6.63226608182111 0 0
240.540243766019 10.0727300529151 17.3418943927209 0 0
25.7874350857399 2.12905160432158 6.44917844900008 0 0
245.071214557908 31.839493665941 -10.2735677475409 0 0
245.771048770504 36.630916373347 0.362048623981719 0 0
185.234626497215 -21.3865669793289 -17.6235854415224 0 0
231.26726801438 -11.2820932375414 36.2705149919457 0 0
256.577386254974 -31.5264734622682 23.5962888527389 0 0
80.7789379553156 -15.6764575075411 -21.9182602902737 0 0
143.964695879237 18.5261774968379 -1.4810642201193 0 0
256.705026832299 -16.0321747315555 4.01570009788865 0 0
245.463520356874 25.9876828844299 24.0685060724399 0 0
205.976302738946 -31.05174802798 16.0082480830209 0 0
130.671831366206 -5.21199195354786 -27.3296832589359 0 0
220.149061369677 23.2128622666577 35.7822625320066 0 0
32.0506859108999 16.8252467612923 -9.63249050940848 0 0
209.0174875102 -16.2038478839771 20.0170899507626 0 0
154.296563634161 15.687326755575 4.68857140277567 0 0
95.726826471092 17.7893524275833 -16.2039815210294 0 0
244.10233041881 -37.4856605791478 4.41331173292689 0 0
27.0826810063456 -4.50694892184887 -27.038641693204 0 0
249.832547030555 -19.0936397937402 32.2338541616622 0 0
238.339722930368 44.2756366668539 22.5700503037208 0 0
117.936043547424 8.11780903913326 4.89279836497303 0 0
259.106589320924 -27.8935830634115 11.4558652052641 0 5
236.525189392365 35.0963598113803 -6.38578167472228 0 0
251.868687251856 -10.1739845341448 -2.35315510848553 0 0
158.019856145613 -22.2005668378507 -6.35218594645887 0 0
109.944396844076 18.4533923332993 -11.8905154911651 0 0
247.666852917884 36.4364657588606 1.94035865557623 0 0
223.982868549288 -36.0140853318926 -7.10942907248972 0 0
224.6560194595 42.7424288451152 13.9586320603569 0 0
175.382104916806 10.5311710833029 -28.4444815202267 0 0
212.908182002897 -28.224511411309 25.2705168136491 0 0
135.795108383008 -3.20057399783503 3.38615416094153 0 0
240.422364132107 -37.9868189642117 41.0034955855122 0 0
229.521942144535 17.4979549386361 -29.485523464952 0 0
220.680572597058 -38.38983409086 -4.59922614627227 0 0
240.705909446731 41.3420204602741 11.0114237247104 0 0
211.484554948932 -16.3631845016616 21.3248650852371 0 0
211.675940265069 -13.0441122018789 -22.6489819076186 0 0
229.128064165435 -6.57143219744763 15.3038376681596 0 0
66.4370330093088 -3.63282556710691 1.71979948911114 0 0
220.432295939711 -5.00009674979608 19.502436089385 0 0
189.795579300859 -16.1708561226082 12.3752559543714 0 0
239.114889833375 17.0069778868059 28.7136133700758 0 0
171.835571538668 18.1549537851439 -24.5657831127341 0 0
201.534213241352 28.9176343253507 -6.49882851040767 0 0
157.945605051967 12.2097271295261 -27.349098152695 0 0
244.260237772036 -12.7761515287944 15.0428658892863 0 0
15.5412844050938 -8.13835090543989 -4.84037103070794 0 0
205.93091221832 -5.43214886575884 12.4850323091249 0 0
245.062313944218 -1.50403121757047 -0.639609138227241 0 0
222.087705025551 -41.3688255209666 29.1397243989465 0 0
203.424642064367 1.82735624011724 11.3329842887072 0 0
31.5756103640819 5.01953942346373 -27.6758821081456 0 0
183.601210177379 4.72163620751492 -27.2521004252318 0 0
244.257876856952 1.31554313037592 -0.132201967102194 0 0
103.548085520885 17.5453711977529 -17.8163821041371 0 0
209.183466398414 15.4062881558953 -30.0454924555778 0 0
240.912529985283 -35.3623382791819 -2.67878419740624 0 0
112.401548866767 -9.58465024778639 -1.34038481193643 0 0
230.034855511622 -8.0898762495029 16.3504156364954 0 0
195.084626887764 -28.4912515042424 -4.72170970041557 0 0
254.707554361493 -33.6849064976016 4.87302872995919 0 0
58.7054287352719 16.1139580971145 -8.36250503486878 0 0
174.331803156137 -9.79235502664993 -24.6273620773256 0 0
125.588427330393 19.0816570645346 -9.92496199680516 0 0
209.683781986218 -30.8915675776712 -10.2965244373435 0 0
124.625451225433 18.1424771306584 -17.7679330232167 0 0
217.78943511659 19.4312184786553 33.1558743809789 0 0
202.751604488612 -23.6847387459704 17.7307576643943 0 0
234.589704177195 -43.6096011692752 13.8331445057916 0 0
222.202181871407 10.3141997312136 23.8246784284013 0 0
219.728639287318 26.5560618106687 -27.6780377779657 0 0
20.581116504151 -8.37218834555499 -4.99921429720296 0 0
217.38707573692 -42.8491224126488 2.31464952793209 0 0
32.1938991253896 13.5557325032627 -4.39162321854471 0 0
1.07159664449711 15.6465495316444 -23.1622239124395 1 0
152.246820245606 -19.8094417704042 -3.92577722881711 0 0
240.172095456868 -8.14796420025662 -17.4518347649972 0 0
224.449937442544 -17.1005473486293 39.9773173331397 0 0
195.382788880462 6.42604587527337 -26.8305093045647 0 0
222.309071953529 -44.5850519911273 3.16214290885419 0 0
39.5895782680981 14.8650711557896 -6.21928317903361 0 0
236.538267895012 -41.1091060976949 25.705395441372 0 0
259.113779566173 -27.3201443253429 7.58591004790212 0 0
217.897195673956 -27.8874272293808 -16.592702713384 0 0
221.099412259448 37.1244264564092 26.5381206843689 0 0
208.302353928488 -35.3919529787462 -1.67001596752572 0 0
239.491569947753 43.7618289011116 26.1109845189776 0 0
201.749633869019 -8.05243771581097 13.3796822240192 0 0
122.387904006218 17.704912691743 -3.7818924729354 0 0
177.819225379524 21.9570709566453 -17.2754288766886 0 0
180.449390352876 -6.67224167404126 7.07642191269239 0 0
87.557759372065 -1.2028379914133 3.10243235769257 0 0
4.00684408019079 -8.0667316592407 -4.99328109900608 1 0
214.501268176725 5.72631334777633 -24.8649548858743 0 0
117.496073548395 -18.9496345339121 -19.6358111247327 0 0
227.281480698945 -41.9516099424045 29.4472686157323 0 0
232.098071300786 -18.2778149758566 42.2013919252512 0 0
248.58854285003 29.9012922287027 -2.59830634626752 0 0
232.67187717441 -8.00044974923835 15.4208138425337 0 0
76.396665201361 5.35000824431076 6.19853445197518 0 0
241.092439275964 1.22301674862445 6.9445809950679 0 0
139.747301239183 14.0344258317819 -25.3907465198127 0 0
225.884627558667 38.5499438816816 23.9781042299621 0 0
249.356623178121 28.2457597184923 13.6458905104937 0 0
217.669160672274 9.9303251054746 22.8950526586747 0 0
55.6105997083579 -12.582925810338 -23.2442514076402 0 0
234.111995659228 39.6577254663861 14.5992918409336 0 0
222.093087743129 -44.8142684931023 24.4166566706825 0 0
191.628175868176 -23.2157797148861 -15.7361005178147 0 0
47.7026555640631 9.99626330113229 -0.0181797546513086 0 0
233.018392572043 10.3060959045025 19.086854892715 0 0
154.36050151218 -17.4619710211773 -21.4176994513775 0 0
53.8344314865092 -3.86551796483987 1.12394606236971 0 0
206.109037693793 33.2160313267855 0.279795289239176 0 0
222.946775856618 6.7428541722711 19.418797054559 0 0
156.820638813355 17.2804355505834 3.49774514123142 0 0
238.660289769558 40.6675146203907 9.46452933312767 0 0
128.713729865454 -7.34217933765293 -26.7623462642034 0 0
215.23607700169 18.3637339211383 -31.2690576207547 0 0
223.64652432693 12.2426764825809 29.2073154793729 0 0
190.488821396705 -19.6568592941599 -19.16617559369 0 0
208.279109746541 17.6432705838276 22.7156032201568 0 0
112.643373422884 17.5344519302079 -18.3757606568885 0 0
12.0194747328767 13.9333445185043 -24.2618932266414 0 0
255.09592493588 -17.8938136621413 20.4288233583861 0 0
183.433330731661 0.426381816201379 -26.1687508385609 0 0
180.788018957638 -10.2830994968205 7.16161978356442 0 0
119.998243439326 -12.4653923220051 -24.5658107009787 0 0
255.670309738973 -31.7306650904168 0.939389840074938 0 0
65.6746434103016 -2.55430220231707 4.01204479258177 0 0
214.651705398186 -13.6701496812611 23.094649485233 0 0
185.120463845393 -14.1456695920373 9.16308321691225 0 0
227.294208868747 41.8231659618842 13.2630500619573 0 0
9.99636452299499 17.1601187302951 -21.6895981820743 0 0
110.602983909275 17.3907382964021 -5.41755669899091 0 0
62.8552209705592 -0.40751659205886 -28.0126149877699 0 0
172.382805000798 -21.6975325817544 -17.5268091062357 0 0
243.377570537292 12.0919953932099 -11.3260918176647 0 0
234.95745721842 20.2917817902089 33.9785208477857 0 0
112.166423552762 -13.0027620251749 -3.99242285800414 0 0
224.83112954657 -14.9601177514219 -23.1706647252001 0 0
249.499375004605 -16.4688595127668 -15.0801512867333 0 0
218.406084329909 -33.8977728411015 36.8343605950081 0 0
45.0607915482572 13.1983363319166 -4.09427357770855 0 0
98.7941297031723 -18.1484538890477 -11.2800128830316 0 0
248.040074219331 23.2001508153857 -6.54544693923735 0 0
232.154517307415 -24.8931796805189 43.7356330321965 0 0
181.576208590565 6.59840173283494 8.69715716782527 0 0
191.790954025213 -22.9904597241714 8.79549078273677 0 0
214.560021306121 -24.0500517139737 -19.6575683123763 0 0
222.566654160849 3.33074479376811 -23.8628215717283 0 0
146.888053797018 11.0463884105543 6.84555893924137 0 0
76.4683110333804 -13.094560836933 -23.8766282408683 0 0
229.746628678778 42.4060159831431 9.67103052698252 0 0
126.571133187379 -11.87838988932 -1.67312352062654 0 0
90.7795613255763 -1.90753356796401 2.72503860570199 0 0
49.5323873781402 -0.533164185823183 -27.9575754604595 0 0
22.4746153564503 1.42182130363255 6.18036547872521 0 0
207.365116803028 -35.5229540817895 5.90860609645069 0 0
144.686926413264 8.55586769673 -28.0217847387194 0 0
213.94265988711 38.651700593865 17.0055336313474 0 0
186.571972712877 -9.98339144473152 -23.8106498815479 0 0
240.62688857697 12.0024681515229 22.3023013648025 0 0
217.56633453431 -12.2981615304571 23.6440839804401 0 0
128.129761232448 6.07657493523782 -28.5470795186554 0 0
223.108271912004 -40.5285968321072 31.0674168832606 0 0
231.063545975442 -18.9138594881089 -24.7207044908962 0 0
153.315646998426 3.3148769749365 -28.4382375006464 0 0
229.3950055871 12.9816675508034 31.2857223649748 0 0
167.162949805309 -9.25198061399819 4.68970683317829 0 0
193.821522972981 -23.5957385950104 -15.4200389196717 0 0
256.461766016384 -34.6994403559933 15.289485555915 0 0
212.732951087317 -18.1843327228662 25.5564697127472 0 0
229.746325060987 -10.6105461635943 34.2061218033462 0 0
176.00961083862 -1.13637802165393 6.55912990042377 0 0
199.238443688893 -29.5124981400889 5.36957069150867 0 0
230.124614108286 -6.16855680207567 -21.9624579664049 0 0
217.81741777666 -23.9658098046521 -20.681193898044 0 0
229.828966678968 -39.7104678096662 34.3522202216621 0 0
106.225930306403 11.7479353927718 -25.6776370603293 0 0
7.05078837600398 7.22542160692086 -26.9689838499147 0 0
191.794685379265 25.9214747998224 -2.44553271936411 0 0
10.8348856953712 1.62247441424861 -27.6327110044891 0 0
215.232667824898 15.4816932782194 -30.0175062850738 0 0
130.190098145205 0.660788723178536 4.74833346274761 0 0
92.4276288461621 17.9134861985593 -13.8893372344976 0 0
222.267115337703 -15.6160795362456 -22.2175360249861 0 0
17.1975375140265 18.8366476699679 -17.8246279582218 0 0
219.410996509395 5.48569854549783 19.4765655346616 0 0
41.3938729526453 -13.7940401993174 -11.6511765903769 0 0
150.731149797058 -22.4111634327526 -9.16341693765504 0 0
12.1494079214174 -0.0728284806144305 5.5577018582807 0 0
119.251606372866 18.253268663489 -6.14939490025934 0 0
202.593454170353 34.0693712419111 9.86215757229364 0 0
216.6547500824 43.0980040245293 6.10337679078423 0 0
115.605378950027 -12.563802046271 -3.29162423626692 0 0
220.148499804571 35.387287177103 34.95043802672 0 0
216.191452523808 44.0170546355707 8.45130389588537 0 0
50.1158163606429 8.71489508667443 -27.0234355606174 0 0
227.048503553945 -8.7595185762944 -23.615259520766 0 0
102.804605253902 -6.38861348095497 0.259627272515978 0 0
62.9734118598109 -16.2931274584138 -16.1509201509838 0 0
234.789805107706 6.12908385604546 -18.8480494015659 0 0
168.860541262929 21.1581544435071 -16.8169903891749 0 0
225.16869061123 33.0583357722222 -15.5395975984158 0 0
89.481561422066 -18.1620187744077 -13.5665469065973 0 0
118.080753713809 8.12848769686339 -27.8562839836082 0 0
206.455154110477 0.0780007614510745 -19.6469309505129 0 0
29.5477872471353 5.45157275344468 -27.6220443633702 0 0
211.803858852645 -3.87960380151948 15.9864993979392 0 0
229.019167700159 -12.199833761458 37.2778456956323 0 0
224.927826702421 -35.0861043619522 -8.05220097686297 0 0
254.455116892351 -26.7463968846963 28.1483186376134 0 0
208.620627127285 -29.4920809442769 -11.7012098172705 0 0
235.854155198298 11.7877333586959 20.0025624488195 0 0
201.86737633369 17.1313709849427 -29.2918414400926 0 0
232.75117896059 -24.0290218323515 -19.0752478224974 0 0
224.257158986131 41.615466294478 4.53283168380896 0 0
244.790345285628 20.2066068476563 -11.8113760120375 0 0
221.836862988779 42.4368964480702 16.4477701394283 0 0
212.349795514468 -17.5438320040267 -22.0207894334661 0 0
35.4757880318268 3.46811206055889 6.8084720071693 0 0
133.070319270942 19.140027119751 -6.72290261177448 0 0
206.84555081344 20.1225513585461 21.3290729310916 0 0
90.109133129595 -16.8996550358885 -21.0630505276039 0 0
117.082149051749 3.93210731708571 5.72353591315714 0 0
18.4159575601864 15.0974652309413 -23.5489803926364 0 0
224.148282231182 19.2236543564403 -32.1804110618039 0 0
239.912790473785 40.6392847877512 29.7485212934654 0 0
248.307474081255 25.8919666566169 -4.26361030127721 0 0
218.468850515443 29.890024986171 -22.0492497418229 0 0
33.0772450489704 -4.41855528447259 1.84653931846663 0 0
223.878591155186 -39.3221720300413 33.7551381934448 0 0
212.361697533247 -39.4907755795747 2.74993660485175 0 0
196.575744009251 -29.1634340800677 -0.422286425148392 0 0
197.294398435709 18.8246983371715 -27.7651751319815 0 0
249.164208514454 26.2177140777426 3.63676236092409 0 0
210.291334881738 -34.3182144698381 21.935226207748 0 0
96.2938604217292 -5.77354134537751 0.182552499366703 0 0
255.749125080753 -20.4773689599955 22.0481276143169 0 0
243.325600723579 -17.7181672806301 38.0093133676848 0 0
104.980731437341 17.7799136855914 -7.78893279307149 0 0
245.507135261903 29.770525577974 -12.5603887101826 0 0
64.7690038564461 -8.25932553953483 -26.1359307208977 0 0
236.588181372044 -39.6958829536866 1.65537945242041 0 0
225.184970583166 -46.5119037766738 6.29587762920998 0 0
236.920340131315 -40.9530807079253 4.72862729761067 0 0
227.60425355501 12.0830457589643 26.1115630006856 0 0
161.550551575575 -22.9589476137942 -7.61998814445025 0 0
211.75085749284 13.1195616596016 25.7374396479867 0 0
0.72875765651261 -0.391571409362839 5.85365796934556 1 0
231.189718604556 -41.1157762074345 0.702341435391192 0 0
232.56635099149 -43.3986647251816 4.68684634639597 0 0
200.178381877037 -3.35069087438474 10.5909896943878 0 0
13.171246602007 4.43580627702702 -27.5815064271429 0 0
258.604936184713 -24.4515632334789 12.53757838449 0 0
69.4631813460137 14.215368715636 -4.24436324879515 0 0
244.10205009722 3.48375464950427 1.58119396272785 0 0
174.819872208802 -15.5334983871709 -22.1681435253861 0 0
236.910687875312 38.6363536004686 3.9085254190336 0 0
34.0293349895721 -13.1334040076292 -19.8316303491864 0 0
11.4410908728295 -9.3887346891265 -6.6352035427855 0 0
152.662930574447 13.2913985210291 -26.5591050945585 0 0
56.1687842175757 -3.16455516435795 2.67517707165891 0 0
248.208669466768 28.4058866725744 -4.0823311017905 0 0
100.826929065385 -10.0027743719316 -2.63657154254619 0 0
8.15249606344394 5.05460434439382 5.75785147620697 0 0
257.544717934789 -20.9258198578633 0.0743426280272244 0 0
245.14409950919 15.5610554034231 15.8026344876869 0 0
239.841063647463 -42.5424781117166 11.7588110830963 0 0
172.353467934161 -10.8469585562221 -24.382212003411 0 0
74.439247411251 0.676581630353463 -28.2916303142213 0 0
201.928448360223 -26.8200360864885 -13.0856419475555 0 0
229.261337923311 3.10285960970864 -21.6671270832992 0 0
240.115055477366 -32.8128683277382 -6.3890093733906 0 0
205.706343203059 -31.573352722732 12.9812491398306 0 0
213.937003028521 34.1666149771091 -5.98465790468421 0 0
149.164854087079 13.2572494807515 5.72875947436407 0 0
165.170862191722 1.77198802137513 -27.8839591568225 0 0
218.442048978403 12.8008924371886 30.135602845101 0 0
130.301859147949 -10.2829884117081 -25.6590097851508 0 0
226.540410931337 36.0113997117668 -7.4974400882288 0 0
7.39243651135123 -1.72154518930858 4.39782158320346 0 0
168.89607788732 -10.0131108858557 -24.7387706428876 0 0
220.10679063816 38.4400504152713 -0.92470819451754 0 0
234.453388354209 9.76977624371556 16.8006535721428 0 0
185.119886564566 -7.30800729827198 -24.6975600570355 0 0
170.782412731987 0.62049910144894 6.53841878315854 0 0
195.214553096217 28.3960683271093 9.53721912888445 0 0
232.947146038456 -22.0822775463982 -21.9705296896749 0 0
198.607829548806 -26.8559508444511 -12.0369667619231 0 0
248.170750779163 19.1682159352975 1.21878328826105 0 0
183.134457667738 -15.5402887311692 7.83461349851267 0 0
70.4476368540871 15.5931127931353 -6.57326986047667 0 0
158.084702759855 4.06297389445961 6.83752857066111 0 0
219.507285618862 17.8320623040948 -31.8947895860141 0 0
228.213612693602 7.53150467897113 -24.35781267742 0 0
238.17592806775 -39.7352506084357 39.2309755620732 0 0
221.083172585069 -45.7656013297003 5.25032994736806 0 0
11.4460792666443 -12.2906526735146 -12.3606534061003 0 0
58.3418207612258 11.0392509826053 -25.8922365375398 0 0
96.7696594543829 -9.07422655606718 -2.3052878522351 0 0
34.0748379740949 3.7366529641116 -27.7998451785863 0 0
201.438122461881 -31.3569551161107 4.54057114172204 0 0
236.000633353527 22.9744662311559 34.4743573120261 0 0
222.773483465669 11.4444508076699 26.3327167837287 0 0
242.742505816328 1.3495210485192 -7.8224538388851 0 0
123.439664386489 14.2818115209776 -24.3616855628254 0 0
243.716160526775 17.2726969329269 -13.6288257975826 0 0
207.454480880764 -34.3071634635219 -3.17437235032124 0 0
74.6080745445391 -4.05021628713197 1.60272161438701 0 0
221.846344939472 32.0210532134689 -17.8407731611685 0 0
233.868470069133 39.1855522066396 2.52332731380592 0 0
204.153270379431 28.6243681658853 -12.7499617718717 0 0
229.066267057135 -44.5237569937833 18.2877436366286 0 0
22.0995865914611 -3.9341126792962 1.39893650447989 0 0
124.411844035889 10.6320056805056 -26.9816310506059 0 0
127.495412671007 18.1665442992998 -4.03145698940291 0 0
191.831619219218 -26.5325187515165 1.91901790783996 0 0
201.664335903253 -6.33782939708191 12.7393586544617 0 0
207.477745672658 13.8182401115279 16.581732765297 0 0
233.277636377269 34.6861833845457 35.7883446769108 0 0
201.381266167321 -11.9267515287705 12.6918272701735 0 0
220.046803662787 11.1117830171673 30.7747594064979 0 0
228.161281785566 37.276612865844 -3.78833149390942 0 0
240.329613887613 4.1102026125092 -11.5227170685585 0 0
35.7261702648466 -14.1247488521425 -16.8044008826343 0 0
93.2161804638597 -3.54846483534496 1.81474950033313 0 0
243.392711426416 -30.1753135688362 -10.0111871807033 0 0
173.053316535524 -1.1209436377656 -26.7990869762527 0 0
214.266856253034 1.52956704222081 -22.8287496709574 0 0
132.423784395661 -5.3085901509538 2.67684237695323 0 0
174.970481492371 -23.0695699446171 -2.59272453008904 0 0
237.656155968881 43.3687239065269 19.4334517014453 0 0
51.4955956755922 0.96891977342705 5.92836209465855 0 0
208.376948613202 -36.4457760026623 4.55010773948906 0 0
73.7236201276415 -6.92864051064975 -1.75334055662977 0 0
186.248972568844 -19.016797928961 -19.7429483748056 0 0
23.8696776481041 -11.9710946848326 -9.90984998569588 0 0
229.417106767036 12.9454156062202 27.3215853591452 0 0
218.498892966629 14.6634508256515 -30.1936428258362 0 0
235.243903131961 8.56989853235003 15.0049821988985 0 0
188.850450461188 -10.1094646847154 -23.6508289275209 0 0
23.9629689338748 -8.07128476826066 -4.48871685244069 0 0
233.075713188687 -34.1621034729223 43.4189725069982 0 0
178.558283116406 9.40452313173219 9.11441555292872 0 0
102.549727816474 -14.1728068720585 -5.93371786448448 0 0
166.149454313414 15.2935698378768 -26.4283727363393 0 0
114.717100254427 18.2349212817193 -7.53466935759073 0 0
171.214800347249 -7.51476914453127 5.52668145316817 0 0
148.838193688662 -21.8241757139905 -15.8782076693521 0 0
256.716087633738 -22.5615734402229 19.7323284460704 0 0
119.582962533586 -4.09609997223407 2.34305531292131 0 0
17.0007842611095 11.5774392833809 -25.7846495348236 0 0
235.447608156987 -4.70463953720504 9.64469211071349 0 0
187.75857641534 -26.0132246466665 -9.40918056257825 0 0
17.6365991114236 -11.8773483839851 -19.5992918624127 0 0
94.697222880158 4.58585205086981 5.93384110219429 0 0
226.607267038626 1.7179137481116 -22.457442943612 0 0
212.659736681074 25.1856220253113 -27.2125944949838 0 0
256.318014103263 -34.5054615650255 13.3025671132076 0 0
234.60841832916 4.53762161085093 10.928520303689 0 0
7.57849659075832 -12.3868007213309 -13.912757745331 0 0
233.366120088575 13.5308063216233 25.3076752308375 0 0
14.6489877356449 7.57193934153194 2.16607319684057 0 0
150.410444530734 -20.9399993469936 -5.7768048316839 0 0
238.882709479385 21.2474430984143 -24.508418636032 0 0
116.808690186391 10.7781989271517 -26.678345223302 0 0
219.34971585555 31.0113668724518 -19.6000372085956 0 0
222.836719225112 -17.0289530785053 -22.5585599101004 0 0
142.689822733131 19.8580184668628 -8.50761815217557 0 0
171.591761021838 -12.8892348835348 -23.5306012795225 0 0
39.3893378452237 17.8356985228576 -18.9497077613064 0 0
136.531892395862 -21.7652195504506 -13.3884456367737 0 0
14.6642084862827 0.564672770460982 5.82689032056183 0 0
250.508938006377 -24.023671249495 -14.2121164702107 0 0
217.548304455249 -44.6663863498379 5.78110762638898 0 0
246.637616787766 -12.0964126943992 13.321362511095 0 0
102.607003921148 17.5151412647975 -7.27653836538125 0 0
245.933802116266 19.5615745706369 -11.2464262864763 0 0
163.643534127385 17.4215256904539 -24.343143197893 0 0
227.0179537565 30.3802807815044 -22.2378775087987 0 0
248.495706355824 -34.9492705519541 2.28303720771765 0 0
236.676069684028 33.4801656581228 -10.4724684031733 0 0
213.580604234181 -18.3626236077437 28.5327149786773 0 0
186.915654227727 22.9298310838573 -17.1977520200125 0 0
169.365850691277 -2.81275174851295 5.81530684071393 0 0
173.895971802839 14.4857083284211 -27.523641269283 0 0
35.0019339439751 10.6143544222298 -1.20800443444462 0 0
181.315226726493 9.55370487911335 9.35396609429639 0 0
198.502334557729 7.69443827895009 -27.1626726586277 0 0
6.52971110157785 10.5044604910786 -0.737843791963903 0 0
239.711324098366 -14.0306327779343 -22.4303650102064 0 0
226.18072176999 -46.0074128685154 12.5374456942735 0 0
234.288851439132 29.7574527979307 -25.7180973732209 0 0
231.652268430364 40.5731862589414 4.40838498823531 0 0
22.9127236729278 -6.31152631582247 -2.21255889281941 0 0
2.86675656426495 -8.48769304107869 -22.8805028560228 1 0
235.103819080468 -13.4751321250472 -23.8294508329702 0 0
213.507331003019 42.5750270560302 11.3342753255736 0 0
99.1726120881446 4.67395880953775 6.03235741315406 0 0
225.315304181519 -17.9614083880916 -23.0295636370109 0 0
118.38229035805 -1.59743946026234 3.34069557781736 0 0
47.9088066845793 -4.5256915532068 0.52189646719337 0 0
238.776258663332 -42.4334385598214 13.1724885274549 0 0
102.736944130201 5.1508018302125 6.1590316609178 0 0
185.095658580523 7.95776838442571 -28.143129022677 0 0
69.3149770872414 -13.9979117105347 -9.29412750720034 0 0
190.207697878111 8.35555754061765 9.87316758193455 0 0
247.649846490333 -18.0988489508702 34.0997868083186 0 0
145.290555516123 -8.73786224299313 -26.0622166510197 0 0
98.3764963361109 14.0903082324622 -1.60673858802795 0 0
102.445853278639 14.1263350070244 -23.8385232483452 0 0
21.562588790048 6.7162577433074 3.86571767535069 0 0
222.95566709156 -4.39546145099471 -23.2099883423542 0 0
235.481323857183 11.0901529871695 18.4296197660753 0 0
153.413346559274 -7.26059255992273 3.63609362879365 0 0
238.640863087515 -10.0774313276794 30.3654404480506 0 0
221.262405623021 24.9753457442601 -29.8849192386826 0 0
246.242381305055 -3.26609650174941 2.91295564983157 0 0
139.962950631209 19.028463128347 -17.4523044967768 0 0
117.515536955411 -10.8068272760055 -1.78106527064876 0 0
238.235471945455 -38.3256496519784 41.5587576424424 0 0
27.7932665960935 5.88569141857784 -27.4908331306585 0 0
167.400970796117 9.97005625541765 -28.2565576725149 0 0
214.937746139055 -13.2187921976996 25.5179144935663 0 0
249.18327958022 -38.8799461519289 27.3871500946744 0 0
222.056604289013 11.6848564342904 31.3594571100163 0 0
236.517119756058 -37.9527750372071 -1.61100236073757 0 0
244.477144286714 4.69043438451128 -1.920000593685 0 0
1.77758186332997 -2.8926729174909 3.035460739349 1 0
84.6438104440071 -15.2345464891992 -22.5131751526711 0 0
207.059283539233 -11.6679419729454 16.0727299359144 0 0
220.494011249249 -12.0177899277977 26.103112232716 0 0
252.678613477475 -12.2228854118536 11.6134333242395 0 0
236.160644721287 -24.145942910052 -18.8209167440515 0 0
179.351122182813 -8.91053746906035 -24.6607259959663 0 0
160.450872952628 10.2691477937434 -28.0117279913119 0 0
159.952968227455 -12.1477462302004 3.08143944434149 0 0
226.059184668833 -29.6948407639438 -14.5335256599753 0 0
223.862055095715 -34.7081995447619 -9.18303667685435 0 0
189.203936092998 -21.9578612552831 -16.9473010373783 0 0
210.885894916852 12.2303198422205 20.2949916633276 0 0
251.256355930386 -30.3616614782257 -6.54795270418536 0 0
229.981923883157 40.7610763769113 3.51155079199011 0 0
246.548880048677 -20.1070186786786 36.6346723962569 0 0
186.62387109457 -23.2291345171831 -15.311424245015 0 0
251.564813962124 -32.7559740031725 -2.35921445347021 0 0
207.383959528471 23.2452910112116 23.3427251706739 0 0
189.681860568213 3.23921080792995 8.62216075558787 0 0
218.263785993615 7.61863304961002 20.9798945043626 0 0
32.0583502803698 6.13195843750184 4.96617963639382 0 0
242.376726449313 -40.3915347469891 9.86967446536932 0 0
120.488604850973 16.226223425147 -21.8324110045261 0 0
243.74043640922 9.8645405072056 14.1379635293336 0 0
225.450697616197 -45.9254992001089 16.1764908139734 0 0
206.654024355286 2.33402246375979 -23.5117332522215 0 0
190.534594929348 13.2358626768428 11.385590566345 0 0
150.431236466247 1.02816016622684 5.68563931257442 0 0
222.525463025689 -45.8722847821036 21.847599121475 0 0
240.530272410732 -12.594231598042 17.8536002262845 0 0
31.7036598724441 8.88385844938038 0.976904601487778 0 0
81.6893459069229 -13.640912678752 -7.65946013794063 0 0
197.781571102123 9.95658715610257 -28.0273936614284 0 0
184.298185554552 -12.394193374726 8.36074294487736 0 0
141.569936852656 10.9167466917113 6.1788655789269 0 0
226.14494417227 -14.9566929760807 -23.8095975231968 0 0
151.747869623404 -9.16516713558691 -25.7351580445426 0 0
15.6344258917575 4.16971591981571 6.45616993252714 0 0
249.528118837172 31.0365261707346 4.60818785894097 0 0
74.4116529468723 -0.678564694372864 4.11091411318597 0 0
177.42306956856 -13.2762368912647 -23.0210147515544 0 0
216.74152295693 28.2543139016862 34.6158326809969 0 0
126.983452805054 13.4115587303735 2.58421926415835 0 0
59.8795349194449 -15.6822819747213 -19.2537169037798 0 0
97.2829344371136 17.9274340919042 -10.3376340885708 0 0
197.727301789412 -24.7806219265916 10.5268711120499 0 0
0.583211313127854 2.17140216826696 -27.5089610325874 1 0
132.767454586893 -18.0610042096815 -5.64815917885656 0 0
257.479655546667 -26.5332991706799 -0.367087949339704 0 0
59.5297519358878 -2.29070224192962 4.76239277012512 0 0
224.989692718103 2.31823066416472 17.0395696994007 0 0
100.851825517676 16.8417073610441 -19.8317746297111 0 0
238.252566479357 -41.5128972535548 6.17834642336881 0 0
27.5199582661846 -13.7557053998286 -15.5808069116714 0 0
257.869337158281 -28.4082476972167 19.2613496174682 0 0
176.232463161843 -4.31286158460297 6.35240830481951 0 0
41.6096001783584 7.92232172691203 -27.2160251097699 0 0
235.46372130356 -0.367135191409295 -16.3951223456605 0 0
204.420836640229 8.42198720916114 12.8178664136272 0 0
53.3699341790498 1.39407471741251 5.84473058150493 0 0
202.418037494795 31.5330333782607 13.726260423136 0 0
202.94316261913 4.16139713647355 -24.7026031094569 0 0
105.666343309126 16.6057723064724 -4.34655416597497 0 0
205.524638846441 -33.4360507537316 9.59575389830271 0 0
199.410190826854 -24.390263784381 13.1736267302561 0 0
59.5233950864619 -15.9037134565212 -15.1354761804141 0 0
127.309329040285 18.5735948874204 -16.7472702838328 0 0
235.202823170792 39.8710442164027 6.73041811410851 0 0
214.26276000594 -29.0780407896803 27.8781490924902 0 0
203.890922316136 -7.69370829508436 13.7314618465167 0 0
244.425472006696 39.9114250547717 24.670285438123 0 0
136.842113674088 -16.8912275267527 -3.87921300137088 0 0
257.679062057939 -21.42138792346 12.2272842534955 0 0
230.355241223061 19.7977986959638 35.4264820944769 0 0
229.286863554134 -12.0833276763556 28.4239030619294 0 0
241.871838284863 9.05825934900963 13.929095938063 0 0
239.039735651062 -35.0727951157853 -3.72618264981797 0 0
0.164059647525082 -10.2317701940631 -8.31566507884674 1 0
222.552954331113 40.3128111692994 20.046604836262 0 0
151.118165751645 -18.6721543815032 -20.4644808452635 0 0
190.516893067559 25.0958778151721 -9.20287107237226 0 0
237.743694320076 40.9216554460962 11.4807035203182 0 0
207.170076384061 -32.8494509197484 -5.78310012063728 0 0
139.594630842827 19.7411243154937 -10.1079388359001 0 0
106.980463741523 -4.43753820416744 2.46705250164458 0 0
188.331395753841 -14.5292402618726 10.9312738316704 0 0
248.2326834637 -35.6943977450631 4.18673833795918 0 0
221.822873558152 -29.5240955109608 40.3470540393257 0 0
181.022760933355 -15.2177925722503 6.85210361583194 0 0
117.156389981475 -19.8458315840998 -10.5290285507564 0 0
17.5130470650972 19.0786951530139 -14.456526461621 0 0
193.119218190607 17.3991711499973 13.9973244880978 0 0
101.442866273923 15.8565420557348 -3.60964687612196 0 0
232.940082950369 39.7991619015044 3.97352849538044 0 0
215.165600887039 27.1826877582966 -25.4906919128768 0 0
211.187768003945 -39.0808328817675 4.77643228736602 0 0
200.16170154549 28.7504130552364 -4.17472532529808 0 0
112.750635718591 -12.6689109277494 -24.45174248716 0 0
98.4421402551198 14.1067145450947 -23.8086642589825 0 0
109.980602712719 -17.9775096871978 -20.7195953679413 0 0
232.281072502521 40.9635911290893 25.2993926155085 0 0
36.7296597484871 18.3939232800855 -16.0594653149197 0 0
257.670989453385 -29.8194610614465 1.72231314097512 0 0
173.392999349157 20.1835494376876 5.45010064273691 0 0
51.8480339326113 -11.9103793143544 -7.85614695280748 0 0
22.2157370353284 7.61158565965247 -27.1859262778614 0 0
217.26614273427 34.3860214447638 -8.06324974639753 0 0
16.8535789960766 -9.78326754111023 -7.02159260851497 0 0
198.16015434012 -14.6019657883571 14.471563570267 0 0
87.4597717038038 6.20135949866356 5.21011632652518 0 0
129.136064704376 -19.5323654548392 -7.99767696138279 0 0
247.816141188378 19.9765768550347 7.56585745055617 0 0
204.517148872171 5.70660543880811 -24.4008355668139 0 0
108.376530468923 15.8438143163861 -2.54394842524657 0 0
127.281113060832 2.30503078192702 5.46571801799358 0 0
241.843047593329 -27.1064327660209 -14.9782914001796 0 0
234.083332875637 -10.5569564285318 34.7208909039745 0 0
253.511792469531 -16.4897400283737 22.6773393826352 0 0
237.36091108021 -13.577367672258 -23.1359738119267 0 0
220.101213117506 -40.309123055187 -2.61141849723231 0 0
31.2421459273692 -4.06471405100981 4.05797098934197 0 0
211.102445242111 -8.48440428013814 16.5831487422135 0 0
244.860487090794 38.6569815453109 4.7492269829191 0 0
227.938469902564 -14.4140151361026 39.2595602182761 0 0
220.154979634336 -10.8032282027445 31.7401985744892 0 0
204.728863602931 24.45406310362 -23.6762000971315 0 0
163.445728014979 -17.2792290901924 -21.3964091757479 0 0
196.545720584559 15.5938680382779 -28.7674497248845 0 0
231.032223451712 15.8549648163381 -27.8250034757515 0 0
124.702076085101 -4.44928090296107 2.43154558927164 0 0
209.116518497464 4.89836383694583 13.7679199873016 0 0
248.387469648677 -11.9155826281032 14.7117726552653 0 0
192.123778681652 19.4276740783392 14.3600647070797 0 0
194.52915322714 2.45905060616451 -25.3583908863487 0 0
4.52356699299092 19.7981956626184 -13.8816577195045 1 0
49.151511205471 -6.75903156136807 -1.98706352179634 0 0
194.521114758532 26.8098687029114 -3.25713519300195 0 0
139.169916427072 -10.313989620419 0.810146112370637 0 0
222.336945108068 -0.757807263733427 -23.0297476237263 0 0
165.640083860924 -12.5481108660485 -23.8704879993878 0 0
163.099564354257 -12.2469945769246 -24.1508105454837 0 0
234.521568710624 -40.1989483207184 37.1210133579368 0 0
247.543853600966 33.1778284246156 20.4896542618153 0 0
212.011922308331 26.4329321791233 -24.6411323157118 0 0
137.401096803263 -4.31698196198449 -27.4022571649926 0 0
183.337032165693 -25.4949989287741 -8.90635096281293 0 0
218.239545160497 -44.0035448389442 21.5538987838469 0 0
205.141358640285 28.236611850105 -15.3776156683314 0 0
236.23078376 -43.5969415353041 13.7280935064712 0 0
167.331477152439 -22.5818829388053 -4.28827273772181 0 0
202.448849854752 -4.52127530495223 -22.2176987486967 0 0
200.997431811218 31.6688989391262 5.12685451903451 0 0
250.470285009157 -34.6228694618043 2.40886944928396 0 0
254.058710955036 -19.1235115460473 24.7660678389773 0 0
145.313856146292 -12.8369910045811 -24.3441386518083 0 0
258.712308982956 -30.3389541503613 7.61557873540847 0 0
83.7086078079155 5.29827925996393 6.13327146881675 0 0
230.885138280657 -1.39971627188423 -20.3173122263762 0 0
2.67104525647367 0.989510433519091 -27.4838823595889 1 0
219.313269077934 30.7923660865792 35.6019893927543 0 0
254.423001520077 -36.6928925713775 23.8075098080515 0 0
198.034284860993 -20.7202397126986 15.3014362203795 0 0
183.223866900279 -24.7563308569888 -1.69322610296697 0 0
200.347208837629 -18.8062540456506 -20.2688704380148 0 0
249.296813347825 26.9884878025468 5.75778826800962 0 0
173.0901765101 19.8749550916071 -22.1666961724024 0 0
212.265119045131 2.25536096031584 -23.069853987464 0 0
161.144405004057 20.9613660281537 -12.137168395326 0 0
240.68027238455 41.8961091595332 27.8949838861044 0 0
208.159379651308 37.630010821314 4.89535281004243 0 0
245.99216724748 14.6397557876629 -6.89501960114987 0 0
167.413822982269 20.2816052976031 -20.072994240241 0 0
217.442279535724 16.8543431938692 -31.0670931365115 0 0
110.363586049301 -11.0569914302118 -2.64069204405168 0 0
163.010208510862 -6.07417453266453 4.82071779182101 0 0
138.461148930403 7.72489232845814 -28.4226380598242 0 0
54.253312145416 -10.1719791867163 -5.50942454119696 0 0
99.5258763743252 -7.60138463328428 -0.975661374936312 0 0
243.996237121557 24.5329412235357 -18.9944217147221 0 0
229.028795100909 -10.9694863663462 -23.9794475789697 0 0
167.576907994477 21.4525108721465 -5.44318942500464 0 0
211.275355083402 -1.02477451574438 -21.8342065976272 0 0
127.115540454623 2.4005523022524 -28.7888097410382 0 0
191.044172296894 25.8248447769757 7.33932422618345 0 0
225.098367254273 -3.25625517014255 -22.6900663489114 0 0
146.444465351271 5.20162345357759 -28.5198447597653 0 0
101.13659601077 5.93902796146475 5.7901172247683 0 0
230.820886842284 34.4208326853829 -11.8386116481048 0 0
257.168379920657 -34.515818674694 20.0580533021856 0 0
34.6220916505221 1.1205404377633 6.41047628384779 0 0
155.444185638014 9.9638721123738 -27.9115709432959 0 0
245.515854085189 40.6818773689743 21.7849707042288 0 0
207.00201272765 12.8422974355371 -28.8175807839237 0 0
239.629018609946 15.3897787645138 -19.6953704493924 0 0
16.6467598419783 8.27594205243348 -26.9287385196042 0 0
229.851579517852 36.0767940972213 36.25182865881 0 0
99.4962875710195 -6.0666390230369 -27.2462086502608 0 0
63.0179992309229 1.9773439871469 5.73761077561067 0 0
216.136171306547 -25.769131961541 -18.3995912128205 0 0
13.9950311932089 -12.8453386119216 -15.4362877327741 0 0
231.45747525343 39.7942892741365 2.63388406313799 0 0
241.963257081349 -40.7065686793237 22.2639248232699 0 0
203.117859123865 29.7477801913065 16.1140510523895 0 0
70.9257471093875 -17.0187924978114 -16.7765063970516 0 0
238.082406450297 28.5562688131397 33.5552031329195 0 0
239.930674335042 -41.9357059956115 9.77973783336818 0 0
241.463023421643 -36.5273392865974 0.687372797370172 0 0
226.416922520056 38.6592493976924 26.8337961194133 0 0
225.177668661354 27.450643008753 -27.5411394115778 0 0
61.2090568925654 -3.13308846769988 -27.6600592304608 0 0
117.705062158065 1.43548270910817 4.80663186469618 0 0
212.957729325405 30.3257576203616 -17.7502038284813 0 0
34.6262317706153 -5.43621265794125 -0.899610633400657 0 0
36.5484039607046 0.501587561908013 6.4586585491888 0 0
199.499084079336 -7.72864937101926 12.520743639737 0 0
188.035947913565 24.465559315633 -10.0522450059514 0 0
232.108080679529 -13.2100459633319 38.4678365723521 0 0
214.157791981994 38.3188870522692 1.00629718556208 0 0
80.38393847974 -17.0066195442265 -12.9697844716125 0 0
244.671615611188 11.8251070240157 -7.64691965159919 0 0
255.241924586479 -36.1207708722503 20.8574661507423 0 0
190.167651944672 -16.972178749243 -21.0412353155725 0 0
108.596423699032 16.4143636306617 -20.7283862892257 0 0
2.14275941531552 -12.0022874159656 -13.4746727324752 1 0
208.600190504003 39.6086024194432 13.7426560646015 0 0
237.280854587549 -35.4462175008044 -4.40164038681611 0 0
253.654825576419 -15.1451939782107 -6.49949877875897 0 0
69.411288858537 4.99083549401267 6.46514228152254 0 0
242.25195556087 23.8407263504772 -21.5482245120211 0 0
222.4800415251 -40.0672658587492 -2.99999530740691 0 0
83.9687111391586 -18.0521991353968 -17.9036608560515 0 0
13.6360468724731 -7.01508509073829 -25.1329883923136 0 0
248.217891844332 -37.1688207676598 8.81607414957268 0 0
225.258758803108 -46.6149398848921 8.86449896210651 0 0
89.3178235656524 17.7175900026806 -11.6410565337692 0 0
183.538960496984 -5.997990587498 7.32837951269506 0 0
204.09827305463 22.5620216682718 18.8183829743449 0 0
243.631755642327 -8.90351944097593 9.30517048707419 0 0
227.527409780116 -2.53096853351559 14.8268526271058 0 0
232.177326315208 13.5991654597759 27.3143231307033 0 0
229.37169645654 30.4289201004475 -22.9649913284136 0 0
36.2829212730416 17.5146826111871 -20.0024852068379 0 0
89.8366916416556 -3.20631200875132 -27.9773676840311 0 0
103.922375789138 1.77557584095602 4.70569616467631 0 0
213.88588890576 -5.60751964466005 -21.8067263298031 0 0
78.5022368800127 5.16403308463443 6.42284232769245 0 0
205.505150782882 -4.38474872773681 11.1341131922055 0 0
180.077654985623 -21.1851590701888 -17.9825343242462 0 0
204.311706815136 31.5711361867331 16.3186661742033 0 0
6.07192743689318 15.2838674143887 -6.1572897129506 0 0
211.314625482643 15.3616883951018 27.54630348514 0 0
242.844206207276 -13.4927539551841 19.8034617368112 0 0
255.111845193078 -15.0073052023585 -2.29598448589046 0 0
228.989245669809 -18.6077326805025 42.1447913604281 0 0
99.6468462244724 -15.0735522205635 -7.06723330215544 0 0
68.5970160290855 -4.67427647091257 0.204481893434666 0 0
15.7122608821181 14.5721954083581 -5.56340929475858 0 0
25.8290282531453 -1.87474705154584 5.31098531542338 0 0
144.615269774228 -2.49616971541162 4.12281765241885 0 0
186.789024499749 -0.141542378667446 7.65728777453688 0 0
221.594282874797 43.5278813308092 13.8371201554905 0 0
181.532732161673 -25.2324330389121 -5.56259446008479 0 0
207.855880238428 6.294271761679 -24.8867342429426 0 0
67.9806147482881 -1.90174281412175 4.45342381504216 0 0
245.106105424787 42.6494602178712 19.1926709856006 0 0
225.724303149307 -40.9951918512151 31.5107390598738 0 0
39.9608745025327 -12.4094239985681 -21.9327146600087 0 0
107.325236020922 3.92681627924364 5.46560673233512 0 0
161.145985419146 20.5393960172063 -16.5536149915895 0 0
230.139468666571 41.5008000614459 32.4229908408947 0 0
230.926239002759 -3.59284495837809 12.9246780715939 0 0
41.7792262473243 -14.1102441285135 -18.9127433141944 0 0
116.299977288867 -12.5493606007798 -24.5074677702721 0 0
250.389472679457 -27.3231751344467 34.5886317454819 0 0
158.007773837112 20.2856542105795 -3.77640895869453 0 0
213.435464979868 -41.4781966479152 19.3236322224252 0 0
227.448870693007 -21.6648470830911 42.6530209958964 0 0
110.470306887352 -6.04817621827781 -27.2772456862406 0 0
243.615674435343 23.8072711885379 26.9369421730211 0 0
153.267923143978 -10.8651895730751 2.38886590313415 0 0
205.993290286253 -24.4318607380101 19.4685561634356 0 0
79.1748792483834 9.07513569855884 1.9382525855172 0 0
239.168165434236 -34.0198009846012 -5.42176435476888 0 0
214.895200881575 15.9378213489469 30.251228947957 0 0
66.4873346369484 -8.67747879227657 -3.47533337718715 0 0
222.042605540916 32.2302436664466 36.4120880875908 0 0
234.982003880572 -8.43575378917181 13.4205945163652 0 0
253.828968075625 -36.0900540206396 29.0203040752649 0 0
208.99645072785 32.4125304010256 -5.30454510243784 0 0
117.004955716032 12.0383502306447 2.45555218031905 0 0
207.377153958014 5.91193789106909 13.348133692331 0 0
228.955442502113 36.4632625640295 -5.84425947972797 0 0
133.29422339489 18.8658749376244 -16.8602706396075 0 0
229.313879332989 12.3235027916474 25.1766077134607 0 0
169.61842007266 -4.71636926551083 -26.2791405093139 0 0
188.403005158693 -14.5562576034532 -22.197093599056 0 0
246.741217373558 -39.0337633853984 17.3625317489629 0 0
36.567136281757 5.54967539879342 -27.6112280128876 0 0
236.008488383165 35.8212940132925 -4.61725712855869 0 0
141.667714014063 1.54247679589865 -28.5412667737529 0 0
153.591661779719 -11.4433385938683 -24.7311334281002 0 0
57.7155858675322 6.96202035761007 3.91014773564544 0 0
103.055217700819 -0.500976620124443 -28.6225357189008 0 0
205.419966206167 1.32755045758177 11.6265652430411 0 0
242.459068339183 35.7485382991683 29.0172448260353 0 0
226.422412889854 29.0249191486265 -25.2186868113337 0 0
147.471833863421 -19.9650856858687 -5.04806046707122 0 0
215.30566606841 39.3440658720065 15.0922216450947 0 0
226.883191060999 3.9024081618078 16.4818346236696 0 0
186.531321122388 -18.3349732784082 9.63444925592678 0 0
212.21145839335 -1.63097684679724 -20.7821311415057 0 0
70.4761818554028 -3.1130008054501 -27.7241290019765 0 0
42.249437005867 13.4303372552156 -4.40038498953486 0 0
230.865389139783 31.3967431497981 -20.963321907987 0 0
215.819886538569 36.4904818257425 -2.54208199146143 0 0
198.853236715227 -3.3275985048875 -23.1286185749381 0 0
195.307143877695 -4.50505951559687 9.16379386903068 0 0
235.17044859645 -37.7736811733285 -0.857852360313702 0 0
9.51455865130132 4.79655636954583 -27.4375277995121 0 0
230.082096148696 4.78614198478235 14.9760512649913 0 0
234.351819517334 -30.9387936972871 -10.8225494276261 0 0
195.013978554115 24.0866621469772 14.1193093641412 0 0
209.180705120232 32.2143678447778 24.9572196335779 0 0
117.143283859438 -16.5090802525749 -6.2103070938758 0 0
245.324414568691 8.77711203656116 0.120096497735561 0 0
227.60595989332 33.6032169243104 36.9191934871769 0 0
235.909889634025 -32.0588499449648 -8.7295522402007 0 0
58.3971874591856 2.40684639361363 -28.1010169263033 0 0
230.31502507914 39.4062092242649 34.4022241961342 0 0
190.735973422878 -26.6996621101626 -8.92631327270587 0 0
226.531560023939 -3.61637607808907 15.794262327231 0 0
247.771824332209 39.7579016368016 11.2797913070452 0 0
249.761377586876 -36.5354199153427 34.8987750642954 0 0
39.1099079945449 -4.28736703678668 1.37113433411781 0 0
220.308333279608 33.2202747080295 -13.0804377805428 0 0
59.7366917904972 14.8857980516562 -5.95924948692544 0 0
241.404940909803 0.722017036482087 -10.2972602821913 0 0
194.249351303642 -7.4561343311358 -23.9055948022155 0 0
194.602504459469 21.3744238609522 14.9104977285903 0 0
5.34847950488142 6.92878507296499 3.21544799920371 0 0
138.839917861445 7.78693269336349 7.07137757374877 0 0
239.8455195265 -10.9459604450255 28.0778929110214 0 0
246.317782206556 -11.5842855884034 22.7823091672126 0 0
250.021417534701 -37.1945102560666 15.0647604391847 0 0
99.2786218147371 17.3799959517582 -7.31907583605636 0 0
184.759961101818 -17.2774406422847 -20.9010777011193 0 0
229.922314031107 -34.0389586325533 -9.41783468423034 0 0
217.853959066354 -8.4185760297664 -22.3218276782814 0 0
228.669145662604 -38.9494270611405 41.3358439082664 0 0
220.79785455417 28.4810410624823 -25.3834970099352 0 0
19.4635494656913 16.0261687740646 -7.78871599256164 0 0
245.399147411459 -11.4261230005781 24.6396129999343 0 0
224.14801985162 -38.8410456170327 39.1959226914204 0 0
234.626608195215 -29.0714683806134 -13.2964926848204 0 0
217.684704266199 36.8265325762148 -2.65813185435121 0 0
92.9070201384118 13.5949638437145 -1.59425950234223 0 0
3.19623608965425 -10.6827646743932 -19.9541831741005 1 0
169.901408775287 -9.87838513495984 4.99651435341618 0 0
197.16406727167 -22.1471342962974 -17.174291991915 0 0
220.495757110077 36.3678795428615 28.8950151491454 0 0
215.41528748172 31.0116851388133 -17.6908953961616 0 0
240.218258397974 -36.5060100228409 -0.937030025315618 0 0
243.881891777866 -13.359262643514 17.633652622453 0 0
241.423175478305 -29.959980246549 -10.8226942520839 0 0
231.393327948933 2.13405227802272 12.0816059293217 0 0
194.260041159631 4.50735150594276 -25.9033840098272 0 0
242.842364988849 6.39042541783057 10.3131665898614 0 0
223.078555859123 38.0353952595098 24.9721269212661 0 0
14.7601572178442 15.9239079581394 -22.6146412706724 0 0
203.665632429682 -21.6322693268926 17.9697319100565 0 0
211.758549180009 -25.6377944132951 24.5139219311232 0 0
220.549517789623 -44.7454687016837 22.9352966071882 0 0
221.501619437192 -12.2769574675554 -23.0067641230229 0 0
25.2382308813013 18.8231022611435 -15.1520517560943 0 0
239.431375900328 -24.5383992686389 -18.4287798980568 0 0
148.768190244479 18.7296740225972 -1.03259066516662 0 0
88.3407288216361 -16.1588226912489 -9.97058508696615 0 0
223.688787601071 -46.6587203722061 12.6094371148061 0 0
74.4916489019472 4.56628771851519 6.5097025463223 0 0
245.474129868539 -4.52611383393908 -7.54790050613203 0 0
236.83186285838 8.46331697244107 14.0186067113574 0 0
226.043349277936 40.673700278442 2.60562304228139 0 0
180.615586904881 21.1480420283098 8.73168357900452 0 0
7.92607984767192 16.6654603417979 -22.4497708578647 0 0
147.846028072107 7.94472026821798 -28.1744221585385 0 0
221.522103841446 18.0151089864525 33.9314662835974 0 0
