"x" "y" "z" "f" "a"
-221.653133335608 -30.2360527135637 -16.4088139145277 0 0
-221.563092148736 22.6185592963128 -17.0553294502224 0 0
-222.375045360892 55.0563281040356 -2.67565305766205 0 0
-207.678275959273 -37.603651589709 -0.842124381216636 0 0
106.664986291183 -14.0382336885306 21.4488592893118 0 0
-195.293199179375 -2.53486231622688 14.5381072957827 0 0
-120.639906466213 -15.8697180113604 -14.0307433005683 0 0
87.4233975332721 -15.5108276414472 5.31976374894931 0 0
-247.346260710505 30.911885237741 2.58546562726681 0 0
-223.627792422574 2.04495592635958 7.14734387468844 0 0
-215.62477771261 -32.855354729476 3.55357036316345 0 0
-211.519907617322 43.8683785562714 18.8792937337642 0 0
-167.410566110378 -26.1674234013773 -21.9542697650856 0 0
4.22472755842659 8.27255848830489 22.5834563717993 0 0
-120.582609037544 -11.8735493591778 -15.7172198475438 0 0
-198.055242694405 24.0330405323179 6.87514668335448 0 0
-197.307580464258 -38.3303218182812 5.27856468174891 0 0
-200.584016977324 -29.5441411529921 -23.5195174971779 0 0
-102.825080884085 -0.000353396900415477 17.8638357026504 0 0
-151.022219566053 -25.9362568266774 -8.75255153457898 0 0
-65.0069026197196 -19.9137892271169 5.77222388332783 0 0
-209.965008155562 -15.284979222691 -17.7186748870242 0 0
131.503807813958 -4.59978759470869 25.9738096442673 0 0
-245.791376923359 39.1432050304923 -1.48767808998815 0 0
-219.217879316212 3.10669907663741 14.9656122053089 0 0
-216.677559782403 -33.7840001659879 -13.1621137938816 0 0
130.189109053994 13.4435138716707 -0.574030185714613 0 0
-220.463879305784 -31.8128286738467 0.502844912454741 0 0
125.928729171688 2.14179314058537 24.9697861886653 0 0
85.4783188340889 15.6444436148751 12.0574127020173 0 0
-231.960130160104 44.9212942620015 -14.2866410432088 0 0
-243.989077165739 28.2940135390168 -7.80480491962478 0 0
-160.670864915768 7.27626410824109 0.33116323465684 0 0
-98.7179864076812 3.20690531947736 -0.967837356034615 0 0
-21.9505157356144 3.71203414535844 24.5544117612342 0 0
-198.615491578438 -37.4821697646286 -10.4206342975592 0 0
-35.5950966719362 -7.71229179344087 -2.14338629999577 0 0
-158.686543482949 -23.6183994085876 -22.9180360063798 0 0
-221.870303821394 -13.9277278414099 14.1669043921078 0 0
-221.496775986925 47.1622376985689 21.0727465037085 0 0
20.3547195509491 6.8140140172709 24.0636117718628 0 0
124.678912750498 6.99617622121066 -3.42720915988129 0 0
-194.132948864664 8.87346576093452 -12.6136686514381 0 0
-112.736789258812 -17.2501087499234 -11.3232045638534 0 0
-10.2701518336279 12.2891398245769 15.3985027661546 0 0
31.1129156566631 3.85584317676301 25.9477196899229 0 0
-175.741730750748 12.0870112264987 -3.00916020743903 0 0
-41.986624775348 -18.2618426387771 15.9644236733664 0 0
-223.602334350059 -19.7972102795407 -26.5530361179913 0 0
23.7834717502139 12.0605943712121 18.48541998062 0 0
-169.404648467298 11.1712813611652 -22.8029767923208 0 0
71.2602547081417 14.6835356301332 12.3732632111268 0 0
-123.136019531067 -13.0967151786577 -16.4689496954483 0 0
-198.812693186218 1.27090300014817 14.3610053480047 0 0
-152.349149269304 7.12104322226689 -9.88594957582795 0 0
-179.650681237773 9.3445864437255 -12.6491386082215 0 0
-172.728375325764 8.94213696536319 -23.7285746698048 0 0
-229.449441397505 -23.4827889885472 -3.57583560881414 0 0
-205.397778081993 44.582250173651 0.0754694857917582 0 0
110.644418819163 -14.5342501309554 -0.287562912792018 0 0
-77.8715816744663 -10.3770750487626 -6.65776741477054 0 0
-169.791686300518 -28.1837677667584 -4.48911435723552 0 0
-178.043613382007 -7.97034771583606 -25.3298439953716 0 0
-182.838098519378 -29.0501809509049 -20.8360638797054 0 0
-196.337919086661 8.37966607311322 -12.6998445283234 0 0
-185.098156132586 13.5532974799574 -7.5144253302686 0 0
-95.4115192755374 1.42640819504601 -2.85019593596873 0 0
-112.548646313768 -13.8243191019826 15.5374917087278 0 0
23.4717688375402 -10.9052280168846 24.2276541064791 0 0
72.9952857966704 -15.0635085482345 17.701385733919 0 0
-183.987028304822 9.5559419367512 -12.3103457222952 0 0
-223.676542208015 7.98119704083352 -6.59165155958769 0 0
-224.725388558541 4.6870968169722 -2.14971457036065 0 0
47.5394590478214 -13.1636840102129 21.2663779793744 0 0
-22.424952197845 1.13426026323518 25.4622341470527 0 0
-215.346233580113 21.0869504475794 -14.5841205431551 0 0
-170.586203603656 3.35834748718753 -28.011926264055 0 0
-103.885654843357 -21.2408360685913 9.2013451405602 0 0
-176.163029355414 1.0068251436796 11.2547139329312 0 0
-223.076611994086 -8.88952112225924 0.149056039208376 0 0
-229.087861498151 50.8853686292042 0.432734032846531 0 0
-133.855857083442 -22.9694700322639 -11.3351062378727 0 0
-207.307695773787 -23.7061901495326 14.0948633033635 0 0
-111.733139578874 -7.12520043093999 -10.7715623861748 0 0
-241.298076773053 38.1362442292115 17.5227734287577 0 0
-217.039531847003 -29.5852077830628 -21.7812222222876 0 0
-208.065627613883 -19.3723087901812 -28.0889635449868 0 0
-160.926401495171 6.16714479575243 -8.34831874757002 0 0
9.02141904478986 -9.63714535365615 25.0352187296025 0 0
-190.693419008519 19.3799681343731 2.91093593671909 0 0
94.4458489172727 -7.04977496807377 -3.63010332152541 0 0
-202.32153375692 -0.535235079284588 15.2370269384025 0 0
-170.746528319493 2.00562408144106 11.5562506381181 0 0
-150.801585212934 5.9541496206684 -6.4938965419884 0 0
-204.006700884196 33.5347624618214 10.7027050469397 0 0
-24.3999246520931 11.4071717264578 15.1990327504756 0 0
-147.095288059855 -3.86592094863611 -18.306820056878 0 0
-92.7996952275107 2.62385088142182 -1.58561583183927 0 0
-205.702252771284 34.4819782962267 -2.90660076145183 0 0
89.1719476662345 -1.04129381243931 27.0866848110268 0 0
-237.334269090473 30.7953311467939 22.5086633867272 0 0
24.9587283287365 11.4338764607422 6.05175498057875 0 0
-211.810185308092 25.5537078089398 -12.6284809532456 0 0
-95.3035361301199 -15.3034449287028 -8.60873723923534 0 0
-174.117440447257 -7.0571848870589 -25.3413253000358 0 0
122.458856153851 14.6450640453293 18.7097090623518 0 0
-32.1111217642151 -13.21835502764 3.2051525034918 0 0
43.1333414730895 11.4294965780753 20.1159254716558 0 0
-28.411326942 -6.50647355734152 -3.04592967309103 0 0
-146.911411947915 6.38428597695475 7.77214269774153 0 0
-121.219366365268 6.1429061147278 8.06541688271394 0 0
-12.249407269259 -8.04261174880419 0.0622539557934927 0 0
82.6434750835699 -9.49339615105839 -0.887171422224284 0 0
-32.2410876609312 -5.78482968918844 -4.19661084767966 0 0
-196.093329828496 -38.3671550882985 -7.89997378760702 0 0
-25.0324194789903 5.04145225022137 23.601007473359 0 0
94.1725202105917 14.6666067936304 18.5070121035123 0 0
-217.188803877578 44.6936095664332 -14.9338588452147 0 0
58.378666007352 -6.49837103236948 -1.66246818379741 0 0
-177.958228511154 -0.255066126805669 11.1790527168616 0 0
-185.472444797745 -17.5302680674148 -25.8367606184947 0 0
-52.5879477357845 -18.4910544194614 15.5571202723265 0 0
-234.39193960536 17.8209554675175 19.0605711125831 0 0
-171.330032362038 -25.2588215660526 3.38105873837781 0 0
-207.657108695556 42.677459501362 -9.26034830188131 0 0
-167.567548474342 -21.0822157394891 7.48524195541782 0 0
-11.044771282811 -14.9749458821709 20.3947142395072 0 0
-190.339170968955 15.8995852910504 -7.25889659292922 0 0
47.9200257001325 -6.03676812558798 26.4719024258438 0 0
-226.865356318005 -28.0525321599467 1.69584780139304 0 0
63.3379010309728 0.529282189328274 26.7651986435778 0 0
-178.322568941583 6.449095731989 -18.4684597907388 0 0
127.589127409532 -10.1372395914858 -5.33659806224783 0 0
-134.130089739037 -16.3627218190253 11.8974933630829 0 0
-201.304405978027 -29.6899293233069 9.71769119795098 0 0
-174.985372710747 10.2794654095629 -1.33529655280572 0 0
112.436209685079 17.804497990138 12.295658095382 0 0
-47.3902114016459 9.57697617454461 9.61242240316242 0 0
35.1177970221658 -12.1958624945395 22.7657905296409 0 0
-236.439721781394 39.9669794664863 21.3098312130677 0 0
-211.671009410711 -35.3444831844975 -13.832221331005 0 0
-241.472662226692 36.0461595973847 18.00904771307 0 0
-206.65954190861 -21.2118604261024 14.7142018562006 0 0
-220.07300060425 -9.30681904786961 13.1155902467918 0 0
-161.689262334726 3.39113291339798 -28.2019235092532 0 0
-59.1658044220003 -5.07173579914815 -5.32605129528651 0 0
-215.412492959669 -13.6295679785008 -27.8477569428478 0 0
-211.444790380269 9.13447843905446 18.5945752093735 0 0
-60.4618913329124 7.23077659558934 4.87104302964688 0 0
-75.0458587035772 -15.7993277886869 -2.98835745429109 0 0
-229.210525061231 32.5839333030888 26.1702355110788 0 0
-222.64967489902 27.9505368422983 26.2531666640307 0 0
-89.3193409660631 1.4875979930661 18.8911930326974 0 0
-190.09221917392 -35.2703615551354 -15.2013361897515 0 0
-223.184985910952 -30.404505523287 -1.79847762647143 0 0
73.1434891835957 12.8534297745867 19.7461253718904 0 0
107.443753502163 9.54153406786035 22.6947051775881 0 0
-114.656894586391 -18.0544133299139 12.2987002661534 0 0
-241.40124476594 17.1649852147573 7.96702884707749 0 0
112.250733322662 -3.23030437433088 -4.07114576840451 0 0
-193.468326783631 -36.5135783741634 -14.4503605174953 0 0
-243.12106469251 45.1052167170398 -0.516766052755139 0 0
30.5279250488056 -15.5315546805228 11.0807928028729 0 0
-106.546242586058 -12.7687589855689 -12.0837859680596 0 0
-237.314272239514 45.8136211905293 -9.91046347485754 0 0
-209.684768065031 48.585951133947 10.8442642598151 0 0
-227.278756667108 -19.0981717106276 -2.26518466332463 0 0
96.4650936956408 -14.9692470584106 19.5092435733913 0 0
-207.298167199651 47.7697360354884 5.84121091209743 0 0
-183.564825437335 -1.3226401909641 -22.5319936656141 0 0
134.331356841136 -19.9923427454612 12.3749619694625 0 0
-54.2619148439935 -19.0598568852807 7.01958037321482 0 0
-42.0670402596307 -6.66747466884484 -4.64996718571176 0 0
10.542146613127 -13.0087203033377 5.68280430171736 0 0
119.693579522726 11.3303372672923 21.1618228299956 0 0
-57.5177986518444 2.03344205724354 -1.47498031185323 0 0
-168.042316309203 8.0848123572239 -0.77256089748684 0 0
-160.181549503389 -25.9608070543824 -1.37008363234533 0 0
-74.6155532569791 -10.7854477200817 21.3126374253965 0 0
-211.987792570359 16.5714651788598 19.5586989892206 0 0
86.9314094339817 2.136816252656 26.3992178985768 0 0
119.31077711993 -18.5815715271491 13.3105363577194 0 0
-181.204562031948 -15.0480933636245 -25.0834809975277 0 0
-207.640935302128 -10.2682479596412 17.8309206880905 0 0
-208.908304045974 -35.1485037636393 3.57144989425646 0 0
67.2048647843863 9.15271670066355 23.2608269356234 0 0
-194.74623996165 -6.48386789650643 -22.5953322833647 0 0
-216.616615537687 7.17501919750512 18.2164365944622 0 0
-23.5752240737879 9.44029931799111 19.2617708813174 0 0
-99.1531835635512 0.925934529558226 -3.40377663366978 0 0
-73.779628236014 -6.37390637651983 -6.55083714491218 0 0
-200.362796807638 23.7843452425259 10.497248197451 0 0
-198.518437930042 8.51748898798337 -12.5582293482557 0 0
-169.067118229736 -14.8505959227016 -22.7690976394024 0 0
-193.189525872537 -39.4669182177245 -4.7221774650914 0 0
-221.045028355887 -8.54995096177733 11.3392858532651 0 0
135.998297637424 -0.584084047082416 25.3549130208189 0 0
-180.186848384182 3.04158682771776 -19.8562859740358 0 0
-218.036826099894 -9.89513837349178 -5.1334153006282 0 0
-46.7360961919255 -18.2880675265156 7.52911209994485 0 0
-181.029332402709 -8.45689095932388 10.209900526986 0 0
-177.267057902058 -12.1278334134739 -24.5697499182469 0 0
-139.640266799652 -23.0954578770824 4.20871336755125 0 0
-212.371754701118 23.972145325454 21.9952534174266 0 0
-137.298919402388 -10.9154524664026 -16.0526778086424 0 0
-200.694985561979 -16.2532006884245 12.9944406490084 0 0
-125.935087985803 4.23735291138965 -1.43480257741572 0 0
88.4247344573782 15.8649405489064 14.0730926066534 0 0
-204.963249404145 34.8918311725125 -0.275974942024986 0 0
70.3026861719689 -11.9965961103947 22.3633905102498 0 0
61.295623514307 13.1640662115202 18.3412469350127 0 0
-204.841205707854 -38.1701375384831 1.13104494126896 0 0
133.936171021304 -15.5491312633039 -5.89957402241437 0 0
-56.3388584661823 -17.9637084352623 4.43761631652641 0 0
-102.909060249548 0.247847153929902 -4.32953194497084 0 0
-244.051871750678 37.5882233872272 -7.1534332524147 0 0
-126.473895475205 -24.2898074620516 0.553182152314716 0 0
-117.062599568198 -11.8232229862984 -14.9277040534024 0 0
-226.380348007944 18.5589238074285 -14.666018643789 0 0
-14.8222808866587 -4.67035145545696 -3.85597593760241 0 0
-177.922684592551 -25.8232749637403 -21.8923368453225 0 0
-10.4924162258454 3.43335244124186 0.0585217391089804 0 0
-93.0623194352817 7.22005434779329 11.2666942589012 0 0
6.58649574516621 -15.9107475016859 17.6856139153873 0 0
-61.7900881244196 -10.0837357523311 -3.71154766593343 0 0
107.668098345216 16.2664025790998 17.1364901469301 0 0
40.1579287854507 -4.77504779121131 -3.22821569514679 0 0
-163.443703622709 6.7577023741165 -5.79805889342675 0 0
-206.862332178158 33.0257005752816 -4.98887920013121 0 0
-163.37382010619 -1.22144310715068 -27.0451423406176 0 0
-204.201001166269 20.4436946735892 16.0603730924674 0 0
-165.801463151432 -26.9717670164124 -2.75209421355784 0 0
-178.140675812405 10.7451850138951 8.56690337428178 0 0
-220.763043552782 -26.0755764253197 10.7210238937982 0 0
-111.327119120928 -16.2080079263454 -12.4474540744488 0 0
-159.943650289243 -5.45930024546549 -23.8332502628257 0 0
-181.597033287429 9.30975836034301 -12.7329607585022 0 0
-30.9896276594682 -13.7712994846796 22.0534381367468 0 0
123.95408015412 -12.5578964660434 -5.29367569049352 0 0
-241.60396842827 35.2431050645469 -11.3935370893889 0 0
-128.421192195712 -19.7346945126334 9.50962740669588 0 0
-229.39927662698 -14.7916060889846 -17.0065982334682 0 0
-221.124215413551 -11.7037234135127 -18.3618864833313 0 0
-217.387986460409 -12.1291692825668 -27.6947888258673 0 0
-236.146630870433 51.2361644874423 5.93500241778734 0 0
-113.920347515245 5.665743873783 2.50822955275697 0 0
-238.013654700536 17.1309842712068 14.8751615680245 0 0
-158.669340499741 5.88594084661503 10.04981951556 0 0
-144.392542325797 1.83882088370054 -14.1915597443908 0 0
-128.282766582466 -4.26230444096659 -12.1687442403277 0 0
97.74002768846 0.88199351480426 26.7128490088309 0 0
-148.81034194635 5.44898659905094 -6.91369403774853 0 0
-212.724862243859 -10.2327699844467 19.7641821134386 0 0
28.3841859759858 1.6835647525108 26.457799191948 0 0
-244.389227056453 30.4202752121466 14.333096017928 0 0
-234.190743008058 20.5025622776911 21.1209542886639 0 0
-205.386388452188 21.5589152749255 15.3630383346021 0 0
100.823184689822 -14.5311823308445 20.4403906552308 0 0
52.5723291847836 7.34825868172337 1.63258239737651 0 0
-213.606318148154 47.5010868814917 17.1521592838965 0 0
64.4320866689105 12.9505457960014 7.02691010941775 0 0
108.366276580658 -12.0054100848261 23.4725347061967 0 0
-210.435781033671 50.7278794220813 0.321055234803483 0 0
-69.7810960032523 8.45814787462916 8.77552177852272 0 0
-217.778717070953 -11.4025366785647 18.0716892954574 0 0
-81.9731940491593 7.70451751599247 11.8357028070485 0 0
-189.360896587397 -36.4385074046392 -5.48087091280079 0 0
25.6068392668418 -12.4674403088363 5.32728003005346 0 0
-33.4993928011568 -17.9368014174916 16.3323441274027 0 0
-1.69928259404474 -5.37278826492802 -3.24478197943102 0 0
26.4819051901531 -3.00925477827239 -3.55813721982076 0 0
-184.026418906944 -32.7373198900246 -5.88473782172468 0 0
81.2076044140305 6.49187720867343 -0.452771307446767 0 0
62.9138655318048 14.2539647951343 14.8997648381738 0 0
-191.353819316477 3.94182787298438 12.2724764808263 0 0
-101.320232415332 -22.9482898487692 0.168096617047655 0 0
-33.4016497363472 -18.590192706188 13.3562407838232 0 0
-234.990642948413 50.2153968503463 13.0838799430509 0 0
7.61550332515283 -6.95607984069341 25.9818125146146 0 0
54.140413398049 -4.43339712233464 -3.0431079941087 0 0
-207.627399912576 12.9276209396926 18.0017372974103 0 0
-221.262509460209 7.66314327367326 -8.73756674758421 0 0
112.255238476994 8.43375506596992 23.1357075567358 0 0
-214.419451161834 -12.3937840068507 19.347524709292 0 0
-187.929597367152 -35.2798805044267 -4.04254310668472 0 0
94.6957261830757 -9.7518100257943 24.8704689841805 0 0
-19.560602710526 2.45720221106484 -0.640114121525094 0 0
-211.931902664472 37.3517163245851 22.3195975942487 0 0
-204.509606582054 -26.2721251683652 11.2910280953165 0 0
-141.15535812334 -12.7891548991275 -17.1935475814296 0 0
-120.505320877452 2.88170611539064 14.2658346837504 0 0
-218.914874822132 24.8478183736973 -17.5767698495681 0 0
-6.3159562621726 3.03496561932757 25.3499909374604 0 0
138.567570719778 -10.3702836063246 24.8655280289338 1 0
103.958881666347 7.3179455800539 23.8856726103144 0 0
67.1589023400269 -11.4995796507539 22.9021261947338 0 0
-155.712947900839 -23.249991539237 3.98256385763362 0 0
5.52939113025662 3.14911093827566 25.6450293573674 0 0
-221.001679017642 -0.0168144347113709 11.2525146545502 0 0
-212.33460179239 51.7414358377868 -1.11197149634245 0 0
-183.18126593522 -23.9964055743536 -23.8750203460712 0 0
-38.6369685075194 10.1456944606589 14.5096361004624 0 0
-51.8549546115631 -14.3769514232206 1.21991411219806 0 0
-235.204877420519 51.4954758577141 7.83514990235357 0 0
4.35526519332554 -16.4521383692662 15.687716987993 0 0
54.0991180448295 14.456889175618 12.9316020826524 0 0
-234.145350051244 12.3353490745033 1.99208693742367 0 0
59.1499658615541 14.0364615814378 9.52966504782468 0 0
-195.3131831497 15.0634451448424 11.9854668181441 0 0
84.4700773448091 -12.245970445001 1.22401830718827 0 0
-204.102879124448 34.6895524329561 3.73675552533221 0 0
132.140057179057 -7.18341698941091 25.7334784005208 0 0
-207.472121502001 -24.2372671004306 -26.6686241880938 0 0
137.295949511343 20.1116863917709 9.40660882039443 1 0
-200.807101124991 26.2600421629198 8.8174988686149 0 0
-6.5824953112852 -16.8685866108089 12.3078052990658 0 0
-123.570007667953 -7.36027505474871 -12.4136280756765 0 0
-37.2097474549512 -17.7842138182216 16.9487768811989 0 0
-209.071793284045 -34.3256869311939 7.43479318747316 0 0
-214.921935079771 -4.81551211613395 -6.72095033476433 0 0
-141.826839719374 5.73780216461529 0.196100508676197 0 0
-223.506037712199 25.3798909910906 25.6660614129669 0 0
-75.7822903836375 -4.83426254034189 22.6065703413249 0 0
-146.510267219194 -24.9884700790328 -10.786685903075 0 0
-228.633833392799 -23.5222289600894 -1.15243220251175 0 0
-224.840872435496 4.5683812066651 -0.454057888304846 0 0
-221.17203647546 40.0508013259812 25.1396285305696 0 0
-236.275702972073 49.6756133773712 -6.1901220558608 0 0
54.9309464393648 -15.6413039038483 14.8980757833537 0 0
-113.065816959925 -15.5014916081941 -13.3495999621858 0 0
35.097336660547 -5.66977624883072 -1.74685807827641 0 0
-197.377907946692 12.8276757805455 -11.0425914668056 0 0
-120.152720053137 -14.5801291863721 -15.3546330654493 0 0
-71.6061880668128 -5.48934285875299 -6.2479376627097 0 0
-220.001107964167 24.9785181591605 25.1675406334321 0 0
-211.672085255553 40.3758922322262 -14.1510102218981 0 0
69.5768525438608 1.99041612066722 -2.32273010422133 0 0
-49.0378498189448 0.78303105147585 -2.09565523139385 0 0
-72.8228109922106 -14.2909685504409 -3.44783912803663 0 0
-116.358570544716 -22.9084332845335 5.16158686382855 0 0
-140.299947169756 2.5623686416542 12.0585959595846 0 0
-191.585743824704 19.8499546547434 -0.329763299683479 0 0
-199.786906125004 -6.96080998985576 15.7814100794759 0 0
3.48793235504043 -13.5371040191931 6.00942783531574 0 0
-236.729297806197 27.4195726076832 22.513568526582 0 0
-140.807401467156 -15.4822458018457 -18.2923602003631 0 0
-78.070716014955 -16.7396557041304 16.7003071770553 0 0
99.0572513042377 11.1788091668044 1.96185133240674 0 0
111.897138605464 -1.46680962303827 26.4929931065853 0 0
28.7077930460534 11.4220923541422 5.80345228606893 0 0
-240.569791862382 19.2927229123015 -6.70579704027543 0 0
-152.830884254541 -23.8964006104865 -17.4267880575125 0 0
-111.129641055268 5.43831305458385 11.5138378169013 0 0
-45.2705939575357 -11.3796328522414 -0.309163787022168 0 0
-181.635638888205 13.6537952924225 1.91084977952528 0 0
-146.9128398389 5.80688884877752 -2.90110666512529 0 0
-128.300852178728 -9.6136644849491 -14.2604840408939 0 0
-239.982917181198 15.1676828733564 5.11490576983456 0 0
-216.042834157965 -18.5077197088585 -28.6978046853518 0 0
-199.572620972067 13.8257064318232 -10.8747827768558 0 0
111.151767081073 -18.0638804607691 13.1662771347621 0 0
-51.1675177655989 -16.3701910407726 18.9184539934825 0 0
-183.516973155453 -31.2798724065492 0.962982679761908 0 0
-6.23575791965737 -11.6030602103947 3.45330044595163 0 0
-23.931542091366 1.44169850749851 -0.906764404539721 0 0
116.644933078015 -17.5974744002291 4.07391833946384 0 0
-195.46299008976 -5.67780531738212 -20.8745283815403 0 0
6.05101751216916 -2.60923030679827 -3.67364517070536 0 0
-204.699095162991 27.0008402741515 14.5495555192721 0 0
104.452090823998 1.28131562015625 -3.50780401208008 0 0
42.1023754321337 6.84596885560146 1.63619424670825 0 0
34.4195623659729 -14.4351245260531 20.0235035060686 0 0
-145.561954654901 -18.0351577304716 -18.9637089825305 0 0
-222.731781242036 -21.5466651579825 -26.7296683893045 0 0
-236.013714770519 19.9619975248572 -11.8439414177652 0 0
-223.948131235519 -30.1219059817006 -8.34745738985911 0 0
-103.32050773035 -14.667302101255 -10.8096816000812 0 0
-183.57498375211 13.8975377130236 -5.94412006304209 0 0
-239.444083159975 19.9414707296043 16.0410673700701 0 0
58.3622669270547 0.963351173432607 -2.18208739701657 0 0
-215.286940248446 -13.4521741228154 -20.6655927037004 0 0
-192.265279490463 -37.1648240036836 -9.35146542585471 0 0
-215.586199255946 -26.7445409688633 -24.6837623034087 0 0
81.2586497915758 3.62622604094178 -2.06624561136126 0 0
-147.8518973258 5.64926329034859 -11.9627410706184 0 0
-117.970909070449 -17.1700821748768 -11.9347503637745 0 0
62.527207515903 -3.24543733679188 26.9788952368621 0 0
-246.041694582012 32.3350061560555 -4.30646480054656 0 0
-222.137982887055 9.13396583400264 17.0849487758658 0 0
-152.995660436603 8.38229390525986 -11.7406322134153 0 0
-57.6593516516279 -3.32381991967965 24.3339393369003 0 0
-231.420409417021 52.9547068124621 9.89652079442229 0 0
56.2325684225486 -5.41035763549648 -2.82264219271096 0 0
-151.399474076449 7.2433969747516 -14.8683715800058 0 0
9.97509999262799 2.06000206109885 -3.79987209174438 0 0
-152.272289904225 7.0951729349669 -7.24973527012221 0 0
-108.344798892917 -11.9868767603744 -12.6832162263689 0 0
60.5853661932889 -6.06452049049606 26.4290842802641 0 0
-188.746817814072 -31.4230322471042 -20.7392015955667 0 0
-210.601585081454 -12.6505848855484 18.238664386862 0 0
-153.7404176914 -26.1928039191513 -8.45983536962643 0 0
102.228835314431 7.61847062100488 -1.20539254449966 0 0
78.4768086675125 -0.808218623703478 27.0906133399342 0 0
-205.118150532651 -30.9967365872601 9.25662160055233 0 0
-223.768821607772 -28.7358166080975 -16.1129942878259 0 0
-222.955830814414 53.7341811274256 -6.91025889212775 0 0
113.577556726102 2.96289743061455 25.2753104324541 0 0
-204.14170964232 37.2058886061154 4.71234329512236 0 0
-152.794106323013 7.73403771941715 -14.4206396657205 0 0
-56.2204465848554 -6.34252939975399 -5.50757569354654 0 0
139.049759136258 -19.5778367663666 -3.73721830974877 1 0
-144.442041477758 6.11818618233091 8.04392729404219 0 0
-219.757314431832 -31.9775312718161 2.71031920351198 0 0
5.25871392951723 -10.7734124064905 3.26066250326013 0 0
-115.083213109108 -19.7701904089116 -9.92471990331451 0 0
-57.4294322757009 8.07134992779044 6.11693568399021 0 0
26.2401775435283 6.67421185254164 24.4154137389389 0 0
-211.941933375625 -13.2629540531202 -26.6200873780549 0 0
-225.94348583567 51.8137726986702 -2.65013532556949 0 0
-209.173137092565 25.9489440178069 -10.635886510222 0 0
-202.366750652475 -33.2685260041808 -19.331970549839 0 0
-206.807079634758 30.1937132581452 -6.78688596411271 0 0
-68.08468487891 5.48321743831914 18.8067167286845 0 0
-194.160636096501 3.8506090732594 -14.734501239612 0 0
14.3476035302923 -1.44428112043085 -3.80348057521065 0 0
-122.134426440832 -19.4109737441691 -11.5905947465636 0 0
-206.880006764296 46.7228880740767 0.346091295981449 0 0
-224.269144618694 -21.3141186561571 -24.3816395149924 0 0
-154.587291840003 -8.06059365313613 -20.7333823315137 0 0
-102.803112869675 -5.98336732776784 -9.23799512543095 0 0
-12.403262694192 -17.2701718005166 14.4609062300025 0 0
-181.4497431706 -31.7287918231407 -4.68899611490936 0 0
-143.831920332245 -19.564777084683 8.73976804664299 0 0
-219.276543651889 29.584125055099 -18.7214124416151 0 0
-33.3531727367662 -9.80136506867806 24.3881425943759 0 0
-189.681525378254 -25.4591128471912 -25.490814033567 0 0
104.601294326707 -0.0102219131440362 26.5752998572571 0 0
-2.24065727504881 -9.44221376314279 24.9182862944373 0 0
-196.430553212964 -24.9911408956177 13.1957208078806 0 0
-160.012204317335 -21.2356759845128 7.07138980786758 0 0
-16.9719704053362 -5.75994105784763 -3.0642997148004 0 0
-4.88998783480084 -3.5744548079472 -3.88330384826308 0 0
-237.890184786848 49.6137299942836 8.60111175049903 0 0
117.198368863734 -18.6409353660592 11.5561429349248 0 0
-48.9560515569748 -14.7657191401093 2.19629021453662 0 0
-3.20126034004596 3.27361229237051 0.0359528046585657 0 0
-12.9943794621843 -4.99788314685147 26.0335592322838 0 0
-118.204714073129 3.82669665773847 -1.07590473915342 0 0
-188.444337836839 -7.262536657759 11.4771158667511 0 0
-186.569077903441 -4.49014633012812 -23.1014556253198 0 0
-163.411845653296 -27.2956269904126 -7.58787956166985 0 0
-201.373107657601 -33.5795140540723 10.4636020065907 0 0
-232.319112352935 35.3293156662097 -17.8886097697632 0 0
-209.951363145726 -27.9989848977972 8.68833534229912 0 0
121.524112809275 -3.89266466760715 26.2795273377427 0 0
-207.369609592597 46.0758619415451 -3.57370006847402 0 0
67.8295530148323 6.76702349642002 0.120811128226902 0 0
-209.215875833389 36.3707974916666 20.1689873726859 0 0
-211.416343263773 26.2546489984552 22.00264830596 0 0
118.129763861776 9.36529342352075 -1.54264605077426 0 0
-37.3917043997172 1.14442610874661 24.9162846337377 0 0
-123.018161159542 3.87697623566129 -1.65070616883219 0 0
-18.9299089310737 -4.63484106480936 -4.01075444678717 0 0
-40.0265062348426 -16.9652647227752 18.3249586579069 0 0
60.2956578164636 14.4124364641159 12.4606848424723 0 0
115.467513120213 7.26453281253039 -2.43306540491658 0 0
-115.839446456833 -22.9306813292611 -6.62907790868473 0 0
-217.73294584703 22.7138795373547 -16.3349934484206 0 0
45.6225033346634 4.58396519913394 -0.301087117231396 0 0
-189.091915744613 14.8053658827128 -7.9835872831418 0 0
-203.93077849909 -8.23244961479915 -20.0382679547806 0 0
-143.6658025705 4.06844854754475 11.0671507825084 0 0
-228.569036368698 35.0135880353918 -19.0294572021802 0 0
-84.3877333825621 -11.1804961432511 20.0702659817649 0 0
44.8872706913465 9.66220455953982 3.3957719155434 0 0
-240.927294462633 33.584359200979 19.1447682090903 0 0
-186.812962152781 -20.8274666358963 10.6188915298879 0 0
-221.452665623164 -11.3360589901872 -2.97418149224128 0 0
-227.968621160808 -18.5655749783779 -5.06882321927497 0 0
-106.477351522061 -13.5525225575355 16.383328636369 0 0
-168.043513652364 9.4264200278491 4.54180280723092 0 0
-75.3024806072538 -1.49296111626521 22.1320968882027 0 0
81.9405558993874 -5.03951584625849 26.8198508476553 0 0
-28.9245093919923 -18.1958293104713 14.4105852646078 0 0
-99.3405842902762 -15.3659254708287 -9.39632976521141 0 0
-137.515954955318 -0.0913540059489705 12.9026396102436 0 0
-228.129411136484 54.8721773550896 8.22396042108266 0 0
-197.775981368284 15.9271119880569 -9.68569680886131 0 0
-194.716488050681 15.5716696437116 -9.15096196626104 0 0
-236.73611988112 13.2682033489673 9.27250960126616 0 0
-170.844899717379 -27.6698893718348 -1.56398276663185 0 0
-202.063755090265 29.5717359084065 5.8094041229851 0 0
-114.067447740919 -7.29070329983294 -11.3393837415435 0 0
120.510703112705 1.19499988223725 25.5028307306904 0 0
-142.486827519731 -10.5158864676588 13.084726866627 0 0
-224.979737994499 -10.9452713437389 -20.9651312167292 0 0
97.8829767557323 -2.19185023362641 27.1162918108456 0 0
-131.87698275322 5.22264265165276 10.5305108651989 0 0
-160.568909109446 -23.939016572911 3.12813225131587 0 0
-159.85582537475 -12.994638751827 -21.6612195925982 0 0
-213.909356344139 8.76017140825059 18.5704753506595 0 0
45.2845931004129 -15.6826535274008 14.5869242510745 0 0
-98.9803511262731 5.93647753335274 12.8868017566568 0 0
-208.068449027955 13.4051946285289 -11.8844345307708 0 0
-175.230240458383 -17.0013598220287 9.89384904300087 0 0
-165.988283211609 8.55983164455219 8.47334319804974 0 0
-230.106156699018 -19.9044974383795 -12.1987009474127 0 0
46.9164643095179 2.31592418638369 -1.96327717986678 0 0
-179.731723007564 -30.1422013393842 -0.80889309049114 0 0
119.060608950686 -7.87379451368696 25.589310021545 0 0
-235.085858636606 52.8882951914554 -0.921536351109007 0 0
-176.278781858137 -27.368046293631 -20.5628470198314 0 0
-205.961357407264 -34.0426322545564 -17.5634492493775 0 0
-199.469190571111 -36.2604556854484 8.01400531961612 0 0
-168.223356525921 -27.0273380284328 -1.41414342570192 0 0
-168.495479761202 5.85224165796943 -28.5343122063043 0 0
-119.739329578898 5.39638999231314 1.78794719990803 0 0
109.589226864837 -7.61321708389541 -4.75099126179611 0 0
-229.296355932003 53.5380305991122 10.4951984813824 0 0
-187.450670367596 16.917949512594 -0.521109600722333 0 0
-166.533474901434 -5.37251236551354 -25.6239720110803 0 0
-233.075525471061 53.5596011451844 4.87166670499477 0 0
-159.943824761017 9.82439894243337 -19.0142547241048 0 0
-224.435331467632 -15.9011422467699 -5.13813096717996 0 0
32.1738963203154 -15.7718323843117 16.1478185026465 0 0
-172.584815855998 9.9541249716306 -21.3745269450867 0 0
75.5550777582143 -5.17402115170366 26.7118911064394 0 0
-213.664300999105 48.1965729388364 -9.80308984993875 0 0
138.337583486998 -5.32008609176956 -6.09528664403601 1 0
-196.409362404962 21.8466947707063 7.72011554714009 0 0
-49.8077169235578 -3.38693273108363 24.8856993055089 0 0
73.5023950205538 -12.8674686053261 3.128519036754 0 0
80.0898891332768 14.2316220653289 17.9619389957071 0 0
-154.872513914422 7.18148276193844 -23.1044138591304 0 0
-151.251798777138 -17.7673905297516 -20.9876734729037 0 0
124.50595878807 -7.7648643919477 25.6253914780585 0 0
-37.7771781203363 8.24967023449065 4.68771452640673 0 0
-203.865313907768 9.05259508711455 -12.1395335523589 0 0
-238.452505061074 14.1233069128639 7.20889629033589 0 0
-105.334301838898 -23.2245676367995 3.88183528226217 0 0
105.608447084193 7.33306996301989 -1.57884167149613 0 0
-213.09918949448 43.4967127244195 -13.5410007300924 0 0
-229.195257637289 9.38525219664819 4.73787245775106 0 0
-59.2378413590679 -9.11637933828581 23.3072952870081 0 0
-130.844775170661 -3.44729817400564 14.8242300771789 0 0
-134.313911391334 0.868062073810992 -9.80341291305475 0 0
-91.8810552777237 -16.4368314705743 -7.29137659422877 0 0
-229.401306344705 23.9378420146617 24.7001975481939 0 0
127.552599123153 17.6333277370918 4.81635751647754 0 0
-162.259662789504 -13.5014217108081 -22.0409793427383 0 0
-195.369387207639 -38.2801184215486 3.34567723463112 0 0
-196.825132072627 -7.62087244589233 13.8251539748211 0 0
-164.391109396816 4.71920134927199 11.1959457796838 0 0
-162.76367729342 6.47629274751986 -7.68107781970459 0 0
-217.080182547985 -10.3242679818709 16.8099734820522 0 0
-199.55047868167 17.4662457401196 13.13153120323 0 0
-162.747616191433 -19.4665430301408 -23.9183133851057 0 0
-67.6922541170488 0.335272661046055 -2.78459873133301 0 0
-235.443667777141 47.2927541804441 17.0279341537412 0 0
-84.9136796689495 -9.53218173109001 -8.20572182079643 0 0
107.911377455622 17.4562100131394 12.451807681185 0 0
-215.200451318983 19.3440686748145 21.2400550889103 0 0
-213.441296908483 -1.78255106926072 -9.61936855368428 0 0
46.7290341538774 12.328750954533 18.7554038936296 0 0
-34.1857264299937 -6.41922647847016 -4.05270249046118 0 0
-18.8704134146004 -17.0438876434975 10.5138362575218 0 0
54.1833360860837 13.0723940372345 18.1008231137723 0 0
-12.8586294675241 -5.5232848244997 -2.92585911235865 0 0
-214.291946090469 -32.268045141964 -19.3366531620228 0 0
-114.599597147179 -16.0928675885911 13.9954332486756 0 0
-15.3195942400939 -15.9451903440456 8.46561063678887 0 0
-218.267090192501 -16.3292909073167 -29.1365265060951 0 0
-11.0587881241092 4.18159755365827 24.619769069032 0 0
-72.0341895843512 -4.50504852406241 23.0082527238739 0 0
-186.778338050392 -33.6411674777185 -0.102364732234196 0 0
-217.189442610204 12.407414697619 18.877295368498 0 0
-90.6407891626764 7.75153229974966 7.62657466120256 0 0
-233.401970899766 11.9934242647324 4.66015851082985 0 0
-214.994081810087 -2.87106856749175 -7.20702988672858 0 0
-224.399072410697 53.5609248459551 0.385247245663235 0 0
-206.503236617508 -18.7046749586396 15.5349582084711 0 0
-223.317733728394 -11.1639635625327 -19.8639839223618 0 0
-111.476924504626 6.4484446193418 4.69384432399111 0 0
74.342680962412 -16.1861544210051 12.8877976841391 0 0
-166.685006483629 7.22071406922874 -8.93908631386195 0 0
117.901911405292 -4.830266276489 -4.51053978810404 0 0
-178.443993446641 -14.4925087839635 -24.592329898522 0 0
-229.008344213613 52.673841901362 -8.20708558236376 0 0
-54.6032187821461 -15.3633134176214 1.6674233439961 0 0
127.337043797738 -18.4050150925599 2.05580195346474 0 0
-193.679898369346 -5.94601248684209 -21.2153028358321 0 0
83.0137595484372 10.9501489719735 3.22511000595091 0 0
56.3876471496434 4.55944242853975 -0.918147501893523 0 0
-241.942227933931 40.5946888236889 15.686998547713 0 0
-153.881696761269 -16.487583728445 -20.7008143509325 0 0
-227.009373953015 8.4626594775203 12.867818775295 0 0
-65.068511030951 -6.67863780744652 -5.9913278349763 0 0
-188.9957498232 -35.6022754445989 -1.65887164332654 0 0
-199.462082370445 -37.7546328828096 5.65488670687903 0 0
-218.02977576852 14.7415523041937 19.8183030467702 0 0
77.1843369928798 -16.2252652916573 13.8226454456081 0 0
-65.1682675357793 -4.55636231019768 23.6884375823286 0 0
94.5578114967519 3.91759154528089 25.7175490008457 0 0
-214.336640647659 26.2380232776755 23.4938369193702 0 0
-205.628596991746 -30.4450404853785 -22.1862661190977 0 0
-155.45279793121 0.143298688974438 11.1162486893338 0 0
-219.807456925341 -28.279245800301 -23.3266795552546 0 0
-233.604340377905 51.9744887037021 -4.28070267508592 0 0
29.4928151840038 -3.87946122797549 -3.63417817677695 0 0
-240.035629619932 18.2860422651456 13.4169562202927 0 0
-150.90025824894 -7.96776385762561 -19.1528130449059 0 0
-117.504063793571 6.3218975029315 7.62298513282169 0 0
-190.84926296264 11.8622055214377 -11.2284669060464 0 0
-177.482771343826 12.2047389222037 -3.13312648595293 0 0
-202.160971218905 -16.9149501152687 -28.0164377788951 0 0
-212.020397940288 -5.64357949775195 18.4831838469401 0 0
-212.332400059534 15.9581592429871 -12.8209710220945 0 0
-158.097481216646 7.75969389631823 8.49207108652341 0 0
-206.714117791886 -11.3513425709235 -18.1998556256157 0 0
-85.2924878644756 -20.7091270253643 10.7269872149876 0 0
-179.432921168625 -30.9810805988454 -11.6781127481037 0 0
-158.464693606758 6.25982956378072 -12.1678918574452 0 0
28.0363883828835 -5.91562585028201 -1.05981413799795 0 0
-207.844589214894 31.1052231572571 19.123085126071 0 0
-230.798583400172 51.9531935840225 2.68386021967237 0 0
-140.653952713754 -25.3653216448632 -7.79919961912399 0 0
-212.439586112486 -23.891817066042 10.5465219742393 0 0
134.804002972606 -7.80787170520212 25.5696604322962 0 0
-53.4354367538312 7.24503223562018 18.4096269706383 0 0
-39.5717043621384 -16.9676881851187 6.77354329268168 0 0
-100.60407636561 -2.2854618419442 -7.53192243343163 0 0
-69.5242159091054 -15.8180747449973 -1.52676279020056 0 0
-77.9340495581271 -10.0136898388285 21.3114892077704 0 0
51.5991890883707 6.87660406830675 24.741665624073 0 0
-209.434228230741 -11.7755701420521 -22.4864257020427 0 0
-184.81198212152 11.5269126318845 10.0429437036713 0 0
-54.4766133851104 8.61499060991591 15.1744422162913 0 0
-170.003063548794 8.24254750399566 -10.6912718519444 0 0
131.346426285204 6.45964479016348 -4.33170320103316 0 0
-210.146323892648 10.9307702959032 -12.3465538435357 0 0
-220.205091766429 11.236783475253 -12.9165678186042 0 0
-197.858667854456 -15.1355401553255 -28.5446133283172 0 0
-245.914169638866 25.4040887355318 7.66290818383529 0 0
-120.166702907723 5.32382408218844 10.6931518629524 0 0
-185.425704174335 1.72531903572644 -17.8299986455648 0 0
-203.885891638527 15.0447772639869 15.7437206306645 0 0
-154.323841528785 5.50576327137252 -6.85891803996757 0 0
38.4027733690484 -15.6036105018377 16.4747919598168 0 0
-165.355941955653 -11.0917749526296 10.5404630338819 0 0
-123.454248272206 -15.9239431761064 -14.9918403284751 0 0
-243.199255557705 29.8427869468343 -9.43486150279719 0 0
-165.776117686958 -14.6542994461169 10.2630347873567 0 0
-179.126667366911 2.00856064502225 11.826400081856 0 0
6.53131643602917 -6.40876371319992 -0.499772696055287 0 0
-111.502781565341 -4.16568113194628 -9.60867425511163 0 0
138.407293275394 4.69594310641679 23.4074972317631 1 0
-184.639631573752 2.31860230320598 12.5772535965758 0 0
-119.758612517831 -17.6073795287909 12.2930934812045 0 0
80.1043561005829 -4.43443312768461 -2.77324694976826 0 0
13.2247773927186 -12.3083345741529 23.2804863700902 0 0
-193.539496906708 20.402152159941 -2.41831882236905 0 0
-25.7593565514829 -17.0365831403917 17.8310689472412 0 0
-127.938566972293 -13.285108336891 -15.9362535560925 0 0
78.5159521834928 11.5868862983801 4.12676287897922 0 0
-148.411143201676 6.16584362838396 0.606262794387907 0 0
20.0001806125603 -4.34603137638723 -3.86828737631973 0 0
-200.357229524918 -7.73781223366952 -21.7165720605592 0 0
-241.720821220248 26.4853045137447 17.569599361101 0 0
-29.7102512687769 11.1598798503251 11.0005503225584 0 0
-170.496306464622 6.62165909231379 -27.7577098914653 0 0
-149.704224581136 3.84497034994545 -17.6335622994838 0 0
-213.933337551627 49.9508508861046 -7.82238003895684 0 0
72.5819745116777 -4.05003464811383 -2.68368778766393 0 0
-137.424777872124 2.41059220731686 12.2894065891026 0 0
-31.6422671770514 2.87353685137113 -0.659996716279794 0 0
-150.250104680412 -23.1195660842384 -16.8804144803457 0 0
-242.632166437071 25.9712968968275 16.0073047149772 0 0
-132.352647601901 -11.2366708480666 -15.2754061583782 0 0
-221.521391131158 -0.773657628564497 -1.88314279158802 0 0
-97.3286344817405 -20.2295887818092 -4.81860839850605 0 0
-203.24209331817 -38.3515151058642 -7.88904046613079 0 0
-210.266207093963 -37.1726914522709 -4.38252419297687 0 0
22.9499134637724 -15.5097843208185 10.9025871889005 0 0
123.059751142514 15.3841384536353 2.77909450522067 0 0
-102.121389911978 -2.94197793252715 19.019409584864 0 0
-238.089981224634 20.2220744754114 -10.2973180489484 0 0
-211.991069386413 -34.2766999207074 -16.5584975192541 0 0
127.142820077649 4.59573407201065 24.0131754205307 0 0
-23.4789261506686 -8.37155799963751 25.1058334596066 0 0
-140.890354980296 -24.2115270370169 1.74216348980167 0 0
-224.245272207907 54.7183096373729 1.87324558740826 0 0
-79.2719752878354 -21.5876306034152 6.87908191025107 0 0
-222.441814632245 40.779218386185 -18.0126694423313 0 0
-173.875785299437 -4.38428748885844 -25.9156913035633 0 0
20.94731410885 13.0377182970744 16.4136981859631 0 0
-3.02975384729217 -4.71467129470369 -3.81987271766707 0 0
-215.26976127958 -21.6821754744148 11.913950972958 0 0
-236.1300862932 44.7556210255918 -11.835594691589 0 0
-60.5169297494527 8.77916257260969 8.47697828254437 0 0
-212.075117085431 -28.7509033803766 8.82546986288187 0 0
-99.2373356659302 -11.448236355143 18.313822810186 0 0
-17.079814050527 1.61347352004491 25.4559625411713 0 0
-111.334057425146 -20.737930545792 9.56018933352446 0 0
-202.364562696747 18.8814652079064 14.6032231778046 0 0
-205.063905110472 -20.141306555123 -27.7868653858015 0 0
-107.666799637637 -5.87488252566329 18.5909229733356 0 0
-148.698705088212 3.20801861434814 11.2197791752608 0 0
-220.750610754866 50.3643745324128 -10.7131766728332 0 0
-143.663082084843 -22.5229682769913 -14.992081534107 0 0
-157.14712555471 -25.6943917594511 -17.0882643915369 0 0
37.7871415095631 3.90099327395324 25.9102194824906 0 0
2.31671628204387 2.75946470095162 25.7145867417038 0 0
-172.112557898282 9.10434376779735 -15.9262281228069 0 0
-187.709019092348 -15.4190656151002 -26.9267350677568 0 0
-2.43186600210999 12.8104591272864 10.2016581226607 0 0
-154.099908751046 6.57047764547219 0.0163363046874583 0 0
-218.205837004994 -32.8351522432655 0.133512458570083 0 0
-94.5775705127308 -17.7710848753706 -6.71787531425491 0 0
-237.828832585314 23.857970144926 -13.2299799663399 0 0
-107.885109524917 -21.2361827562315 -6.78103201280249 0 0
-246.985532459699 30.638663427103 7.29519867303993 0 0
66.792913181466 -12.1318220456601 2.78210307262293 0 0
-222.612647588126 -7.81210107712084 7.22521177217162 0 0
133.019809963561 -11.0347775306133 -5.88482155727762 0 0
100.843189031371 16.1723761296028 16.3725907900418 0 0
115.61124334466 7.21294300631189 23.4075663871254 0 0
-167.494606062946 -23.894419573426 4.23130228662852 0 0
69.593811357339 9.32409262101422 2.01029964510764 0 0
-131.663929479593 -1.94732898396759 -11.7193511366325 0 0
130.529033538903 -9.60337676384365 25.0855465077755 0 0
-151.726172225747 -24.3512104408253 -15.3032678757268 0 0
29.6416301665055 8.31382245639266 3.02406299624441 0 0
-163.455744260093 -26.2747751199391 -1.37759846469261 0 0
-197.930047671084 -39.4715259343205 -4.48154336246921 0 0
103.802484733049 -15.7521530845828 18.7374356855434 0 0
85.8891772620251 7.54752044101926 24.2173904708575 0 0
-215.938229846822 24.8098806378045 23.9064301157909 0 0
-223.288329213764 -30.963533544282 -10.951094173685 0 0
-202.872223422768 24.8152481813793 -6.2866441671414 0 0
-225.592394291868 -16.4711361887026 0.638196833419854 0 0
-218.675503228751 54.909952764379 2.39448184278186 0 0
-170.102447611003 -23.032365342893 5.93452301416791 0 0
-236.153830606885 51.4638102256923 0.379179145074139 0 0
-219.758460168691 -12.0562925306813 -5.78820756871782 0 0
-179.02692587151 -24.6489189845489 6.93483659276839 0 0
-122.865475141821 -4.49493833619145 -11.3209571217286 0 0
-229.045499764853 -20.7404405824091 -16.6052557401029 0 0
122.885926480678 -9.55424470491625 -4.9394948973707 0 0
-101.012657038078 -17.1002750619825 -8.79863703539886 0 0
-152.613702293094 -0.136565965450115 11.2840696515204 0 0
-202.354639126959 -36.0699003337975 8.11746901021542 0 0
-52.7105158511753 9.24264487497403 13.4575538718204 0 0
87.2809055441459 -12.9633711823381 21.7734589414912 0 0
-213.965153020306 18.1627125295478 20.2151093369608 0 0
31.90081260822 -3.68591858391438 -3.49456376656009 0 0
-247.143807439895 32.995892274784 0.00623391060111506 0 0
-57.372494818104 -19.8391066741676 8.38036681172679 0 0
75.7418551730243 -2.80969810514279 -2.63564464839668 0 0
133.641803899666 -19.9026471987552 4.65849633067315 0 0
-113.137771637731 -23.245671047633 4.24976500040225 0 0
-115.029331695937 -12.7539403124896 15.8135481554659 0 0
-139.230980663987 4.59439636995473 10.8261080232089 0 0
-91.7482298016138 3.5667957279662 17.0913299716013 0 0
-51.2804446299346 -11.9411414911966 -0.788212376997041 0 0
120.348634425422 13.5235984115711 19.6283034452991 0 0
-3.66641166656826 -1.66610516824767 26.3308584213774 0 0
-222.537773377729 -10.4021037361669 -26.0842238062203 0 0
83.8290210237569 -16.4224019434089 9.18827398952981 0 0
-208.550149956914 8.3109410789197 16.7582803755296 0 0
-28.0188144667243 -10.1782911841091 0.754538789102473 0 0
73.4409299166951 2.14025280096348 26.4991001068023 0 0
122.712132774098 -16.0949930746907 19.7322552982133 0 0
-91.3827932494852 -13.6591921917161 17.8933300128503 0 0
-154.419507958436 -21.5376155610101 6.68334238585764 0 0
-208.478652672909 46.1811062555934 12.846756797235 0 0
83.5084832737967 13.3284158372559 6.23161883008068 0 0
-56.0488544410018 -18.9441439635958 14.6622868378493 0 0
16.8133232854837 -6.91297887640027 0.236577524024031 0 0
-12.0265934661496 -16.3846430156162 17.9440194153677 0 0
-196.540437438621 -39.4372439835721 2.28250065836277 0 0
-226.099349447952 45.6654291660366 22.2208866479087 0 0
-122.045922013024 -17.8952274709533 -12.8563184870057 0 0
-81.9130310244341 -8.74661505931588 -7.79067150443135 0 0
-185.428677732492 15.697435186596 -0.651670394811479 0 0
20.5351013186204 -15.164497917177 19.2754776715809 0 0
-198.789719365699 25.6351145072976 0.77956580667964 0 0
132.165481309155 18.4160764094846 4.71265458246417 0 0
2.92310093491491 -13.5186516424142 21.9655358350571 0 0
80.0760243150307 -16.1282561996364 8.62567828781838 0 0
-226.09878348334 -11.8748511299061 -27.8478489763807 0 0
30.4777765726804 13.9010761748009 11.7133601492212 0 0
-244.452481361392 34.971524394792 -7.34663543974301 0 0
-196.620684240849 -21.284297023795 12.7847694274483 0 0
-245.221019297765 25.9111925746588 -4.17586938578384 0 0
-225.726520519924 -12.8521538361983 -16.1492200148069 0 0
52.0178566214979 -5.21445916458268 -3.1664338677376 0 0
72.5646995814097 -8.06486247041473 -1.16690064886113 0 0
-147.864655882204 -19.9863288490446 8.1844203057552 0 0
-187.35473410074 -31.3744945161605 6.14490258944469 0 0
-209.930595651021 -35.0726564937613 2.83819858521167 0 0
-156.917956345669 8.80853467061319 -13.5330629944674 0 0
-223.129634395046 -6.60860804029452 1.33701626833611 0 0
-203.689859261315 -23.4549070285095 13.158211268622 0 0
-200.932178383236 -6.51356807533109 -18.9900717074783 0 0
-194.451480269569 -27.2432409130152 -25.6038268161841 0 0
-45.0111258590197 9.8811310952696 12.4613432683439 0 0
9.8450161920079 2.53430196342165 -2.07526740597963 0 0
-60.2169464795987 -6.83302188697697 -5.67199629241367 0 0
-221.967349123439 -13.240200133551 11.2959415533461 0 0
87.8957482737559 13.1160815996665 20.1462564951839 0 0
-110.670812744647 -22.1429645072448 7.18042446242595 0 0
-128.485324261057 -21.9206552672392 -10.9347851922957 0 0
-102.127176339829 -21.9891004921834 -3.24033935423551 0 0
-161.845670481423 -21.8007450594789 -24.4036410675183 0 0
-8.20823085213191 -16.6901499902971 16.6315431739914 0 0
-137.540386444801 5.84996440293705 2.4700566596476 0 0
-180.995794849553 -17.3599932202231 10.2017499162303 0 0
-164.760367532946 -11.8604857560551 -22.7153408335699 0 0
140.572862643285 3.7688934798314 23.6653298829488 1 0
-244.361218315872 23.6079566958435 -4.16878360098177 0 0
31.1525507704653 0.0639839822170501 26.6472647131729 0 0
-213.713058189712 -34.2516019287376 -1.22252065185816 0 0
95.2161769044547 1.94845987053484 -2.75944743567091 0 0
-228.929907763716 -26.7130568287551 -4.72237792838618 0 0
-215.779710999137 -31.7040857479018 -19.7191340170794 0 0
-210.67992277708 46.040008926667 -9.69748575344084 0 0
-201.090846901081 2.61481731529552 14.4125792381731 0 0
-226.206449375198 -24.9944061038295 -16.5127429658455 0 0
37.0620484761675 -0.0780420066376709 -2.39205173249558 0 0
3.5470531145723 -2.46508384642295 -3.63475861448315 0 0
34.0181954032204 13.9238210567747 10.1646412957788 0 0
-214.065550711857 -25.3003105426078 10.5576628531327 0 0
120.318607475107 -7.6588458308523 -4.73959336660798 0 0
