"x" "y" "z" "f" "a"
-55.1818261321878 -20.7000098579712 16.4312512193816 0 0
-206.877074353126 29.6419542263234 21.1809144558266 0 0
-200.674554897819 46.1240131869015 -2.32233620612374 0 0
-47.3989627450609 -8.75005626512855 -3.91785116471333 0 0
-197.090486660023 -7.12013687943031 -19.729325694866 0 0
-26.6935935285334 -1.48068530243457 -3.80196970617762 0 0
-54.6268145436366 1.23895349866893 22.2825253173997 0 0
-41.4428281220545 -16.7944705894646 21.7167888178713 0 0
-230.835905212849 15.9539679957154 9.60339474654571 0 0
-220.024996260169 15.2403576889963 -9.95511203218588 0 0
-237.757965041223 29.1502209671579 0.527590648597467 0 0
-52.0002520511006 -17.1791085268616 5.77422000368546 0 0
-162.221675212913 -0.000713784002380545 9.55441652334242 0 0
-154.350082836013 -15.3077148422802 -19.5785019627757 0 0
-19.0855537284498 1.57030943192958 0.0201904095052885 0 0
-197.105455696553 16.6700862470773 12.4877732583665 0 0
-58.7374428372217 -17.4715514221795 4.77814829740694 0 0
-142.066032816478 7.11849275824022 6.49208628984363 0 0
-2.03671715438565 4.60489426732028 24.0390298829993 1 0
-45.6438060371137 -19.9093502611919 11.3664534133177 0 0
-209.477381795706 23.1190951079187 -19.0299327817749 0 0
-34.6327648427145 -0.915572836834244 -3.04902836880454 0 0
-197.584501802723 36.6706385190201 12.2027720364719 0 0
-198.044948247328 24.0433946782623 13.6016034275754 0 0
-31.2361440408983 -13.2591122523449 4.56384439881251 0 0
-153.966094679182 -26.3917322466106 -2.45539966198646 0 0
-206.694671835499 -26.9565403000577 -25.2187704444045 0 0
-19.5546196830879 1.25134914824939 25.2110601234401 0 0
-234.961214382432 20.9758862187061 7.69266390930068 0 0
-187.094739153234 -2.60399458726516 -19.6229786230005 0 0
-211.792397075919 3.07703393253003 -6.08674048743249 0 0
-212.257297818628 9.16603891439368 -12.6695952553625 0 0
-213.944222734783 25.9914735559395 -20.470092715119 0 0
-205.63785779407 0.735607033265845 11.6892189387833 0 0
-225.453560790323 49.3384004589551 1.72277067497922 0 0
-33.438138770653 -16.3587250922511 7.94925097841243 0 0
-216.026765687878 23.5334136587623 -19.9057598694086 0 0
-181.863167430303 -26.8035488830876 -22.5283727598783 0 0
-156.009690837729 9.98034038874893 -20.0303935355604 0 0
-173.507296386111 5.44999177503784 10.2472346603297 0 0
-90.1053502903535 -14.5473874528059 -8.34019357396609 0 0
-199.47296390541 -33.3455274273406 -19.1155632226327 0 0
-52.8265966607306 -2.52522854446223 -4.14729361922857 0 0
-176.900797952362 -6.79055788904204 -25.2661401359129 0 0
-142.936768999966 -13.6840071898501 10.8290679186458 0 0
-166.431690384248 -28.6159596559292 -1.99106641149115 0 0
-152.118162295144 7.23661364105188 -9.21750635959846 0 0
-186.512567821914 18.3038329428123 5.74901390521263 0 0
-60.4961243034798 6.92008685034538 8.00044537147345 0 0
-111.911246287525 -6.87645703161659 17.1119923103235 0 0
-57.8256328836661 -7.5987150355474 -5.8635834371285 0 0
-220.975773637828 -18.5109653723748 -4.18642949875287 0 0
-13.61532055216 -18.4082696037008 13.5772765161029 0 0
-58.3271090013536 4.53932707999506 17.7546925136651 0 0
-169.145575375775 -1.6313802819781 9.00492130714058 0 0
-81.3662145393328 5.57590461161255 4.84874009082281 0 0
-197.659672073118 -40.6638171013796 -1.37735868764206 0 0
-231.549993260484 41.5905925321683 -9.11202219474051 0 0
-197.301667971911 -38.9933917909749 -0.333775017073086 0 0
-5.4214151470174 7.21095860854337 7.09955773899202 0 0
-200.083729577605 40.3451990508414 -8.65635200321761 0 0
-32.5600729144423 -16.8782963082505 21.713577563948 0 0
-200.704199799311 35.3646091577475 -11.7215188454036 0 0
-11.2980199857029 -17.47704376718 11.7552139656957 0 0
-73.3273533107228 1.06692760519278 -0.469024819133523 0 0
-86.5990166744585 -0.913970462780192 -3.70594256132484 0 0
-178.904520920261 -29.6988617488956 5.75371619627084 0 0
-216.703544941927 5.00683905896305 2.48438578108253 0 0
-203.072578915854 48.3277450028717 3.11003170860291 0 0
-180.623256643525 18.083910562511 -0.468963608936443 0 0
-226.913804813095 23.5735366468788 19.206478020679 0 0
-164.816827425252 12.742737526016 -1.65700817169023 0 0
-228.434494101706 13.6177508228881 0.0967520906588915 0 0
-54.7488972314522 -18.0794074263211 6.30513913164627 0 0
-215.568646096805 -30.3162693304112 -7.61797588158048 0 0
-197.984141529034 42.3169246318423 -1.56225834876615 0 0
-111.271559408155 -3.61427804957645 -8.71076681779057 0 0
-190.166216795972 -28.5679871987605 -23.8299524119762 0 0
-102.750344752191 -1.00659435287023 16.4359364908845 0 0
-23.261054055732 5.61687759438891 5.82118814432089 0 0
-139.941086609926 -21.1478576167142 7.52368539935986 0 0
-202.526017063334 -9.26751620512688 -14.1431070867056 0 0
-205.733483164863 21.1457727187589 18.8024959959405 0 0
-39.2616052793262 -1.10572655747326 -2.88446787490676 0 0
-172.169705255733 9.99515740072737 8.88796918427506 0 0
-185.701037155708 -15.044769994537 -28.2813835640839 0 0
-205.977260333671 -30.8952984149921 -22.5210065723455 0 0
-177.263654299676 13.9966513760682 5.71782610552523 0 0
-65.1782436213701 -5.92596880310747 -5.83398536677055 0 0
-152.359175083192 7.76772617446971 -18.0429373017279 0 0
-34.6283406259175 3.76896061598521 22.1054841706152 0 0
-20.1277748332619 -2.25167437379032 26.1630106218529 0 0
-53.7861504185458 -16.3086994972147 4.4034468467205 0 0
-216.513600999714 6.59826610809814 -0.245087610391947 0 0
-59.7167293780197 -20.0591300279412 17.8208652562905 0 0
-128.346559897277 -2.40658793973912 13.4972369117214 0 0
-96.1160015267999 6.60978546915797 6.29208917909716 0 0
-189.269471988364 23.848297938643 0.449891016562245 0 0
-211.648714576675 -17.4292412009915 -26.8802236249756 0 0
-42.8251104266991 -12.1822919647117 24.3396180276996 0 0
-89.0710464665339 -6.33950863256454 20.8192389768424 0 0
-174.567623402795 -6.25323295672921 -24.9920058146351 0 0
-54.1128959854351 -19.7459705347473 9.43115583477691 0 0
-146.12915160859 -15.9319477769876 9.75430522705428 0 0
-126.711649666267 -18.7561253956959 -14.8734913995871 0 0
-74.8560206965426 -11.0275373161029 -7.3395179065013 0 0
-122.93508781601 -4.6885422599714 14.9933704625281 0 0
-181.104264416774 -3.96780010353808 -23.4251182012048 0 0
-117.366332762978 -20.3616677886224 10.4241328129502 0 0
-204.023852120655 -0.393888508272461 11.5072173401966 0 0
-214.642929847747 -28.2523147046562 -22.1489649529996 0 0
-163.635309168998 11.6973903379204 -11.0114162000822 0 0
-203.528747841109 48.8827920586408 0.774722907997227 0 0
-14.2343358097287 -18.7444975038982 17.4589634303342 0 0
-104.67953886343 -21.6691814835167 -4.91248541600204 0 0
-194.886715053062 -40.6333284498203 -6.0743156312449 0 0
-199.891480899142 27.1081237794206 16.3492269607622 0 0
-227.574262157007 23.4601679819987 -16.2054053021555 0 0
-193.386250011825 18.3408627962614 10.710969017584 0 0
-197.341175780396 -10.4324406168482 11.6062883843466 0 0
-115.175355021914 -20.021697860149 11.1298761802551 0 0
-175.470237419917 3.34910398826346 10.776335512766 0 0
-153.383721846468 -25.3712078174552 -15.9466771666894 0 0
-205.282021855086 -17.2760207481454 -27.5597556324574 0 0
-185.121533040973 7.55561567079722 9.57700299190726 0 0
-45.4875650863192 -15.6404999346708 5.19630379810981 0 0
-172.456331658315 -0.616378705431838 9.40459533341196 0 0
-182.42551382537 18.9896286640258 -5.30741515828558 0 0
-113.350367026958 -15.2396449592892 -12.5366160472834 0 0
-2.53005034967024 -15.8050306071783 21.727521780227 1 0
-109.637669118533 -23.333884937708 -0.410975144931114 0 0
-208.817380943763 -34.5301373969897 -1.04999958588769 0 0
-149.875304225805 -25.1872284558133 -12.6820691608038 0 0
-154.618350670851 8.27201855060473 -9.45535033199324 0 0
-194.386203342516 -25.0753854972156 8.85651745699405 0 0
-13.2131170008204 -13.2950575445754 5.94769511560977 0 0
-27.7968166481925 -9.23899657885461 -0.303983700657635 0 0
-182.239313943166 -18.0219804525784 -26.2764584090152 0 0
-235.536111249635 23.2471485319931 -6.16055628121051 0 0
-53.8631356346183 -20.4524312047507 11.6215136255547 0 0
-172.101903813935 -29.591447690864 -16.3779806031792 0 0
-152.743692059328 8.02304927998102 -14.2050063291361 0 0
-205.714428018504 13.5932804153352 14.4993967147636 0 0
-173.099314422062 -13.9814724439256 -24.3178829681528 0 0
-211.097958543903 3.37950312878375 -8.22006532013157 0 0
-217.4558575241 -7.4164090487519 -23.3736235797745 0 0
-37.3009613065502 2.65995065189339 22.9968382154435 0 0
-184.553049317736 -8.57160649620631 -27.2669375155235 0 0
-14.1895975821726 7.29469741566515 7.84497102415255 0 0
-203.837113045152 43.7538166256321 -11.8595310925203 0 0
-235.834010944203 30.0417568017225 9.50383407601441 0 0
-204.176467056703 26.7745021106939 16.7510915916196 0 0
-192.929773797177 -23.9377435578516 8.61363530053681 0 0
-178.703419856549 16.6174381556201 1.54867794223556 0 0
-57.2314176055503 3.54627909403448 19.206098187657 0 0
-95.0793984911591 4.49225924181783 12.5006245345179 0 0
-178.710563272251 17.1014852644287 -5.39470100947853 0 0
-136.198279708707 -2.72064441192416 -14.0279915524324 0 0
-95.719218906208 2.60957883064987 -0.46927114028245 0 0
-202.951627813024 -35.134688917892 -17.3716695613095 0 0
-33.2674738085905 -8.58541550330327 -1.87842527875718 0 0
-202.027709122658 37.8094688172263 16.6948685862435 0 0
-218.568551163294 14.6158196014546 -13.5044624165316 0 0
-217.85455200015 35.7058760498637 -20.3382254861247 0 0
-218.470773101417 -27.2177472882593 -12.7681044244333 0 0
-191.363944480078 14.248145950026 -11.7256891411256 0 0
-91.9915275601258 -12.3544843145636 19.9095894199987 0 0
-187.668406935194 6.84129601429289 -14.5861808934116 0 0
-102.556480743898 -22.2678335472524 8.41269471941808 0 0
-201.594142440076 30.1635311455697 16.949805129072 0 0
-68.9162018401728 -7.0440776589043 23.4984100721116 0 0
-210.90921129596 -7.6611144272435 -4.05729482474169 0 0
-130.000720496271 -23.1324784132336 4.97454060878431 0 0
-219.848573226339 43.3671187378352 -16.1967717295749 0 0
-157.925990239741 -27.2092102966302 -7.95141861570675 0 0
-124.843042201853 -12.006618963782 14.2171744126314 0 0
-209.112056319658 40.2851591244562 -17.5246480452114 0 0
-177.400145517461 -0.488186140107884 9.99278387730455 0 0
-195.175120443834 -6.35057098025244 -20.2366646937301 0 0
-219.083680763637 11.012954609314 -5.79686114176408 0 0
-130.897979454283 4.97299179285517 8.87193379768242 0 0
-147.062194159565 -15.1897212112414 -18.1859141251299 0 0
-177.976367822249 -6.00684320014346 8.56781171239576 0 0
-13.2072039040578 -4.50423392097627 -4.980634601386 0 0
-222.809665312138 22.2968828676928 -18.3169302636182 0 0
-166.413715417888 -4.63672101920012 -24.719510322652 0 0
-180.013719634487 -27.2600181756943 7.08015304133256 0 0
-174.423957325377 -32.6043341252262 -8.212147292481 0 0
-146.589947324545 -18.6722339342171 8.64862002245806 0 0
-103.771882439864 1.99997959778974 -2.18326559926248 0 0
-235.626445992725 20.6975083750818 -1.86514719979969 0 0
-41.5220004871177 -5.67759040852136 25.4481819099923 0 0
-44.5746916871815 -20.5650805585833 13.8317648542826 0 0
-193.280748707948 -29.4931818349991 9.55635676558263 0 0
-214.746064976253 38.5920651435029 21.5991913210755 0 0
-227.212800384405 28.6534030168857 19.9835554306773 0 0
-170.96321575972 -27.82266652782 -18.6779951508807 0 0
-186.514019069796 2.2590882393705 -16.9554206003715 0 0
-14.0100502058631 -9.26826438593443 25.8615523771653 0 0
-195.192457872487 31.3810255446914 1.95218470278989 0 0
-203.549237020446 -6.21834747022395 -13.360385396848 0 0
-36.6173619263523 7.13574566238344 8.21175632853034 0 0
-80.3773228863862 -5.32650809170783 21.8594941491204 0 0
-222.343463186136 -10.1742853208148 -18.7392097058249 0 0
-207.707915692178 -10.0478805196455 10.9629567383712 0 0
-221.558246757973 48.4486578533653 -1.1457926814678 0 0
-89.8327453199222 -8.27229906686346 -8.08683029660854 0 0
-232.392687844453 20.1966766388718 -9.60812044940527 0 0
-191.235502484515 -20.5361718080763 -28.4444790678487 0 0
-115.718420067541 -7.82193770071428 16.4202030851098 0 0
-81.2262317366948 -21.2108454224149 6.15045987800316 0 0
-216.550983150318 -29.9978358936728 -9.15891783310131 0 0
-186.139242442074 -1.29296911205463 -17.6433859322196 0 0
-123.156253878211 -19.3866784443208 -13.1764798631205 0 0
-84.2114522720184 -7.83154544982167 -7.40826977165813 0 0
-175.270369494098 -17.0927659493142 -24.1897118068557 0 0
-211.527035704133 -2.11068837633581 -2.26575950571587 0 0
-195.588746838123 34.4994851199431 4.80690679961536 0 0
-220.797570494176 12.4897075138403 -6.07981366783953 0 0
-0.116226918958687 -1.83483494656763 26.3882116424201 1 0
-2.95133567000017 8.48752970272347 19.3325467525953 1 0
-195.769755876061 31.1424635980882 6.95380616844352 0 0
-146.959072509829 -23.9021012628239 -17.3785182834594 0 0
-205.372423876183 7.6521681641342 -14.0985638868928 0 0
-180.564404900124 -30.7101367598025 -20.3342989248602 0 0
-216.459568137826 7.4068181687907 -1.54339123402776 0 0
-184.627340189184 0.456833703725529 11.1729025360573 0 0
-236.722575615239 36.1217654620101 -2.0351470412016 0 0
-195.42125203817 -9.54019298015523 -27.1942902177278 0 0
-107.626090148724 -21.5085783230151 -6.25914589467276 0 0
-197.460253706051 31.5182898406056 -4.9335160880832 0 0
-180.338719888501 2.84458981377294 -18.415399795524 0 0
-188.441063484037 22.0503812475624 -4.85857343351345 0 0
-205.475939970421 -32.586739951009 -20.7319147109651 0 0
-193.124356182041 20.15871495796 10.1478156003998 0 0
-63.8790791935967 -17.7045339880811 3.77581286908358 0 0
-178.42539705581 -32.7081968717684 1.5929304828039 0 0
-155.79538314606 -24.0366224419151 4.05432902048411 0 0
-164.131043130333 -12.2366175728545 -22.8559305236602 0 0
-181.873218610411 -21.249317065083 -24.5878786582202 0 0
-227.164553284321 19.0254874709663 16.7140892185301 0 0
-215.874784536477 -29.5110668721593 -1.92144324894761 0 0
-163.243811133786 -14.8680749716523 -21.9759103992732 0 0
-118.430276547315 2.76802223663046 -4.10693025542925 0 0
-180.793838423004 -22.0237486794863 7.5086043481006 0 0
-221.682599415274 -23.6698114657583 -13.5060434611016 0 0
-151.639240329075 -25.8943832683624 -0.986860223550411 0 0
-148.170720100576 -4.25708295627567 -18.8142534314099 0 0
-12.3727681902821 -4.89226886673024 26.3914089352511 0 0
-223.516948192075 -17.362054941045 -15.3078059321773 0 0
-99.135634583977 -16.0227865682581 -8.86364396603131 0 0
-221.029352203735 -23.2393902358386 -3.01234231812032 0 0
-224.763390249879 12.9701897975778 12.6163084307261 0 0
-184.099576112528 -37.0499096728002 -1.54406679987662 0 0
-223.072299110819 -11.0250811912967 -20.5826582859221 0 0
-52.4797288954034 -18.7877598416278 7.82261122109056 0 0
-185.599951719561 5.62385854773102 -15.2833434573141 0 0
-226.709171637166 10.7384758239493 4.66749650978637 0 0
-63.1949511731166 5.62901003649201 6.00048911549553 0 0
-229.637100458518 15.8597428953293 -7.27882563280389 0 0
-188.630677317531 -10.8494688579993 9.33648269865068 0 0
-216.740211427462 47.2204856995269 -1.91993074263121 0 0
-215.175895422458 -25.2946687444963 5.45423318402194 0 0
-200.247559710486 34.1275694318417 16.6992764785484 0 0
-101.697934341517 -11.2447515849252 -10.416948714705 0 0
-221.393186600878 15.4796754207574 -10.9472010205972 0 0
-144.091487804217 -1.23609143225424 11.3063759926543 0 0
-113.267152139988 -2.75346559277858 15.9073685946615 0 0
-109.988299139393 -14.2036716391133 16.2116597254441 0 0
-113.21934801444 -8.04370358259825 -10.4850244544338 0 0
-139.487310627805 7.96603641025644 2.98234322962202 0 0
-3.20067273072541 -10.6563556474113 25.243851349122 1 0
-185.763600552667 -10.2999111510082 -28.0909710273945 0 0
-41.6632043904964 6.53844118759758 7.29185722099496 0 0
-125.999249262205 4.70520181752868 9.26763575841447 0 0
-189.710086618734 -41.0768080049642 -2.03342943980521 0 0
-170.456272941188 -8.36018972715277 -24.7268271250362 0 0
-188.291470787855 -40.6524193109666 -3.79107331068701 0 0
-237.093917688748 32.3997651573233 -4.43084633201827 0 0
-28.9541476081112 -15.8644992953685 22.4983565963949 0 0
-44.3665845538905 -11.4795002485591 0.867789121187171 0 0
-42.2501266161264 -18.7844607064796 9.74583724831859 0 0
-217.920507232571 7.1037752651391 1.00301438815104 0 0
-228.539554136372 46.5722442577545 8.59953625015204 0 0
-32.9559823622942 -11.2441148646967 2.063852075079 0 0
-40.8651059792556 -19.4072717430009 19.0961409990714 0 0
-84.3293707195471 -17.1291979663895 -4.81347168896657 0 0
-190.56231556315 10.1020409593019 9.58044017902967 0 0
-56.9037824133952 -10.1747893317086 24.3796563109299 0 0
-190.997646925031 -31.4034254098899 8.40077997075472 0 0
-197.023152690784 -29.1932078593174 9.03546911161427 0 0
-84.3256095823133 -2.38969927659757 -4.97188838273454 0 0
-221.444775648346 24.8959568822078 21.9012606927205 0 0
-206.020197080584 -32.116414265657 5.5726454066832 0 0
-216.516553160944 48.586338729572 -4.28830297183275 0 0
-224.624918432823 23.4157095243873 -17.8799984355178 0 0
-156.612359016483 10.9037676829666 -14.2001999894305 0 0
-201.863511833477 -12.1366669689727 -26.0245205998674 0 0
-170.494996011396 14.1749539510071 -5.60860871949276 0 0
-226.238049750656 47.863266581445 -6.9468180239501 0 0
-76.2947459063852 6.90547172819406 7.3582925063236 0 0
-211.067982152944 48.5985512483795 -10.4386008912098 0 0
-217.704493415463 11.0935679014049 -6.57080716443924 0 0
-148.44219496801 7.95809131166558 -2.8228539510131 0 0
-167.701914462195 5.27206540095307 9.48867528988852 0 0
-213.260182595467 50.8900923020276 1.75267700309378 0 0
-209.261765853528 16.5063400600167 17.6972825884736 0 0
-179.583217163922 6.03854630644052 10.38170364768 0 0
-160.442584326389 11.0475883073832 2.72168400985099 0 0
-76.0641499492999 -17.4370465929544 -0.979502607478138 0 0
-14.5067053364572 -6.90506868127039 -2.52178302425065 0 0
-212.272962050991 -3.12811340473335 5.00121816088338 0 0
-203.083688033529 -13.832445286289 -26.5354693113584 0 0
-222.432016184711 19.142843337408 19.2263563748902 0 0
-57.9761377381878 -14.8673801875117 22.3723524448284 0 0
-207.621662620207 -31.7171766440211 -21.5811481134601 0 0
-175.457768223694 -8.22081851774611 -25.2728690406093 0 0
-156.4424387819 9.00863746839337 5.82529329271704 0 0
-170.608539138753 -30.6013431348991 -4.80922984136346 0 0
-102.036086572617 -19.3390436202799 13.9469188819099 0 0
-122.866824192952 -12.0315884883954 -12.8405854067853 0 0
-88.2148117844487 -6.37866836918378 -7.32875349136257 0 0
-220.530416118794 10.7467660357419 -2.43878411489207 0 0
-208.246459459358 -34.0476024410392 -16.7945394581263 0 0
-210.043139526938 -4.19254746883065 -5.6182708565631 0 0
-88.6846364246405 3.60070346155797 14.3053257520518 0 0
-114.082323281278 -23.6686556085725 1.92998654184818 0 0
-128.477537624962 1.66026358815344 -7.78954627725062 0 0
-33.8256758796434 6.91383831063809 7.83484804722602 0 0
-217.662906621748 5.61695864630802 7.23599465572904 0 0
-216.730642099473 -16.0426590312499 -5.14110873436749 0 0
-151.572987939896 -14.9499449436263 -18.95079932329 0 0
-212.625832880831 -10.1744613643272 5.32348235019959 0 0
-162.094898337016 -4.50329145232609 -24.8660524347937 0 0
-206.383987911921 -15.7283880632534 -17.5419159236076 0 0
-196.141509278266 -23.7328032405731 8.92787960896783 0 0
-196.331554575302 25.65865088675 -7.92262198328694 0 0
-152.027011227244 -24.4408939781451 2.79737877836586 0 0
-193.04905556187 4.23580379507931 -14.6662868242636 0 0
-186.631705336213 -0.297487639871194 11.3036635553725 0 0
-44.8218885630665 -17.7802571896714 7.92175087390644 0 0
-159.565289725515 9.97919176610568 -7.99233198390745 0 0
-150.311791922863 9.23722656040283 1.82929325587644 0 0
-125.298605291184 -7.24813867830369 -12.4252374818369 0 0
-229.058550148452 41.2767790959991 14.4609709209661 0 0
-69.8633935377163 7.07390862035824 12.1323569678909 0 0
-227.447706133522 16.4857575250656 -11.7158474829467 0 0
-84.0308726352785 -20.0000939758206 0.383706016741276 0 0
-183.078448441647 -36.9429598248799 -10.5107616247863 0 0
-200.770416649746 -15.5988861420275 10.7713915160565 0 0
-221.296337525437 51.0076235008821 3.05799127013056 0 0
-197.067420693301 -38.7429106597986 -11.6277746032778 0 0
-233.594502127713 16.8132182980982 -0.456126462668457 0 0
-130.318808275667 -20.420925113856 -14.1125262585093 0 0
-229.08202486314 33.3391130384746 18.1437790643781 0 0
-38.0769368531248 -2.99652897596823 -4.21653044054533 0 0
-212.003663694121 8.04095475407158 12.4471408141313 0 0
-212.940636783011 49.3802622072101 -1.40952824600668 0 0
-121.811261793866 2.58539486449322 -5.38157498882676 0 0
-208.06518954152 31.1777804118903 -19.3554518177472 0 0
-213.560433516906 -10.197388783595 1.21092617591528 0 0
-195.621058699848 33.0440736427025 3.01094182333147 0 0
-115.741247242772 -23.0828279458636 5.61908694753046 0 0
-172.152322998347 5.90458292426833 10.2591312184759 0 0
-15.9406796053207 -5.9252251724614 26.3662908679904 0 0
-188.493220071295 -14.2239416344759 -29.3089504969446 0 0
-181.216466167051 -10.44188010905 -26.7601063215833 0 0
-176.237903007762 -33.1578248969807 -3.61934876142274 0 0
-149.845614954173 -0.0381868829468323 -20.3622896648369 0 0
-194.803936858679 -32.4222567465626 -20.3578522893745 0 0
-192.030507684394 -33.116552630753 -20.0124562687327 0 0
-180.699374131851 6.57097549304542 -15.3185287056731 0 0
-62.3350532099292 -12.5393439214411 -2.42755044085024 0 0
-217.635910935955 37.9665455676352 -19.6533680263147 0 0
-180.789642896989 -1.2949264465292 10.4176449076382 0 0
-227.199769779845 43.3186282938115 14.3297630092545 0 0
-9.92249115786287 1.93923460872173 25.3543984603856 0 0
-72.0600141645638 -21.054820821647 9.28509071035387 0 0
-33.3019742773687 -2.45151122489926 -4.2521096427119 0 0
-41.6798034741108 -20.3236947350493 13.5128290967466 0 0
-24.3633057928703 4.20927104406789 3.88132564007525 0 0
-167.039802164689 13.4969951923485 -0.856067944610005 0 0
-59.6778345519208 7.27212839798013 13.1254257227901 0 0
-168.430086574887 -21.9948627921123 -21.0960058258795 0 0
-31.2865424447763 5.05298357426523 21.1084430952065 0 0
-220.496143551536 -15.0865815741456 -11.6502066798111 0 0
-209.302451845538 32.0535226561655 22.4681631496752 0 0
-110.940173957283 -17.698043839271 14.0676712805964 0 0
-147.856239825421 -25.8703574549065 -5.39091467660974 0 0
-215.137458825525 36.3500580505656 -20.2554131700158 0 0
-137.774028370606 -20.4790212618255 8.34133511944034 0 0
-66.1860955387577 -19.3040981226128 18.2863808558802 0 0
-199.687398537297 -0.517958804514922 -14.2976175275729 0 0
-181.598354858733 -4.57101834689689 -21.1677599434278 0 0
-200.772817470223 10.2129885898769 13.8474319042041 0 0
-0.709095179544101 -3.17436743105337 -5.13366652424984 1 0
-66.3129324509301 4.27428766675733 3.98073309639711 0 0
-150.729303475307 4.87803470646381 9.54941211824811 0 0
-0.396503395106952 10.0112793776794 16.3476971216311 1 0
-141.588453827243 -0.523160772789366 -15.1271442245087 0 0
-209.317983473838 -14.9486790462634 10.9361048022002 0 0
-231.119204250627 15.1596773694388 7.32465188779079 0 0
-198.128856652832 -27.7366131089881 -24.689145317462 0 0
-200.306636014074 2.5507979702652 11.4767218060959 0 0
-2.28037048447026 3.73439296910134 2.46482840902713 1 0
-197.217964655961 40.6189478906698 5.95787216111258 0 0
-200.797027345764 -30.5840893204977 7.19583253283889 0 0
-168.650523071477 -24.6191183261995 -20.5558721815399 0 0
-132.297478533357 -22.5991681254147 6.02064427285164 0 0
-27.8004766728153 2.00900400401542 24.4485017312527 0 0
-179.084103405377 -2.8857063089211 9.54198723830889 0 0
-58.3766662158277 -15.6123009198006 2.65484617630464 0 0
-147.497480780396 -24.7348829436928 -14.1302351106418 0 0
-81.3037466102527 -14.9425107175087 20.2456510786207 0 0
-117.831511593877 -7.50698029324146 16.0007419804469 0 0
-216.07633868267 -28.4955011724005 0.176004337305617 0 0
-201.984376162906 33.1667953214574 -14.2161446358537 0 0
-127.035480318629 3.13616127528445 10.8900839473115 0 0
-179.070823056235 -4.13506998070774 -24.4765597790203 0 0
-163.310195348095 -28.4365475418709 -6.95904989187106 0 0
-131.159206630656 -2.25277752509433 13.129488442989 0 0
-186.077440601704 6.39032695654328 10.2508305366425 0 0
-169.5990514051 -2.29974745326653 -24.987444768739 0 0
-59.6595771352426 -11.5874318357706 23.9029308519703 0 0
-105.207049417307 -4.78002593848556 17.9806499893509 0 0
-126.146355018769 -13.6692357366099 13.5142462839865 0 0
-171.481376658864 -2.14394202363657 9.04212786896254 0 0
-227.184399428025 13.7163395980289 -0.719852602934284 0 0
-219.439383946871 48.5322615822708 -4.75966154603646 0 0
-214.302758957568 48.0994004415053 0.0100121664939542 0 0
-215.725305856281 -12.9351640962867 -12.3722537815396 0 0
-208.915701253123 -3.50669689140492 -6.72449836523982 0 0
-156.698461835255 8.49447075768285 -22.909692538776 0 0
-222.883134639227 48.9406063537731 9.72935859713325 0 0
-196.214495354989 31.1050409015534 8.70737064244503 0 0
-22.8179316434175 -8.93747129802795 25.8168872775006 0 0
-210.994044070167 12.1259972813866 14.8956433500319 0 0
-190.984358892949 1.77409705988781 10.6445392772389 0 0
-45.7738819394541 -7.85599619873633 -4.80195228064356 0 0
-82.6003629395451 -18.29040524985 17.6143238210846 0 0
-174.49116442847 15.7508192332961 -3.1213815120387 0 0
-219.786813181831 -13.8419742090186 -13.2299815069362 0 0
-176.285949656124 -33.4375419446174 -5.64709919257817 0 0
-196.274604012908 36.4058479075388 -0.126488336047333 0 0
-148.745021075611 -7.866178917863 10.5030854642531 0 0
-75.396415174321 -3.01822854262956 -4.86571669511963 0 0
-196.123797425237 19.2211224453157 12.0960990269462 0 0
-178.418526365505 -1.0601131829709 -22.0139567074777 0 0
-231.541058234443 37.600097263601 -12.1543297141231 0 0
-195.673249240073 11.7952902777504 11.0125413959081 0 0
-160.811029861588 -16.3402825083799 -21.0811290607416 0 0
-82.4676130419742 -9.15208178236168 -7.35860278153585 0 0
-197.155602273928 -40.6011679512446 -4.12148000603845 0 0
-117.953319470744 -14.4004525926899 -12.8571099796067 0 0
-146.968826087123 -11.5369968749513 -17.9981536942532 0 0
-68.194106672527 2.017983166489 0.935449586916577 0 0
-136.806179247894 -21.7086863477269 -15.9633081180163 0 0
-202.526749004183 -11.4999355781747 -9.81839482495733 0 0
-45.6747778712916 -2.13155582578493 24.9929597431737 0 0
-91.1663709476482 0.462072049621121 -2.60837154603496 0 0
-14.5820049877411 -3.85722732133231 26.3613437769835 0 0
-215.323654594526 3.14471966699529 0.0208650449609694 0 0
-195.729533484198 -11.924101834149 10.5499117952143 0 0
-229.0053937107 41.8160503421873 -12.062053434416 0 0
-200.297592927007 -24.4030282054796 -26.6607771802528 0 0
-235.112873532943 26.8670314509644 10.9644795379483 0 0
-43.0444137137042 -20.2970012191668 17.1291388467639 0 0
-218.438954131303 16.841979778651 18.7835212459967 0 0
-217.455352325238 30.0004024342058 -21.071252131464 0 0
-176.749143939502 -11.63288781546 -25.4894012245647 0 0
-17.8057200091066 8.68686314472708 17.8323594080227 0 0
-170.25167644052 8.14514296851158 9.43645317159887 0 0
-208.301716787487 -7.2717863500822 10.35590652744 0 0
-220.726378139644 37.3889541194648 -19.3218286216947 0 0
-224.113340059303 34.9031772979309 -18.8165294651761 0 0
-162.956471988898 -17.4733338380302 -21.3277345851791 0 0
-83.0975819280827 5.19404455160416 13.3931244287383 0 0
-152.330662248485 7.44656266708565 -12.5025412178092 0 0
-48.9796734536296 -0.847747371420867 24.1376422450839 0 0
-198.204423491933 30.6389828349347 14.4534660669071 0 0
-57.3728504649819 -16.4452610004996 21.3928389136131 0 0
-30.253468342277 -10.1444406683298 0.794473296067543 0 0
-206.358868735042 -10.6303919099136 12.0168716765402 0 0
-150.295494408486 -18.9652773784906 8.21183363708474 0 0
-107.49267569819 0.406678269016081 -4.82236698395945 0 0
-139.393694821408 -16.0633430179933 10.6106003793234 0 0
-199.364112760022 23.5757720195055 -11.7263964110823 0 0
-55.2290507093921 1.44789733919421 0.61393896478156 0 0
-63.1792777570435 2.36879999234928 19.8538374338152 0 0
-199.842738593997 42.5498034299807 9.78395952301937 0 0
-211.089763496727 22.0567201769235 -19.0353437082959 0 0
-181.39035700521 -13.056393127341 -26.7185161287286 0 0
-104.444382182607 -17.523019047944 15.2741934515492 0 0
-180.564788201052 8.04637951215799 9.69840400312762 0 0
-166.637550338453 -18.0309566665983 7.60584533790146 0 0
-203.883216167106 -37.4114593221891 -2.6904063594009 0 0
-137.88539606224 -2.03398138971493 12.2185936539235 0 0
-201.73408820359 -12.3404795085652 -17.6941677117615 0 0
-213.304635745844 -7.50972140583464 1.10132067963542 0 0
-180.516814597323 -2.95182617246061 -20.4799237040351 0 0
-215.615169267304 12.1147760072687 15.1045171859519 0 0
-32.3846764616233 0.0565621382754033 -2.10368948088781 0 0
-153.221088864104 -7.23137532612084 9.87957383745241 0 0
-214.037653780592 24.5387319705165 22.6041235674809 0 0
-173.588491668107 10.2655653105119 -14.9831681077107 0 0
-208.19374825628 8.10018658887223 12.7060833791573 0 0
-199.958618846791 -7.49630057896978 -16.4869385820481 0 0
-106.546706178389 -3.25991999175451 17.2401623074743 0 0
-140.042878924137 -13.5388382285757 11.2550832408568 0 0
-11.438180817092 -7.25155405397597 26.2739132811361 0 0
-174.626138709839 -30.8149676935511 -15.7472513919966 0 0
-191.016031114938 -0.907478571290686 -17.8347602598784 0 0
-214.916937328949 -15.4092381457144 -4.13627267795866 0 0
-233.604223146544 24.0287889408946 12.81290074313 0 0
-199.198016515868 -20.7985297939053 -28.0241962838782 0 0
-214.870127073262 -12.0787448608928 -25.592440572836 0 0
-187.000476872625 -39.0945430719293 -5.21433856452059 0 0
-186.783073695389 20.6023370558774 3.1119735673065 0 0
-212.944636211489 22.2416548527064 -19.222598024394 0 0
-188.904138154629 7.43388245773104 10.1909915487568 0 0
-146.328995065385 -25.3187613095904 -0.092684548087925 0 0
-148.84944044352 -16.9954997785832 9.12713385941711 0 0
-222.44940796796 -19.1036909610945 -5.81429134631287 0 0
-197.284831590901 34.0240139367375 -3.64909016174162 0 0
-158.357669722034 -19.2630269050015 -19.8776337973825 0 0
-184.838606840681 3.21547892533661 -16.8594590979995 0 0
-152.330777763165 3.6778827687761 10.0618302784926 0 0
-196.765738801173 27.516554727028 -7.18040091886116 0 0
-215.437235540497 10.6256056848429 13.5939128552226 0 0
-202.924428733766 -11.4070476950688 13.6977389740965 0 0
-200.266761187035 20.8075488786093 14.3654595878653 0 0
-149.165843186645 5.35588339062391 -15.9999719461838 0 0
-237.58306955308 27.0037794438122 2.78457419239852 0 0
-207.181694014346 50.5844253017817 3.59140919921803 0 0
-203.987333108002 -35.8721370978006 2.67298245190893 0 0
-66.3538505126355 -11.2109948442671 -5.26268953765854 0 0
-115.281822219651 -10.5109191354764 16.228861353589 0 0
-162.644779320691 11.9447435193285 -2.60195549476808 0 0
-13.852342564989 -16.9857153627688 21.0696702119227 0 0
-209.615799431513 36.9002198379712 21.4476409880512 0 0
-217.488952761668 -27.5359030860687 -3.37899510788251 0 0
-176.294907613428 -25.4660847753243 6.60399105564105 0 0
-5.74498307276217 9.02358684706441 18.2162747337515 0 0
-167.470281834622 -26.9462260642929 -18.3694868679735 0 0
-208.689389675122 5.88716257196677 11.940096794279 0 0
-84.8196839523602 -21.340436755985 12.2071476587954 0 0
-65.2304053266434 2.12969240469251 1.21330279496561 0 0
-157.674428711044 9.98355168860761 -4.04889893696858 0 0
-166.726445860918 -6.43497418975084 -24.5551513917289 0 0
-213.677829430953 51.3125516536223 6.83129689323876 0 0
-202.223041871091 -37.4540471490373 1.15814775240958 0 0
-208.895291726303 -20.4990884486301 -27.4136847739149 0 0
-225.278883111025 30.6831681830863 -18.7744452075202 0 0
-96.4978879982649 -8.9663195443056 -8.76767270597319 0 0
-74.0028875772854 -19.6879056294633 3.89685953023738 0 0
-232.569269977704 15.5304041708527 2.71810079820908 0 0
-230.058529975109 16.8001072450252 -9.05975904653007 0 0
-198.556208355202 41.644813970865 8.10491533267465 0 0
-218.035217772592 8.01623808925497 9.95847880384338 0 0
-210.56051399315 4.81479142079214 -10.8255426535438 0 0
-110.600405350872 -8.68334808691295 17.3269895521965 0 0
-212.278597705712 1.96605937103223 10.0093371215353 0 0
-7.07002927634555 5.51818250863632 4.77371518065051 0 0
-207.871589162796 -35.1161390714939 -2.26599657187956 0 0
-106.407372919644 -10.7136871534556 -10.552292767104 0 0
-216.30263862391 -28.3717266586157 -19.7665744760583 0 0
-67.3922193260005 -15.5135528876869 21.3755644483261 0 0
-61.7720768870079 -0.661032093657906 -1.99457190458615 0 0
-179.08121036369 -10.9771672172794 -26.2305361735876 0 0
-45.7425699402385 -16.1293936548648 22.1116871251772 0 0
-207.970396419105 -33.0640668002272 -19.6068294013923 0 0
-209.113793510536 19.4746408173393 19.3435135384461 0 0
-199.270563195094 43.4253969331682 6.91835326581 0 0
-59.8701953521321 -13.0580844506807 -0.867086615788021 0 0
-225.277141544204 41.2130575410507 17.3369426753665 0 0
-150.447977568262 6.76947651760573 -7.75217777840819 0 0
-201.708163444355 -5.52532852849988 12.2869551344871 0 0
-17.5432637554295 0.721011972351173 -1.58499174088413 0 0
-112.913254952581 2.9921950277242 -2.49220581847855 0 0
-218.383492581561 -26.7652710047262 -9.27419654496135 0 0
-78.3174639185346 -8.86143453551393 -7.30376777717854 0 0
-196.646959471231 32.6655846844231 10.4288746752757 0 0
-209.191353401462 -16.1660883724491 -25.8208898969556 0 0
-101.391337932059 -22.8119177752267 3.94923742825419 0 0
-209.060088762231 -5.28451121877576 9.83748830941333 0 0
-196.719252309869 40.4243403979795 -1.89067842689269 0 0
-159.940504362574 1.40204863355412 9.77082657182846 0 0
-195.540583286835 39.2432622628178 2.80070801442689 0 0
-165.339451746616 -28.4787796318251 -13.2976660870484 0 0
-110.920464599489 5.5471518449167 2.60639085374567 0 0
-159.959219632271 -26.5386051881022 -0.0251132162298427 0 0
-21.5866177666246 -11.9514368834017 3.72738567299162 0 0
-152.726031839523 9.53107862463645 2.02993233225592 0 0
-58.3204059998526 -10.1086952519942 -4.59823416628109 0 0
-58.0004063128289 -20.8649085024503 15.589393734998 0 0
-217.058374604077 19.1823362980242 -18.2369636774726 0 0
-31.105017816455 7.24383250145481 8.27798719947222 0 0
-116.508777964351 4.69427943504494 9.59481368903977 0 0
-171.906722021913 -6.06085652022131 8.31297630005906 0 0
-217.753923177702 -28.4663425790911 -15.5278566393288 0 0
-233.323857715529 20.1092133559081 -8.01481866772948 0 0
-208.983899686738 -19.3098142395343 10.3576115882827 0 0
-167.956549348392 2.71581696616166 -24.6222752287944 0 0
-7.36911782940716 -18.0506125758159 13.5670522358738 0 0
-172.656102107169 -22.5115859060085 -21.9759406511146 0 0
-216.10191279247 -17.5707860027301 3.89097674380987 0 0
-151.30263504193 9.23823480509268 0.0241173397824094 0 0
-214.511651603839 -14.5747001694721 -1.68388131150889 0 0
-219.86537867042 -18.6963383377735 -22.973716091291 0 0
-53.9669841687023 -12.3030969632678 -0.162196810367034 0 0
-136.583169800401 7.32038191870039 4.22994297427589 0 0
-179.255230014486 -33.6122082788476 -13.8922615096817 0 0
-153.63554116719 -7.90408594510491 -20.5914666325785 0 0
-19.2687040199577 -2.76398602399615 -4.70143259754048 0 0
-172.425326505344 -15.7196815219371 -23.7291733784778 0 0
-125.485373613695 -19.9813088101586 -13.4641017088311 0 0
-202.885874506692 45.16939880843 -9.25617883065437 0 0
-214.242510861723 12.937313085894 16.0346571229489 0 0
-183.808495287851 19.6963753143768 -4.73762096196548 0 0
-212.764245605159 -9.03583438996845 3.96129535502561 0 0
-146.149613232568 3.80398004447812 10.008091884227 0 0
-207.948780825294 30.5739711290052 22.07425871731 0 0
-214.86172927051 2.09954107005598 3.65399428740733 0 0
-141.091588111893 -17.6840830662821 9.72742103660192 0 0
-127.923503831437 -16.1562716040463 -14.5678217366815 0 0
-231.882217646009 44.2933525829774 5.77954526940286 0 0
-105.362713366374 -8.6210722747551 -9.65555247474901 0 0
-205.875262805545 -36.1726639452647 -1.83705405334337 0 0
-86.0601962232953 -7.72314100738898 -7.56303392911416 0 0
-201.302224503711 41.2002008348588 -11.1929639889175 0 0
-177.917029996461 16.8427208618273 -0.471044033682766 0 0
-189.626654476525 -35.4854256883212 -16.7823136924314 0 0
-125.447614463819 -2.409128846314 13.958306673326 0 0
-211.47300336655 34.2860967071592 22.6227857903159 0 0
-222.046575618629 16.6790092492142 -14.6951645435603 0 0
-195.949311548887 34.8878013336818 10.2527799478518 0 0
-185.410495355575 -37.4708652457382 2.1839582418188 0 0
-124.808446897634 -10.6947575087565 14.4850129364291 0 0
-23.3014006215254 -11.5429148346963 24.9165168433062 0 0
-223.129933311139 -14.6233670862412 -17.1133778074515 0 0
-85.0842166664725 -18.5879433689614 -2.60746491518222 0 0
-216.475894305402 14.0899543397731 -13.8994003687929 0 0
-93.8151012945167 -18.8752924919473 -5.80150651426769 0 0
-140.867661122104 -24.0138542168053 -13.4526749512459 0 0
-16.8480147145502 -16.6511843085389 9.93490191531683 0 0
-156.660139155118 10.2077538910234 1.16859164266411 0 0
-133.937654699506 6.52863253307471 -2.18337694924146 0 0
-186.762862169194 -13.4315767088134 -28.7454910275949 0 0
-111.787376879489 -21.3204745723911 -7.67894766321748 0 0
-201.70348659751 -13.5512512660341 12.1710259682926 0 0
-85.3320389921548 0.470556447991732 17.86431259078 0 0
-151.13415132871 6.72037788450675 8.12078553187124 0 0
-220.14239476201 24.7783408421509 -19.9416097347227 0 0
-199.963510414536 32.8384026381418 -8.66438283707081 0 0
-221.008126660435 -24.433922348568 -6.45063088155389 0 0
-169.761538829797 3.87975668428836 9.88431033577716 0 0
-200.791855442219 -5.13731806638429 -15.0005132519601 0 0
-190.827112557534 8.257738187062 10.2445834732464 0 0
-151.52999909291 -2.23539768318226 10.4847090076369 0 0
-173.895666638981 14.3286604033557 -8.87837262168522 0 0
-220.358294498253 15.352443374024 17.2643146607666 0 0
-90.0589997422974 0.866826128258236 16.7105451443937 0 0
-121.531151250411 -18.4557281925429 11.81841749174 0 0
-60.4384439373634 0.907231344417797 21.7057984575909 0 0
-215.038302179757 41.3527293383215 20.1298832429103 0 0
-132.286996304068 5.94542412423295 7.30245439617229 0 0
-11.0793530142495 -9.39219475329104 25.8057850545129 0 0
-219.333464875145 -25.2097619143873 -7.14236171076807 0 0
-209.713564755411 -31.0438438013074 -21.7337349758588 0 0
-137.508948981035 7.3753792884931 -1.18914741016597 0 0
-67.1427332182572 2.12914281621142 19.4231975439844 0 0
-49.5420983970858 5.78202693189269 17.7508542736949 0 0
-149.420219292242 -2.41249474701442 -19.7141050584539 0 0
-120.442597004692 5.9312902532646 6.31522089486831 0 0
-108.121212637062 1.58892604203761 13.7056152405378 0 0
-193.659560154974 15.9573306630618 10.9892206970629 0 0
-215.55028047868 -14.4632253875775 -8.01924115167332 0 0
-189.988464528278 18.1206590734281 -9.83469562668345 0 0
-223.576754950439 9.7168084636455 7.85497760759528 0 0
-186.064386700497 -36.5363861572391 4.39397354803647 0 0
-132.39457593926 -5.98154743700216 13.5878379822316 0 0
-32.7930530596043 -8.07038106451653 25.7379351120673 0 0
-212.607378323262 -1.66436796099499 7.08766016954562 0 0
-206.732247478461 -15.9805879366735 -26.1810272831236 0 0
-218.773879226014 -22.4524815353928 -22.6068229367525 0 0
-131.204143853722 -17.9572466360586 10.819707752739 0 0
-211.052352772239 -23.6515046231877 -26.1705592106311 0 0
-221.750169198614 13.4196103987351 -7.08394091302264 0 0
-2.21767815660601 -17.8401061210601 14.0221542883434 1 0
-157.162613591223 11.1721355601309 -18.7639114675998 0 0
-158.595584176479 10.6984776125593 -21.3656474929232 0 0
-97.1298707959312 -0.744697575337367 17.0603434205427 0 0
-89.7543155391214 6.62827823284417 9.68955820191187 0 0
-200.3952927834 38.2646655666068 14.5912805004899 0 0
-69.2342163322528 -13.6819574522552 22.2807595796337 0 0
-213.623879757323 -21.4717899844948 -26.8643025086762 0 0
-211.218652826257 -19.2847486902592 9.83019664320815 0 0
-205.504124933081 6.00177121508574 -13.8409049144749 0 0
-116.082249958484 -23.7486345256305 2.35824720623594 0 0
-160.936561431639 -19.1460388426136 -20.5123999784342 0 0
-28.9394495561385 8.50757706002621 14.9128279598121 0 0
-216.731269397194 -26.8927612674426 -21.5554124513275 0 0
-81.1970816692847 -8.11891259582723 -7.17478101411373 0 0
-8.8465534450196 -10.7356112106962 25.309863488681 0 0
-221.38150994585 49.2562210967339 -5.92780155530111 0 0
-219.024914257259 47.9883891438418 -11.5845056132429 0 0
-212.560514575505 36.5290542626167 -19.8792061915895 0 0
-155.393043703935 -21.7157052392238 6.48957780869865 0 0
-169.332694876767 4.09815573961439 -23.5104426336925 0 0
-110.490375652416 -5.86531684901699 -9.38031893069152 0 0
-117.179732781616 -22.3750858653885 7.13535857819249 0 0
-31.5580296247593 -10.2224356725916 25.3028757829918 0 0
-87.2950572956687 -10.0281995763291 -8.217158292277 0 0
-198.761173665487 -8.24680754390837 -21.3714370713901 0 0
-149.848480854457 3.74489391262155 -18.8621857459958 0 0
-197.446159377275 14.4600352192777 12.6553391364983 0 0
-199.703238903101 -37.0343722649012 -13.5683322377467 0 0
-35.6981839553685 8.58755839636957 12.4904350021492 0 0
-86.702229884943 -5.46748025951602 -7.14427638865962 0 0
-206.017260169472 12.0601176314723 -14.9047732405004 0 0
-43.2863353847383 5.0384849701304 19.627576005663 0 0
-203.784930716429 -4.79740275726098 12.0233383375178 0 0
-230.840473275134 18.606627060959 12.9897631862247 0 0
-128.485651780669 -14.5789178214786 12.825713859261 0 0
-109.750932637186 -23.44164549443 2.85870203692701 0 0
-128.544229186448 -23.4648651472291 -7.8296849727736 0 0
-158.281858313397 10.6888818804982 -0.164397626139215 0 0
-18.2128016718947 -14.6639491300741 7.44785382091808 0 0
-197.666225732742 26.6427541950651 12.9562493010943 0 0
-50.8070137170186 4.81802491549354 4.92514874739312 0 0
-231.458971609133 45.3624462106876 -1.99468603112469 0 0
-234.099118782949 29.9741201066252 12.8365644447404 0 0
-125.335105793531 1.9113010958079 11.9106937648136 0 0
-38.2141177063319 -18.1778624258379 20.542340736726 0 0
-191.706568999128 -41.1557070908597 -3.2426582849177 0 0
-199.517240142388 36.1014226479539 -8.33102197970322 0 0
-224.062215185816 17.4663464288586 17.4058048663995 0 0
-77.6762475055208 -3.87387975799885 -5.6950364309959 0 0
-235.641502905772 20.2456342788381 1.26344934299139 0 0
-170.449299133632 -25.8584716516905 4.99426624598509 0 0
-171.758224853532 -13.3016459632323 7.855521622291 0 0
-169.928642294393 -29.562085968862 -13.637110365362 0 0
-110.928126305918 -10.3220553904003 17.0600461599812 0 0
-180.551073988891 10.7267851901212 9.07049948102941 0 0
-74.0741153862317 -6.31615965366863 -6.43606065956558 0 0
-107.072881199115 4.92319998509787 10.1494054066231 0 0
-233.750614100996 42.6110051181029 -0.456028782608506 0 0
-161.185806748213 -27.8756945266209 -6.62379112804609 0 0
-231.734489471418 17.6907563466615 -7.98545933747703 0 0
-196.620210772415 -1.20856175409574 12.126182755606 0 0
-211.747965898811 17.3608512629109 -16.5456732122418 0 0
-203.609190514222 10.8092063948159 -14.3990204201367 0 0
-210.854223260514 -16.1078829662001 10.0031416186489 0 0
-216.256606740273 -25.0321345821567 -23.1158516624705 0 0
-143.867195727722 0.95255578526938 -15.4613047506108 0 0
-188.888745365493 -2.90878439181083 -19.2488316432993 0 0
-219.234839702341 19.722963971957 -18.2165758222398 0 0
-223.300126460297 15.9715947712159 -9.6236958659731 0 0
-189.624380821354 -29.6799539588029 9.48255678336274 0 0
-52.6422809566169 6.78328850215647 7.75847643918707 0 0
-9.77410617359203 -3.55341481789001 -5.14835619604401 0 0
-204.932933271378 49.3718267045558 4.18950143483711 0 0
-191.196080571546 -13.5779379670412 -29.8289936811036 0 0
-207.079675954093 19.8311308509319 -16.6702722146594 0 0
-217.69835657076 9.79312457173384 -5.59058111076938 0 0
-103.909322478764 -16.0448172621881 -11.1274932652002 0 0
-168.70100325368 2.43675662256671 9.70358616141263 0 0
-234.022153172172 40.861500191462 -5.16290919319861 0 0
-96.032205621688 -1.09632188414539 -4.72233164493465 0 0
-189.116196440314 -7.44488820898403 -26.6308803344379 0 0
-225.816119421894 15.1600732098745 -7.36556404100274 0 0
-174.830263077952 15.7780090955113 -1.62795572470333 0 0
-191.579466691041 25.2141400350106 3.92310097402687 0 0
-211.244597115535 51.1674723402182 -1.55431255570935 0 0
-192.12809192322 25.1494816375361 -4.37981172802203 0 0
-28.9673309290263 -4.30791113377898 26.0430866188762 0 0
-210.010134939855 -34.6364724340279 -9.71547598431838 0 0
-131.902291849144 -22.8722374582073 -10.5913336723302 0 0
-205.562300497194 -36.3760844142066 1.91930922890439 0 0
-15.788389688971 9.33062472659497 15.065640382704 0 0
-203.218694760108 5.38853256110875 -14.1958566860013 0 0
-40.9569761042364 3.20476171175213 2.98711839444009 0 0
-143.287920833655 3.26495970101523 -11.4462205205641 0 0
-200.314908520649 45.6261139606972 4.01191995014384 0 0
-94.7162633312432 -12.3137703630735 19.5075382515614 0 0
-66.1574431881566 0.360082490985325 21.5020472357938 0 0
-224.395936651882 27.129622654798 -19.0155523294826 0 0
-163.663241780952 -0.130701965351006 -26.2035232643375 0 0
-207.965331381405 -12.5641144845136 -8.94293014619192 0 0
-198.828554414345 34.7012564364144 15.0426421367518 0 0
-208.648354763319 -14.9433122438678 -17.1770456926025 0 0
-194.939631226518 13.3866890296101 -12.6422867373296 0 0
-93.5718784970247 -22.3670585811674 4.81042327940456 0 0
-20.7858656027961 4.64420353884107 4.44801319422373 0 0
-218.116023556504 -23.8343296924274 -22.3093895970331 0 0
-143.921834187732 6.83423980658455 -3.49371822781353 0 0
-181.864349657567 9.51021202642086 9.27254447502204 0 0
-188.795118981359 16.2416801589145 8.43524079182851 0 0
-81.3876329115599 -16.2178781602223 -4.75030452255648 0 0
-213.489712741901 51.5808674054103 3.12809364437039 0 0
-148.91354693257 -17.7158407366673 -18.5068890614425 0 0
-50.9492755676754 3.3646765758245 3.04182900103172 0 0
-175.580599378835 13.0732848801447 6.54936853829343 0 0
-67.2165893581661 -18.8797686420295 4.62952127722782 0 0
-230.731167857126 46.3304429256241 0.589294165884966 0 0
-194.520133008434 -40.5897156915688 -8.14811435099612 0 0
-209.425234946203 -14.6160352887836 -12.7791498209214 0 0
-66.1527328887697 -20.7689217006075 9.99268293521328 0 0
-64.5809875103061 -7.90494224510609 -6.31677051941674 0 0
-220.602444197008 11.6681766113142 13.6451113997401 0 0
-96.3422621892123 -17.0825483039424 16.8794623124822 0 0
-170.632007012543 -6.31030410573644 -24.7520478343739 0 0
-170.748620665607 14.685504605568 -1.29760870305466 0 0
-101.40474627153 -21.2073207942325 11.2009064007769 0 0
-195.802042159147 36.5353417653999 1.77710926513806 0 0
-97.2347810387055 -16.5970986013728 -8.27740799346507 0 0
-219.039684647218 -15.2223494079437 -25.453590371517 0 0
-207.330471538346 20.4876804976394 19.2948825536839 0 0
-164.364690461778 -16.2259912886222 7.86332168441718 0 0
-103.634494046324 -22.3362606547956 -2.77843435822506 0 0
-83.6835809181878 -5.88421032416325 -7.03553637315761 0 0
-201.763845475601 19.6465832310019 -14.2632546603838 0 0
-19.0309706065734 5.97071801417386 21.3731447766547 0 0
-31.7064967377424 3.12224015528952 23.1964821619055 0 0
-29.2092443152958 -18.0796730000918 10.4901252821398 0 0
-20.6901720771951 6.80402404017024 20.1849113733774 0 0
-190.196755390219 23.5743896243157 -4.17502204811257 0 0
-28.6130468430011 5.15821202153413 5.06213977435373 0 0
-74.2553884292127 2.6674179657752 1.40729042964065 0 0
