"x" "y" "z" "f" "a"
181.342299612533 -5.12375024130216 -25.8090458706368 0 0
78.4724339036573 -15.2731751461133 12.381312958499 0 0
32.7139129703539 -15.5720810111272 11.3113109533481 0 0
175.091756579321 7.15704687534913 20.3318981554899 0 0
192.954458278855 -32.7629180710529 -36.8203749008389 0 0
200.59054975399 -16.0605851996625 -35.9314462656753 0 0
179.121229240337 31.9115862432983 7.79661395346521 0 0
143.613336502435 19.307081872521 11.6211833581508 0 0
103.289227806997 -9.88103013754746 24.1524914737801 0 0
127.3274629253 -11.1000045803491 -4.51650397154692 0 0
-53.8191907433074 -4.15468726352792 26.064108035245 0 0
-37.5462513079936 4.4493096750244 22.930285971043 0 0
206.403797501647 37.5686204749662 -0.48456198698845 0 0
140.618009850983 14.0092973213651 -0.614557849701921 0 0
201.21842477832 42.2967997430489 -26.2446758778396 0 0
-31.3107783825442 6.76903201585774 14.0106567192241 0 0
208.118242310469 1.97916129708283 -4.07849722079579 0 0
161.251936267429 -20.1180090228461 -12.4366025821512 0 0
188.198272687814 4.112417029571 19.9625718187707 0 0
-35.7139469955617 -21.4881747301768 14.9281523229707 0 0
192.928233930403 2.42509637914501 -16.384467299266 0 0
-45.6003968647193 3.37647491377374 3.49357538077191 0 0
199.312076710076 42.8369126906987 -2.19243470730997 0 0
176.780048736818 -27.0655648430433 -25.7850637680764 0 0
89.8185111104077 -13.5432034522421 5.1363167980576 0 0
-23.6232115364896 6.96951446147505 19.0526650099034 0 0
208.740568766648 -14.1704215678586 -20.7194193729014 0 0
175.846076132626 -33.7018238508042 -13.3781210093787 0 0
211.075637006388 32.2890254336548 2.10047523653676 0 0
198.151205996133 7.41450662816647 -13.4976437027388 0 0
149.219155534456 14.3447881938076 18.0322437334313 0 0
32.0130536413066 5.40262957179506 2.94113736612166 0 0
-73.3207899330842 -10.5266605035424 23.1625501104175 0 0
191.323121183332 -31.637677419101 1.97411672207379 0 0
204.310023332684 -16.078742907618 -32.5277613265679 0 0
133.847647422873 14.4470467354518 2.29206478390974 0 0
95.1630577577181 -13.7489622372369 20.2587014512067 0 0
145.611704890471 19.7843276675185 10.7062068651751 0 0
219.352888008161 27.2988198038526 -3.87003162986067 0 0
180.973934757032 -8.86381280127954 22.9163370796248 0 0
153.263316390845 -13.3508551814248 21.0285693225434 0 0
61.1384775679644 4.04315171327401 26.1917357936467 0 0
209.318025892536 -27.9490643825834 -6.64786757498812 0 0
127.71908283255 -16.6793363668065 7.01696136112977 0 0
14.5538966709116 4.01758450805826 1.85326693812621 0 0
-69.0447067621195 -18.1221878190588 -1.20795125449597 0 0
96.8997971455668 -15.4777618397068 13.6727448547811 0 0
186.588204488961 32.957032157384 9.77738147699569 0 0
208.314974705211 35.0887177769743 0.950794358363348 0 0
-38.0145022567862 6.5212283899474 16.0763521763894 0 0
-75.970286860719 -4.6500498355784 -6.22298371576621 0 0
92.7834237421034 -7.43226793153123 25.5941062363835 0 0
-81.6437563861429 -24.3618511183775 9.11792799032181 0 0
150.415416960893 3.86458543883164 21.6056579905485 0 0
30.1256481346673 -9.98829210047857 26.755271407005 0 0
203.892296600033 -34.8584863460713 -22.9700251844118 0 0
203.058795906516 42.5554514131203 -10.3748550007383 0 0
-83.6948123101978 1.3635191260314 -2.20223992514044 1 0
184.248609079124 -36.7398737798402 -12.6310527513388 0 0
26.9235507440408 -16.0741535151797 11.7315123612705 0 0
107.632252214444 -14.248173377801 3.83783125821499 0 0
-77.4254864020629 2.81921993870589 16.7538026647771 0 0
164.254963335025 -23.7074495928612 -5.4236071568619 0 0
165.962479119026 22.0343180008339 -8.39870756866498 0 0
30.6646389361583 -3.77222854040884 28.172930265768 0 0
97.1674428943153 -4.381888053026 -3.59797937503597 0 0
172.088241925979 20.8905128037804 15.0517343548647 0 0
-52.4406622785158 -17.5398129769163 3.19993040815507 0 0
194.212961616473 -13.0731209349775 20.1755702413163 0 0
171.49553894466 7.65197207350681 20.3056928360264 0 0
131.598132452468 -6.88251053323255 24.1528374286689 0 0
-5.60173813577517 7.09984770966644 23.3419042754352 0 0
-3.95005384134012 7.94296817933479 15.2479233083729 0 0
78.8179223120793 13.7565668252593 13.6104583462633 0 0
15.8243163434859 3.38679876006045 -0.456448651178589 0 0
176.547099940842 -11.3526548998859 -21.9405837902766 0 0
211.166797865725 -23.4352306877658 -6.46931028444019 0 0
214.334437881559 23.4409083718699 9.61377053592918 0 0
16.2552850145779 -2.79385691485998 -0.951687704836312 0 0
209.262477494113 12.6339616653025 -16.3229573995568 0 0
114.009987409304 3.7599608352075 -3.2117261073805 0 0
-9.17072907743003 -12.4262006709293 26.3897303682014 0 0
-62.9200110211495 -6.34579883006417 24.9317273079639 0 0
25.8104394338517 -12.3081251504554 7.00524018013805 0 0
-9.65564823439281 4.86238000809082 26.0549895738456 0 0
210.410508262085 38.4782803929322 -6.90837882670376 0 0
46.1782369318229 6.43577189853604 4.20619687287791 0 0
185.765880585763 7.15013546598045 21.6479686347115 0 0
-40.6264316398758 0.375635203974805 -0.426854243794258 0 0
198.835821060758 -34.8654013666166 -9.18977596710512 0 0
151.508836867228 14.6017033342813 -3.48997684553358 0 0
187.504977756382 26.9496654695767 -32.0117685757276 0 0
149.026081416667 -19.1628068688514 1.80012615904269 0 0
201.094236603674 42.0869969860956 -2.61325950363179 0 0
195.404786532731 4.28100710522183 18.1712139012817 0 0
145.48661472128 -4.51391001651715 -7.80696606334005 0 0
-19.8487460136535 -6.55784115789919 -0.216288123776698 0 0
198.337449920371 -28.527526387915 11.2056829092872 0 0
190.644413164849 2.33588773672511 -17.6301231901858 0 0
210.900071682256 -21.1474559958466 -2.3552470934457 0 0
40.6597941690209 -5.76706593629988 27.620582628555 0 0
49.7282866610836 -14.9777447931118 11.1062419872524 0 0
205.374359591057 29.4102425117511 -34.5317653756493 0 0
-86.6063414602715 3.87591556997257 13.3609926063588 1 0
158.757971992716 -11.6985361552853 22.1372319544551 0 0
174.481364718968 -7.98684849595863 -17.3129491942952 0 0
-77.7028304708392 -15.4711285185223 -5.5800045495686 0 0
200.321557196492 31.4631650434231 -35.7124986199155 0 0
177.883759035605 22.3122615512005 15.9827596747687 0 0
119.029504083133 -11.0105606110613 22.9002314920024 0 0
202.304717076599 -28.0218070878401 12.6661883388829 0 0
98.5309764120604 -1.66076884155588 25.9857737137917 0 0
178.672341995107 -34.888553265868 -12.6368150318531 0 0
216.85405150166 25.3590640610712 5.75352935793856 0 0
183.970488915252 1.42900676324148 -19.6489552949396 0 0
182.252002299808 32.2127936243795 -21.3271528572506 0 0
22.5386456415134 2.83477054923555 -2.95639536106118 0 0
50.7299071174905 2.73713303042739 -2.32989701872593 0 0
81.350217892854 7.41565797856451 2.10149108246015 0 0
194.174062299558 18.1318355544442 -23.3171260344385 0 0
211.242755754273 -21.247215877077 -12.3677843098392 0 0
146.715437334896 15.861415933714 -1.21880591264266 0 0
23.7693257285701 -14.1524839852939 8.86255818384907 0 0
92.4097599041624 13.3535296847106 19.9488718341062 0 0
-34.5824622043119 2.55728806583079 2.33618647985722 0 0
195.928138218909 33.8381333387934 -35.2522945008169 0 0
175.846900293457 34.9948730721103 -7.19379938302472 0 0
-15.4291033895867 4.26184684518667 4.87739732255687 0 0
37.8507624095586 2.57011732972351 -2.64717478025165 0 0
-6.09464617532823 -7.63372683332176 28.2583751750034 0 0
140.555814872256 -5.77428597458947 -7.49365394482322 0 0
196.23216852986 43.8029261846219 -7.30519332564579 0 0
-60.6984336292676 5.84172888867594 11.0904019434933 0 0
171.794338687142 -29.5440549644957 -12.0645267252988 0 0
9.98069967604648 7.00116758539665 25.090519655653 0 0
3.11875531609538 8.22692879587652 15.1032137968869 0 0
181.182850105649 32.6729485145377 -17.8492998375834 0 0
-15.3149222127531 1.84181266274105 27.6694655555787 0 0
-30.0061665454844 -17.9353341133472 21.6391926753953 0 0
128.410639698932 11.3533757084199 0.48691656092378 0 0
188.79471337649 38.3143500548252 -31.2051680080894 0 0
-74.8378047909352 -17.7834009510622 18.677549801401 0 0
90.5524358251634 -15.0034538231881 9.29938582316384 0 0
72.0088222143708 12.5732173533914 12.2922327498043 0 0
-3.0052042477606 1.86761396419283 -0.0769654255313678 0 0
-87.3245919113792 -23.6899904700752 10.7971682978392 1 0
143.502338542705 -17.7144905184417 14.1381650085878 0 0
-83.7845595893541 -7.65630638504769 21.4557717879635 1 0
175.839432477075 -28.0453724166546 4.41590575496356 0 0
180.682590669764 -7.60139001121619 -29.2786406791992 0 0
207.955344152321 39.6178233516262 -30.7116237901542 0 0
172.840280645164 27.9143808920443 8.30574749476871 0 0
40.1613073759167 -0.813569839555821 -1.87428502712215 0 0
-60.4813631576821 -21.4360661196915 5.4826681718627 0 0
-31.5615738803883 -2.33185087073696 -3.77841141797787 0 0
110.74847637763 -10.7960886756313 -1.16394743368233 0 0
-53.8501121494512 -21.6983122984651 15.5406887025059 0 0
121.920765774405 4.66693283477348 23.8063303090978 0 0
210.582698263348 -25.7904750342199 -5.63174372627476 0 0
186.319306487318 37.2552906320614 6.57137646295633 0 0
162.206349358679 -11.5906613714737 -12.8736216947353 0 0
-53.476233162688 -9.33385047371738 -4.78407065354218 0 0
90.8630619669103 -15.3391027604126 15.0428866003874 0 0
203.482432175983 -3.98661146133762 -10.3181722811671 0 0
166.090120439558 11.6070168966015 19.2198373510899 0 0
-83.01351368423 -10.1856135342021 21.5768650925137 1 0
185.202034139728 12.4658468571668 22.2850695891391 0 0
206.524989283652 41.7893622519025 -19.0083658446653 0 0
174.844211829776 -22.9084810652323 20.9513447544016 0 0
75.0266358419399 8.56137552043852 4.59247991865881 0 0
147.462775560102 4.21448588428636 21.9011160207005 0 0
69.3557484376664 8.1538855541083 4.67735333560006 0 0
183.333588791759 -21.6041660529783 25.5260980316974 0 0
187.16996870018 39.8373599135795 -25.3402307893062 0 0
-86.5217177015149 -8.44504882984498 20.9670030614031 1 0
203.292857200549 -31.8862855787667 -7.65136402912705 0 0
90.6828723179475 4.16507903928248 -1.51300796171957 0 0
183.84699868107 35.5870636634658 -22.5335606558746 0 0
105.746679878737 -12.8486299774474 1.79018302162671 0 0
155.80622199885 -11.8921043857105 21.9073428284346 0 0
200.584152238679 39.7571352635291 0.925953547805689 0 0
-63.8149065349995 -2.05743473875292 -3.45491193327079 0 0
172.682770926896 28.8488801312295 -7.57343019969617 0 0
-13.3047465323644 -19.8044674678308 13.4960765319634 0 0
11.9485961112475 7.0318067526075 8.84246358991186 0 0
126.429797128683 13.0754132617486 2.85175056794049 0 0
194.593778185607 0.255262793646361 -15.4630169390127 0 0
-38.0429788155309 6.63227147027264 13.6879789301635 0 0
22.8715720964658 8.34531682795334 23.9142629266433 0 0
140.79300488629 -14.9355966330297 -6.02242638544577 0 0
196.36752497539 -0.68169436650365 -14.1018435355534 0 0
211.893151574173 10.098084230554 6.80684871122507 0 0
83.4653213159862 -14.2707628106899 19.5282928526265 0 0
185.282093560887 -35.6283695458808 -9.97902830448546 0 0
-37.8738702809142 2.39483614649246 25.4035731792074 0 0
203.604753807706 -1.95480764677008 -8.84589609152778 0 0
137.268360573008 -8.21862655987008 -7.39132374300482 0 0
158.401764440451 23.1559833907826 1.68035396945908 0 0
-35.6370247449436 6.32230763474241 18.0193702707635 0 0
-25.8415489427275 -8.03960256551188 0.5481616338271 0 0
209.527253410635 16.1106719133105 -23.2765654313767 0 0
33.6258958918618 -16.615823380223 13.9204332804793 0 0
7.89966334225625 -17.9255227220764 19.5087944361816 0 0
-58.1145810198959 -17.6431233071955 1.65498483341106 0 0
174.242394378798 9.2269694185256 20.521251116358 0 0
-47.3104280267541 -13.9838462191148 24.2078790430669 0 0
99.8980332103186 -7.41856220762871 25.3974492362103 0 0
206.590870919163 -16.9892181383212 10.5181990268528 0 0
-8.60977725633723 -5.99554893457042 28.5067494116333 0 0
198.127724498906 43.524890818723 -7.21300509012044 0 0
-71.4563319557436 -15.3912092048101 -4.14328877186519 0 0
132.354204358436 -9.40192689252775 23.3972538149751 0 0
-47.7977421776844 -20.944023835529 17.3433295763697 0 0
177.899764879875 13.4379815305556 20.7306183970381 0 0
164.615509976335 -2.31965368510077 20.7785850474581 0 0
142.586633093681 -11.4333145192176 21.9953510504525 0 0
62.2406381977464 -12.3212697611078 5.96567716452355 0 0
176.67940505866 -32.054833112416 -21.3514117252541 0 0
157.298126017175 -9.37114828207045 22.382256593698 0 0
2.11229139712172 -16.7924266635533 22.0897012113603 0 0
172.688197674211 -0.725916089096679 -13.1481161459495 0 0
182.944237479499 -28.9610068122934 8.79258166482036 0 0
179.02432659793 28.4146339764882 -15.3767710557137 0 0
171.565350296665 -24.4114808224563 11.30105656235 0 0
172.06311899264 -22.4339905564973 18.2672401099957 0 0
117.307129649233 -9.00336872726031 -3.75980195554104 0 0
170.835347503637 -23.5958714739254 13.5468822984341 0 0
-84.5186609102818 -23.7582603436623 1.76575739953739 1 0
197.44057141227 42.2435863293601 -0.488486844349588 0 0
123.209000059374 -6.54034616918273 -6.49221976427817 0 0
-3.3120391039804 7.56888886838261 12.3297574311344 0 0
-24.0428141653475 -0.36576763140803 -3.19487976979615 0 0
-29.23726072427 -6.09625413098948 -1.99381586517844 0 0
172.175714279243 12.0603054803304 -11.0096118537639 0 0
219.037178958552 26.444316852536 -11.8679669114361 0 0
188.54822392393 -34.7328487070453 -4.99982390177161 0 0
2.3607099119176 8.48312011352963 19.4232021826712 0 0
170.006440821557 -20.8466573610448 19.3467489323859 0 0
214.89800819136 34.2186619330662 -2.73330683228653 0 0
191.209210864425 -35.903168409552 -20.8320410375249 0 0
-56.5205852977769 -22.5965668901085 9.97309042853549 0 0
169.18898261728 9.93950695092611 -9.25700962213192 0 0
34.30633342568 5.40503146672107 2.87276324261569 0 0
121.133243055177 -16.453069329579 9.97433412655069 0 0
140.99538341387 11.782083917186 -2.182051283693 0 0
110.189081004438 12.5008673528934 5.15904834236952 0 0
183.754252181783 -26.8614435596807 18.4159559697979 0 0
176.26473040482 -22.7599115310476 -27.8717069498153 0 0
181.247751707095 -28.2727308714524 10.3415032096231 0 0
131.326835290102 -11.7113125311436 22.1627538465791 0 0
41.7553796545102 5.18587041433742 26.3949974187715 0 0
-60.9378968706196 -22.5254175849094 13.506361203186 0 0
191.01739938729 42.2871946198857 -27.1784728952057 0 0
0.240225447947121 -2.62449170321284 28.7574505177007 0 0
208.04867629722 2.55226573855549 2.99283572463748 0 0
170.725910688754 6.36587943557261 -10.3629363274765 0 0
147.789104444881 -8.5130785013771 22.824893847103 0 0
172.514877547774 16.5072516832494 -11.729533041414 0 0
207.949060684091 -15.1802072064167 6.86134155557787 0 0
58.674621824353 5.08209444590327 25.8847813129977 0 0
-3.38032028398823 -9.64394293439337 4.23638140477727 0 0
97.4809988838884 15.1295405596204 11.402145763455 0 0
-68.4811121919871 -0.411509579271813 21.9678794253641 0 0
125.928379838334 -16.5920691915594 13.2775767002394 0 0
196.035553834934 -3.37943640748237 14.1421572511156 0 0
156.14613788646 5.65879487307468 20.7767377017689 0 0
178.609704961939 -13.5234065526998 24.7658468907118 0 0
76.1247080367092 7.38491014359356 2.49238462478228 0 0
148.651699996438 -11.8730589951838 -8.70081218171962 0 0
205.573043785524 -20.3195688838408 12.5866317229603 0 0
208.040723507922 25.0506008939702 -32.5403828319948 0 0
32.0070833831688 -8.27622344492371 3.34281823489729 0 0
3.91040191240626 8.00701559898353 13.4564278512432 0 0
145.550271624103 -17.764078512442 -1.31169299521927 0 0
206.902889344435 0.0990052889172986 4.17771081192094 0 0
57.8764006991707 11.3809060553619 20.9237609648511 0 0
190.273836493359 38.6501818996918 5.33810297207631 0 0
9.10312271678503 3.41579289597364 27.6748740973225 0 0
100.23264631371 3.05824210931378 25.2173821831729 0 0
-17.4549735971112 5.53888725849961 7.69098748782705 0 0
-47.1662481983816 -15.8126212475385 2.98160517211173 0 0
201.785029998591 20.5432481987049 17.1843796079531 0 0
133.806992711199 11.5966767195187 -0.770601384967741 0 0
213.802382934027 16.398690204477 8.30268774835737 0 0
178.52755119304 12.0593117317013 -14.1782409655905 0 0
-69.1363962755987 -16.1304731962181 -2.89762144485027 0 0
193.818001001511 2.81899482395512 17.8780566619052 0 0
216.764158516893 26.6206173267368 -20.983785298268 0 0
205.66368460299 -5.64245636291183 5.88879168170776 0 0
178.398819757461 1.62517828747513 -15.8891771949104 0 0
214.315139862 14.9894117064837 5.41140649416437 0 0
209.104410725989 -13.7565871523517 -15.5639978083574 0 0
-43.7159598958455 -4.85981152131174 -3.71457376509518 0 0
171.746932642305 -19.6000400493407 -19.4287051171207 0 0
158.356632536967 -0.0896284044069954 21.2375386312203 0 0
179.143392512151 -31.5416459520276 -2.08829501125542 0 0
128.870520077981 -16.4957182797212 14.7558898824308 0 0
206.11058585651 -31.2658781457778 -9.78451993432918 0 0
193.447732849505 34.8806366001442 -34.6011646285077 0 0
20.1841242427718 -6.31910960125452 28.2246982103671 0 0
193.989936627012 -35.2855418157178 -7.08173868058593 0 0
23.1758697235044 8.59710321489177 12.0113279999335 0 0
52.9003183185532 10.9737972500367 12.5944067147844 0 0
156.677222699973 -20.0580680167799 10.4159029457026 0 0
-38.7881631557949 -6.15551300309381 -3.63443388948871 0 0
65.0085417429459 -4.81865040107645 26.9160185135503 0 0
205.290114740812 -28.2072350155388 1.27849528691969 0 0
-72.984823184613 -12.1059644880967 -6.97954561095905 0 0
178.010009784159 -36.3175497736373 -17.2876001032737 0 0
207.378498598619 41.3327654450161 -9.57088686939109 0 0
218.707175820812 24.9987247120222 -2.5954168785364 0 0
37.3361491502541 -11.4498287859059 6.08671550084134 0 0
-85.4156473955112 -12.169475271952 20.7540806020289 1 0
93.3377082700841 -12.7239275762102 3.33361600712304 0 0
172.433042071068 -30.7012424021892 -13.9438922716252 0 0
73.3291558094039 7.42065951197139 3.03976343652606 0 0
171.679282573779 -16.5474751334332 -18.8273279308513 0 0
158.631449462534 -21.6648445527412 -5.81143834755984 0 0
111.233374721309 -0.585435945744694 -4.63261512146591 0 0
161.058190814893 -22.9397195610373 -7.63543916450908 0 0
-41.0216867202002 -8.10313318991933 27.047218135708 0 0
170.016845844445 -24.0085152366839 10.1672782623157 0 0
172.071817615113 -7.17340423219494 -15.2101678063705 0 0
-53.8239019939707 -19.7713744151203 5.17733002748104 0 0
207.768871738796 -24.6186586141637 -30.660082181545 0 0
208.11974347913 13.2149917137852 -18.015421882654 0 0
-73.613111799803 -22.1857510361199 2.65460967973724 0 0
206.776388577602 -2.27482044251015 2.36689338255806 0 0
119.859066360032 1.69509450668363 24.5760734642209 0 0
93.7919740058261 -1.62947435204936 26.1924713996677 0 0
-75.199134173059 -5.71911953490025 22.8201839849655 0 0
-63.9479366979928 -11.4470307361297 24.2840989384843 0 0
73.671869253278 11.8826931660752 20.9471993512707 0 0
49.6525544108397 -9.39181859346062 3.56325011501914 0 0
187.207975965425 28.9438805223834 12.9239683040361 0 0
183.701097613587 15.1828229337373 21.9535799667809 0 0
207.748043528508 -34.5603799490291 -19.9876014801297 0 0
-63.1687065957832 -19.5409076075758 18.2872531814063 0 0
169.484096272871 -24.7026208446223 4.70993013257561 0 0
213.596041156775 27.1057849436492 -27.0453616510312 0 0
-82.0306218500538 0.585951551306166 18.6262500335497 0 0
-67.9072864473738 4.02729089193543 16.6954992276569 0 0
-15.0255890145222 -3.44399407404451 28.630114164381 0 0
189.203422847043 45.3718121785167 -9.92037725775452 0 0
149.607750154146 7.76152410474833 -5.13482522595283 0 0
218.675736645312 22.3782098929627 -8.50721305606725 0 5
-73.0877739876051 5.3251367105389 9.12649984882056 0 0
80.5911941433697 12.0408076813297 9.22729400549558 0 0
123.209090296721 -16.470850745117 12.8358027403228 0 0
72.7099647905585 6.30034487526852 1.00139746757635 0 0
-84.6839918679844 4.59478195361614 11.7653229864846 1 0
43.0312838662509 8.81811907769441 23.950902590322 0 0
148.422617406188 2.19420298501843 -6.57125876422426 0 0
172.163704552044 -9.4351560643337 -16.4624085013001 0 0
179.022521736236 -29.0653175368438 5.37741789044766 0 0
191.690499251746 4.20296238908568 20.3876138219987 0 0
139.847764668461 -10.0014531608083 -7.62574357850274 0 0
39.5959162962809 -14.45237608619 9.75337596470196 0 0
169.948841426424 27.6639582965221 6.30870837035752 0 0
1.15009596555314 8.0061048800367 21.9276242970269 0 0
186.522349147344 -4.81421805676021 -25.2590855524757 0 0
194.454476424188 9.54193943393397 -15.5565629970833 0 0
180.771762030089 -29.0633749770338 6.91315312823331 0 0
176.774539477154 -12.445030973734 -29.2024643368939 0 0
-44.9526062935019 -1.03518109418229 -1.99298115937529 0 0
175.740594206895 -17.4099569745723 -29.8848749306338 0 0
147.837832971309 20.4984553839033 6.73593234535368 0 0
105.21734528679 -7.96846936397059 25.0001291563298 0 0
204.765236837069 30.5752064679688 7.82907159356281 0 0
81.0597588056603 -1.55222921611472 -3.5038112126955 0 0
186.877700379568 41.7080066648628 -21.1461423479297 0 0
14.705949105686 -5.59331723978556 1.3660348210812 0 0
27.0374582919378 -15.5431089381436 22.5112261716161 0 0
208.981971554182 -21.1389011135988 -27.5383254246288 0 0
109.953766467806 7.93654582446162 -0.0924727242359144 0 0
204.916137168208 1.29289246114362 9.22410272486485 0 0
0.561599790407819 7.60067943118805 12.0886819175113 0 0
178.974534994052 -27.3517083288669 11.9752850415823 0 0
-16.8431279071938 -2.6778250412691 -4.07302646059738 0 0
-16.6595023386596 -0.836969850308511 -3.7788370909896 0 0
174.06928959177 -2.83631473889301 20.3549005328209 0 0
201.902366335124 -28.6214444965883 9.54481667697844 0 0
165.765236514361 -20.6543368008022 -15.2219876853535 0 0
55.9302279773148 -0.0782813642222048 27.3531383504619 0 0
175.171000780658 -11.8122053357965 -20.3658630141509 0 0
-34.7746233681179 -8.35437407331665 -0.626589634544374 0 0
109.609450980472 -15.8937288986777 9.74610292441112 0 0
217.053337458836 31.1317188080059 -21.1121152894382 0 0
45.156849696203 -12.2072013490091 24.6488312223988 0 0
165.936684677928 -7.95235006843778 -12.8797137630954 0 0
163.052999271186 -15.1456318767036 21.5908990456244 0 0
150.479636597824 17.7741185628878 15.1352604799716 0 0
198.994352346251 15.4898985989122 22.4278400051004 0 0
152.53499246572 -17.9994159590874 -8.93841104452946 0 0
211.473296691259 -24.9150044792167 -12.7503067984856 0 0
187.470175080209 45.1461966199605 -7.97774522577828 0 0
200.371509747321 -35.265977135394 -27.2423657012665 0 0
-38.8999867379866 6.48562055675557 11.8278513059805 0 0
163.686532447616 -7.48032887085461 -11.9410429808838 0 0
-68.8663389650138 -20.0836547778216 1.0214919563948 0 0
209.023479289235 -30.6387958739962 -26.1220073817089 0 0
-37.3946313573871 2.78380260271131 2.72208007208243 0 0
182.131143854674 -29.7372742756262 -29.7740607146097 0 0
-42.1382174399073 -3.99763172733587 -3.52978497626797 0 0
84.9490052222833 -15.405324809613 13.5069268683079 0 0
177.016686990904 -24.7547678923371 -28.7285292239302 0 0
211.043152354656 9.29196926312214 8.40364447388949 0 0
3.75245926185443 5.17111237575625 5.28999116429223 0 0
8.86404036075501 8.61416071267512 16.260654742965 0 0
180.277751258494 40.8419398098964 -4.82298351418884 0 0
138.380218358271 -1.09911966473369 -6.3835151873811 0 0
184.513723256022 37.7060054797028 -21.4903938376891 0 0
114.624256344997 -2.54622311888316 -5.2366433779034 0 0
163.7250854353 -16.8237828260173 20.5269325199515 0 0
-23.715828979568 4.39536672918397 5.38279714019271 0 0
211.293023729124 30.0537221249219 4.99844676819172 0 0
210.942386375873 -21.7945321574237 -21.1089458052143 0 0
149.343697054334 4.83867638562644 -5.93482738163639 0 0
176.280365625836 -23.8642379827337 20.5826835285745 0 0
217.597780523779 19.1067262740054 -5.22574851649447 0 0
102.610261040134 -8.54768021856493 -1.54381387298932 0 0
158.139865654749 -14.5480646116377 -11.6009308465235 0 0
115.543017589241 5.30829206933579 23.9544298088082 0 0
202.39036469077 -8.08077368551225 -27.8217861333901 0 0
-35.4122088709567 -14.3554681992207 4.40424127459002 0 0
-47.6584144216537 -0.710492955312504 26.1147036437599 0 0
28.5797147537449 -17.2987607183487 17.6492258651971 0 0
178.922053870074 8.12143574080269 -15.2205781456758 0 0
188.310407454988 -0.363567254558864 -20.0393777136247 0 0
170.107456166382 -27.3027360827617 -8.72500669376391 0 0
174.782281410067 32.9815207385404 -0.142727779736413 0 0
54.6753680775657 10.5541750487131 10.9673307093464 0 0
-6.76328489348617 -0.089061224981393 -3.26383519661927 0 0
204.010555038004 -34.8299851872091 -31.2173143076154 0 0
198.133716684596 43.8036796784849 -3.45275483967967 0 0
196.95661880482 -21.8520675630943 21.3993198706811 0 0
-87.2642311606882 4.7915086253816 4.87838866105056 1 0
-19.4960200917329 -0.292923144586157 -3.74758665314555 0 0
123.860796178241 -12.4386788015204 21.67599595813 0 0
166.050853503667 1.4924801774928 -9.69941814877279 0 0
186.174496571118 -34.4191777202468 -5.48429370670249 0 0
98.0468662048725 12.7005748532886 7.26668060974771 0 0
188.724032473455 6.34433234737992 21.4581253907861 0 0
140.47455169394 9.59416819564266 -3.13490019225973 0 0
96.6007146672507 13.9451859234221 9.28295445001519 0 0
27.1988225697787 6.31813637810207 5.46072365479354 0 0
29.3041250511891 -15.17960587452 10.4234844352027 0 0
202.729137725903 -29.4373452293335 -0.00846675592925364 0 0
207.104427546512 8.26577193930621 -10.7941380027749 0 0
162.834757839843 -9.72681986704447 -12.6235460072117 0 0
190.893428245445 22.7971528308291 18.1195823259549 0 0
197.721612530395 -5.22817756609479 13.6412877521778 0 0
159.261189361139 -19.2343088408736 -11.5127528091475 0 0
135.24383090816 -6.62659255072993 -7.19895084041101 0 0
180.336276788391 -23.733443412153 22.572888192311 0 0
198.721701847681 -13.5463048415144 17.6161280296667 0 0
205.011158889371 40.8462493525753 -3.20960075946113 0 0
175.214460428185 -30.6073779445228 -6.89474528693772 0 0
16.2526647911823 9.08908424359822 20.7609846105614 0 0
115.879863878332 12.3174111135118 4.0684001569514 0 0
164.008773211681 25.1688705686457 -3.40887356425529 0 0
-65.8224214570601 -18.1542493782456 19.4945405805054 0 0
167.459320742862 -8.59102280298291 22.6813965259209 0 0
185.102097087014 29.2031151749527 12.2559020003675 0 0
183.844023992219 -35.3212659714918 -23.016522951635 0 0
210.947599666358 -27.3451288681669 -21.4385692790374 0 0
27.7532077054667 -5.09894037383768 28.1290484113705 0 0
213.125751749988 9.74303977712294 -5.61454158627806 0 0
-24.6046817165459 -20.9329209524003 15.1556813162577 0 0
212.787296814424 23.7355984486875 10.4900119505651 0 0
196.421963363157 6.42910605278693 -14.1344141307386 0 0
208.686972592884 2.76741811110834 0.874071575426013 0 0
207.460620430271 -35.1346816169691 -22.2872947912777 0 0
50.6864330985193 11.0994289234651 20.6989821672764 0 0
-31.1237654904523 -12.8089639182042 3.94973889496704 0 0
172.363467396912 -2.80033654541905 -13.4229872287779 0 0
182.811198603814 -7.79458318029896 -30.760141551775 0 0
112.831468666766 15.8983582122739 16.4366611354801 0 0
4.06971714704749 -6.37432357102317 1.80900654605103 0 0
203.365057322729 -0.995709285201573 9.50308711305875 0 0
172.119161977939 20.9952067139272 -11.0801976100431 0 0
154.458273354247 -19.8170871820401 9.83051507245092 0 0
118.808906949244 -13.431349830916 20.5649220537489 0 0
71.1979405962823 13.305498835354 15.8955717286116 0 0
159.172311305168 22.0627860170243 -3.3992514256225 0 0
206.422367707635 6.24993689521651 13.4691714517649 0 0
177.197932889776 36.3560001604875 -12.384615961492 0 0
24.3501980958223 -9.19809825286773 4.26358788950895 0 0
-56.432657153331 -22.0038442163475 14.770905102588 0 0
165.916463052646 27.321041158247 -1.17231943656839 0 0
-47.8668221108346 -3.63860862091225 26.688144133349 0 0
181.523933591427 42.8469356798547 -10.4751101559687 0 0
134.196372857675 -15.1278611808615 -1.51247096185297 0 0
209.259377675006 40.7366651026308 -25.2554435151464 0 0
188.961136264528 -29.3611569961781 10.9980177548506 0 0
124.817208759481 12.7976309528114 20.1633779375733 0 0
200.27731589009 43.1369298921825 -4.01829956979157 0 0
192.265484383334 16.2788778596664 -20.4883759715535 0 0
-33.4030057329251 -9.63591659327081 27.0571122856829 0 0
70.423239332315 9.36277177444818 6.37588002678787 0 0
-39.585018906861 -21.2631475544669 11.866865466237 0 0
217.232150015044 28.7690652557176 -20.551487172429 0 0
-9.77538413291611 -17.643771040801 21.7358392043864 0 0
159.88127209057 -14.2917459678297 -12.3426333081099 0 0
160.58704542461 23.483563232724 -2.28470139773719 0 0
-12.9019311741224 1.91524461609226 0.592072480005888 0 0
135.804390202882 -16.9368449058385 14.8505524375122 0 0
-77.1492267404387 4.94198546621267 6.3379894304014 0 0
11.7257856820357 8.88909864216963 20.5872942914005 0 0
44.5165839047247 -7.50546938938161 27.1167169911605 0 0
198.739848614395 -3.34612485110628 -15.113450946175 0 0
175.681996617462 30.2564806770593 7.39925932429786 0 0
195.743442091952 -6.85894966689214 -25.1371440209497 0 0
170.550289484223 -23.0570120905322 -18.2787791466401 0 0
85.2677087550157 -4.46730708011747 26.4193278858052 0 0
206.409084525551 -29.0593769117547 -4.39093152223089 0 0
204.843787271674 -21.4288391801238 -33.9381764646464 0 0
49.3175045912226 -16.1466401885995 17.033112283034 0 0
-10.0673301037421 -3.14895464268008 -2.99701421971426 0 0
201.271096511314 43.0784729127135 -7.92806827177913 0 0
-16.5073541375844 -13.8715413926947 6.34506054169114 0 0
172.787548664479 -32.4362587483761 -16.17823394987 0 0
-60.0397491615321 -19.1079417454398 19.1045901377863 0 0
212.16086340786 28.5568085807486 6.30441090963407 0 0
171.52817964247 22.4969114237452 -10.9484349209248 0 0
186.980824759463 -21.0719531088116 -39.3075791996183 0 0
185.692659881041 -32.0461978490768 0.556661290591532 0 0
198.133021689522 31.2815115289639 10.1315878354902 0 0
-84.1021969255642 -13.4229184025105 -7.87061307635906 1 0
-7.83027205287327 7.95435567471784 18.2702376896721 0 0
-50.083834455225 -1.95132668503533 26.1508569270819 0 0
195.544364752566 9.28418107073614 21.8217800327811 0 0
170.174541743839 -22.7627408666084 15.1184072366974 0 0
174.261387727166 -23.2798065448335 -22.0209430068609 0 0
-21.4424802395339 4.82177081377213 24.8146726809616 0 0
170.032565706679 23.2443399292513 12.3204055983542 0 0
142.67799962394 12.0180975565774 19.6355420835319 0 0
-69.8116822104993 -13.8393533974119 -4.64213953176841 0 0
189.736251149574 15.2351160588399 22.0413995350683 0 0
106.333127625247 16.0741906003885 13.0265268118022 0 0
188.207030860786 -28.7993257485682 13.5310419523313 0 0
15.6437676094826 9.12873149835053 17.6227434457355 0 0
116.62767231992 -15.6169147713346 6.02652049550208 0 0
168.10898825507 1.65766812382909 20.0871907603228 0 0
-22.5484709045325 -7.00362568478003 -0.0998216472124388 0 0
116.386936175581 8.12680872387885 22.9161777495272 0 0
-31.0772056559078 6.5058940354982 18.639336661776 0 0
-74.3812696574682 -9.82047035447137 -8.15042388133423 0 0
126.450231016892 -15.9285979274708 16.3103774168036 0 0
216.046439016036 37.8293637765474 -17.9863135801797 0 0
79.9717369922575 9.29703427256237 5.13377511915033 0 0
147.893901868829 -4.34887127725169 23.0270842753803 0 0
15.2603190177168 -10.4329818847279 27.2571117734586 0 0
16.0706760623372 -12.0297264819332 6.68451901398298 0 0
159.197510229122 -2.09938114757557 21.4437510829002 0 0
204.195658243808 -22.3507037735589 14.2797830617445 0 0
-61.9454095670813 5.27263065275262 14.8074745545058 0 0
153.517975710108 16.9820126932107 -3.37924302517275 0 0
95.3373138993863 1.55678568037673 -3.34545523130239 0 0
112.361588857419 16.4437530197494 13.799776020152 0 0
185.255825495244 20.0785344773484 -24.112181726802 0 0
-33.1156107965116 -4.79273477792196 -3.79404892725811 0 0
89.3282259965613 7.55069277394074 1.77942895217723 0 0
93.8776233938779 -9.49514801148052 24.6407435821569 0 0
42.8844373899703 -1.82483784608596 27.8982660057637 0 0
206.152763781646 15.0840518930159 -23.9292048566728 0 0
194.335486877371 -5.99522877006793 -23.0632892161406 0 0
111.04164862096 -5.10133052023455 -5.27166529137122 0 0
202.592231114706 -33.6683638628846 -12.678329808461 0 0
66.9562083142044 -4.30060542186092 -0.495161373354565 0 0
41.5340925382365 9.93064509347832 12.4070176352877 0 0
208.132996673591 -27.1366011167297 2.39785587251718 0 0
123.686245084906 17.0626391159795 14.2815578158802 0 0
34.803474505658 -12.0011323248273 6.71275964842603 0 0
50.6568233223256 4.66478029837571 -0.518018946673888 0 0
-10.0888967440735 7.79981115397155 19.5266175063792 0 0
100.122782561504 14.2958068102243 9.17158030084713 0 0
85.3636035311382 -13.3892516797402 21.0338850507711 0 0
37.0176919336655 5.48437068106359 2.91320173017813 0 0
173.191492273855 19.8015598479578 -11.8473534820019 0 0
-54.1395374811304 -17.6057048901751 21.0854791517603 0 0
141.014932946404 1.60882494016314 -5.95111994466444 0 0
162.228862742944 -23.5976508370849 -9.55655916324205 0 0
113.558644706734 -16.0311969841651 9.82866999632174 0 0
192.782023997428 17.5198128699623 -21.9817661634982 0 0
209.876389021443 -23.0433819490785 -26.0158917031924 0 0
212.924331403959 32.3308110925953 -28.0302128412345 0 0
93.2033238590695 -15.4346608398606 13.0697126041638 0 0
188.248377570409 8.6012313171027 22.3317572389324 0 0
169.860309897709 8.45829788361885 -9.43735472032653 0 0
174.693539999181 31.4036729078842 -8.82132416286327 0 0
148.948012535425 18.0983215299433 -0.174802112595 0 0
113.42878715235 15.4327124935312 8.57626230393379 0 0
175.06251480161 7.96207514214206 -12.3078728941095 0 0
-34.8105977251225 -21.2082350385264 12.8375561816931 0 0
-84.066536308174 -18.5791126382759 16.701238174917 1 0
191.132243431333 5.64519036786218 21.6198133514947 0 0
2.66463988274989 -3.31178938574784 -1.34423936965165 0 0
113.833508423847 1.54880536417393 -4.25181709502807 0 0
207.659955132874 -31.4048637617268 -10.9942446341178 0 0
160.537411124248 -21.5236395759095 -11.6913252457071 0 0
144.003637722451 -17.6729117719657 -0.0180807421096671 0 0
212.528651607395 25.2156510077783 9.34958796453677 0 0
168.413157831616 -26.2710179327593 -8.16580386825206 0 0
191.284844730145 -20.5763563698275 -39.7343982089124 0 0
33.002856871458 -10.5875062620988 5.28922427748494 0 0
122.159552705873 14.8991183336156 18.5526989282684 0 0
177.235117343244 -29.1287251321132 2.98442569616137 0 0
27.6819106639426 6.23207530947515 26.1321095333138 0 0
177.581451005339 40.6553162257863 -9.06827228221391 0 0
185.428014843103 -31.2024753602546 -30.1259985888709 0 0
186.201010391743 17.8321892222512 -22.1096755337319 0 0
98.8916181951165 11.5328008977925 21.6532120135121 0 0
185.741166515754 44.9066123978622 -15.3085156547194 0 0
208.227481318089 -11.4266173405934 -15.2099741879717 0 0
-24.4248897875491 -10.221619823846 2.76720355969919 0 0
182.784795808754 -1.40552728879909 -20.9710425661726 0 0
199.815236858695 -18.1770702977951 -37.1037059076593 0 0
193.542643750293 13.2355653158121 23.6900705637328 0 0
204.481925503041 -18.5946213806393 -33.4102385809194 0 0
211.417731383173 -23.0078341926787 -8.45002022740488 0 0
193.224544357273 5.58363632689196 20.3351090978374 0 0
86.3571192194333 -11.8626847082684 3.12351634337533 0 0
214.15249740956 10.9339165890897 -0.595723568447764 0 0
186.818595990333 -2.02627383421746 20.0286095726335 0 0
-56.0979731374194 -12.1591369333794 -2.48279326322024 0 0
189.260108183854 11.4910549109856 -18.5540401951071 0 0
163.847809650919 -8.51124903551109 22.3678836163379 0 0
187.307886527889 11.7046283293664 -19.1456470108299 0 0
60.4832161789904 -14.8616053777304 11.083346288753 0 0
200.235431694308 32.6473179839735 8.57249904041605 0 0
206.249758058489 14.1498517773258 -20.0962723837473 0 0
-1.00984275127519 -5.72987091144664 0.861684721971913 0 0
-9.93204657156522 -19.3042319597852 12.9076297793136 0 0
-64.1940794509322 -7.5434286560979 -6.12683634906205 0 0
178.406670967705 15.0206113888959 -13.8092536046523 0 0
214.770014422633 20.1007099317091 10.623541853148 0 0
-63.3463526670094 -16.1975384618194 -1.26535421280297 0 0
-58.6093141546624 1.84341044883675 0.855346346086314 0 0
110.044734546457 -8.48714775424586 -2.77626694008949 0 0
210.38433051909 5.05082254785388 -0.451649106574023 0 0
161.051295650963 10.3009771036844 -6.79632248075578 0 0
153.371598156923 2.48952515957291 -7.08626320963041 0 0
-19.3380970160496 -8.96372608308789 2.23091932341553 0 0
183.02055306377 34.2586074754514 -21.682027672427 0 0
124.274834663478 -15.1766223743128 2.14641975436838 0 0
25.0936474661955 -13.5587961670213 24.7358133001862 0 0
-1.23589332629422 -4.99076426074503 28.6437662348802 0 0
177.670245981679 22.6760783826394 -14.4322066461293 0 0
121.281635616727 -3.81308011898581 -6.0322649139033 0 0
89.3221703333199 -5.23917776600208 -1.86804850107227 0 0
-87.496070493591 -23.8134996197183 0.617119584194952 1 0
168.751982275651 28.8650505685742 -0.352893022110171 0 0
192.156634397131 25.1153668348031 -34.7914287847825 0 0
-68.4115859642869 -1.38547611565136 -3.2551967246011 0 0
102.641704075848 -13.116536177814 2.6840511610425 0 0
14.0970152770484 -6.32263489146305 28.4132872414977 0 0
177.299836448289 -21.7165879915395 -32.8517220685733 0 0
196.981353419215 16.0600506073089 -20.0816928038684 0 0
78.5625991035499 10.7388958931357 7.52318665152921 0 0
204.072516743046 -6.11039410346069 -20.2537629114543 0 0
169.227642458119 19.9684096207756 15.0107247565282 0 0
-67.0648390099233 -7.99376500104911 -6.39293967354901 0 0
173.255362942783 -4.8118923206929 -14.653108095048 0 0
177.614732202978 25.2468224760048 -14.2488088181388 0 0
120.210599325335 16.9020762331677 14.0466360055917 0 0
77.0303690366593 -10.8219847717838 2.99557457059423 0 0
201.895892267293 -9.32297914152678 -29.9193229462257 0 0
33.6014172338502 9.80931067328674 14.1635454909849 0 0
205.898654843307 -33.4986832219024 -30.8262369366843 0 0
203.858462935965 -28.5053899801023 7.94865242338104 0 0
-87.1737976204576 -2.65168008251188 19.7773848915413 1 0
-7.84488033177106 -19.0464424051851 19.6347376065862 0 0
148.879721939574 -6.51454925592732 22.9818007197691 0 0
-47.9249716143953 -19.0813681079678 5.87538198559311 0 0
9.13297058473365 -5.29616291510256 0.990483880808197 0 0
-49.4710717526134 -19.5018639712236 19.4210630325857 0 0
20.5449122820749 -17.4215100247915 19.2079743793383 0 0
182.443140018695 -17.3622918196386 25.5462175651558 0 0
159.272807261022 -0.0844325590284907 -8.51843639830577 0 0
159.572533869814 20.6479255175309 -5.37436020162773 0 0
205.4176349943 39.2262544165187 -1.7362187160626 0 0
156.721291087381 -20.9896095975884 -5.43599645853331 0 0
-16.332527134595 6.82107190452722 11.0157492798341 0 0
97.0233789459982 -11.1574902664033 1.17170768076662 0 0
-44.1224403108088 5.98744487183139 9.22492860599746 0 0
136.16443728393 -1.38655831281808 23.8941242577097 0 0
208.546679896432 -33.1815205854629 -25.5539822016439 0 0
68.7011108600128 6.53326480845708 2.12917964641805 0 0
155.877735730347 -5.70202217877457 -9.44597150464467 0 0
148.168365568448 10.6235315676546 -4.08532836431309 0 0
187.374793767328 44.8991609496845 -17.5887379470066 0 0
-37.9101901495463 -20.3900962461804 18.7352599584784 0 0
208.948299866256 -11.8082211745222 0.128836460317911 0 0
171.296808695503 16.6080760870366 17.7867443184672 0 0
-13.4098435119193 -5.58179631713105 28.4791716417104 0 0
83.5641444551555 -6.32715019145789 -0.720034487330527 0 0
184.967794375462 -37.2072718994383 -14.1193409781185 0 0
35.8295887837526 -9.54994352460055 4.25016088009672 0 0
185.727369308622 2.62644947350985 19.2614833687948 0 0
219.88529180949 31.4005178344183 -5.83123516726657 0 0
-33.3247019889198 -10.8834265653812 1.99881106271314 0 0
116.172246703856 11.4895496901513 21.2163177309183 0 0
107.925258865155 13.1939398534992 6.38976868269259 0 0
141.375055030646 -3.30798760826799 23.5841806425139 0 0
-8.98733632599456 -15.2000598626304 24.0943821363026 0 0
180.250984202493 36.5007557292149 -15.1911341017058 0 0
206.540271610213 -5.13721220858328 3.34552338576401 0 0
120.997081501036 -5.75177891388498 24.9138086920188 0 0
160.771640060649 -9.41838442228542 22.4270434889899 0 0
-12.1863664540754 4.53186256433602 26.1283900685331 0 0
-39.3639121647172 4.95677500279836 21.423487931328 0 0
87.7456981340284 6.29792162358998 0.639236284945019 0 0
-31.6529899268991 3.98948124866412 24.5243792828973 0 0
173.412426977577 -13.1877472471717 -19.3900465111319 0 0
11.9559091946042 -8.84399741676794 3.95072455594188 0 0
185.978803787858 -11.5333807411728 -35.3780184501894 0 0
-36.7174241937944 -6.20596806211186 -3.15401398377331 0 0
152.648796897865 -4.76279197300527 -8.70445649214873 0 0
-1.34942573428722 7.46012942448991 11.7708856186686 0 0
198.081290592256 17.8405336357998 -28.404818372455 0 0
17.0941421727928 9.01229948579821 15.9086365530678 0 0
100.437671398484 5.83465275224393 24.3891509900171 0 0
178.849698798294 26.277483901491 -15.578498400783 0 0
172.368415690386 -23.3992741183781 16.0439347285963 0 0
173.643958677326 18.8663877472611 16.9545206078009 0 0
210.838744518212 -23.1561942681091 -4.41621776221427 0 0
215.285159593972 28.3543034880392 5.08123442715792 0 0
194.182383671625 41.5604050826352 0.848070930849448 0 0
103.164481639987 -10.997187955432 0.201994948116783 0 0
200.327126833104 -5.09515229756312 -17.3728935174067 0 0
181.788166094497 42.3920997122256 -12.3370280080432 0 0
97.5154352521126 3.65849275041547 -2.22755474063577 0 0
188.013304354703 -32.4284062559683 -30.0713139166029 0 0
88.1505900853749 -9.78707383291298 24.5940559828277 0 0
166.003997652063 -4.33211288551418 21.2492497823785 0 0
-70.5192637669279 3.23481690945626 17.5265413375056 0 0
-30.0616051268422 -3.14703977662908 -4.00836812436047 0 0
-70.5117607061264 5.30462853959523 11.9326591983211 0 0
166.009007523181 16.2698112854546 -8.9129330435982 0 0
-41.4632630635947 -11.1659627685562 0.655257764306962 0 0
53.084529440043 -0.212330807769668 -2.46828578587438 0 0
87.063291906239 6.41845547418917 24.5499491788211 0 0
148.443288277457 -13.7081705797418 20.6139140186226 0 0
209.914992397444 -17.5701484506796 -21.4081893707019 0 0
180.985183345746 -12.5077057591808 24.2792844110482 0 0
209.081550377843 4.09945483326956 -5.79947277586208 0 0
-82.2055219970461 -23.3274893659568 11.6047006685173 0 0
185.951501705581 -1.70846457259329 -20.8294580866726 0 0
-84.0511814543208 4.82342915538041 5.36062533028154 1 0
210.605075676062 -14.8968714238945 -7.34708806415453 0 0
208.124922050872 27.6092864952292 -33.0795408908303 0 0
155.718124957918 3.80592803981343 21.2190475848689 0 0
216.885163739502 19.2463109658783 1.04721207344508 0 0
195.365989282881 22.0356216170196 18.3004309023459 0 0
208.488562653762 -17.7098308417339 6.5132345796906 0 0
81.4490084846036 13.6072267280877 12.2227252387497 0 0
190.940563893402 4.42205891709012 -17.1577920097507 0 0
12.0003257055278 -14.9743928869615 9.32047852014671 0 0
156.498197997757 -1.32433578677321 21.569473988821 0 0
144.029904545752 -3.08142308343074 23.3477973874252 0 0
174.236265694384 -29.0825422363124 -4.90051822105989 0 0
39.8238828139753 4.6412354096956 -0.841713681715885 0 0
196.730612166961 -35.0071077576578 -7.84506263429135 0 0
209.507883862988 37.4901269973713 -30.3255641561346 0 0
181.375924880949 35.0036969713893 -17.4163385988063 0 0
75.8188770433943 10.9533315826483 21.9871964515892 0 0
44.4574418079178 -15.9169724687767 13.258513020395 0 0
96.4132141172211 -13.169752498079 3.64758831786925 0 0
182.896454838254 -10.6056245548777 23.163027060288 0 0
-44.3643072471792 -6.99684055164754 26.9767451980417 0 0
112.251917769836 4.58052554355256 -2.65155132194554 0 0
15.5724106101346 2.07146622561496 -2.7185566446141 0 0
68.8264862532124 -8.12461237510602 26.0262600507221 0 0
207.968010992067 38.7738438088757 -4.10137458714511 0 0
6.22762730222295 4.87546500055002 26.8494114862084 0 0
68.9456532898184 -14.7167921206148 10.3447204923557 0 0
151.247767196579 16.2395777558729 16.5259873796928 0 0
162.591358963249 -22.9526084271245 -4.54228705280896 0 0
20.9240492875096 4.03550883905974 -2.31455285524867 0 0
150.501010815777 -5.06497691015215 22.803969567263 0 0
141.235122764682 -17.9437134084828 4.56076227669509 0 0
185.454446033854 34.9036980630473 -29.2200836691059 0 0
75.5707884094095 13.3755762439638 18.1295254729568 0 0
189.815005450739 -7.95409378987741 19.7187417484351 0 0
62.0391139671689 5.88556758405167 1.7441800869065 0 0
177.063276206086 -29.1046005080431 -24.4898647384279 0 0
202.954450682883 42.2992715553018 -20.8961188787916 0 0
152.265140254943 -10.2025080335089 -9.61448952156963 0 0
193.934732244253 -34.3587384080611 -31.0498646297029 0 0
10.4723309899042 4.88460895185186 26.9557724460774 0 0
135.843997166939 -3.95622373839263 24.12323328585 0 0
211.519947900047 10.7969120376932 9.86938699325616 0 0
215.572825021878 14.5151874024144 -5.79326850006039 0 0
151.070912151553 -19.0866167927283 -2.5765738189739 0 0
152.506819209688 -3.2397149500807 22.4397479501272 0 0
-29.1539109848037 -2.42140226302853 28.1047278251157 0 0
107.011170825202 14.0383294029032 19.4820012129916 0 0
199.296314112631 -34.7838431404631 -17.7826398839954 0 0
205.055271301963 42.2629614521484 -6.32097874373458 0 0
176.499851984412 -7.28121418854303 -18.5504001464951 0 0
169.747766152806 -20.5013704841023 -18.0620143235308 0 0
64.271340260978 -8.56787536258058 2.19282578660349 0 0
206.490479155788 36.1651769220152 1.13494926461283 0 0
-19.6925588066496 0.796061405623585 -2.4027377082534 0 0
194.552812893462 -36.4184827223512 -17.0250536335762 0 0
91.5305349880386 -2.2045225241468 26.2723987961026 0 0
-42.8012533460724 6.3640343640961 15.7579822505446 0 0
192.951462597904 -29.1283254910076 11.1117827193573 0 0
208.443352073839 -12.6234430254648 3.01069029431883 0 0
-65.7430317108142 -9.60575469423477 24.4439888123576 0 0
67.7741980381509 -5.94714439649656 0.41475355110739 0 0
207.779483980704 15.9303492067983 -25.1001934128147 0 0
186.863524915049 43.7951588849149 -2.72301949066817 0 0
60.6070877389684 9.136351451362 7.23819343880561 0 0
-56.2862089302412 5.98741840137256 11.0012444729432 0 0
126.409637835927 5.78470907367901 23.2235204727076 0 0
163.571245257864 -24.2158703244675 -8.90869006270411 0 0
-40.5557130131858 6.57010396166395 13.4727457377908 0 0
192.003627987827 -33.3470126249158 -32.1716564602444 0 0
88.4640883864307 -11.0240519381389 2.03549423864926 0 0
83.3632828426963 -15.3245139726528 15.5974585927204 0 0
183.851926960584 21.1954061951412 -27.1072564451545 0 0
28.5371505164169 5.23203282891728 0.385710365055211 0 0
203.452400731408 41.6577945109084 -3.34928218367831 0 0
215.151216932602 35.0655043469907 -4.863100780763 0 0
207.795592658839 -26.5718176303919 6.75833846886876 0 0
-46.8392451416604 3.77194184141311 22.1490463322357 0 0
192.220410581659 45.0859528640037 -11.6577941329841 0 0
195.489318068933 -8.23186846321538 -29.561969788543 0 0
89.5977849781839 -2.58214668915437 -3.76393151502286 0 0
210.820599958362 -18.4811324947215 -16.5214626275433 0 0
151.141470901477 19.4110560928251 13.0742722043841 0 0
29.0399381103688 -1.15688459318503 28.2469594466548 0 0
108.827838092984 -15.8612469908601 13.7371487771073 0 0
87.1855852532057 -15.2923738335234 11.8370222774005 0 0
65.8727952395734 6.83471335529373 3.0439756441826 0 0
102.967119528323 -1.06049969874766 25.7397396851136 0 0
86.0690195813041 11.9490572712962 8.09281441067848 0 0
181.622477730159 8.17528360584138 -18.3041498339995 0 0
183.063148329095 41.2338024451906 -16.5862884920638 0 0
65.4259750181697 -13.4076366505496 22.2498121811351 0 0
