"x" "y" "z" "f" "a"
202.287896533985 -30.7415893524566 2.24177368861016 0 0
194.688780160838 5.01937107547159 -16.1376530670079 0 0
195.189250977319 -25.0764856701868 20.0390340308201 0 0
202.285381824525 33.5809646651185 -29.5994497070708 0 0
130.426549240457 -15.9197221584865 15.7353511765602 0 0
96.7267100815317 -8.50861073936847 22.5557340543922 0 0
183.961828479838 26.3553742486127 -15.7024162130776 0 0
181.956133736118 -0.616058592883829 -10.9638826633914 0 0
192.337752367631 3.56284743624956 -16.2825775799836 0 0
75.7455203983646 -11.6316056607569 19.1861183433848 0 0
211.052539827322 13.0228823420827 18.235682481084 0 0
197.511654095195 37.0448656499136 -3.17212825015583 0 0
87.8987442945974 15.4055635393451 11.2976789322778 0 0
1.86089352164251 9.14235628805803 3.09858445367893 1 0
176.89531219475 4.53745465358823 -8.72687147606629 0 0
86.4201339539776 3.22817220153943 -4.04092243922183 0 0
49.8228329205083 -14.1225130147987 13.9730362232904 0 0
202.823285523476 11.695824119786 -22.3284861119174 0 0
74.564734721227 -12.5345424967156 17.9482721631245 0 0
186.373331957069 16.4049234735727 -17.3426665249198 0 0
187.993925540158 -10.2536391011762 22.0156668285403 0 0
179.297621971389 -15.6081248180111 -18.3434471791983 0 0
106.908671613528 16.5569445954036 8.89169304087795 0 0
202.594661840413 -10.5133954828988 18.7385969509673 0 0
207.309956072476 10.1809397982789 -20.6850151847777 0 0
214.484800817789 13.1537776616438 -28.2470673536436 0 0
162.560638482311 21.1253176295322 7.53106072861531 0 0
214.433518805846 -16.1843122322861 -9.70260696548841 0 0
75.1364215057382 -14.2683984881323 13.3603006626049 0 0
169.81587229246 24.3861774189155 1.37637026968354 0 0
214.781040480015 11.6657040656678 -26.1181915195015 0 0
211.396041072441 -2.12827696004254 9.83326840582528 0 0
220.839943590931 22.0494010925788 -24.2222390253478 0 0
172.465482579719 17.5048383064632 -12.3613482686953 0 0
155.89157623595 10.8758801947894 19.0443729184747 0 0
96.255030127234 -1.63547248643643 24.2886048984314 0 0
0.876028258847247 10.4114791825282 6.41355596082793 1 0
191.396472697675 -25.9873946255997 17.4019415541104 0 0
180.431084093025 8.89216291668833 -11.2533472134592 0 0
211.253299982858 8.34666504983261 -12.2492210977793 0 0
185.19013328842 0.548136829572537 -12.5132736663042 0 0
119.268191611132 7.37742085664967 21.6665917035246 0 0
172.813052414893 -14.4403410510077 -14.4729796407046 0 0
69.075108842075 0.994065381622486 -5.43117465355429 0 0
213.172766246617 33.1190750552142 -22.9452076558245 0 0
203.748585134102 -31.6988951041435 -2.31196920136921 0 0
184.203013432489 -31.8659903230065 -20.4326403916223 0 0
64.3781927551655 -13.0906338061994 4.28327778363693 0 0
114.257977682778 17.0059312642567 8.63043730745595 0 0
166.297871855345 -21.862751368045 -0.370158293488933 0 0
176.764529939674 -27.1869816678055 -6.41085832294211 0 0
200.338581608404 -2.40440639536562 -12.67141507473 0 0
191.159196923558 -27.3200446398287 -30.330270317839 0 0
152.615940327296 5.26909645506575 -4.90873566435083 0 0
177.893099690358 -25.0342094256177 -19.7117215875488 0 0
44.0749662466435 12.654624509545 9.72074613326214 0 0
133.587236075615 13.3548275881172 18.0169460715193 0 0
138.315670010731 -6.2313533040932 -5.69059512802456 0 0
200.714151631843 2.70728426362296 20.2018666690792 0 0
64.6352621992213 4.6045854627233 -3.62976859331953 0 0
17.1562620497807 -7.42712453356555 21.5442099473961 0 0
41.9733801150398 12.0275507162909 7.59555941927047 0 0
69.6535000606375 4.44417328020777 -3.41345641979566 0 0
207.941051385862 -2.27089970742399 -7.76448196627104 0 0
189.123317020291 15.9329045150162 -20.9592455454495 0 0
216.375791255597 -23.7454601127683 -11.3097118339482 0 0
180.785829963991 31.1920522535143 -7.6582096555296 0 0
26.5743251425262 -1.45085235270222 22.4043521993623 0 0
25.1993035770619 11.7070727073488 11.1512759829007 0 0
217.909002944796 22.6744045195468 7.84217956078082 0 0
178.82190963873 -6.67651771268828 -11.9070682597695 0 0
136.632273134502 10.3714142049619 -2.57805265233601 0 0
209.4662019418 -34.8276814505859 -19.5283833219683 0 0
105.529089436452 15.3162324346721 6.03412934624304 0 0
61.9561926272775 -6.6812056301627 22.4863509552176 0 0
173.644891604157 -12.0539381801965 -13.3732482371232 0 0
195.71700442938 -26.110012398216 17.9516635829195 0 0
199.378332973862 29.6825434048889 7.40567687604645 0 0
124.070447636825 3.37559485170425 -3.68558001535916 0 0
12.0191644852308 -15.4517365332647 12.5923839734429 0 0
189.397441995418 21.9397259799919 -22.9066105464681 0 0
71.8546773438697 -2.13474050055252 -5.92623179347861 0 0
208.445511734263 -33.2854825112307 -14.8834477863683 0 0
212.646814315561 -34.0446691757754 -16.1885048280829 0 0
51.2203567367935 -1.78483905416925 -5.40720241409688 0 0
150.898099270158 -16.1824187205402 17.9575516611024 0 0
112.28808964454 12.3190908184075 18.428300718545 0 0
124.846728894223 -2.28329979026999 -4.79892038210188 0 0
182.352755916158 14.5513775290029 -14.9130297876278 0 0
87.350196601958 -12.2652605899011 0.663795029484842 0 0
179.874397067214 -21.1551189878612 -21.1024761425188 0 0
206.788614524795 -33.3144496154714 -22.7053065852876 0 0
160.434647970724 -14.6201722057898 20.654067259892 0 0
123.687474632293 -13.4123410133053 -3.23843440970761 0 0
29.8945817781566 -11.609359177407 19.0005167245055 0 0
59.1486339117932 -10.6246877035699 1.48351968087101 0 0
179.069390796725 23.4665350868987 10.4045807396214 0 0
196.481383201461 -20.5253860198349 -34.7335787891141 0 0
185.655324114482 28.6127815932215 6.97247878449415 0 0
165.697168658407 -18.9142061836734 -12.2331581811097 0 0
186.813643025332 -7.05162655420996 -21.7139291075098 0 0
182.853028632897 3.75511403465947 18.7228252968763 0 0
128.759452701446 17.8126415377361 8.53413035974378 0 0
213.274346009591 -32.1627367269086 -21.8150930978785 0 0
212.623332773053 32.4345149449903 -27.9369528649641 0 0
95.3598854783754 4.13433690494737 22.8909418282746 0 0
173.089788882175 -19.950721284383 16.230771496678 0 0
179.312565241426 -23.4349803201333 13.4904444650991 0 0
171.471270883587 -16.6605003936564 -14.5215960763637 0 0
170.449245238348 -23.3180423350246 -3.64704364585934 0 0
182.888419587649 -14.4926372386451 -26.5863680054127 0 0
89.3923143218526 3.12610105174792 23.2629162574686 0 0
65.3768175163604 -12.9483346759907 16.6920857746384 0 0
197.329543369271 4.90848936580634 -14.6399207662957 0 0
136.504343241166 12.2921218930985 18.8728051113208 0 0
145.018108331785 -18.7369748416467 5.84504353935189 0 0
207.766970885115 -5.95340487712071 -15.1517303884588 0 0
99.0654757666087 -0.0955403386610851 24.1739833224809 0 0
206.802926322801 -29.9720969794873 0.0159720133766367 0 0
30.8871081672534 5.18101654681411 20.2176287072237 0 0
74.8711849183828 7.77182934523616 20.5401557458578 0 0
212.112116412938 7.30759413778509 -10.5242922296136 0 0
139.187008766299 7.41902240917677 21.4675188676064 0 0
79.7029280164318 6.06914328376227 -1.4754178678984 0 0
176.231236780732 -22.9012015264008 11.1175303575704 0 0
162.111248007996 -12.6668006461106 21.9882215412324 0 0
143.597728967887 -17.6887198853581 -2.0250973271577 0 0
34.1031619247018 10.3541396949665 15.5053827952217 0 0
142.60958510992 -16.6456127030867 15.9766089637439 0 0
147.488291442036 -13.1221191639736 21.2544869466132 0 0
87.3313092037052 11.3083224106975 2.71814208383081 0 0
156.232242593045 18.6950516967805 -3.31284914983012 0 0
198.012719178403 -34.1545886700023 -5.53340537940398 0 0
218.168465825397 31.442874026256 -23.4136951026045 0 0
159.959510780717 -1.76650892665167 -5.96489143045057 0 0
202.568757289788 35.6978600584416 -12.0099519615221 0 0
129.109706551012 16.6462924763169 5.01879505981964 0 0
214.081055729488 32.5168135485999 -19.7633557770312 0 0
83.4363780828328 -1.76419313316463 24.0052894626447 0 0
207.501464869199 34.1039844925094 -19.7726415827877 0 0
29.2164166449709 -10.0188491853699 20.3823761809117 0 0
117.639634084192 -2.11960061052942 24.5803384970873 0 0
25.7129700247279 8.60004897432022 1.49562660358302 0 0
187.065432121148 -7.30034034838666 -20.0820208594485 0 0
116.874191127979 -8.24667966644988 -6.6249471028087 0 0
175.756251518382 27.1592787322056 0.199768719819627 0 0
80.2111760434484 -13.8842039030754 4.32941190195121 0 0
119.405444833433 10.068833497272 -0.281389929302533 0 0
153.633829698226 -5.29982336549809 -6.13973137161305 0 0
200.278154102152 -27.3210336688332 15.0995281249771 0 0
178.347393800551 -26.0110562591181 0.657479749631862 0 0
188.777898445296 38.0445148093354 -11.7290886753959 0 0
196.331434194827 -32.6841404185779 -0.876919158947069 0 0
113.898376704444 0.940400795387524 24.1200248772778 0 0
31.878003533338 -10.6405898110534 19.8703610336637 0 0
111.114382769766 8.63339954170696 -0.62927778363182 0 0
43.4202716649058 -7.96215424537279 -0.0994675371531585 0 0
177.103973487964 16.1467096621837 17.26868190176 0 0
177.054309613264 7.04059021743592 20.2295082402678 0 0
172.92354618224 25.9608804318027 -2.15683105896559 0 0
175.737738662033 -16.083782147981 -16.3332033802063 0 0
202.418433633262 -30.0139744866362 4.26756027964092 0 0
51.9826853825243 7.60968514717036 19.5637372880299 0 0
200.495805497262 33.2635872421565 1.68360136893257 0 0
176.270118777646 -23.3394002052583 9.53294939036715 0 0
127.177204471922 16.4062196791309 4.94970836416104 0 0
159.368343495305 16.5099090781695 -5.30482182366251 0 0
46.9225018749976 10.5265185787616 4.1880449076852 0 0
55.7635277568675 -14.3153609741719 11.6553543556485 0 0
6.13823259624709 -15.5732348882756 9.05186358582865 0 0
54.221823867126 4.19610173065699 -4.67293968452862 0 0
178.045215965502 12.2121100309049 19.7559942607227 0 0
193.258271252219 14.5077056413862 -28.3570226057324 0 0
178.099119769096 -30.0710129488144 -11.4859595442682 0 0
10.2977448015664 -7.96686125363729 -0.534757212496636 0 0
209.577049575123 30.2204430410832 2.16144355961236 0 0
20.4117350509445 11.5085197545595 9.05575665900677 0 0
22.1759714709073 -0.00320527735169549 22.0918326621889 0 0
198.709320052909 20.4978524494132 16.8683227125531 0 0
28.2388863541024 5.76347214436019 19.6512879812049 0 0
214.093729106868 -29.9697309504677 -22.0925180117228 0 0
197.100831847649 3.09507134705976 -14.0704112412376 0 0
79.1067516649689 -13.1358289407261 3.04080565290233 0 0
165.562833380115 4.75645517855874 21.0203259888239 0 0
1.6295370460744 -11.3045561396795 1.6209974170995 1 0
212.457880223178 32.8096709297746 -20.1014675324894 0 0
162.982561163273 -0.495273090960993 21.7077775021096 0 0
203.335592297727 7.65926534818092 -13.4852319355301 0 0
180.31961824456 15.072386713681 -14.9980380715284 0 0
180.263255977643 -23.237709285378 -22.0738768041333 0 0
171.65291565746 -11.5602283803086 22.2337977517093 0 0
223.121755326262 29.0481339143418 -8.37601327832171 0 0
212.549807605186 32.3524871967753 -6.03493827949305 0 0
12.0545610597864 1.4627323340698 -6.44701110006905 0 0
208.559409897203 -13.8459545404917 -27.5383484137232 0 0
122.557012206324 -16.9970512478739 8.19958729104746 0 0
215.040580216462 -30.7384294684928 -15.2526786459784 0 0
89.9506408140317 -10.1068111166235 21.1839130723267 0 0
65.773293488151 -0.493012743289651 -5.92962566140038 0 0
159.449910079698 -8.0879851830634 22.9957894251057 0 0
147.892039934429 12.5289691823091 -3.37188777441262 0 0
108.325613645097 15.831763181474 6.53398206122025 0 0
111.98975316391 16.2149171305334 13.7895058455014 0 0
126.280496056616 -11.9716477164835 -4.73818586571533 0 0
33.2741331972707 -0.6215016716796 -6.36686985862615 0 0
164.75709742004 2.62451330575737 -6.0207458648335 0 0
59.3606314031754 -13.7678725670431 14.6494483128637 0 0
202.756435327429 -34.248160845367 -10.1336202663932 0 0
219.848121880395 27.2944616450091 -0.445133256861011 0 0
89.1911137732029 -7.42195363461524 -3.27437135993145 0 0
188.457864969896 15.5422760008823 20.6457344316594 0 0
188.407728021931 -9.55192558957243 -28.1242243181827 0 0
85.656656405037 6.80258795453453 -1.02388978042983 0 0
215.319079693321 -20.3096374558964 -0.231332811067841 0 0
160.685377374759 -20.7220698364569 -7.42480309352084 0 0
193.1644418867 38.6557893085687 -7.82181222788375 0 0
10.8372530120245 -1.36501956720621 21.8755313567222 0 0
146.469556358213 7.82548107795877 -3.86239015150469 0 0
122.050475426196 -14.8152079619795 -1.27351163559022 0 0
207.576660576697 -8.43190591188811 -23.0146118484898 0 0
153.747357835777 18.8586106663166 11.1327977790572 0 0
8.24277953791894 9.95249570661044 4.66487132338968 0 0
217.28402882683 6.045946123227 -2.87738492005006 0 0
173.926851182473 26.0856172415345 0.901644423429344 0 0
137.382478272252 5.90395576231685 22.1548877282101 0 0
97.1567504321256 -11.2057200071609 -1.5448789392167 0 0
164.882358978698 22.7310797850681 2.27442124083444 0 0
190.901210214473 5.35026207941706 -16.6038491029403 0 0
146.483210212234 -18.3237943046628 -0.857098070070582 0 0
191.832547590281 -28.2138454142253 10.197899825225 0 0
177.300849605645 -13.2758790649935 -15.664158291456 0 0
45.0700232751281 6.51019671806766 20.0654656423793 0 0
150.098712094433 -6.09998568290798 23.6677239097271 0 0
106.832029465593 -6.93748095558007 23.6025992621791 0 0
172.491165148911 23.4251045670455 6.85891761263023 0 0
198.902728989844 -24.0634347979496 22.6119788350236 0 0
218.6894494453 11.7448626186947 8.77644507327336 0 0
210.429372884886 33.8077358275798 -15.4652002987729 0 0
150.728282171746 -18.676583783817 10.7532669717659 0 0
81.6788232685041 -14.4698658414108 5.82907804109018 0 0
22.2082723674464 11.3390285448784 12.2573431153835 0 0
131.235986640821 15.4970245240138 3.08871904854244 0 0
209.943053205221 -5.78475418761108 -10.9821387291829 0 0
211.16841076294 25.3755608234685 7.1802975777707 0 0
204.587667872829 -29.5823128168482 4.04423551168201 0 0
206.158327557954 34.5523087176971 -16.3735843705731 0 0
211.682847220204 -26.2754321166872 8.60193532989224 0 0
197.333762766445 37.1436084621121 -6.71105519163147 0 0
196.325817253542 -35.3619651159519 -7.77551945805574 0 0
31.292657080082 10.3089092842274 15.3552296323815 0 0
212.365754883772 4.33568697772226 14.1141502169806 0 0
198.62333739318 -32.7100740511126 -1.27135944622329 0 0
23.2776213834757 -14.5455485024292 7.99356534622141 0 0
189.495943821684 16.0925016217759 -23.1278989155076 0 0
201.26674812796 -28.4563471676994 10.6806957916564 0 0
52.3040626743051 -14.345833881108 10.019109448963 0 0
184.062447133526 11.372989413392 -12.8682852215728 0 0
207.796953642253 -30.4212168580505 -1.91109287282755 0 0
203.573550444467 -2.31016587133532 17.1655850480255 0 0
100.255687634319 -2.57117859510791 24.3583317430232 0 0
48.0447181545376 4.89797391508527 -4.12443206900882 0 0
92.4373623600009 -11.7646798406713 19.7379200955673 0 0
59.6156858334625 4.21665310357241 -4.46755071974015 0 0
123.763250956138 12.3000323260932 0.931737903891079 0 0
186.268811791399 -7.2183798200549 -23.4758442324606 0 0
191.713339945569 12.1635567073943 -21.5614861430492 0 0
43.5325185176257 -12.1118749340653 3.36086737147542 0 0
221.40179218974 19.1270895966014 5.81957914375552 0 0
77.994769410919 -14.3129001272416 13.4621242206949 0 0
45.9267953120458 -8.62642991331474 0.307965806517871 0 0
176.30001897648 -18.1550023731944 20.746628586103 0 0
187.057645974479 19.6739066702414 17.3281479312372 0 0
166.225267704117 -8.58578888244528 -9.04258376820497 0 0
177.414282557881 7.30785077330692 -10.0021074019882 0 0
4.07357486070231 9.98537488455932 4.75517021308824 1 0
168.524026150659 19.7334592400462 -9.31065365665409 0 0
87.4880710177623 -9.07839407522168 21.8942049062936 0 0
165.735701636278 19.6326340459198 -6.86115821382209 0 0
190.856257691788 -34.9586693547218 -7.25159071229741 0 0
95.4246975282066 9.50870056924489 0.857971330665594 0 0
155.288575665466 -19.7930809893393 0.46617212580499 0 0
185.455142665165 10.1615231835939 -12.8448828917098 0 0
51.4403588522472 -14.3534171388582 12.2224227086947 0 0
165.945270580808 17.8950312301934 -8.18830628804252 0 0
114.372310834922 -9.59733597673766 -4.78069226220821 0 0
103.155682136221 14.7241824173723 15.5120085569222 0 0
160.467033209633 -19.6035977883996 -9.18558991113934 0 0
127.622044076846 9.15047825658025 -1.85346916690081 0 0
177.261101168841 -16.6808764190242 -17.432140165565 0 0
89.6946556804176 13.8028301238947 15.8702095349893 0 0
24.2547730973601 -8.69180187237308 21.0813706383361 0 0
222.823942562533 14.0731395857218 -2.36838908150207 0 0
203.980497084078 -30.0597344151824 2.85949306651872 0 0
221.724439996251 17.7199921839567 -21.1428450419703 0 0
203.348011539088 36.432245341002 -4.6325026535432 0 0
168.340274654074 -1.55044211999651 20.8645899093314 0 0
203.289238227641 -31.1520376820288 0.411926132698145 0 0
189.119946566108 12.8096387112394 21.4552060506287 0 0
186.6121079199 35.1127409179868 -6.48771883492134 0 0
131.63611685712 13.9208403714002 1.29345328253893 0 0
166.371174143055 -22.1036716755757 -2.22330761380311 0 0
182.635076285608 8.66705272655084 20.5458198881191 0 0
22.7593087047037 -12.2458419418975 3.32214285070158 0 0
77.4434333672133 14.6043927668123 12.3971921323887 0 0
168.601933600387 -12.1364706014011 -11.4213761800642 0 0
166.313174166107 15.7770327529597 -9.10407741282143 0 0
213.116296966113 30.8717392658407 -1.94592013686828 0 0
54.0889999927192 -13.7892293813814 14.8387896284498 0 0
118.114483653182 8.86510876817479 20.8094518355903 0 0
172.975274850875 -10.0435114002017 -11.6701058053504 0 0
196.821362651424 -3.62993284038227 -16.3122278199455 0 0
45.8752311857874 2.87620691267114 -5.72829143470047 0 0
214.911557782004 32.1411171404354 -8.38838993039983 0 0
195.812886975577 -31.7689639545495 -22.3096330284575 0 0
186.265748634935 32.3657488504502 -16.2936738331482 0 0
106.128417579975 -13.3847763042561 -0.408653593795775 0 0
26.2938385154493 1.72117590830627 21.8729641813502 0 0
68.1845965917488 -0.457714565324895 -5.95219944490764 0 0
204.933594715463 29.5783023588057 6.11781396833833 0 0
189.561436511585 36.849289423855 -17.0062927087602 0 0
75.0674048213846 1.32150653634028 -5.12741566631402 0 0
71.1593769384222 0.980330116991607 -5.40689203897505 0 0
183.633032395155 10.8087685027242 20.7621545227636 0 0
167.560973950285 9.88994820264136 -8.58617080530584 0 0
183.535488100223 -14.0876096890955 -28.0964222963531 0 0
205.335233330161 -6.41678165340345 -15.5215147969578 0 0
202.790607803889 -4.18694259442959 -12.2327074225908 0 0
50.8068803503173 4.48500316453657 -4.55662132858405 0 0
190.695618587558 38.0217283846227 -15.9682254056508 0 0
5.06076749524312 3.65927048487101 -5.26939855221957 0 0
208.344714104266 35.3102363513448 -9.48030785817888 0 0
185.834434589036 -11.3331997737841 22.0143515593052 0 0
54.7256637047117 -9.49855881429156 20.7512837756351 0 0
28.6547436306051 10.841264043223 14.1385472422642 0 0
179.706046345786 -27.390291758179 -1.05384314762193 0 0
83.5680488804522 -7.41171441519815 -2.71662719996579 0 0
153.244506041988 -18.9325768419739 10.2611668040594 0 0
42.7584708610803 -5.56298196367743 -1.61509988892392 0 0
171.135610510779 2.53708138281117 -7.08440829873468 0 0
187.640573874903 -4.05089361352709 -16.3436322000984 0 0
145.544531249981 -8.58239586175638 23.5608921154875 0 0
119.182920546769 -14.6079019054839 -1.04803477172794 0 0
182.288629988569 14.039201336544 19.9648850432696 0 0
175.038217725778 -26.3583426360892 -7.71992310444122 0 0
207.672462454842 -9.14683992003857 -24.1664560321412 0 0
138.716454319707 12.8910144127229 -1.36407730435347 0 0
65.2840947231209 1.45320171614917 23.0866652273197 0 0
28.9454882068587 -14.7562199975955 10.030377137969 0 0
74.6012807075062 -8.82063432087027 21.7136442742537 0 0
8.08192542209323 -8.77742266774773 -0.168913170270078 0 0
182.471882104321 -34.1363938697715 -13.6926226913681 0 0
217.394526454247 27.5412327255491 0.659188103632842 0 0
169.779065790486 24.5640115553965 -0.976263499278801 0 0
108.061075303343 -0.41628175360759 -4.53247059726722 0 0
17.6687645025692 -1.06663196212203 22.1231048884209 0 0
219.556417783454 23.4797612579963 6.30974325183041 0 0
139.097102942415 -17.1920952568071 13.9358596517038 0 0
179.203207911216 -10.4186817261027 -14.7755466699698 0 0
191.242402428418 13.066449805666 -25.5371900612316 0 0
203.781024490718 -7.00477542753391 -16.16167797773 0 0
126.518441794125 -16.2970532658297 1.10240074229427 0 0
81.71675541319 -13.0395049953969 2.47189802685524 0 0
29.7325982376618 3.82049301484447 21.027757300703 0 0
221.360669328495 13.1416059470321 2.73643507299963 0 0
177.603328601073 -9.53297767171684 20.8291411357579 0 0
130.374752536086 17.5599386829457 6.82920514682723 0 0
212.573949781839 8.97527042185733 -14.8099631279892 0 0
162.204432032104 20.9940886320127 -2.99588239747919 0 0
215.704924497839 -27.8770950936774 -15.9657074490954 0 0
177.231838363168 -25.2133791966636 2.54832790083928 0 0
185.490568846828 -35.4829780874922 -18.5984085410383 0 0
35.2919194569415 -0.191532668452227 22.460077643346 0 0
149.237788932732 -16.9130902716935 16.2077792499509 0 0
188.681227384647 -11.986450705921 -29.7053014561744 0 0
161.381237950215 5.39006212409279 21.117967416961 0 0
191.778246928799 26.040863986993 -24.0431828950248 0 0
2.37875028599299 -8.30772694284988 20.9038321240423 1 0
215.938861634085 -20.8038634618172 -9.65279567790383 0 0
204.323626399367 34.7937196007939 -16.8191038518385 0 0
187.332435534236 33.5223283126805 -16.4186522911547 0 0
181.873962404757 5.63411551790796 -10.3998030367064 0 0
55.8601350704412 5.07302206061256 -3.15312975026352 0 0
204.562262652392 -32.6465048835891 -29.5906257504753 0 0
181.798021543784 -14.8178596825214 22.3845233341311 0 0
186.748862740362 -13.0311969444221 -29.4343308211069 0 0
151.284768593752 10.2827450287064 -4.19031528653227 0 0
198.487046885196 14.1528936839187 -31.4726184222717 0 0
168.407511077299 16.4229458814041 -10.5975956517004 0 0
115.849695184314 14.7221367576335 4.10850242728646 0 0
147.908432491328 -16.1392592857749 17.6405600957001 0 0
12.3809257095208 10.0371339487797 4.61111134774456 0 0
73.4079824313289 4.70968851414274 -2.92082446400453 0 0
111.801586646783 12.4152428196551 2.04587459145681 0 0
184.68447186731 14.7107213702372 -15.2622240961019 0 0
54.8954852340742 -2.91016395274648 23.0569071686847 0 0
204.424325984453 -13.9110420851094 18.8337124301359 0 0
208.133805683526 -32.873502393221 -10.2630309115845 0 0
214.29339916352 28.2523108086721 1.71134772879901 0 0
172.002695699777 24.5297480132997 -6.79905188257499 0 0
9.45998648318099 -10.7186279215401 1.38630475362679 0 0
186.024244061512 20.3247362470379 -17.664560152795 0 0
127.481248481075 1.20351166532219 23.8539584158509 0 0
89.9095801728938 12.4256959489576 3.76754005537548 0 0
32.0969057336561 8.85610661548195 17.22630597184 0 0
209.397267773588 2.60648205472392 15.8518277157508 0 0
120.164390288986 0.231002430922615 -4.25860154121421 0 0
124.145160261861 -6.16220697519662 24.2352590161275 0 0
182.901708171893 -13.8474569133879 -24.2359124984492 0 0
30.8206173721176 0.219934034861665 22.3218658096311 0 0
200.238233461798 14.6523821769905 20.9690552329627 0 0
142.397062015294 -14.1079223886869 20.0554942805086 0 0
194.689059396563 26.9890193923163 10.3681092913275 0 0
207.070711691686 34.9808054094943 -12.2000369149545 0 0
159.644272707734 -20.5945887193402 1.17739213526939 0 0
178.203162605122 -11.4950640482464 -14.7506547057954 0 0
149.847595958694 0.26900522537454 22.8805093629903 0 0
212.416242247335 -3.08118173638923 6.73122540231921 0 0
190.908901681127 11.7521035550648 -19.5627103263649 0 0
41.3724436265483 10.3357849354057 16.1608191351032 0 0
155.350721323618 19.7525248469895 8.94632435029037 0 0
115.137834054759 15.188363735564 15.6832425414386 0 0
51.7094121095279 -13.5324132686139 15.552947273165 0 0
119.19971900377 10.7425333990218 19.7064329327193 0 0
15.2556243750346 -1.41402477468376 22.0549430729814 0 0
161.147660613781 8.78913073594527 19.9223672813845 0 0
179.495670460451 11.4963021893409 20.0694386526109 0 0
203.037200528389 -8.32345286856246 -20.7490064770651 0 0
68.4599539152662 -9.15320703196833 21.2675723447811 0 0
37.6551719240233 -11.9865196806112 18.5091860781055 0 0
195.725351359717 -28.5268531834414 -32.6921757757696 0 0
72.82936402886 -4.2590281420383 -4.04928427595538 0 0
183.046660186628 23.0264431866198 12.7864110895137 0 0
170.123128469335 7.49996871461946 -8.28677792481896 0 0
189.679726739647 11.0508995993135 -17.0336877020029 0 0
202.980155803393 -32.9987766327575 -15.3747823866642 0 0
167.613194882058 -18.6986817449348 15.6350661169707 0 0
201.407687995082 -12.8736220678546 20.5684578135525 0 0
201.910744154492 -22.4479085116963 22.2664818709548 0 0
215.524525173432 -21.8081556090499 -2.9460527399876 0 0
25.3506261901695 4.02815012810248 20.7157572114637 0 0
81.1637627782387 8.08502030389926 0.1470505394446 0 0
207.920408082264 23.416100503343 -34.0008914211519 0 0
90.2363710655927 -4.79268629327649 23.9032405042788 0 0
53.8345438314578 -6.97616185441642 -0.932511523987633 0 0
180.643205038424 25.8861690998255 7.79702355363238 0 0
25.2167296622008 -14.9868779390755 11.4210647177655 0 0
182.066892668995 -2.298089285232 -11.3555776863861 0 0
117.864361297018 -7.39112896910737 -7.08086537887987 0 0
197.617719215702 22.8680176362771 14.8895107267053 0 0
149.033171457836 5.85892300665509 21.5723014589084 0 0
99.3015769405858 -0.796056057174566 -5.04528273566805 0 0
166.373476135112 -20.5048847556109 -11.9215632239103 0 0
192.161132758967 18.0474003028418 -28.3970102392678 0 0
206.122254974364 -9.04844858115719 -23.9534585978456 0 0
211.62213894349 -22.0953915053045 11.8046992125045 0 0
30.7085995345283 11.9712784950625 9.82241143458401 0 0
39.9781874071249 11.70622595115 6.87239430230081 0 0
184.257728558461 20.7775462646471 -16.2212808733139 0 0
191.198201075769 -22.7595202151594 23.621156322118 0 0
121.203741032064 -11.7986813926991 -4.20992243470847 0 0
68.758357950331 13.7818135773821 8.58474962680273 0 0
184.058577445008 -12.8365333850665 22.1024903726419 0 0
73.5383699415899 -2.71519005703187 -5.67577900270009 0 0
128.555457886013 -14.9412754226126 -2.40903949015198 0 0
62.817368589562 9.43717558372102 1.94691143951342 0 0
168.572326381447 -19.6954498572508 13.7400781373839 0 0
200.823177426843 8.30038742859154 -14.9546641997562 0 0
197.964257689058 16.6207538290969 -32.2182353580792 0 0
15.2504051403248 2.92518658732262 -6.0489118351679 0 0
157.627502054048 20.64305870243 7.03072281610996 0 0
189.465298066623 -26.8425374044183 13.537157716939 0 0
199.385752248597 36.8040099068023 -13.0928144219857 0 0
190.069807509472 25.4770234554837 -20.4923388624886 0 0
122.114922895854 10.5798389856899 -0.192291078048336 0 0
159.384620456201 -10.6856443020807 22.7372164272601 0 0
196.263303589613 13.5766939354282 -29.9614178021365 0 0
175.729258835241 -25.3870115271291 -1.68912497385582 0 0
124.119053290317 -4.84888505560277 -5.64673810576402 0 0
142.795991640482 8.19859770837784 -3.39269395499285 0 0
71.0023173320635 10.230130054182 2.41972295378496 0 0
149.475226345046 -5.9119983411073 -6.00879534037048 0 0
69.7369183250777 -12.0399375994171 2.41283030864872 0 0
188.732014846708 37.3829860469427 -7.48516883545029 0 0
185.029533925106 -29.4480665555485 2.21079937283645 0 0
201.378384917775 36.8800558691506 -3.29277679266831 0 0
62.4513744082217 10.1972815894489 17.9705661758726 0 0
71.8202412567209 -0.387417938325317 -6.00761054751782 0 0
35.4377037872643 -0.953701062333997 -6.24060760020358 0 0
158.398863698122 -19.4817535701977 9.30089945824658 0 0
153.861983367775 -13.7194607073947 21.1213896710499 0 0
174.597991364473 7.10417871805053 -9.83910921699341 0 0
49.6656001247763 5.1393941325496 21.2100310413596 0 0
57.5280388353698 -3.18444293695696 -4.01632598451321 0 0
221.646826957919 29.9283807202815 -18.8353003768662 0 0
207.885045387569 8.20058758800117 -13.7950516039569 0 0
178.80949802545 -30.5352683770234 -20.4308780134464 0 0
173.403676967446 -26.6637241071381 -13.4086805761219 0 0
169.670387133265 -2.73184859296589 -7.48171161838485 0 0
183.871884003809 -26.0529805897667 10.9214011005685 0 0
178.060811004884 -0.792063365507057 -9.4993767720507 0 0
208.860102892801 32.3348720272041 -1.20184595040308 0 0
118.918149598529 -1.55682194031619 -4.78885020886077 0 0
139.526660536542 1.1212687067356 23.4235200209235 0 0
174.405426486769 -4.52097550882358 20.3065763595279 0 0
211.722262764878 11.9528978595649 17.3478965731111 0 0
215.787495852283 6.86853319974733 -10.1929421021065 0 0
127.987480251864 -13.4258305605085 -3.96722415893343 0 0
213.369784400811 -7.06223817450176 -1.33503986385883 0 0
103.552400213956 1.74659444816594 -3.99027350900228 0 0
38.3379548115251 -14.5502876676931 10.3592757940257 0 0
197.097656669814 29.9598798296769 -30.4963313373549 0 0
38.8813129643931 -4.77969454474908 -2.17176628586778 0 0
180.873092073337 7.29925515522886 -10.7078741697913 0 0
143.091415798885 0.299757140561217 23.3639975098149 0 0
21.7144273354881 -9.70275376850726 20.4580031385023 0 0
76.0100937979912 11.5071634060571 3.5339876543408 0 0
134.293277763 -17.7276263682653 9.98767763056142 0 0
209.843021010248 33.5363320192758 -25.9109801886541 0 0
101.686689812619 9.31040835189785 20.2504821445388 0 0
116.263516976891 -11.1627166246778 -3.92101724038341 0 0
141.446856671674 5.15197325522128 -3.93810156023289 0 0
101.123091912358 14.5040415987934 5.4179819034497 0 0
154.548830728841 -19.5147097629392 -5.34629700998816 0 0
94.7705058680575 6.45604985685319 -1.47505179654155 0 0
108.999426962934 -16.059913815531 9.36291754016503 0 0
179.990021907568 11.4985913157328 -13.9253807152015 0 0
32.3316091894778 2.04987320989196 -6.23537845731516 0 0
193.956293873278 -21.7573820377692 25.4410456208007 0 0
29.0428967950319 -14.1143562059286 7.31839149761895 0 0
182.353416569802 -4.93021202702946 -12.9218620394938 0 0
161.811019705375 -4.60339231178391 -6.9149098144943 0 0
153.985246452105 14.4858306857788 16.5452417896366 0 0
209.545789028272 12.158705696435 -29.9896333644228 0 0
146.625433834514 0.116158223096425 23.1510603003978 0 0
160.024613985064 -18.3798805730297 13.9883618257026 0 0
187.436137922346 -26.1530503785865 13.811403867029 0 0
162.187938905301 -21.4630170401901 -6.29734344315201 0 0
162.451382513652 -21.730577952404 -2.10400125322411 0 0
72.9172554103095 -11.2164353564861 19.5468688897087 0 0
176.370188506152 -11.6487562032739 -14.3349128200745 0 0
47.4101233003609 -1.99934970464716 -5.18239998668432 0 0
31.6489922006371 11.2785079087231 6.24382119954135 0 0
34.320528261464 11.6086298900795 13.3662290619128 0 0
141.341978856498 -17.525934528083 -1.35153110324459 0 0
215.643758511518 -28.8549013343906 -11.198820818247 0 0
160.190917502693 -17.4832442174587 -10.4552432979896 0 0
194.098223460707 -29.6234744641655 6.76031984272906 0 0
193.181179516644 10.8517595272785 -20.024854516175 0 0
26.2104294069742 -14.4228989987337 14.8570293015504 0 0
92.4444971791183 12.5012881016183 3.71887439086532 0 0
62.6385738159646 -11.8092482678344 2.53443048720396 0 0
97.5597864699806 -3.67882351057209 -6.26927313303357 0 0
24.0618059676064 0.733867166728518 -6.52326682446169 0 0
164.898860254896 -10.3165184270532 -9.48814694734555 0 0
73.5183803419348 -14.5606658980152 10.894538171732 0 0
193.691083105425 -28.95729050974 8.78329199253062 0 0
14.9258322045934 9.5783497665134 3.47825337443256 0 0
87.9471224463374 -14.8354145236372 12.0025554731546 0 0
210.352766170057 -33.0569648004325 -10.1149730661263 0 0
224.257749543994 26.859137183187 -7.66549472669999 0 0
84.6913331389466 -11.6741022689963 0.241906996068649 0 0
163.036117091455 -4.82010656375354 22.2577438993981 0 0
111.753118999634 16.6059003421255 7.87819510752202 0 0
186.718440718524 -21.0288562567888 23.5956256560304 0 0
185.972059901661 -26.078696999358 -27.6242088498218 0 0
9.35789992981176 6.59679998709899 17.8024263824271 0 0
87.6516002512591 7.92475222183051 -0.172682622764298 0 0
184.00734137965 27.8871923028844 -15.4830409015739 0 0
195.438264721294 -33.8134687406066 -3.5251333785935 0 0
174.340400634925 -25.8887562711055 -6.36550644094898 0 0
47.4511216189668 4.43664982870634 21.5205978784063 0 0
214.872605943638 -20.9792757688792 -19.9555501502854 0 0
125.928124964048 -14.2406477086772 -2.79601888253476 0 0
94.3012663671079 -14.3200048956198 3.35645656908401 0 0
213.791991603199 -30.3890331119592 -5.74746294007489 0 0
191.256085287326 -25.0677135508134 19.5570165211356 0 0
12.4973005094255 8.81702699314839 1.90717442313562 0 0
73.1849025441575 -13.5478172169785 15.7907802709636 0 0
2.18840388868027 0.364023182002953 21.1127596652099 1 0
209.955464000851 28.7225754662351 -32.4628006233739 0 0
199.813425288279 18.5114715189055 18.2642050632298 0 0
28.1740884144776 6.45571315183873 -1.37303014111218 0 0
119.693131556053 -16.1994940322821 2.88244823560221 0 0
83.1512339274034 12.8664143534284 4.90921709620039 0 0
210.905196319625 -34.8151249318 -17.5074857276142 0 0
150.485364374085 -8.83718889998935 23.441438701031 0 0
35.2719828255822 5.29663257924324 -4.41340933044117 0 0
135.253605566329 17.9197948687815 6.50354247207951 0 0
210.224960632583 -28.779362058245 0.730522749591701 0 0
86.0985506142445 -14.8868611366161 7.29944973396593 0 0
151.120209240052 14.1217001823523 16.9334458181249 0 0
19.4243166477704 -14.166788957174 6.55609733244555 0 0
193.929532915864 27.5586458946925 -29.3682437042539 0 0
131.904845252295 -17.2027430107866 12.1157029840588 0 0
196.035502992699 -7.98230576933353 20.858754184613 0 0
26.3361720913106 -14.5663462796545 8.52229750980198 0 0
180.159711208406 17.0229070285651 -14.7722541012768 0 0
161.158024917552 -20.6784479238375 2.94916085136348 0 0
89.814441388486 15.1216944524039 13.3403715579195 0 0
209.033139920688 31.0829205083818 -31.0382470609973 0 0
159.542086441159 -7.52821594043244 -7.49663324492192 0 0
100.084249269506 -8.85610513829751 -3.53997250805969 0 0
188.854794703448 -21.542521359474 -32.7861885026522 0 0
180.833596971171 30.2633839285738 -1.60816322954259 0 0
202.881290422708 34.0897610426247 -0.330172867482088 0 0
169.624403947793 -22.7699012330866 -1.50728558646683 0 0
186.475441981595 6.54546496341736 20.1947168154835 0 0
195.978667089775 37.2505951395397 -4.45635549037125 0 0
178.971806596074 23.2889084725754 -12.2764238410363 0 0
194.167526745429 38.0616820776614 -16.8237233146377 0 0
134.104260055766 -4.94348168776614 -5.31711802202249 0 0
51.1586855981217 -12.3758780131941 17.646878491796 0 0
211.243531300601 33.4054330415032 -23.6650422157319 0 0
47.8641904532813 6.17269906696939 -2.58873791189402 0 0
189.968832863962 25.2390485009356 12.1312492687903 0 0
16.7262175100646 -14.7786647592526 14.4907853252808 0 0
150.619936415597 19.7615098966688 7.3782230517335 0 0
169.93963144077 -8.44206812046901 21.6692307738662 0 0
33.298815214689 -13.3235567112915 16.6980606333071 0 0
28.0978602544769 11.8135641303633 11.0906901814333 0 0
167.141368901533 23.2343494859125 -1.66151854233661 0 0
194.243068535638 -19.1417985851573 25.1039034534168 0 0
188.463024253196 27.5858610113404 -18.1287890571514 0 0
66.0433076709298 -7.25249705062768 22.3237568587146 0 0
222.121993553614 26.8260267407151 -0.325937112621051 0 0
202.493684779956 22.357771599562 14.0606697903176 0 0
185.510937591148 1.85791810982087 -12.5335466264305 0 0
6.10191381350971 -4.21447170941624 21.7915860635792 0 0
59.0254917744107 -11.1879321549812 19.2532578447063 0 0
162.861674474917 -7.65352311335175 -8.05549749324361 0 0
218.867291085383 30.9558485266903 -13.0252634151664 0 0
194.21746940586 19.1203718500511 -30.3378238426805 0 0
213.927900390155 -27.940744818271 -1.50393706077684 0 0
34.6935220380756 10.9907538702562 5.42418280723776 0 0
191.415620410931 -30.4330483751033 3.59694216553857 0 0
139.348562332973 4.29298556056683 22.6228492996904 0 0
202.014836157586 -1.53711260965684 -10.3916971882103 0 0
212.910592837202 30.8000695479296 -29.5558539924268 0 0
220.986496198999 11.9748453247358 -13.7264655921965 0 0
122.367897098664 -1.39305544249232 -4.65047820589544 0 0
211.137130595473 -27.4141739853132 6.63458208782342 0 0
212.278438317955 8.69968157461851 -20.802031428631 0 0
214.346493144431 -18.1599324575012 -19.7715774728188 0 0
44.167217681003 -13.7822451183094 15.5008348446958 0 0
140.49921945239 18.5654455333721 9.39621892053771 0 0
190.159327309217 -23.5072382671234 -33.146416947658 0 0
60.9332714546729 -3.38325770596454 -4.0236241681092 0 0
196.476575529205 -14.9485235579611 -33.1130355684084 0 0
15.868222184567 -3.2340794184027 -4.09065792068745 0 0
121.442921958859 -3.89304628733847 -5.39070229234381 0 0
207.494379512156 19.4556675247321 -33.8628244241815 0 0
207.766911911451 16.3987885921384 -33.1570521770189 0 0
215.852081528947 -23.3980787460864 -5.55834784954684 0 0
69.3437352653658 -13.950573310006 6.08766242130629 0 0
84.5081000192878 9.53338512153745 19.6638888991762 0 0
91.2794324388953 -14.7435461059866 5.19493057677841 0 0
26.9730958137083 -8.33797447716926 21.3101078093302 0 0
197.102209739093 -25.06147780194 21.2848102296838 0 0
189.226083461498 20.117728826094 -22.189267168706 0 0
97.8220183810718 -13.1145404024084 17.9380358402188 0 0
161.306632283961 21.621747724069 5.15760584407875 0 0
209.149315141042 9.90941649226527 -18.5060261166977 0 0
223.835158781682 20.9028315404924 -1.34965843030706 0 0
191.226656786757 -29.6981957717036 -25.2596688939905 0 0
210.678214972776 4.67786163229813 16.5076629040535 0 0
132.191976158087 -12.4375228036903 21.0539614790823 0 0
4.48612062263311 -11.0722934797477 1.55483923513018 1 0
205.627725077038 -28.9202784945039 5.33229296200319 0 0
183.094813855906 32.173904309371 -3.5402802051712 0 0
222.268408438548 26.6057849140286 -21.2291100876484 0 0
204.900329010182 13.6460174001486 21.0645593072548 0 0
9.43463924969408 3.31093144903809 -5.66201104061797 0 0
113.461374639748 8.68948315087317 -0.746782212867285 0 0
112.078043575945 -14.9214460191585 1.17554455751294 0 0
93.6775320864109 8.30267226104535 -0.0193257857618549 0 0
38.9688095256551 4.26132239894016 21.1303294665253 0 0
156.683619646989 6.84531609925702 20.8668519424775 0 0
189.809138735389 -14.1184198397767 23.6577546120045 0 0
151.90851506913 -13.951059726022 -8.29379868532819 0 0
215.138818666593 8.09417104851218 -14.4845775942404 0 0
148.819765749768 17.8879615721814 12.684335787691 0 0
115.070302926481 -12.7388437330663 -2.57473453642622 0 0
138.84598167213 17.797126566327 4.95960114094875 0 0
17.9334416238091 -6.41338116192504 -1.31876781761041 0 0
180.754606520593 24.3638319700991 10.0720750997375 0 0
67.6195830309347 8.38740344503859 19.7501692764828 0 0
207.873449823555 33.9106269255687 -16.490050004439 0 0
215.025574035304 -28.8425348415055 -19.2020564894212 0 0
168.791610050495 -14.0670707026682 -12.5503020323299 0 0
97.7112647804358 5.45668384391864 -2.458626832037 0 0
146.262853750223 -9.98809609952661 -7.15144823168446 0 0
207.492762616175 8.06422543188551 20.8957258643735 0 0
168.149058577109 1.14046728680564 20.8995657818264 0 0
51.9021099081816 0.854461964874886 22.8089081996703 0 0
70.2047678210802 12.9991929601658 6.38328190132089 0 0
31.5514659506997 2.65917120550462 21.6381331396066 0 0
130.333319913149 17.4541303741488 12.5161255411818 0 0
200.817840424788 -32.9602173003623 -2.55182754122932 0 0
203.238424486863 18.0244497258541 17.6650860265147 0 0
61.6790729184349 13.4315410972252 8.61170653983406 0 0
168.20001432089 -22.5222287288156 -2.74834362118445 0 0
91.8738562886576 -8.39044136799492 22.4282424535902 0 0
27.6235345169738 3.93238126029297 20.8727629902661 0 0
190.18599460914 15.0875495203021 -25.2179408878269 0 0
30.4094144658287 -2.92640334255545 22.508816183178 0 0
77.4642084123066 8.3737233309032 0.499030803257649 0 0
210.856380388615 31.1039526789481 0.334244778824549 0 0
220.975010756075 24.5871288133529 -23.8148208977013 0 0
164.880819937587 -4.07512040988434 -7.05590409645503 0 0
41.4404935449225 -1.73563116977135 -5.34538491710316 0 0
111.885985860464 5.21662662811259 -2.87981146525196 0 0
213.133602933332 -32.8648373093459 -10.7021492688653 0 0
178.399815355713 8.0977829950893 20.3412003989366 0 0
216.786583420095 31.7226181766082 -24.8542034600244 0 0
160.949733098021 16.6879734999392 14.3671366379135 0 0
179.963058005287 21.5800506667331 -13.6557995136484 0 0
160.512628564475 18.3836925403396 12.2934487154888 0 0
126.088170785681 15.1523960786883 3.43742720932633 0 0
208.02912156909 0.282516671251204 15.2664768195717 0 0
153.373322714576 2.00350202724207 -4.95686206688022 0 0
195.638870752606 -12.0864177065096 22.4868950867326 0 0
178.913271432337 3.4266858004984 -9.21623085565724 0 0
123.45778591563 17.5618396816608 10.3268021832402 0 0
174.434660219955 24.1368839845748 6.64729123830251 0 0
126.028679818552 -10.9011340434935 22.1096554315947 0 0
26.259624533405 6.95370213518493 18.5470333935274 0 0
109.092633280552 16.5097481474059 8.16474520152113 0 0
165.794321807719 -6.22467306566271 -7.97522070378998 0 0
213.066838888952 -27.3980672351421 2.20676314269497 0 0
211.634017764654 -28.9834028365907 -27.0416237610292 0 0
63.3027950968673 3.59788419504816 -4.84977855489765 0 0
167.943672273367 -23.1068176638519 -7.00335491910594 0 0
161.591327740825 12.3069223344667 18.0930913944568 0 0
99.0134456296869 13.9488597345727 4.94239873202041 0 0
211.074326613726 32.5479678566513 -28.810599397727 0 0
118.765087165802 7.89524463635825 -1.68638412987762 0 0
205.368131219826 -33.2181358400329 -24.6286870362177 0 0
194.457369331233 38.3642707245271 -14.9463837994423 0 0
175.978192875429 -27.0739640270931 -17.7526495569912 0 0
80.2189988129946 9.93891938740892 1.72391363292284 0 0
214.534108116357 -30.9925316162422 -18.8653132967294 0 0
74.4105441080293 5.28316578426943 22.0095058477675 0 0
84.6330351899577 14.9361577431337 8.70588345010851 0 0
9.13978489650512 -15.6469091288518 10.5562585716943 0 0
143.107293227795 -12.8851909067477 -7.14646586176091 0 0
157.45418983227 -8.16896063745178 -7.48666855981843 0 0
92.9847475109015 10.5447693777327 1.77855958657869 0 0
98.1004432593374 -6.94278433293645 23.37542231384 0 0
180.773676244876 -25.1831823335507 10.0201468708274 0 0
76.3194173090693 -7.4096276698463 -2.01990826675974 0 0
9.11854557339687 -2.13037615525802 -5.36285699816302 0 0
198.95433509395 -25.6703970902253 20.5703555486231 0 0
60.314141265019 10.309258849104 3.06759653188205 0 0
105.961059763812 16.2731597431185 12.8410123304806 0 0
71.6793133758298 6.35242013831293 21.3133432830723 0 0
221.784068241505 20.22827915649 -22.1599573657685 0 0
194.174969860814 -28.5136873117752 -30.0731296269032 0 0
159.833680224935 12.4201499895133 -5.9412581262249 0 0
178.833800819692 -32.5373088911519 -17.3558584560071 0 0
13.5523804597689 5.11357574736217 -3.50330060948161 0 0
202.734554856544 -7.29431639072493 -17.0774227481115 0 0
216.386527227799 11.7141499276224 -23.9270398008065 0 0
127.74765478641 -16.1752883865205 14.666174255385 0 0
220.508490050579 14.9739320160228 -21.2229099751265 0 0
207.29037350021 -28.1220300470417 -31.8014555246761 0 0
183.080965389528 -33.6448733199604 -11.3480879755025 0 0
202.952494919413 14.6966734272369 20.6720071782229 0 0
79.9971094319319 -10.7278431398745 -0.185354054274059 0 0
188.317922633495 11.3038348386062 -15.375752806228 0 0
183.344437091535 33.1850388395283 -8.58017298629652 0 0
7.39936132160063 -12.0519527448353 18.6062404032641 0 0
205.877652572614 7.65568178151912 -12.980825792489 0 0
134.581900073094 -13.97857523807 -4.59426159903151 0 0
168.277326971628 -22.0557653328616 2.06287411329004 0 0
143.037175482951 17.6572978082301 12.8044133180924 0 0
170.000834398472 -22.3896656686973 3.07213890904697 0 0
73.6662922819273 13.1683873625925 15.4702479640521 0 0
87.3878845602239 12.9706945444956 16.7080189245346 0 0
99.8634737111956 -12.1139617542829 -1.02276832742092 0 0
108.162955335476 -12.3301015341401 -1.89200100877658 0 0
188.656969326528 -7.61574273301284 20.7154073749178 0 0
120.030807989625 16.9006943673767 7.14353502721059 0 0
177.558909055605 27.7604216538054 1.0686144559894 0 0
160.88220124817 -19.0829972830329 11.8597031885832 0 0
190.372923864679 -28.161591310078 -27.7223305790808 0 0
132.611513306009 2.75369043766222 23.298207746044 0 0
148.083271809102 2.51862483277438 22.5892116538499 0 0
198.422389276064 26.2429968517955 11.2847650088211 0 0
111.861790268525 10.7285207823275 0.721166634321398 0 0
214.445580972759 6.80450756425514 13.5403296127444 0 0
83.7311466738389 3.13136734400378 -4.22080799514163 0 0
182.568980687606 31.2134446159078 -0.0264679727351778 0 0
219.367833372576 15.1443146817667 9.04152172931217 0 0
222.613264605365 17.8944699099295 -18.8966734418083 0 0
133.94838084467 -0.811930428700765 24.0296903411907 0 0
204.969504711525 20.3379101500885 -34.1708775646488 0 0
177.000965011791 10.3673648443868 19.6082476482595 0 0
80.6746302865358 12.5923864815633 4.68485890238253 0 0
189.105694774638 -4.55938630766798 -19.827959101759 0 0
42.1367654885918 -7.75262138747872 21.6091210563151 0 0
217.50737067001 22.5265062597669 -28.680431674117 0 0
216.488205137073 32.4068308920578 -21.1977738677331 0 0
76.97527597228 -12.6910683351628 17.7215344773958 0 0
212.175800226304 8.38498143352821 17.385002895998 0 0
6.48054400064779 -5.40896792557804 -2.52943376185255 0 0
206.90723501151 8.89235018252386 -26.0763319254552 0 0
184.767315068627 16.9416320002874 19.1459682543047 0 0
204.806337788938 -7.76297549515694 -18.5371458790992 0 0
192.180152683697 26.4040124392047 -27.7160708620169 0 0
106.750443314664 6.14059434620677 22.1504194312598 0 0
7.29658726741012 -14.2310952805091 16.0874247161467 0 0
189.443186950801 -34.3086901195109 -6.62161091003791 0 0
201.685543649187 27.001377079669 9.98944633128096 0 0
171.181664647315 -24.463427587437 -7.87193751528011 0 0
138.800766556716 -17.7728175772789 11.4559472576291 0 0
139.307151312421 17.9780847510105 11.7148181766215 0 0
155.054586141959 -17.6316110440547 15.3040305595578 0 0
78.4461365900815 -11.6853330435318 0.967087201679868 0 0
182.051218503267 29.3234669795473 3.46878563252012 0 0
212.312686240918 10.3435250424358 16.5933430505633 0 0
77.5300275051512 -0.421024310967009 -5.75156801180477 0 0
80.5650319934378 1.22894095783006 -4.91692974539502 0 0
198.989222966178 6.44939257082074 -14.5459339879417 0 0
211.997153325406 -13.2703948988898 8.80591439385255 0 0
46.9395815131077 9.1922613821209 17.8657613136459 0 0
195.59488219944 11.9360557853224 -24.0031829128615 0 0
155.264322019828 -15.1678390082855 19.671289840483 0 0
171.64859079415 -5.33892695074503 -8.80060431592492 0 0
200.700031151757 -30.1550495476392 4.73036053008817 0 0
75.9799622167476 -14.037025203319 5.25853454549715 0 0
128.027456767115 7.07506517353076 -2.96748324397167 0 0
192.135041177607 1.02325751507937 19.5891804113113 0 0
17.1093276148395 -11.6577400087411 2.55626288208385 0 0
218.289067994747 8.72120780877158 -10.5103353721188 0 0
35.886753702746 5.93470736422805 19.9089374543746 0 0
130.833205879813 -16.9232769001181 1.92944604703549 0 0
180.131963403345 -17.302855681192 -19.7570372549885 0 0
215.178134721999 32.1733540323741 -11.5704261674445 0 0
129.985598308487 -16.1120399939383 -0.386320269881656 0 0
182.575925286836 -1.98229352229782 18.0840421376072 0 0
223.362474913815 24.0378973164155 0.256911184757979 0 0
183.80125561795 9.93385313080852 -11.4187425187354 0 0
204.628648928699 34.2173541449679 -22.0030036315479 0 0
133.846992738659 -15.6381658053469 -2.56668388887606 0 0
