"x" "y" "z" "f" "a"
59.0762393674909 11.5031837891077 19.2681659548465 0 0
141.448626074691 19.5157723079825 -0.404095640168898 0 0
157.290556551672 -27.3719016306622 -9.50425972821189 0 0
13.4831075562658 -4.85866711679785 1.5065586557912 0 0
126.966741620918 2.98265870030638 19.3608007506144 0 0
31.3158124663471 -6.46631486617951 16.4662188911616 0 0
30.6383896450305 -7.33268169183281 8.60501261976303 0 0
174.364201428558 24.8818100845279 12.1574407566737 0 0
123.539926050981 -16.6692848871522 14.5553680658427 0 0
152.330926741161 -4.28416287612853 17.0837368482135 0 0
183.742657825238 -28.774539321431 7.05194686702712 0 0
144.121017860423 15.7747058115374 15.830169185409 0 0
149.762430094235 21.214685933627 -2.80388819054286 0 0
184.087751963728 -22.2889625076016 -32.2415851202093 0 0
114.903517759581 -15.8706080102215 1.82013654804298 0 0
170.017342603449 32.0454328998403 -14.4379438298673 0 0
191.451701814307 23.2229786899863 0.389377927896358 0 0
-12.0032505272514 9.86059466348452 20.5655573431875 0 0
178.982433199616 -13.5729693088288 -29.8732336247383 0 0
112.138537546409 10.5392663732609 18.5295120517741 0 0
148.511230907775 -21.7749619029093 11.6840277194334 0 0
19.9431787725608 16.8868299662146 14.584087992381 0 0
193.995906518498 -19.3043532950188 11.1215452550608 0 0
8.05025499152977 -6.65219710793823 7.82772160262425 0 0
10.4444170583638 -3.49133728148854 18.3904311600597 0 0
58.9773794514007 15.0633097663884 4.10869271522917 0 0
185.737500058411 -15.3639550727514 18.0521564960267 0 0
165.386030816665 -34.928089031702 -1.17258436455597 0 0
145.270454350893 20.8913337616809 -7.44697970614293 0 0
58.9008774015557 15.8711043836477 6.48247109090611 0 0
28.5359571098461 17.301554276293 13.0713469988067 0 0
166.040628491391 -32.0960853739908 5.40935011107202 0 0
186.904578297153 -33.2619334871114 -5.57543222092792 0 0
120.035374580721 -8.33156827428575 19.0747683280345 0 0
43.661652043756 11.740007373314 19.3199859326264 0 0
134.937805222646 -21.4270924203581 0.897043005058451 0 0
191.456033406024 -13.3038468363119 14.0671636764779 0 0
173.827868522499 -36.7664307442726 -28.104938430959 0 0
119.180771806221 17.3653229138941 9.54270469977147 0 0
186.966062665443 -5.46109015655165 11.3548309743157 0 0
185.073187984603 16.9966598066192 15.8912375246413 0 0
193.577475930195 19.6494535910369 -11.477111587084 0 0
182.599021589039 -33.4030547313137 -2.11387942400455 0 0
56.8670438511533 -4.94092399101811 19.5660600509365 0 0
-15.2361206443377 5.73834921688622 -2.86839288834819 0 0
33.8584166519002 -7.76043175076648 12.0457540521901 0 0
-5.61269706640115 11.2666889385862 0.829422081242981 0 0
197.933657363463 -18.9668743183175 0.834283710066827 0 0
102.843108227278 -9.61023003009104 18.5190904653367 0 0
58.7749572875816 1.58218258313765 -4.82981280527456 0 0
119.12852768008 3.76560502147371 -6.62729820682515 0 0
76.7371241749457 3.2333772931622 21.5576197714753 0 0
179.053482986972 11.4132709396757 18.4368579358828 0 0
0.982720198928925 -2.93373760030833 -2.42077410938076 0 0
-11.2654696819888 6.19497812413356 -2.50836584018848 0 0
194.408439100287 -25.9038800978075 -25.9111942484636 0 0
114.886342657378 17.3387186665772 8.49033218801741 0 0
159.402460251409 -4.88800508547018 -12.6663383146674 0 0
173.43625445261 -36.8386378136498 -4.26922014180165 0 0
173.055018225179 4.32209544995907 -19.1936429721756 0 0
-30.4089027080829 16.6715022781395 4.74655642506681 0 0
176.092854569571 -24.2582076968749 -32.4082907986971 0 0
-24.5241535722446 6.27621647361198 -3.43123210682301 0 0
103.253671005146 -4.39273599475905 20.2939498690413 0 0
31.701313398388 16.3747186535158 7.60868964238237 0 0
131.367210105655 -10.466885093203 -5.08063653200905 0 0
79.1883616597575 5.79731655120703 -6.23753997115662 0 0
81.5861828461011 14.9629627976216 14.8151781683825 0 0
183.225716509519 -8.8835029116869 16.9529976428141 0 0
151.559511133349 16.4094517508434 16.7253648725917 0 0
-19.4975513087912 -3.35422507480237 16.8577940570781 0 0
-25.0378786549607 9.84077273797892 20.3864883685462 0 0
116.281055502492 -11.1233572329785 18.1784466650978 0 0
62.8926867941231 -8.47204566832137 5.43896917216643 0 0
-14.3186587235731 10.1521623380589 20.450924025913 0 0
-21.8564974727697 -3.30130950100545 16.7274448332593 0 0
-21.1681016424925 19.120702028899 13.7140547362569 0 0
102.272272124073 -11.6830988080793 1.14930799214469 0 0
123.271603273637 -17.7534024941959 1.05612283874816 0 0
70.1754444192639 15.3000447755118 3.68039262690682 0 0
193.182310068278 -14.4593181560111 11.9614044868604 0 0
168.140269818423 6.90907289632795 -25.3760847695866 0 0
96.9045172247169 13.5527637917051 -3.91380909058708 0 0
162.062595155488 -20.8880051581934 15.2335631625758 0 0
79.4441995148935 -12.6994755155318 11.2835981074745 0 0
188.007354750739 -34.6384321642772 -18.0041481721657 0 0
153.900874714624 13.9524382361134 17.9028773978897 0 0
126.930960661029 -4.33781450893123 -5.8793411795576 0 0
-21.0905681770723 9.4172178063066 -1.10717595705559 0 0
156.02792692841 22.4923161323598 8.84530746207069 0 0
190.939370284186 -5.49781165328424 4.31205461272047 0 0
193.523551107457 17.8585529415139 -10.8842999110401 0 0
-30.5289719385845 9.04907813189587 20.4910861534976 0 0
110.699212986785 3.56616656747241 20.2487182701705 0 0
173.832372272106 30.1844014452611 -17.4020392563069 0 0
110.351893641583 8.1307621645568 -7.1591281527456 0 0
172.931108819148 23.273093016643 15.6280426496866 0 0
2.06102117446574 -5.54288334187859 14.8829014120011 0 0
177.462691323411 31.3784683627143 -14.5375519217558 0 0
121.93058493594 -19.3623582646429 9.0795399208122 0 0
67.724905936128 1.14139461409693 -4.304471407191 0 0
-22.6891220753361 16.2466810030415 4.85429050615453 0 0
173.104869157622 -17.8466929107093 -30.4201418324716 0 0
66.6162691528516 -2.79967170427537 -1.92111874418184 0 0
184.922088028714 -12.060377329924 -27.6552470897294 0 0
-34.557324866261 6.87962886999831 20.6561533644071 0 0
181.240952628117 5.21136563693729 14.32572086309 0 0
167.635242678852 -18.1648675402371 -25.7930901074486 0 0
170.964838659367 -1.84302488448992 -17.5721812369395 0 0
90.9202422207141 2.25499177098081 -5.04348871674336 0 0
48.7855160654267 13.9221980377174 2.64280517048621 0 0
14.027250874524 9.3530235492237 20.7249875226492 0 0
125.64337673426 17.5127932751201 10.1601408859444 0 0
161.964847381705 -1.78381885558995 15.8886526695011 0 0
166.556481825551 -36.3314982610169 -17.429979638292 0 0
154.244718788643 -12.4117208787364 -12.7587437829884 0 0
-19.0303116938966 1.84940471732354 -5.1678248721403 0 0
184.791558772385 3.90885983906679 -21.380714546748 0 0
66.8822343754057 -6.4818773149508 1.16280656983299 0 0
-42.5486746826999 18.9031725515529 12.0222955717995 1 0
138.148970518868 12.4090675182359 17.5614047874462 0 0
-6.36707994148237 7.37488121638793 21.2355913988874 0 0
80.9119364036585 -12.6994205158299 9.76869941659043 0 0
179.398897788969 23.3382574196219 13.3420424940415 0 0
8.96956222959674 0.325935409510373 -5.60361495761105 0 0
135.774015099856 16.5432154391275 -9.13303532494186 0 0
95.0302704786535 3.96566348378079 20.92163461489 0 0
68.2545246861329 12.8149134877588 17.8707815405106 0 0
131.652547868686 -18.7578767792251 -1.46444874851631 0 0
171.303869193883 -33.1331546804474 -28.3222689912326 0 0
189.701020154192 16.2083750232697 -25.1671400684503 0 0
31.6086021545403 -7.28640765997753 14.4155541249827 0 0
184.389667747623 -24.6760320647381 -32.3449432291606 0 0
40.9091135417087 3.93779985198555 21.8749378550164 0 0
130.670257619895 8.87636125759086 -8.90669293873255 0 0
195.50786245398 -25.0069057540488 -24.4230478434821 0 0
173.692910336659 2.16860325572874 17.23467181118 0 0
37.1432368730878 15.5874325982123 15.5819764861178 0 0
21.7559467058879 -4.01509729011373 -1.61549922986179 0 0
139.783565344568 -6.84245517041185 18.4429300308247 0 0
39.6203219762508 3.6942412271276 -6.06305438591611 0 0
-10.3874665767222 -0.0952401402386546 -4.86925713600781 0 0
-19.0372514934775 14.4232733710773 18.3443655974702 0 0
188.282291877006 -33.4120150247347 -7.35763123895484 0 0
160.733576451894 -33.7176854455888 -11.9617382828527 0 0
190.202258712209 16.5966117134058 9.34240046882513 0 0
66.8824691072793 -4.9223556895905 -0.151095231975962 0 0
-34.8769662146427 -2.00675106920441 -2.64404607508967 0 0
149.615636398 21.1954538859403 4.73708412736862 0 0
56.9498308617934 4.37976755827725 -5.91657614472321 0 0
-2.985370692603 -5.80556382180676 4.15818336676946 0 0
99.4274276642958 -3.21936650396438 20.5846674509177 0 0
25.245602828906 5.34300751157887 -3.55908974319387 0 0
113.000446406876 -4.24676462576321 20.0670710415026 0 0
179.590324934721 31.2660186517337 -12.7460856990681 0 0
-2.13008347329228 8.89622951824845 -0.730011162438103 0 0
141.904301515339 -6.44855349030884 18.2615629322366 0 0
154.867831382553 23.0278114675351 -2.16719010226815 0 0
120.127413163488 1.26257264293917 -6.11019953887355 0 0
183.574539833444 29.1787107413201 -9.7231375010775 0 0
185.966772207533 24.5231831371957 10.4508333769348 0 0
160.565066398677 9.28284757330207 -17.8043821679611 0 0
164.646977820052 16.815421361858 20.7190088586243 0 0
64.7815944514517 15.0093347551377 15.0517158968015 0 0
162.482619312608 -34.1918625811101 -6.6132400485334 0 0
175.459945136422 -36.6745043481084 -27.624813627372 0 0
126.67239590471 10.2638399424478 -8.7235431506192 0 0
129.176876450057 17.5973090854859 10.6434625662401 0 0
128.286289422208 18.187354615764 3.50151760404453 0 0
179.83846902757 -27.3092914398687 10.9293566786013 0 0
138.400914723992 18.5587680039585 -7.69747458194945 0 0
151.265327656244 -8.22754695870547 -10.778563395089 0 0
129.368596308155 -0.911041049638054 -6.60247183730416 0 0
53.9163062572214 -1.87189380931224 20.9570536762814 0 0
-28.8403818599507 15.6246297501323 17.5461861285524 0 0
168.596338045406 -12.7096866600183 -21.8081654423434 0 0
-22.4051535637183 18.7905710731042 10.91393280094 0 0
80.3254757701869 0.260880463110437 21.3983452393365 0 0
130.105534233172 16.8564878027194 -7.6385618694199 0 0
186.589199154644 25.2142934592385 4.61732729968132 0 0
114.121538430544 5.77363465020314 -6.76328094044983 0 0
161.118348080731 6.67141321260427 -15.3049610172035 0 0
164.296690293092 26.0131253617314 7.43047135731514 0 0
166.999202094134 24.9089537338571 -27.014354781469 0 0
170.14819381395 -36.3853967746734 -20.6336105857435 0 0
37.2070126632426 6.57470286347659 21.5185922267803 0 0
144.845140554475 -1.58268190759926 -8.54824070598379 0 0
18.0730607011519 11.0938763424545 0.760129209152415 0 0
167.165098434174 6.36128334324901 -21.8304950865273 0 0
185.084319839467 -15.854928632313 -30.5356536480007 0 0
186.002803507949 -35.7023049333456 -29.1687629368089 0 0
184.409203640767 27.9123415927236 -15.7347365322928 0 0
2.72704447552009 0.267066923646658 20.6652193615358 0 0
168.343109657933 -34.5024174868451 1.98044532190798 0 0
157.520117722015 -30.411502544656 -2.17280204119699 0 0
-37.0550703405282 -4.25941200085057 15.4494437399796 0 0
20.4074020353744 -1.40857172283204 -3.8043915834548 0 0
57.5858463421626 14.503037383129 16.2024721177428 0 0
166.941313741927 -33.7117956090201 2.51139366644152 0 0
119.458169316006 -14.4580130144447 16.3569364021942 0 0
192.34158814812 -18.8966070318528 12.1901912766032 0 0
-9.57070002110186 5.71227055015745 -2.82872395586947 0 0
93.7743180509681 16.5732787708797 8.93522151750683 0 0
184.864927554733 18.2586937130836 -31.2032232197537 0 0
78.334085476319 -6.26878618650279 19.5929410063261 0 0
84.4492339451992 -10.1049060727806 17.3574775503457 0 0
94.7606211985418 -0.903011762621383 20.985123958597 0 0
115.094411648284 16.9343822850376 -1.6165565706337 0 0
184.805436576838 -34.7956736257207 -7.07176258036852 0 0
62.451886287357 10.0228504183266 -2.49012465842656 0 0
102.491334341736 0.662914120388697 -4.79388740007169 0 0
161.676272669328 -35.11235389228 -13.3338785034016 0 0
106.180748058431 17.1324754305077 4.76771102539367 0 0
179.030200902213 -36.225397207685 -17.1586501431228 0 0
191.285516353468 -7.02985485387474 6.48154454135725 0 0
29.6782195388397 4.56691076041714 21.8686387842182 0 0
14.5750080820422 1.98632872939923 -5.96402830462625 0 0
160.460774737105 24.2425561546728 8.85407014800357 0 0
57.9096072335498 -9.71118904925903 10.2715098850716 0 0
132.489118161862 8.00775310510254 18.7314982487622 0 0
74.1695652421642 -8.16126516172642 2.72907767935729 0 0
161.533638214258 -24.5726269817321 -15.8301012984399 0 0
155.880340782787 1.32214266723688 -11.8762492549884 0 0
52.687467538023 15.776386763222 13.9466146254109 0 0
15.0339426747848 -6.80962604829898 8.56602888651303 0 0
104.692525376791 -7.71739558413326 19.3605541085919 0 0
51.5774896750815 11.3288194848618 -0.387913904202993 0 0
38.2313579061775 -3.11415849250071 -1.91551678149333 0 0
167.787146822918 -28.7392212876368 -23.1086702964017 0 0
94.7354374629378 -14.752931079454 12.3616968181489 0 0
174.445567133992 -13.2536066879698 -21.8627074406053 0 0
167.215675137617 -19.9255568335625 -25.7447274192399 0 0
97.2391341150104 -9.20739596687502 0.091749129333386 0 0
161.524149958155 12.2972531601973 19.5834730402731 0 0
76.638766234205 -10.1232722087036 16.720723229422 0 0
195.454541743624 -11.0188556578884 -10.6803644129475 0 0
-2.2150856342875 15.7172054423078 5.35921798477869 0 0
39.9517282341874 -8.0258909172925 9.26236334374427 0 0
127.579127326181 -16.6558799075152 -1.82825962632069 0 0
56.6289321770489 15.4840693145894 5.31502116014228 0 0
153.536070193263 -27.3072799242665 -4.29756948489952 0 0
181.759818332175 27.9168206541158 -0.266826257130528 0 0
-23.8277010398016 -2.85922406764205 -1.0845844376265 0 0
167.877609107512 -7.99357258952502 -16.7119508391706 0 0
59.8661645389318 16.2166784604383 8.60157961043418 0 0
124.437281675253 6.32685095013658 -7.66031720085141 0 0
-24.1011344454408 8.68015790357255 -1.75588965617275 0 0
194.70837767517 -20.1437004567354 9.89877397459192 0 0
122.544700826053 1.14347875359426 19.7046132719781 0 0
189.855335069559 -33.3530952762196 -9.58004713868311 0 0
148.630163399012 -25.4900499058851 -2.46999671693153 0 0
4.35858627822041 9.8697212621784 -0.0468048260952049 0 0
196.906739410373 -32.2683544041887 -13.8040422977578 0 0
154.447965334484 23.9662971966436 -10.6723378947335 0 0
122.518273884501 10.3416385706054 18.4382586140855 0 0
165.386129601974 -7.28846738476944 -15.2896219058134 0 0
47.7565710094511 16.3631889905477 12.3112219580591 0 0
176.386252243719 29.6921602956989 -2.92010306769812 0 0
162.302440420874 -24.3038067662702 12.7705205910426 0 0
168.608507720207 -5.07746390662869 16.6751926339338 0 0
119.876630728095 17.4657520829169 -1.3003709808818 0 0
129.964135373827 18.4500102812808 -0.108978578854009 0 0
70.3085927947063 0.180990355951002 21.5415923295204 0 0
167.165123132602 -9.61034383566249 -16.2686051003708 0 0
127.037019099772 -14.2629804608064 16.7619911657438 0 0
116.162549396376 -8.21346298640464 19.1393401528055 0 0
67.6630514809908 -8.16680336232992 17.817838379792 0 0
89.9228562138833 -6.6069426894793 -0.742014448385208 0 0
131.562098466992 -0.100295006277797 -6.91321736132029 0 0
166.20881782073 28.276202535495 -1.26948802046463 0 0
145.394832916964 -3.95325083874398 -8.59319999154257 0 0
155.643089433204 -5.18994569872997 16.9389454373525 0 0
-23.3044464050295 2.65482063308154 -5.18635903022419 0 0
185.153793815935 28.0640108016197 -14.6692967758245 0 0
80.809990884652 16.3099108408712 9.37077793132863 0 0
-35.634660145543 3.01524840723686 20.1888556054194 0 0
-2.5455416559086 13.0460244379055 2.45260219518243 0 0
121.955620092911 8.81055735179386 -8.0141756977217 0 0
187.248105999528 -35.8806740925391 -24.0961523504451 0 0
167.461790910956 13.3804578102049 20.7634170199015 0 0
182.277920545131 2.95052690987575 12.8763157885762 0 0
-16.6535251891252 6.75344741622272 21.187034640965 0 0
183.398601721397 27.2908403953163 0.331217523374524 0 0
31.8929103436912 7.33026229099138 -2.26513014521936 0 0
93.6346357374374 13.8601452633439 16.0710549696647 0 0
139.278247138466 -18.4309665351294 -4.19372834873104 0 0
162.04287152518 -34.3737031282954 -14.966361895741 0 0
151.290657112481 -12.4425595079363 17.1703269942991 0 0
167.82913217294 -14.5627262410222 18.4042260791358 0 0
171.148098292655 -31.063915410437 8.01401884631619 0 0
37.7277856634874 -8.02517382309872 12.6311384725197 0 0
69.3865754321903 13.1705367354435 -0.0732813457018216 0 0
114.315825675165 -17.0571787303367 4.01439021813469 0 0
197.084430765193 -31.9646033340959 -10.5874676561535 0 0
169.617678644531 14.5063569598255 -32.3132267710669 0 0
158.730237888869 -15.2306556863346 -14.3787388355395 0 0
147.636012745274 20.7148226509411 -2.70401922140033 0 0
141.887898267509 -17.1859565431527 -5.95361076052747 0 0
181.948862330669 -10.9355970648808 -16.5329990936653 0 0
80.2439548279679 12.8118710819694 17.6412808612321 0 0
157.186826122972 16.3642004135212 18.1921546670419 0 0
153.696095453393 11.9926161365532 17.9421587135081 0 0
185.248345880774 -33.0404980169568 -3.76683073573199 0 0
-8.24335402342657 6.54324194144819 21.3819414067946 0 0
60.3233130037019 8.95497060191574 20.6613315857978 0 0
193.139026113971 -9.95140712981358 -13.8860130991425 0 0
128.565166494348 -8.68971073629383 18.7590234385799 0 0
192.611165287549 -33.8822487184812 -18.0907939997728 0 0
53.2029131540131 14.2035665643391 16.7747154279299 0 0
0.927147760669893 1.05168645090717 20.9443082160658 0 0
26.7173792058438 17.4827504318072 10.5127751166056 0 0
190.074742592133 24.8251848085753 1.71742053726107 0 0
100.17872358776 -6.78901482272287 19.6609499814979 0 0
1.28023028991697 -6.59523001399409 7.99948740690188 0 0
25.6338856058283 16.8088137746109 8.1257213537307 0 0
150.384803532947 6.22101178816903 -11.4776823467105 0 0
-14.8268509849653 6.88102111769659 21.2145189686551 0 0
-42.5787182817204 6.39599461730906 20.2838476171622 1 0
197.748056421141 -14.8980820729383 -12.5543543096614 0 0
171.289296186838 -36.7171069746601 -3.1886340590058 0 0
138.694467444644 4.9406903488069 -8.82480309970611 0 0
179.159548792982 -36.3686557193932 -26.9707237776071 0 0
137.354030587452 19.0454519324222 1.67367828594015 0 0
149.693293398093 21.9757006794552 -6.9256505436079 0 0
171.939160837205 -27.9737273859242 11.6669049740075 0 0
-40.6106175122647 16.174115655952 16.0855668468785 1 0
-41.859202922147 -5.38058873237859 13.4544044446684 1 0
120.792572592225 17.2318772573454 10.3853940226127 0 0
125.945328984802 12.4256949809971 -8.82251529207259 0 0
130.743523709436 -9.26738081130243 18.5476218330103 0 0
145.208019555428 0.744229533659208 17.1925411943971 0 0
-33.5225776392015 -0.865914695849469 -4.02517781130959 0 0
145.115657272923 3.05026220775496 -9.35434356566955 0 0
129.884571405555 -6.56204622853672 -5.76509263483215 0 0
-13.4491672826919 -6.38119141229639 7.62498138688514 0 0
185.254481184079 -12.079789013461 18.2955330662697 0 0
197.080878038439 -21.6570361434833 4.72986957102588 0 0
-3.5103088291163 1.00797547405083 -5.83952723347581 0 0
22.0366257414214 -7.11092459746944 11.9962078821328 0 0
-16.6443048655825 9.97761907721385 -0.514427742157211 0 0
125.522005984532 4.10287492806692 19.4053632112842 0 0
86.8406165722318 -6.73354334260592 19.5542498202056 0 0
92.025455473826 1.04294854372349 21.1828511791226 0 0
189.078689310278 -20.9085773262541 -29.9049720181958 0 0
177.186810296822 -9.7842489277905 -17.2958383671434 0 0
179.012940617918 6.10727543081152 16.1875782147125 0 0
190.734205479627 23.2606560923179 7.04722981154225 0 0
128.758131634906 10.3043243924622 18.4008172193258 0 0
167.461838298608 5.75119875402697 18.9659089539015 0 0
11.7914749260547 13.7876494175702 18.288880767059 0 0
-29.5462044963716 -0.245645988853269 19.0598923408288 0 0
182.180090280299 3.70452492508696 -17.9668036156481 0 0
190.312587524314 -11.8576058815068 -23.3319084965275 0 0
133.713687260777 0.145387022757578 18.8409972744551 0 0
37.3505011000511 -3.9301962824829 -0.248953415323332 0 0
117.00418450995 12.6267208238245 -7.98658220026384 0 0
-9.86403963072299 6.69768793032658 21.3416793266391 0 0
-14.9965163860501 -5.13524298672502 14.6646177585863 0 0
116.40237732105 -11.1006045376915 -2.23009835283903 0 0
194.76027284681 -9.62099950612206 -0.205710159668648 0 0
193.57720247449 -13.5360208608464 -21.5421496269196 0 0
153.620049655407 21.9454495314447 -14.3324653802899 0 0
121.281497302146 3.12361009659403 19.6983006127745 0 0
142.441787773779 -1.78824815036297 -8.13903525217491 0 0
-16.7536682338231 -3.18446729023556 17.0657970645573 0 0
57.9427497545695 -9.5871141258781 14.4002884538427 0 0
161.489632445126 14.524787510335 -25.697653538654 0 0
166.752895850069 -1.52007635667407 -17.1494110180572 0 0
178.625514591383 -12.2762156927804 20.1474087953502 0 0
12.9256885331066 0.0538776093879385 20.91136350198 0 0
4.22156580253198 16.2735326980857 16.6585701450856 0 0
180.254653550363 -18.8801018272221 -32.3208566344698 0 0
174.457678423808 -15.1784535508038 18.5555437786054 0 0
130.701196957979 18.5625157074259 -1.71628469818411 0 0
111.308353396101 -5.41808245574889 -3.89481096418462 0 0
181.109103701617 -13.2994255935 -21.2572600258364 0 0
-42.0252234462651 -4.07318775642813 15.3881634994449 1 0
6.41503772670644 9.48930595277412 -0.304935410030856 0 0
-3.61394373129904 -6.1068591336528 6.36194012398907 0 0
-41.1086634224752 19.4312233682764 9.49001535484441 1 0
164.230357535647 8.39704692610133 -25.7591978478575 0 0
152.006062103812 1.50807952421222 -10.4888633139019 0 0
82.3572091026364 8.69147361464701 20.1879964747146 0 0
139.317659204734 -15.9143612935044 -5.44054260889722 0 0
163.698376618973 -4.29230551772618 -14.2633917240363 0 0
143.581221797338 -11.7393786268719 -8.50532642650645 0 0
164.959042057325 -0.58736010988099 15.5934637387415 0 0
121.362989422833 6.99516208092841 19.2842372566299 0 0
41.804816436543 16.4301113666707 13.1989059953872 0 0
174.940912601457 -21.3583532646859 17.3103777298156 0 0
117.162436752769 17.2094959871547 9.78751544261292 0 0
150.993413298821 -13.6286324598191 -12.4559451676719 0 0
176.984999341823 -27.2207112395965 11.9811382887583 0 0
24.3140462235139 -4.45955639997738 0.172120658772374 0 0
159.89765297573 10.8256708101413 18.8257532753878 0 0
164.281085928902 30.3432890592102 -13.9804532742082 0 0
166.484025701244 4.94384035134977 18.0394105276215 0 0
174.962260385084 25.6860201544079 10.2326840366488 0 0
129.751055396457 18.4328368118625 -5.24539338106481 0 0
168.686707685173 12.2081004084483 20.6230902851838 0 0
171.753761564051 6.26882952782326 -21.9998848806949 0 0
0.0686744306127653 16.0918107660505 5.92289672048497 0 0
-3.70921428572969 -5.73131649015799 14.3214722970659 0 0
198.354990875807 -31.7055183164256 -10.2981505807914 0 0
196.004710067308 -29.2687161806008 -0.658447117564129 0 0
158.365407312691 4.86914026577984 16.103576537766 0 0
20.631856698632 12.8223306698946 2.22297546803309 0 0
-40.1381434189096 19.1550328750957 11.2808698042083 1 0
125.558711020719 14.899450039695 15.4873524787299 0 0
89.0478274964245 -12.360586837387 15.4788349523926 0 0
-5.50179553008496 -5.07124474294457 15.2284172881242 0 0
173.368075524229 -8.83299923367071 -18.0306524364946 0 0
18.9760983306006 6.63681679594934 21.524301976406 0 0
193.479595555716 18.6753470163337 -13.5880009211689 0 0
174.194007278916 -10.5399158589543 -18.5922772972569 0 0
182.528470489733 -18.0536055592138 16.9428673734517 0 0
179.85581907973 24.7871791925984 -32.3942453924355 0 0
50.2082106448024 15.9677102177455 13.6542334288503 0 0
69.7197644464899 -8.8243631172725 17.3830083151157 0 0
187.951914887604 -35.2887617266013 -21.2813200450736 0 0
-23.3813663905477 18.8531298301321 14.6562377051005 0 0
19.905517757265 17.7914707761721 9.57461613741934 0 0
63.3615467766311 6.36742609603761 21.3343542661697 0 0
166.89285762242 -19.9271628660432 17.2485023621669 0 0
59.4273480365262 15.1260022225493 15.0957858730832 0 0
187.011939823213 -36.18329553311 -26.0946158600652 0 0
19.0148127877178 7.41591994660117 -1.79418584035559 0 0
-33.2073234110378 14.3626628594278 18.1367536539445 0 0
146.561611424978 -7.09130468482986 17.8979738519765 0 0
17.1948567819435 3.67000512462033 21.7336038193293 0 0
171.2512251286 -36.2059154607725 -1.23151295769856 0 0
143.329474313701 -24.4094918855645 1.49324226471249 0 0
26.9827065533522 5.241763070671 -3.72510289850363 0 0
60.8005290629537 1.20725060149337 -4.5730763518534 0 0
7.85353167563757 16.2749404855806 6.37738602137312 0 0
67.0187082097323 -7.6892634276155 2.98181884488436 0 0
183.101317401906 -0.089241157955207 -10.0167076866909 0 0
-3.65668137225031 -6.35116763343244 11.9903972924791 0 0
191.128517505942 -25.9082138437157 -29.0502174833872 0 0
62.0887407984159 5.25875127948912 -6.08728081543645 0 0
188.318647065888 -35.5674493730601 -23.0312937581389 0 0
56.7732265473496 1.99485263910631 -5.12217230693373 0 0
163.365690574684 -3.76459228228941 15.6708762199152 0 0
188.722511311699 22.2823986094306 11.5675686463393 0 0
195.520509651991 -21.3314366611667 -23.5579546442297 0 0
114.321469186683 17.2813774861178 0.4930513547548 0 0
161.282709447841 6.54741893871756 17.8765147484775 0 0
-4.44971106855677 -6.57967254790542 8.79565251671898 0 0
169.166931194338 -14.2592848537358 -26.0748638651224 0 0
172.695567760671 26.3760470122584 9.35230413321647 0 0
179.561732299148 -23.0146635133446 15.0585523167 0 0
-29.0617699741489 18.8658664601956 12.2888357223247 0 0
-32.1501247575065 9.02580907506463 -1.97571040487974 0 0
72.3175450502474 -0.595734442854715 21.4023717748651 0 0
156.330233928564 -17.3938523657903 16.1560621590426 0 0
63.5004156460817 -4.46645245069055 20.0449098115108 0 0
126.565793531297 -1.42860969550044 19.498126004366 0 0
122.611526426695 1.94877195464842 -6.4447135958029 0 0
166.595677483236 22.0072011036216 -31.0800209210631 0 0
28.621706685048 16.5280423994388 7.77125087332726 0 0
167.051882645449 31.4157496022696 -16.6999534200838 0 0
161.884231342256 -32.5340422306798 -16.3378078776936 0 0
169.433513663665 -16.8242929966892 18.6802868080516 0 0
114.346115639128 2.56645496883867 -5.95378447862853 0 0
137.377022846785 -12.766610034942 17.3889962241028 0 0
-9.00303231212852 -5.61874286376175 4.48985896387988 0 0
-14.9657641014235 -2.11626074355735 18.2286312968596 0 0
91.5371800067133 14.7789631796106 14.8832314675182 0 0
199.522017436109 -20.3355248203622 -11.8249158308081 0 0
197.58800611281 -20.9943729910613 2.19698382607963 0 0
133.012656636503 17.6072863142775 11.2857864691137 0 0
190.168099218113 26.4510909858585 -6.966443702444 0 0
32.6723182337118 9.05066500943359 20.7674330163429 0 0
90.4475143509295 -6.49307307797325 19.7216682972155 0 0
153.382814553395 10.3948405172046 -14.8233916001739 0 0
182.422384075273 -3.13560456677178 13.5055002412358 0 0
174.662324608406 -37.666622456886 -10.4948703099412 0 0
163.078405423167 -11.5253734059126 -14.7433068192075 0 0
29.1381878205426 14.6383375580727 17.1825679306925 0 0
22.8752561444731 8.10660850418193 21.1532057279077 0 0
149.272018064917 -12.9610203319411 -11.4353863592483 0 0
78.6144035676564 -10.7741930490447 6.1723225369236 0 0
118.16519622571 -4.65931521141004 -4.86077027687727 0 0
125.228698947855 -8.39605917052627 18.9207245236187 0 0
159.641698607533 -13.0388124745124 17.565451921056 0 0
136.013162128962 18.300965658864 9.63892435250421 0 0
177.141397115962 -11.0813654733623 -18.4849855138162 0 0
44.353725064422 16.5369257004551 9.64972704926704 0 0
161.3549041323 28.6363880214024 -13.6152664729337 0 0
93.0322655102079 13.5834767099386 -3.23474679355292 0 0
34.1034085115215 6.06300612220098 -3.37773553513612 0 0
161.743687967281 -9.37264035018572 -13.8798496996068 0 0
189.791274938698 27.8719998732341 -12.7708148713347 0 0
131.049366929111 -13.3916653783989 -4.1323086631499 0 0
195.951033579157 -24.9950882193733 5.52574724745955 0 0
-0.0620639692080068 -5.50175870242827 14.8999830029966 0 0
7.31611939106859 -6.71348822713068 11.6616046456327 0 0
148.150590606871 0.654831492166188 -9.36164104030021 0 0
167.744032283575 -36.0408532717324 -19.0077647520182 0 0
77.1909200733394 6.58896066623794 -6.27832653110848 0 0
104.521430705373 -14.2635906825239 15.2233591657376 0 0
151.967052063233 2.11239391985823 16.8208488051306 0 0
29.9741113871751 11.8048474898538 1.07400656993647 0 0
180.896552920634 -36.5847619860175 -26.6178754286874 0 0
171.940165127555 -4.22702965020891 -17.478719999568 0 0
178.5688654801 -2.76113476909508 -14.0671425969643 0 0
163.603565255752 -26.5774759120042 11.1035640490096 0 0
68.1185366264558 -0.318472748881205 -3.54922094598032 0 0
108.958439181567 -15.418556090991 14.361092826882 0 0
85.4201126876974 12.6082601727739 17.7159689276942 0 0
-8.60542010903378 8.45955954148131 21.0012001004846 0 0
136.547308825383 16.0284890833325 14.7480616324351 0 0
184.884791650595 -3.22450621921344 11.6871121487551 0 0
-38.1861033124402 11.5617306045282 19.5078831160614 1 0
189.679798172626 27.894734930592 -21.930734909383 0 0
174.786732821428 31.3017645337455 -15.1477661199051 0 0
138.783451568979 0.581313005238201 -7.88927124288839 0 0
69.6572053433425 5.91930108296605 21.3031999144373 0 0
193.969907590293 -17.7224927970597 11.7639884285265 0 0
70.5230685827487 -2.93608266645347 -2.01205671733033 0 0
182.721727097931 -5.88380019177783 14.91011116649 0 0
183.83158067401 -12.5836068982685 -23.1407314638604 0 0
12.2228317030133 10.9228184820471 20.005483032987 0 0
135.008790293232 18.6088875468525 7.1894599791063 0 0
14.4078301537243 -4.03026442755718 -0.951882762526033 0 0
135.300809109971 -4.1094259370858 -6.98078172253449 0 0
70.521495148791 -10.9996545742637 9.39900177244841 0 0
170.776450093581 -0.288847862142611 -17.7288993360744 0 0
-17.1357425220425 11.001000299808 20.1251613525906 0 0
48.8804497800658 16.4242579854297 9.77774581986173 0 0
-24.4732631264241 4.34064975824154 -4.69299300867506 0 0
-1.2174005728152 -6.32609438914257 12.3788626408867 0 0
154.287503800298 -28.5009528328671 -1.80300207293911 0 0
-37.6896550617361 -4.46017634776547 1.92323651503922 1 0
175.052128815673 30.7511006953376 -6.82690609187615 0 0
176.425428059433 -34.6269279220866 0.657630747787444 0 0
186.209527683385 -12.2452103063736 -20.1070958441992 0 0
31.3418647980223 10.0746829675003 -0.325239247133002 0 0
166.784795928433 -13.1241842473982 18.079556365563 0 0
167.758553553081 29.6389344785315 -17.7765664483982 0 0
-25.3034469658115 2.58004927112425 20.6019865745983 0 0
119.353528846953 16.5917097709348 12.231094901451 0 0
104.126920291927 -7.72767571809096 -1.83294718466475 0 0
103.85077939166 16.2324928206416 -0.372824912869683 0 0
197.264691305269 -13.0708207028569 -10.4381692400957 0 0
42.3235210074078 -1.50099050840963 -3.48485073020365 0 0
68.9551295559222 5.84520712474805 -6.21715962632097 0 0
191.364387380734 -4.55973082439832 -3.20843663454206 0 0
72.3542178840937 -7.26815763433114 18.8050145958158 0 0
22.9828301326691 13.6949231243352 3.14434917225177 0 0
65.9569092190175 -0.671981574046915 -3.37043878605154 0 0
197.076118605269 -31.3309316687365 -7.62748759949236 0 0
102.112899659747 -14.5388771785345 14.5620808515237 0 0
172.040202107429 -37.9393917637133 -8.65390947349276 0 0
27.3901133732918 10.6703874877219 20.1777036077289 0 0
194.175981510591 -15.9515209855533 -22.9746805559756 0 0
189.385316329171 9.22133697393547 -18.7705640754221 0 0
190.292654885299 28.1844097029908 -20.0720006382934 0 0
18.6427059233848 -4.4447203364321 -0.0976284751630004 0 0
79.686390840147 -12.4977515566816 13.3665660196964 0 0
165.197347289831 31.0853948722387 -15.6722698472036 0 0
9.83063220936936 -4.04566760289136 -0.363014570749586 0 0
-19.5300973859853 -2.45767087234664 -1.97279176500812 0 0
186.276567838151 -27.7120340235236 7.21319289953967 0 0
164.662487244125 -6.25502763392595 16.538011472518 0 0
191.521739753689 9.69080762308272 -0.847784069154952 0 0
60.913952716862 12.9328899878157 0.539997858119587 0 0
102.604522961311 16.9568289399156 6.50396463474268 0 0
146.084307005343 20.4956642933096 -3.82361357566126 0 0
176.414539885048 28.2654921457503 2.1261592788343 0 0
142.853096140971 19.4373805402845 8.0446379207016 0 0
186.818624244551 10.8277232740735 -25.8613422072882 0 0
13.1015769422534 16.7775725504252 7.31214797700506 0 0
147.191866535281 18.7385217326577 12.249427307237 0 0
146.645003087606 19.8271508958148 9.07051458568509 0 0
189.732794574115 -11.1739242019566 -19.9848235733227 0 0
191.037611464226 26.9019364545344 -9.68657255738292 0 0
125.121644566569 -19.981021942609 8.53280991185357 0 0
180.554558558156 28.9072300281457 -27.467826011429 0 0
156.200694813341 -28.998677594875 2.74420342368497 0 0
91.7252230124256 -7.86775183532283 19.0906371700969 0 0
170.529171414702 1.80876556757166 -17.8712885672216 0 0
120.32675398886 -0.88019377902978 19.9091841784281 0 0
176.346457693553 27.0590375842801 -21.3965783705247 0 0
162.912474124527 10.2146358285443 -26.7343854497348 0 0
178.201932321427 -15.3929115481474 19.0736701131197 0 0
175.030014683457 27.1106582670465 -28.1161787381326 0 0
167.010865669727 2.02149564834521 16.773522294227 0 0
115.208706771362 -2.33129916253287 20.1843098615595 0 0
141.976495417106 -18.3845231403353 14.2428368535756 0 0
-42.0053952878614 -1.49310492949717 -4.43229892848063 1 0
114.817160241597 7.01046432182843 19.6192282647436 0 0
190.097731531161 -3.74102311722638 3.6153212198615 0 0
117.441206885121 -9.37073286745271 -3.04503976571398 0 0
-28.2787300599153 3.1726509573845 -5.30772720132892 0 0
147.451319229097 -4.03396578401599 -9.14238503691792 0 0
36.5129979128546 -7.84804732109215 9.63372764904801 0 0
195.869768821002 -10.7356617525473 -2.10724626123712 0 0
185.30150570856 1.6648572615333 -11.0338296396642 0 0
153.610053112747 -6.10159832622429 -11.059834836756 0 0
7.14331589999057 -4.11565519948687 0.0540286567805441 0 0
186.768611716915 25.7163198630933 -28.7594463286851 0 0
173.640405720098 -37.2420710708144 -15.919505338309 0 0
105.493015945798 15.2250156397274 -3.17849221187865 0 0
185.61934877116 7.52291944178639 -24.4078719986679 0 0
171.757372677053 22.492813358338 16.8930237255793 0 0
124.342081831817 -6.33173187411351 19.3807393431658 0 0
-21.9102219997995 11.0631399131709 0.0628124204796496 0 0
-36.8176257074554 -5.98737248600353 11.4134928404764 0 0
-32.3613089918077 2.91609773876048 -5.67827333543378 0 0
171.583976745666 3.05238435059713 17.8534887027837 0 0
183.379449459881 1.28648644653913 -10.7065898170779 0 0
-31.2200790634144 -1.30668018137576 18.2759250932956 0 0
157.802640845609 -13.1769872956073 -12.9877616910758 0 0
156.566645950795 -25.5332018150793 9.22379678594384 0 0
167.437286713496 21.0826645205194 18.7355236060178 0 0
191.182779395794 -33.3055068991595 -12.0760722177679 0 0
-39.93378351141 13.0034481571912 18.7077410077859 1 0
172.912795091492 -22.2617135884511 16.9179686384351 0 0
163.363773815887 30.1589939829933 -15.754901614345 0 0
149.722259866149 -25.7572745518447 5.67947471231024 0 0
175.783429806235 4.03597093216772 17.1391973125909 0 0
199.901584352627 -28.7917287593421 -5.22993191498422 0 0
101.318303702388 -9.78711653049817 18.397544687377 0 0
3.08493897640395 11.716624365458 19.7613172928667 0 0
83.6566039736531 -6.66677204971953 -0.0498155386362975 0 0
101.074244964488 -4.79262085752685 -3.13165081554533 0 0
164.230838115135 -22.4024629376285 14.9609672810203 0 0
25.3887473883002 11.5507528183232 19.7784716932707 0 0
173.967666182936 -9.41587897226381 17.6802504889907 0 0
160.986524903175 26.9153680835937 -7.1519877213421 0 0
154.976034771539 -5.19206030911865 -10.3635202302092 0 0
166.545466712572 0.567177827407186 15.6991510158186 0 0
45.8908105982274 -0.33813047301373 -4.35983107848204 0 0
-33.3592968470698 10.1982677554607 -1.19632826752613 0 0
100.130746756151 -8.42302581905186 -0.815292608240798 0 0
184.051914860618 4.84699094480931 12.1486868892667 0 0
-36.6951854309631 1.8065935073533 -5.68586601892881 0 0
-17.3209714239238 -6.04211322060116 12.0135920983591 0 0
169.779907454338 -32.2050531026698 6.10305837729535 0 0
34.4163472639808 7.01425216847533 21.4114869575183 0 0
152.9793749375 -18.9814151568037 -11.7436902436878 0 0
-18.5255097076685 -2.06999635081645 18.0097476657405 0 0
27.8105758010083 -4.09278273765969 -0.734256930609707 0 0
180.032690861716 -12.8895832611612 20.2447096221554 0 0
192.614363367212 20.9686701623556 -2.98194964423511 0 0
195.495574852123 -33.491154354723 -21.3307567265922 0 0
-35.9318995517974 -0.165674613699235 -4.65374186232713 0 0
163.707325688262 29.6214106995544 -12.1160713284294 0 0
193.08886050865 16.8230508500523 -7.05638947173014 0 0
187.573212356824 -33.7462337326493 -8.33655245900812 0 0
113.594952716066 -0.632395055939273 20.2890693045082 0 0
154.517749446807 22.8349495776382 2.92920714571239 0 0
114.098183939758 9.0860547112075 19.0931451417837 0 0
153.238380013997 -7.70737126955013 17.4022880952478 0 0
191.554017129743 21.265153027504 3.01830255569302 0 0
186.604095329454 -11.1224935922888 -24.0023419389198 0 0
181.418329921288 28.8800478354208 -5.40491290505433 0 0
67.8307965765868 -6.18669566566575 19.2496128811419 0 0
95.554792458004 -14.5596076591614 7.30210480554249 0 0
105.464192056329 -4.57029537499203 20.2141401304498 0 0
75.0034910504154 -6.79239473895225 0.589287303791898 0 0
174.081071199739 2.51022028205776 -17.8099475111812 0 0
131.75822822421 5.20763499598148 -8.11542625626444 0 0
182.917981861804 29.1603549926658 -8.18850354043439 0 0
25.1881628981192 5.10271971332855 21.832963902188 0 0
86.1941257286332 -13.6312385121734 10.3049351415196 0 0
-28.7255444524999 13.6245626356552 1.93825574296469 0 0
-18.5665374984787 9.87245158228966 20.503767934578 0 0
100.898466138254 -4.97757708355705 20.1919038027623 0 0
-32.6455377831924 18.8566796716234 7.9761355196388 0 0
103.82343421461 -16.3678424529352 10.8302637113627 0 0
191.502750251202 -11.4096609472252 -21.5200632935811 0 0
-14.6946224377692 0.825936159894928 -4.99784467537783 0 0
-0.227590418868331 7.26195522151298 21.3207010377763 0 0
181.687714112509 13.8403128287225 -32.0499245252025 0 0
-33.3417400276094 3.16694937849489 20.3676245437689 0 0
168.117917093874 1.55270933003358 -18.1126102287632 0 0
141.760454870555 -14.9367181901988 16.4909057161219 0 0
99.1772440248942 -0.955518282041049 20.8318632103722 0 0
52.3119948180999 -8.67744562080737 8.2286860200193 0 0
171.361937987927 -36.3300802502612 -26.1638402080364 0 0
187.132149772047 24.5650429783029 6.47052486671256 0 0
161.307021497745 22.1557172073683 -23.8884369145388 0 0
163.899468412528 -10.3776469566461 -14.5223274252348 0 0
185.070106188354 26.309504425256 1.42405492801081 0 0
161.46388146534 -14.8914574532558 -14.9386098848942 0 0
154.198271292306 -17.4284130953168 -13.1503561471629 0 0
16.1519112374867 2.00453512349472 -5.94940003528984 0 0
196.046175635999 -12.3208914639428 0.205173696606597 0 0
131.32629546079 9.67774159733785 18.4923161249724 0 0
191.080483011883 -14.7505490952101 14.8529990454335 0 0
-35.90150088104 11.5617945744022 19.5670023619883 0 0
164.788484688131 -9.6582910605188 -14.7416818325701 0 0
9.54576831436385 18.2385372368982 10.9747559971375 0 0
139.69709687355 -20.7451601143046 -2.87484509994799 0 0
189.068974188259 13.3712159806187 -24.3700038168829 0 0
160.421443679221 -2.69549961580658 -12.650143435176 0 0
185.090160072974 -28.2144110562769 -32.2282957713169 0 0
36.7312247698706 -5.85411321058999 3.51166536135319 0 0
167.764785487586 -33.709461577771 -20.1991950092509 0 0
192.583675331337 20.1161565526114 -1.26127585967302 0 0
195.258609497246 -31.4714452652247 -7.8966492470328 0 0
192.533195112762 -6.18054183937313 -3.60886069736487 0 0
-11.3856590659568 -5.97047529327035 12.7826366797803 0 0
186.977107679057 2.82749553976621 -12.2137814182341 0 0
195.87949128519 -23.6319061693864 6.86063841860374 0 0
181.834856760983 -10.9210944940277 -27.8397310132807 0 0
17.727651821763 16.8065654467989 14.8364097342633 0 0
133.667089008694 18.9246576507916 -2.95566046381692 0 0
157.709154205837 12.8669327515652 -18.531192817348 0 0
85.7826667306296 -0.418310131433935 -3.91634561378744 0 0
1.17046488769268 18.3792945616532 11.087188066842 0 0
11.0390495362827 -0.764846965490207 20.5149590109089 0 0
160.180457636685 -31.6045161857998 -7.97095851535957 0 0
186.635129078204 28.4975600679008 -20.6101827497855 0 0
108.022623158869 -11.9714506380634 17.432527078689 0 0
7.80517105172201 13.4773142248232 18.6726427703454 0 0
30.6030806630158 13.4298642792987 18.3069441823397 0 0
-36.8257602177719 7.83307735483746 20.4640835749768 0 0
4.49450278283329 -4.44793824610514 0.907800045766947 0 0
99.1115868426039 8.87219523144378 19.4939568775875 0 0
154.470271114698 23.9151541948728 -7.33015664939011 0 0
186.576543619079 27.7100062905542 -9.26713013627051 0 0
96.6925401523822 13.5510680442393 16.3559566414407 0 0
104.267284288203 -9.62559129590176 18.5661630782835 0 0
181.482322498061 1.62727953260833 -15.7876598667138 0 0
117.491890572985 17.1214570448205 -1.99975684401426 0 0
127.134794093141 -10.4375970432862 18.3706240148907 0 0
-33.475317254731 18.7170514752426 12.3979186480654 0 0
184.137806068617 -18.3552296620816 -31.5989103860848 0 0
11.8621988709499 4.79832096840354 21.6770502689193 0 0
144.394651793977 20.0151820442974 5.38145343904757 0 0
153.051223988539 15.5436592937761 -16.8107913688903 0 0
64.6355755032402 11.4781761004821 -1.4374174376105 0 0
22.8413299077441 14.1202010767543 17.8525665376686 0 0
145.30124937316 -14.6409043192158 16.6380087892309 0 0
33.0966889774302 14.8354361338382 4.40244124811255 0 0
46.2574098286213 0.69002036532578 21.5884600398425 0 0
58.7336194551252 -8.47608986865927 6.21836765210483 0 0
183.351750334819 29.1724417986146 -27.3783810994405 0 0
102.467828325698 14.6632525346665 -3.4877934532811 0 0
38.4389124825195 -1.35365843289781 20.9568557129721 0 0
5.06377453272247 4.78281123186761 -3.55206514414148 0 0
194.651456079965 -33.9652058620033 -16.6961194944121 0 0
149.047543122877 -19.8539267672782 -8.55458402578038 0 0
0.0790977425626254 8.69216361860057 -0.823018481621982 0 0
184.862755983528 15.8098445255907 -30.7327563031056 0 0
-13.4735165385572 -3.73764207744098 0.114672171871765 0 0
180.031298903992 17.6767389032325 -33.4024812204921 0 0
81.985551240538 5.37236301378209 21.1686882119611 0 0
189.462293145817 25.5662783276766 -2.61439829502362 0 0
184.642415727505 6.1289739565595 -23.7319914687056 0 0
124.055048948429 17.9436629312513 3.25338693684888 0 0
86.5746891188126 -10.1027699725473 2.85276847709004 0 0
-33.6498861087622 17.7964721985799 15.0026506356771 0 0
187.128235155776 25.6588260243913 1.79435518112765 0 0
-19.1560124355099 -6.09843889076784 11.0733616016283 0 0
160.769146675962 -8.45066365339879 -13.3656193209502 0 0
173.636749601521 -33.2293786378762 -29.7556033277835 0 0
-13.4074894809026 -5.9636822493858 12.7068801135919 0 0
180.428930557862 -11.5067832969205 -17.9430220248539 0 0
128.8881109066 2.31057853492925 -7.09488387579843 0 0
-3.03587007876677 3.53034095128453 -4.93311188302023 0 0
136.074253254098 1.92740415969642 -7.79603420926502 0 0
162.486479181121 28.6653529917528 -10.6763648319393 0 0
-21.2986914979642 13.6416528215445 18.761386895384 0 0
139.224021104331 -16.4114524018544 15.6274932768122 0 0
175.413967932046 -37.0892256834967 -16.2189212713642 0 0
173.610407723033 -0.154509150801114 16.8664728865522 0 0
-1.04367886381625 -6.08194804671681 5.58384632198702 0 0
160.219312790629 23.2276891254011 -21.2922330096653 0 0
105.692791204216 9.96619518832243 18.8904798956374 0 0
182.094830511406 -20.5132770828458 -32.3930635963947 0 0
179.478096089792 24.1770148621547 11.4727149894721 0 0
186.055306947674 -2.04306406781922 9.82446501776633 0 0
25.7186830093241 16.4720517634646 14.8596016532459 0 0
150.120093454335 22.1995625998694 -9.63043489236027 0 0
37.7437375141317 -4.87603172240979 1.6656639146931 0 0
-39.1873816895956 -5.17584648500634 3.66353524235161 1 0
177.655255289661 30.4068030219266 -6.50919091913464 0 0
99.9554233876065 -14.042161176049 14.9027770328581 0 0
193.037878384511 24.3913149782933 -15.7457763908255 0 0
34.6227192962819 -4.56497671513638 1.15739283051621 0 0
167.947257044697 -29.9301424830537 -25.3068375570219 0 0
157.727892159395 3.39342599714139 16.538064500683 0 0
-1.51919189681721 0.357120404625092 -5.52948191413344 0 0
193.274502743642 16.6303295164971 -12.6136835317542 0 0
177.962529989581 -17.6749694568778 18.1841694423409 0 0
2.30093566457665 8.5168846288393 -0.92680400572444 0 0
133.179240515001 -15.0246562927723 -3.99516762190268 0 0
185.943730472809 20.1140421690342 15.13563261627 0 0
176.624102790843 -10.2211347956112 19.1587513724336 0 0
189.850582541137 27.9643913001506 -11.3185676787447 0 0
123.011314756584 16.8879650685401 -6.71329327451431 0 0
189.36098181763 28.0254004361355 -15.2677890956866 0 0
-2.91339851152893 3.10029171892903 21.3463014383565 0 0
176.83418937382 27.808056940167 -27.510592810961 0 0
49.4829133574972 -2.33829803622087 -2.04129375278342 0 0
-11.8730381747942 -2.0334497336843 -3.25911066549511 0 0
189.271223571799 26.1099527487916 -25.4455027829804 0 0
51.3573655608 11.0256090227905 19.7357743326071 0 0
191.150042245527 -29.5661807747729 -28.9087281045887 0 0
54.7906226288608 -0.187006427485122 -3.92813028116204 0 0
-8.75433323730973 -5.67708162988754 13.9543466904882 0 0
165.310921247557 -33.8127553566855 1.6910270527834 0 0
169.910786712443 -37.5335494970793 -16.6417591382184 0 0
195.591341408661 -13.6183081839526 3.14072000208383 0 0
151.300277378004 -22.7493588355485 11.187776979114 0 0
160.948301277528 -1.55852957866573 -13.2964795742931 0 0
178.516868204076 26.6661134144854 6.6036192879082 0 0
198.409845595077 -22.2004012127797 -18.2245290501886 0 0
168.807662494458 -0.557025186594909 17.338505074518 0 0
187.371947192517 6.17213697921508 -19.7787157905578 0 0
33.023136886934 16.9200632315824 9.91619426744311 0 0
97.089230025766 0.169558041870065 20.9836628376781 0 0
174.707845512188 0.494712736567733 -17.0256889132908 0 0
141.937996544976 12.2725402371174 17.6370431228139 0 0
161.945607783086 -33.5194420076103 -3.27668206595552 0 0
-25.50185728593 7.85536256093848 -2.37806031113208 0 0
173.442308956699 -36.4245694268702 -19.9725164434535 0 0
180.686833161446 -36.3559822559159 -6.04810527033437 0 0
1.61864807247486 18.3087777427455 13.3570364127426 0 0
-0.578657498095045 18.3475830630804 13.4668875535677 0 0
11.330348390798 0.748759594101534 -5.71807356276993 0 0
104.863381009381 -12.1119375842807 0.919956847938004 0 0
52.0008180268647 -8.87152852565148 14.6494805747763 0 0
183.002633942568 -1.11484173240264 11.9086248846968 0 0
-29.6995016576288 -1.26652943937751 -3.552864561446 0 0
164.89030220617 24.108373353874 -26.399358155569 0 0
189.921884824427 -33.0621429137487 -28.9921475419578 0 0
43.804815352681 11.5431352077081 0.271675461813802 0 0
188.682864567669 28.0460817422446 -24.0933840038565 0 0
192.638457632281 -31.9958882475494 -9.24274448026344 0 0
56.4253699698127 -8.17391928991344 5.89107650586997 0 0
144.733902213044 -18.2441374014219 14.4993621706361 0 0
153.269910908951 -8.43369591731177 -11.6229628931952 0 0
-10.9482246025769 17.3418559444202 7.33260315699911 0 0
30.1248007664984 -7.54964655576225 10.6725022904564 0 0
103.125010803641 -13.5646087222322 15.8053582539267 0 0
48.9519045377808 11.3386398194885 -0.223325468133224 0 0
158.869551137781 9.14090311406612 -16.5118880340539 0 0
182.875812852952 -12.7254814478552 -21.0272278290639 0 0
