"x" "y" "z" "f" "a"
-187.315555736744 31.9306576051562 9.16136224489656 0 0
-188.227972023103 7.5205062743666 21.5839338255826 0 0
-226.308436185883 -13.3345783372834 -2.98312234143922 0 0
-196.67758092501 -16.883321906513 9.82479390840185 0 0
-16.6390486921724 12.268611498425 -14.4360407873751 0 0
-205.450516579069 13.1686537100558 13.4334422053401 0 0
-134.868486410324 11.5411735166493 -9.96508431537088 0 0
-215.612258267342 -22.3209640967736 16.437949970128 0 0
-202.925082265727 13.0681472231038 6.14994256249708 0 0
81.6133175232731 2.56371590665046 0.589184267635412 1 0
-178.101543457744 14.3394042302697 -10.0159811521897 0 0
-78.8092302934735 -2.86286051578021 4.19520054242604 0 0
-200.919429084315 -13.3081832756703 11.1181118812093 0 0
-23.3068961264172 -2.9241258020771 -22.7857686376877 0 0
-184.091545139686 -4.7042251605351 -9.94767241119594 0 0
-115.413771866191 -2.32327563165582 -12.8104753394295 0 0
-195.189448115532 -18.3824697894567 -15.6969794063743 0 0
-194.532368888426 -19.9348936025334 7.82989367049117 0 0
-132.497222840536 -6.84913194259151 8.40899672280868 0 0
-195.2718793081 29.5916611911308 16.7002919878778 0 0
-40.0072753236247 -7.66779253290328 -8.66421996559585 0 0
-75.0212815770805 -6.81037795586208 -5.58495936189333 0 0
-214.642794942289 -29.764596615988 -21.7223047479506 0 0
-47.1230995526123 -7.42104455249373 -17.036826159463 0 0
-222.340212688327 -37.063998576342 -11.3059552992484 0 0
52.2973485512821 11.1774515963207 -17.2580763803254 0 0
46.4174115872599 8.08577111046567 -21.8573666879689 0 0
-200.82957353765 19.2220209014264 25.6369915206208 0 0
-122.985092017929 -6.85782184677825 -7.3221732329556 0 0
3.22111589785636 11.0977277154733 -8.58537821100746 0 0
-21.800920404591 12.1883553958459 -9.79082373755322 0 0
0.907190381326942 10.9922771374731 -8.25622895197306 0 0
-175.80496526137 -15.4695405469718 0.86676303653713 0 0
-143.453559184956 4.88490666065187 15.6320560739828 0 0
-226.680509040251 -15.1993160845868 -8.13143780587226 0 0
-203.514989837473 14.0983226478394 11.0837612903597 0 0
-201.165925122046 -35.5355765222031 12.5967134636837 0 0
-201.536204184081 26.0158635721681 -2.3247816201998 0 0
-170.438584587725 -8.04244563241491 -9.48609620596307 0 0
-186.939109820729 18.2539251647275 23.925290507703 0 0
76.989304910557 -12.7527635498699 -16.1172756169024 0 0
-30.0904278697292 7.85029781840319 -1.93464847017954 0 0
-186.782833807475 32.8140231064647 -1.66958012356214 0 0
-188.928200810061 32.1321914063924 2.88773557456794 0 0
23.3735041128629 -4.97181880523762 -1.34905370148817 0 0
-135.527783913207 13.3166547208679 -8.96796413959118 0 0
76.6621014429393 -0.978732066446496 -0.327029277541901 0 0
-194.314757411708 11.1645697169989 11.5272101276572 0 0
-56.6729839160015 -6.27753730432554 -17.9772358243658 0 0
-178.401667212536 12.7082443104466 24.8073560552946 0 0
-207.089174920029 21.62690887065 1.81412898102127 0 0
-64.1005850813322 -6.26444588003461 -17.0769736197863 0 0
-130.628222912331 -9.08641684244044 4.27000336694324 0 0
-177.398075153251 -15.9461605672337 -2.66118785532397 0 0
-189.900221315163 1.30833309087388 -12.6008854209376 0 0
-167.412821789338 -13.7871587160233 18.1791188796464 0 0
52.8232778781894 -10.3998788788476 -18.4643437650863 0 0
66.6945502130822 -6.34218735508679 -22.9946908460489 0 0
18.3843590189322 1.13773047817307 -24.5159303806419 0 0
-1.53199287148239 7.50136419989582 -1.98524019418402 0 0
-178.931706884919 23.7678758635554 -11.5981451224117 0 0
-114.26330719047 6.92041195342528 -13.6997699222854 0 0
65.8225614870262 1.32785761498944 -25.2884517442587 0 0
-113.313881387548 5.88410430566409 11.3746736069505 0 0
-150.328325608502 -11.7055868139848 8.83095456136252 0 0
-175.449019351081 -12.3294200838689 7.55677072721939 0 0
-131.874353292488 14.6338687817557 -7.99964390763433 0 0
-187.801048826545 14.110909232046 -13.2895656515641 0 0
62.6250758714639 6.49492459615807 -23.5108852596458 0 0
43.1057663698021 11.7694584934416 -11.9940197431846 0 0
-197.55143234618 -41.1376113977713 0.65871250700491 0 0
25.3544761062073 0.37573159279297 -24.7167994344609 0 0
-171.42490162594 26.4193105361896 -0.707479360258538 0 0
-95.1000947596853 11.9825184464303 6.30557904246835 0 0
-197.148929128224 11.4064342153603 22.6270707207098 0 0
-203.485833128757 24.5148236831743 -2.83002484405646 0 0
-7.29133473823912 7.84215028357504 -2.46112350354755 0 0
44.4758977943094 -9.28479052933472 -6.43895794523004 0 0
-204.542926601385 13.4209544478078 2.79632614273409 0 0
-174.3561893463 30.7491793571367 10.7041297828946 0 0
-41.3710497490801 -3.51330270285247 2.56995924745901 0 0
-7.1261607660451 12.0122449233949 -12.7540297925719 0 0
-68.5533743901173 12.2623763477935 -15.6078608599235 0 0
-146.534738834827 13.454437595971 16.8927749009078 0 0
71.7344696391273 -0.420177897342144 -25.2551630349767 0 0
-199.572681548988 11.1272141247853 5.19186971177486 0 0
-174.109003855673 13.6929686359139 -9.31035342718885 0 0
44.0202148155735 1.22450212426686 -25.0285421699146 0 0
21.7511349343062 -9.76077997140489 -9.17397434133536 0 0
16.8871369117496 -6.31692278510004 -4.32747557198554 0 0
-178.937697951628 -13.9751226694404 -7.84626198176584 0 0
-47.7628376138336 11.1033622498892 -4.6897428238902 0 0
-120.668156610653 12.2048863392087 12.2976106690577 0 0
-28.002449070466 0.196955480157678 -23.3111389708642 0 0
-161.78383070684 -2.48268597639646 21.6861879340106 0 0
-179.914646662125 29.531042634855 13.4743134265225 0 0
-193.400531480002 -30.6360479573085 -11.6737329437451 0 0
-131.408760845524 -6.51254780433372 -7.81080470752575 0 0
-48.5835439787399 3.6905446081444 6.12011801418623 0 0
-144.161585388813 -9.92252948803709 5.32660057640927 0 0
1.91887704579635 -10.3410646453488 -13.13136640844 0 0
-37.3957009405509 -7.43384645246841 -18.2363966847239 0 0
-72.515300912824 14.7595134157101 -8.7534727876916 0 0
-116.780616799441 -7.6865814431327 -1.72961845742062 0 0
-17.4272215987541 1.26947400920285 -23.6054029770089 0 0
-135.023249719829 16.9978159252038 -5.30987848209663 0 0
-128.177345567856 -7.77913783568961 -4.81570860368482 0 0
-111.872428797359 4.66267402313378 10.9429876720568 0 0
11.756815203374 1.46300386149897 -24.3269914542574 0 0
-98.2812252503479 15.6843893398551 -7.33387235220385 0 0
-15.5329823893041 1.8211157407853 4.99514809395464 0 0
-91.0956968598862 11.2061632355621 6.3216214282048 0 0
-204.596509169867 -33.9911228262289 14.7972540855092 0 0
83.1570095910487 -0.551194735925591 -0.312052141133734 1 0
61.0733075271062 -8.10051736687124 -21.4995883516685 0 0
-200.727164775733 21.3596824826175 22.6987051698393 0 0
-127.561999002673 9.5927308650339 13.5666117181193 0 0
-147.119489009004 -3.03406238734097 -9.72874693576065 0 0
-47.8667728318295 -2.85914707831628 3.42185472222774 0 0
-174.403406717332 13.1432925427443 23.7325550279645 0 0
57.0402640314909 12.0600740322303 -13.1086632233778 0 0
-196.266421576836 -32.4721905163078 8.83114844030054 0 0
-209.710937644978 -14.982684328025 15.4889862076818 0 0
70.8099641940594 12.8465394224694 -9.76017434608239 0 0
-186.612832727188 29.6482752972677 13.4879830636565 0 0
-158.94600222307 -11.1306453156741 0.56742412501468 0 0
-90.1781006943004 15.4321406115137 -5.95167037955356 0 0
-196.86303867218 1.04432670241079 5.94179847989643 0 0
-83.6913971306756 1.47510107810227 7.50696461191729 0 0
-194.927298594777 -0.000071307698292917 8.67551453935224 0 0
-223.317735841323 -37.7628128884153 -2.44964170154432 0 0
-173.313370727473 27.1481311845845 -2.78424714170717 0 0
38.2357296889951 9.85423289408477 -19.4583028330647 0 0
-204.987843317932 18.5261822441147 -6.70286462398889 0 0
-159.192494994646 6.16341589467913 -8.20440025360144 0 0
-152.346244851184 8.66173367805257 17.3663321030564 0 0
-92.7715568373774 7.65461766277916 9.58526658815933 0 0
-75.7621945822516 14.7078741815548 -10.2296256125603 0 0
-191.544179277444 -7.05337737305273 -12.1489529388061 0 0
-125.707639024952 12.3754414706891 13.4570011226757 0 0
-184.152791692791 -18.033320690483 2.38169036097833 0 0
-72.3234597126422 13.2857236995893 -14.1605122850672 0 0
-57.3061076013639 -3.92649601914263 -20.4007414464103 0 0
-156.490668326595 20.4630202281814 11.9575688819322 0 0
-98.8627339898496 11.1087558376301 8.16631989433742 0 0
-201.22309385331 4.30738786458412 0.156430912960335 0 0
-200.499454586615 -6.55833355726791 -14.6454214127786 0 0
-193.693143162927 29.1871532704641 -5.19592322635314 0 0
-6.99575858519513 4.84230478273732 1.80119203615817 0 0
-165.787271820954 24.6039389882474 8.15887982447782 0 0
-192.237239184716 25.4451846955844 -11.7212645702155 0 0
-202.386025478469 -41.1194723664952 7.53616335116511 0 0
-188.389867866544 22.2349694964438 22.4086948646372 0 0
-49.1342245894575 -2.18773474707522 4.59402430134228 0 0
-161.411982633974 -12.295916056596 24.102826204573 0 0
-136.292437119859 12.9794324350922 15.2975478437831 0 0
-150.419355224513 6.25089306216225 -8.95644760933392 0 0
-151.668048682661 -4.57401796558937 18.9938969032252 0 0
-107.710032269996 4.73834241520451 -15.0748575065971 0 0
-62.2496844848376 -3.69681291839174 1.63067873702367 0 0
-168.14759954405 -12.7618910385029 0.476075545359151 0 0
-62.0108031251979 14.5391669580329 -9.42120253818911 0 0
-95.8766507446949 15.5731796743565 -7.86157437092899 0 0
-163.560777712558 -13.0058316370935 3.5674673691798 0 0
-206.356509824835 17.8772195893844 0.322431973997962 0 0
-192.866940846747 8.83112421587126 18.9869706663995 0 0
9.1601333268909 -4.10621878367752 -23.3136805971244 0 0
-204.396693359088 -36.2852570580178 -18.9650626673899 0 0
-184.766020764054 27.8211785649008 -8.05031197767731 0 0
-176.881865528065 31.8325654244133 7.31484368434753 0 0
-55.6877669882917 11.7398786657566 -4.26866763983053 0 0
-197.358801248672 -26.3117833910893 11.6719958684629 0 0
-18.6384900051552 -4.667046182198 -22.146071432163 0 0
-208.365951995785 -5.5589085191681 -7.96441860498674 0 0
-122.928692883388 -4.3345996263611 9.30619791522096 0 0
-143.461317723338 9.00762168775683 15.5798869998277 0 0
-201.081322719709 -31.5706818466873 14.497126345799 0 0
-180.929081948181 -2.52227949063444 -10.5912308376069 0 0
-164.936418020252 -13.4512620631377 4.52360458677115 0 0
-130.167265635209 4.45569024393417 -11.6995762725401 0 0
72.6100568794887 11.0018513653661 -1.25206994134665 0 0
-206.793686767331 -43.3718771580154 5.14277078769447 0 0
-144.131255870382 -9.62329801757213 0.993387257139756 0 0
-202.60209455628 -27.7823380604999 15.9979780414199 0 0
-17.2754714784503 -4.1018951841315 0.171726155466895 0 0
74.2592990588267 -8.74911115573417 -1.8329891435179 0 0
48.700937095893 -1.03286506584266 -25.0306147200102 0 0
-56.5782987321724 5.05529157928708 5.36388316045014 0 0
-179.799998631118 -12.6880953501669 6.77192583364363 0 0
-137.206030423491 15.7304212951417 -6.8363825576791 0 0
-149.208641349526 -3.60536822809565 17.585709814876 0 0
-101.763168462691 13.1877703593381 6.25964220020912 0 0
-12.1328050798841 5.31735145005308 1.06107682648262 0 0
31.1893245382069 2.37983134708518 3.00613004896157 0 0
-203.147503282224 -38.3514637439295 11.4054933684428 0 0
-129.145405043708 9.6235286205181 13.7562691360857 0 0
-216.001490911048 -19.5201724982363 15.7787998181021 0 0
-66.5194042287274 14.3347565927322 -7.5440509921011 0 0
-176.319448915327 21.0440717358579 -11.2357581909759 0 0
48.7421517043287 1.02430721834593 1.42429712618654 0 0
83.9728131665282 5.15633010445413 1.30461316315623 1 0
-177.460507920096 -15.9363282866855 1.57093728287098 0 0
-127.768675058003 4.22726199705468 12.9245390975651 0 0
-44.4705983342036 -1.28293640894968 -22.404450882525 0 0
-200.586561265691 -2.993989074581 5.81009625242581 0 0
-142.559508872173 17.1183242005161 12.4658769612871 0 0
-184.999288796661 2.27194288140705 -14.0396235059537 0 0
-22.0903957698487 -9.33706980109613 -12.6618731168832 0 0
-133.119739151232 18.0745125710843 0.310068945603906 0 0
-221.498847776051 -36.6162934389269 8.75938953578419 0 0
-139.133623329821 11.1984256232019 14.9835718133639 0 0
-181.565687541392 25.1923681906212 19.4137053320865 0 0
-204.952150276237 23.8430996261594 12.3759213195185 0 0
-2.35802739952635 9.9201583342251 -5.70068563593354 0 0
-225.532346813152 -12.3306067127089 -4.37785925536935 0 0
-49.8487676621809 9.61207111176053 -2.25257044819265 0 0
-195.495329854647 2.750074933797 5.53243743022007 0 0
-196.79551148363 -11.8634807516849 9.60052420099479 0 0
-217.735961033664 -37.9807584308259 10.5636204012118 0 0
-144.768212974516 17.6784812491849 11.9602707339317 0 0
-8.04645407080805 11.4514758988781 -9.1730048187486 0 0
-150.906830320734 -14.4279481957974 11.0694461282797 0 0
-162.513752585598 -15.8692655323794 20.4420775580919 0 0
17.8534650212521 -10.0499416806816 -10.1555960835724 0 0
-131.611909761588 7.58253491020488 13.9096295819913 0 0
-202.479930490488 11.8195885141998 15.6210643767143 0 0
-92.9147334682496 6.01331677155023 -16.8895218097447 0 0
25.6816476376911 3.89529267432378 2.90848989947305 0 0
-184.647441978606 -15.0565741969495 -9.21015945004003 0 0
-37.3836272449194 6.06950299094602 2.02380506826831 0 0
-192.898774207145 15.3127223091801 -14.876683619824 0 0
-205.77727880701 -15.4230172133626 14.1378147353273 0 0
-198.248583082127 13.2463907985395 -13.6198603897304 0 0
57.2471100012618 -9.51994882505857 -5.42167082750457 0 0
-193.046519658462 29.8634337710753 10.5915236170593 0 0
-83.4621036464321 6.13451868966673 8.31520770066116 0 0
-200.937069252858 27.4395075551163 10.1485778796696 0 0
56.8713753435101 -7.47225915654086 -22.0392654045853 0 0
46.5082610462545 4.42286691822098 2.69506950862779 0 0
-16.4085509807095 11.332758626104 -17.3287494054011 0 0
-163.715552011003 -4.28579577528063 -11.1221316866301 0 0
-17.6863541097986 9.39466737416047 -4.76999037394517 0 0
76.5036535984775 -8.06782442680215 -1.58165901491791 0 0
-139.509001802657 -8.21643595698208 9.09567493579502 0 0
-180.704266989363 22.7390721179131 -12.0312154429521 0 0
-188.393141267803 5.32212548443096 13.0928544297618 0 0
-199.150770476731 -22.9848506221433 14.2471107400851 0 0
32.2170487855745 8.90899393063142 -2.65139849243914 0 0
-206.409665485136 23.2918956585349 1.00415178928246 0 0
-165.046675576399 -17.2019642518595 15.0496135687138 0 0
-200.837466456907 24.300365177183 18.6713728538027 0 0
-204.242223174361 -6.8678504729607 -14.8016847113197 0 0
-35.1956640544891 -5.00994396597489 -2.72054801906032 0 0
-191.766889169379 -21.481614019254 3.21539501916867 0 0
79.9965462946047 -2.99834801585851 -24.7023762470095 1 0
63.0391155477785 -11.5941797444195 -7.41929454866638 0 0
-52.5042888563008 11.7578574499509 -16.875771962281 0 0
-15.5746895721284 -0.453965783816536 4.20568041424033 0 0
-201.744289156296 -3.00046299524433 4.12582115886552 0 0
47.9415285754063 -4.64315115691678 0.0945035277247541 0 0
-198.365688518149 -9.24499177439359 9.20957557971279 0 0
-194.152596373284 -17.065312786305 -13.9099880566987 0 0
-174.982985627878 9.46650913263526 24.1625662317954 0 0
-229.360391343542 -26.5669750032003 0.945956221690105 0 0
-116.305899592229 -7.50395169808621 0.871295075847813 0 0
66.427611097618 3.62032768920729 -24.874133240766 0 0
-196.222808199687 -2.4242483603462 8.61051012881214 0 0
-185.047459200578 32.3315729420098 6.46186038859154 0 0
-168.396442704802 -5.51527058607775 20.9856723370027 0 0
-147.804113259739 -9.84803887008919 1.82997581871635 0 0
-99.9375268288522 14.1634353213415 3.16689056738697 0 0
63.6944531929627 -9.99932525320394 -5.07535323801786 0 0
-65.0343768438842 0.927254523583457 6.23515646747021 0 0
80.6231583089785 -12.7900589688051 -16.272111072246 1 0
-172.865892932936 28.4715062968819 4.72535681368548 0 0
-172.364250176209 29.3649136334596 9.01315693714526 0 0
-224.248173246594 -27.5923626946143 10.8115809892956 0 0
-204.704010878707 -3.73458147094055 -9.82862028303339 0 0
14.9916770496979 11.0622862201925 -8.93336951611042 0 0
45.6331016003514 -7.63956311173967 -21.6462216835302 0 0
-196.027207327229 21.0285571458424 25.1223936343196 0 0
-164.410477997405 10.9978944553803 -8.41489319954779 0 0
-131.880729640083 16.887777024653 7.81085387243868 0 0
-56.4044438337131 13.6154755433465 -7.48457743668386 0 0
-163.998542239756 -4.5140919993722 22.1282833891418 0 0
-197.733465862045 -29.6660077832929 12.7888766673714 0 0
-131.312405341319 -8.2265128365741 -3.72245324300368 0 0
-184.306161816571 14.1558264478516 24.7426391751551 0 0
-196.092443769796 28.0824887854535 1.95593935566236 0 0
-213.437266649574 -26.7033492708907 -22.6840587101811 0 0
-103.168465759414 11.4825427994084 9.41009906643114 0 0
-164.654289261393 18.7641640347438 19.6931184446189 0 0
-180.864769635446 23.2052747451934 20.6950625852553 0 0
-164.504104763254 21.798361266525 -4.96389240578622 0 0
12.4927180846277 8.87911723380985 -3.57528209022325 0 0
52.2979710636239 -9.23902063614548 -5.64894605271927 0 0
-129.635765273442 11.0500311884166 14.0093176197634 0 0
-197.345466094677 27.7988653505787 1.22870879459907 0 0
-162.250497101993 14.0154667492472 19.7602303476507 0 0
-209.097963819164 -6.30989884079906 -1.06702777202169 0 0
-180.66255214735 2.45544313146438 21.038183686335 0 0
38.2920682730725 7.21161826298316 -0.255391124939957 0 0
-189.987436508479 30.5165435976791 3.18518451360301 0 0
2.59544679206078 -1.53017286639332 -24.0135940091504 0 0
-24.4830078010147 0.925042198155598 5.05045173928248 0 0
59.428312053971 -8.92641372667352 -20.5751496048156 0 0
-125.339209558658 14.9739314034014 10.630201371079 0 0
-222.345840856682 -34.2274839490991 9.79962329113957 0 0
-203.62742680336 23.1411594863816 17.6439218101979 0 0
-130.715346538341 -2.84125531833471 11.3310194243063 0 0
-90.7430039110443 -0.993723835011198 7.35782959283853 0 0
-161.870819678384 -10.7620560304677 -8.36065254510874 0 0
-199.054557820025 -38.4633466937911 -13.9774326027293 0 0
-166.670679002436 5.86187898029222 -8.68167333686325 0 0
-139.087507617335 9.3830500771744 -10.2299246627128 0 0
-21.1503632696877 6.14998201030783 -21.9874947826599 0 0
-4.05242125511675 -2.39860653072001 -23.66317922558 0 0
60.0552135601877 -9.25409973989195 -4.52711646215608 0 0
-174.53695231923 18.5234135032289 -8.95401911057033 0 0
0.496267921539069 6.73001607854198 -0.998302781011248 0 0
-222.700196195745 -31.102782894384 -16.4869961440733 0 0
-211.539009586724 -35.2612394794278 14.801470509311 0 0
53.4707897590667 6.44323633441248 1.3031870010281 0 0
-202.052906108602 23.252760181661 19.0799511873908 0 0
-62.9238068810233 12.5259159427851 -15.6068960427321 0 0
-209.7462156954 -45.1430939606473 -0.57170147476421 0 0
-213.31677661693 -38.2414894662412 -17.2838663140016 0 0
27.4624910667479 -5.61637544219082 -22.9084580709903 0 0
16.1180094234176 7.07459999928723 -1.13001616045829 0 0
-195.761690451592 12.4800964938003 23.2597881874899 0 0
-106.517466265597 16.1521345647398 -1.69192207982046 0 0
-95.4548632581633 -2.11859068569773 6.58833425182716 0 0
-206.399460051113 25.9769657819618 5.26775042546241 0 0
-21.5959747319941 -5.30765255788305 -3.43685887068091 0 0
-51.3717251310401 -5.25987772979317 -19.789350400549 0 0
-36.50582673224 7.55692932373107 -0.929285482471567 0 0
-54.2749170847068 -0.0468165351284825 -21.9726760375964 0 0
-5.81511427577798 9.5935798778085 -5.14725837240225 0 0
-32.0462441626748 4.12052923191785 4.89067039887273 0 0
42.3945929612958 -9.98372467972694 -7.42778224482031 0 0
-117.899155551245 -1.15098671596983 -12.9544334249152 0 0
-61.7257488767799 13.801476758546 -13.8038287695769 0 0
84.0006197410595 12.066619802496 -0.856553275747383 1 0
40.6357086774523 1.64664829943019 2.27193752094429 0 0
67.3648988187524 11.2956175922353 -17.5120142534142 0 0
35.5043208350117 11.7278940469655 -12.4224632642121 0 0
-65.3439838780091 4.99957648445529 6.40894399416418 0 0
-43.726227432019 11.0670073628513 -5.24675618074242 0 0
-210.773722729931 -44.7589953885781 -5.28692204881634 0 0
-143.205123858382 2.14199788152455 15.8106072337345 0 0
-196.032237876189 -5.48211236020344 -13.5483523277094 0 0
-189.024714264535 24.6937170009073 -12.6095394427919 0 0
-65.9640612495068 6.63137254570518 5.78452146755959 0 0
74.6438679845589 -9.92737425673118 -19.8961809122039 0 0
-190.751525395826 11.0119140549564 14.2760710627027 0 0
-154.018574272646 -8.39445449713392 -9.58130123149623 0 0
-140.950160692745 -9.06901196895067 -1.98255815171217 0 0
-201.310758304574 17.932059065922 -12.6861894447963 0 0
-160.755763786454 7.77040693777183 19.783381673027 0 0
-28.0668145730572 7.28282974768147 -21.188968071452 0 0
53.1437564675374 11.2581807811674 -5.11307022340063 0 0
81.4423081888468 5.41475357039335 1.50568872886146 1 0
-171.643909341155 3.68489668777649 22.7759527640818 0 0
-143.235612928681 -9.2510255281903 -1.42530791227972 0 0
-180.690418146822 32.067266460888 5.75013120317729 0 0
20.0892127590096 -8.02006878350655 -6.59056425089252 0 0
-197.075179755287 12.8623843720226 12.484365618023 0 0
-173.375118866134 31.563358215832 4.80993677419977 0 0
-168.474708871018 23.1224085282132 17.4418618643217 0 0
-78.7537452673609 4.42160978096228 7.45581667878971 0 0
-172.587989399083 19.8616215602023 21.4351062905871 0 0
-147.099378138023 19.1424467626624 -1.9372931028126 0 0
-177.974743854544 20.0229061030293 -11.232164147205 0 0
-206.611295265443 -3.73426376340602 -2.58262772649301 0 0
-223.023827778549 -8.95882452691647 0.376619005991643 0 0
-136.753699033219 16.0819380670526 12.3579208254204 0 0
-146.347470978307 -9.95132722233858 3.69160673292655 0 0
38.410737315373 -4.90397113058873 -1.31107962462919 0 0
16.5332210946099 10.1679608310885 -18.6395733847732 0 0
-180.461680759257 11.045405666306 25.2966337643511 0 0
-93.8154764103912 -5.24694631483811 -13.8569242173108 0 0
56.4265861262388 9.11268838216947 -21.0162242256539 0 0
-190.939165233082 11.9501010592824 -15.830780986225 0 0
-159.774824789618 -18.4322361745375 10.7354187286856 0 0
-173.224500816053 -13.4663306911967 -5.1987752593349 0 0
-205.238602077239 15.102099311007 8.93422250911723 0 0
-191.599351894528 12.6231545152548 23.6489346074218 0 0
-171.185633075667 -11.5703996201065 -7.40300382110971 0 0
-57.5584848311627 7.40800195276257 -19.7533346279796 0 0
-203.966906109831 -40.1947503605845 9.81967063028678 0 0
-205.419642953222 15.4486372088497 0.628932319048385 0 0
-1.23381881546438 -2.24571344996145 -23.7768475590895 0 0
-178.323311304049 33.1906803699382 1.33756380635511 0 0
30.4995235787194 -8.9046647232013 -19.802173694236 0 0
-197.156942437721 -28.5780705751833 -18.1149411505673 0 0
-14.9348479474707 -8.62252481383394 -9.5257793247274 0 0
65.2863034412331 -12.0867701479066 -16.3755743581236 0 0
-177.373706821762 31.4241193051513 1.25628404508344 0 0
-174.138589382697 -9.45470034513319 -8.95182829590017 0 0
-202.487649035886 -0.900925533808214 -7.38158933511785 0 0
-189.112529709968 22.7290902947543 -14.6483187032834 0 0
-213.96858812108 -18.5796746489207 -21.7396997376285 0 0
37.1863870781137 -6.84887311396647 -4.10151229566504 0 0
-191.692672746939 7.45646290887708 -14.9174953907361 0 0
-64.9626407251564 4.30527978134794 -20.6512238496621 0 0
-18.8853750763331 -1.79477598354442 4.18380044883164 0 0
-24.6382226493528 -6.68021050487757 -20.2367529724226 0 0
-216.042917569962 -17.2128603206144 15.1720510748363 0 0
-11.4911475530404 -8.90256142702017 -9.94386644851905 0 0
69.6532915350521 -9.9665484760226 -3.72404925814885 0 0
-165.422228560077 -3.47369554496825 21.8194098372176 0 0
23.9204261176529 6.0634705124745 0.332470365047541 0 0
-206.78865640595 -42.3425146302948 7.4081425643336 0 0
10.8188133533115 -4.16622835685784 -0.291071581052768 0 0
-179.136080981799 8.59648744132441 -13.2042084448314 0 0
-131.614817244942 1.02892196690389 -11.3697448368796 0 0
-190.230857815262 8.51651569446573 17.0017540998086 0 0
-211.438116978678 -12.8765058119479 -18.6634767127895 0 0
77.060527569945 10.3988702590007 0.268736825595097 0 0
-136.33428292904 -9.09161251885619 5.75979262459244 0 0
-10.1492548873089 2.9741640843094 -23.5061166540789 0 0
-99.1731576269229 2.59954900605239 8.97281381285345 0 0
-216.397286542235 -42.6630597602715 -2.11387576108978 0 0
-193.463022709126 16.90417527843 -13.547840029482 0 0
-58.5844865484089 6.16919349244357 4.20663975364267 0 0
-180.07114355337 -12.1949475879664 -8.93692269266406 0 0
-190.997547933204 7.66812322554365 19.191618106072 0 0
6.8783295422985 5.97401181254126 -22.6386074512379 0 0
-188.795997622416 -12.0637091141545 8.39834034295461 0 0
-131.473613324333 -1.30905725936252 -10.9486318607133 0 0
-178.998166929105 27.2154922168697 15.9409958017923 0 0
-165.676109949664 -14.4918390083566 8.2408946141357 0 0
-205.172990480759 13.9969165786238 1.57791919141749 0 0
-197.255991541951 28.4093010256975 13.5742614094131 0 0
-193.165393454395 -21.9943796598298 -13.1070100474482 0 0
-48.9207958391996 5.54379368848193 4.89856388581003 0 0
-178.632474100939 -4.399876228259 12.726469707975 0 0
59.9179995225688 7.47908380747057 -22.7325258063364 0 0
-83.841308901955 -4.74518936050747 -16.3435865698897 0 0
-136.85074106201 10.6619122141925 -10.172471836799 0 0
-203.059294508884 10.1753644498598 -4.61105104026012 0 0
-176.005054763749 11.3742486583208 24.4193339356319 0 0
-211.904595445853 -11.2070187033019 10.5590898138613 0 0
-99.7513902366999 4.60311433457159 9.56123304760505 0 0
-125.702626684881 -7.1937054474936 -6.54220527821231 0 0
-222.757810592469 -10.4932523685644 -9.08170927336147 0 0
-167.934983591139 -0.469362876342441 -10.6749071455066 0 0
-200.637135341898 -22.0430432513744 15.253745332358 0 0
-195.665769613337 -19.4124789677021 9.32562850975434 0 0
-191.555948141051 -29.8050794967943 -7.84173936052882 0 0
-102.639955469639 -7.07089440353083 -2.02704057152431 0 0
48.428935394811 8.67172696657535 -0.880485735822361 0 0
25.1141419199061 -10.5374466234673 -10.3616499868482 0 0
-132.498266336568 17.4870828968738 5.37499722467783 0 0
-199.904783469661 13.5910157423041 13.4501850346031 0 0
52.829460733367 4.90015636786787 2.47189101730611 0 0
-153.649395171601 -4.27082355443452 19.7353525511208 0 0
33.556950489122 4.23860928070068 2.56853505332201 0 0
-186.38934912621 19.4164507286434 -13.0861810091019 0 0
-214.006248596335 -42.2290219744241 2.19683044880261 0 0
-189.528255829569 -24.7305211211245 -1.95682918940905 0 0
18.5075422049643 -7.34580350465622 -21.1886695877556 0 0
-172.767447330373 -10.5112157711151 -8.35768204717366 0 0
-149.178558956908 1.0103180034118 -9.18763531546165 0 0
-219.021026918594 -39.7298586678304 7.69850361341112 0 0
-222.408366452272 -25.6621926174508 12.7992433800019 0 0
-202.60622660963 -8.17367428533706 -15.7220013467796 0 0
-195.573851314168 26.279241035369 -7.99847131921771 0 0
-132.239077153198 3.04975944788732 -11.3910897280193 0 0
-195.112258651079 -26.8365124283901 4.8341734109467 0 0
-176.648357812147 -13.7634895111509 -6.86846468247127 0 0
-124.797470599131 -4.14495338939311 -10.5091675372223 0 0
-2.05797376397424 -5.19162882752985 -22.3905640897471 0 0
-176.60778527812 31.7344801393393 2.82495048255767 0 0
-148.7574468197 4.13745420207378 -9.17897037044737 0 0
-107.29287940266 14.7583728460668 -9.71782531355276 0 0
-67.3610552190489 4.8616033964132 6.71826062191375 0 0
78.3849724028561 -11.8297596316859 -4.97457784346117 0 0
-3.47982809374521 10.4998400996236 -18.3275786009386 0 0
-157.909701671951 -18.3274141979539 14.2260342946774 0 0
73.8915939235075 0.233621180533813 -0.020385122552217 0 0
-10.2505610546556 -3.56493090953064 -23.0643019435245 0 0
-58.084594465588 -0.593552797273808 5.73246010383831 0 0
-77.5492278989524 0.783647796069057 6.98119696958489 0 0
-68.5604061068806 13.6770252076558 -5.09101903359598 0 0
-44.6512269893039 5.83402502355763 3.65333223661904 0 0
29.1270912167065 -3.9852050133577 0.0541728490227536 0 0
65.7766061514861 10.4445484008803 -19.2643034265074 0 0
-143.045164150119 -2.4218219090328 -9.66587862637048 0 0
49.096551748763 7.04097896779353 0.473452479193862 0 0
-179.222546279017 30.4908166739219 -5.98785871898479 0 0
-102.6501821945 1.78916886551953 9.11859218445319 0 0
-186.002836946021 15.5870834466285 -12.0833346351453 0 0
64.6005522444716 -13.0397801877821 -9.15142088087624 0 0
58.3303132040783 4.91537861058296 -24.3335653924817 0 0
-127.999538414807 -8.8111603579356 3.26896876529101 0 0
-173.864696136951 31.3930491869207 2.68438850859093 0 0
63.4652723665191 -13.5330404835404 -11.3286748357127 0 0
-215.591457497625 -43.9276529422596 -5.03562332434612 0 0
-142.355272482384 -6.794010516722 12.7614806885672 0 0
-23.7454225470466 10.9619628571204 -18.1004279053363 0 0
-207.765409901286 14.298495284199 17.8630738050097 0 0
17.5472791600202 -4.93214362711015 -23.0880386746085 0 0
30.9781888846945 11.674039691759 -12.6681100518038 0 0
-128.370943120195 7.7105094899787 13.3981152767876 0 0
23.4041525120299 -3.53586927318656 -23.9873242793274 0 0
-99.1208574980582 6.22948277755709 10.0916829014884 0 0
-154.520035628047 12.5006234664608 -8.45350564113646 0 0
58.8918030109558 9.57929790897425 -20.5036603893474 0 0
61.8047111447229 5.89946772442701 1.92815808684588 0 0
-68.6098358449399 -6.99001859871831 -14.4091262516667 0 0
-221.944809031348 -11.5509543145388 7.48449030283577 0 0
8.68883512307364 -0.619252652532472 3.5906578454641 0 0
-206.500266049674 18.7417983762072 -1.53066733723159 0 0
41.7592693059825 -0.170654308612178 -24.9828224302832 0 0
-210.070796700571 -45.185972791121 -2.48713596014544 0 0
-229.399883994315 -24.1888459238698 1.19380207391072 0 0
-196.810134841125 -21.6790720085777 11.0523846424533 0 0
-164.731573378896 -13.4588052080902 22.1744621704656 0 0
-178.642698812533 -2.2097676746046 -10.2933364956399 0 0
-9.08193924720731 9.55097770853038 -19.6322523516758 0 0
-174.957942971057 -13.7220974960082 -6.12578795670712 0 0
-86.558673461012 13.5408879687252 -12.9542306225745 0 0
-41.5625765571827 -1.60563852691027 -22.5001614443049 0 0
-161.332782091598 -7.33328715358291 -10.6800673441215 0 0
-30.7132267373544 4.61051796788702 -22.3089564123252 0 0
-195.696738553087 23.4407711424977 -14.6993147473672 0 0
10.2527401471995 11.5835047818012 -12.8976037575327 0 0
-222.177047429464 -9.53723755385591 4.14272746426497 0 0
-43.539206039691 9.69515811857536 -19.2078615886898 0 0
-33.2730802407999 -6.30350771326587 -5.64419768080714 0 0
-197.115808279119 -4.94191566282878 8.81755219601925 0 0
-65.4293202046578 1.01676639851105 -21.2346017919748 0 0
-189.134511053495 27.3951307195127 -9.27792021068877 0 0
-197.604369160758 26.3970358490869 -6.61224162545742 0 0
69.2108217314872 -10.8928610300972 -18.513204590268 0 0
-32.7661645231742 -8.76764355279513 -15.3083617202811 0 0
-157.883276647956 -15.3789090244857 20.882104868524 0 0
50.3199531159027 -12.0634745348512 -9.58424096561298 0 0
-225.759113436839 -19.0856948594828 -13.9087562502501 0 0
-200.710844826068 6.36437113737568 0.474979494187469 0 0
-171.490580114233 -4.3036025712566 19.0053016094946 0 0
-35.6453004058262 12.9600638564262 -9.87208986324877 0 0
-194.479985533611 3.96893171404634 5.78911449035854 0 0
-163.072810058351 -17.4583210424551 18.0354188911314 0 0
-217.358717984203 -23.2608196394687 -21.4017735826097 0 0
-142.044954340421 -9.44710419136972 0.17964744661727 0 0
-15.5328544491569 11.1562422767395 -7.99198511259235 0 0
-21.4564311528819 1.26447738451279 -23.4932755702052 0 0
-108.10926567661 1.90660789383648 -15.2126683726104 0 0
-211.727411072477 -25.5231935472826 -23.0884291224298 0 0
-212.596181581357 -6.94884062749879 -10.9293502187908 0 0
-156.768952751561 -0.874484332096236 19.968383576815 0 0
44.8119095415122 -4.95039820528692 -0.508915325325732 0 0
-121.446116768577 -5.08068193769287 8.33159685502229 0 0
-184.365924498032 3.0587875106002 17.8262786576047 0 0
-159.039993416377 21.9738596699693 8.2280262791726 0 0
-104.747279780599 14.361072175113 -10.5121781278799 0 0
-41.710931518772 4.13397145881391 5.64907657216225 0 0
49.8942408506533 9.77378119576055 -2.08487923451025 0 0
-172.73631854964 16.8187965648212 -8.70137125439565 0 0
-216.540435638545 -41.7657229774666 -0.148599889783511 0 0
-198.618995512068 9.3783514065423 -8.68357511487704 0 0
-89.2643749020553 -3.80546058275651 3.82298617903052 0 0
-181.320688113519 29.8517540499591 -5.99067534853812 0 0
-81.2489500759776 13.507828602969 -1.2659388558064 0 0
-126.123438044607 9.36747354594692 -11.5250849380577 0 0
-213.671054912067 -44.2381560245384 -8.2536184840218 0 0
-169.946667214549 -13.6114249425813 1.48308510257411 0 0
-216.181708061865 -33.242538735239 14.5886455344138 0 0
-197.956509769664 6.56136279915012 -9.25783709747558 0 0
49.5106264174436 -7.18155121816974 -1.88900674962772 0 0
-172.424213481707 28.7618464463483 6.99374557884683 0 0
-66.5333813082084 -4.54985750060596 -0.101774867574172 0 0
-208.164036511863 24.3222591305618 8.33756411832271 0 0
-157.940553576497 -11.1298958479511 -5.8826813154336 0 0
-116.56140740821 2.47531677825971 11.0048067877934 0 0
-183.664166802393 8.05844886902176 -15.6042050740393 0 0
-77.7385028533554 6.81009182575076 7.4879038333606 0 0
-204.686204156218 11.4936112316342 22.5094092549711 0 0
-214.498586619997 -15.0769547267455 15.0404273768371 0 0
-35.6390338084871 13.2077019626986 -13.1908652960486 0 0
-203.288198841289 25.0625487666904 0.539770603424902 0 0
-195.503770342069 -31.2770895718981 5.33168794970528 0 0
-184.62502753372 11.4237527837343 -13.9176951461777 0 0
52.5070314678173 -12.7223675576959 -11.3633704002805 0 0
-120.347148193786 0.952904839467792 -12.9830370761496 0 0
-0.271762555393496 9.07304198940887 -4.13331757009439 0 0
53.9411030858828 11.9598035322167 -13.2882373050411 0 0
-156.789522142258 17.1063459460696 18.1339312733518 0 0
-10.6962551930102 8.23788313425201 -3.02411991124427 0 0
-212.578403821907 -39.2145105791716 11.6976840917738 0 0
-204.08177939907 -31.0596501392452 15.7908975965051 0 0
-198.008315453499 -16.2007523487038 10.5194443784004 0 0
-161.982058795522 -5.85313796487476 -10.867297379802 0 0
-194.685736027633 29.283438710427 9.83160539317939 0 0
14.6106875732417 -3.16226172351218 1.80903906063629 0 0
-127.162205764544 2.64837084756111 -12.121728695085 0 0
-193.917519382414 -22.9518943096923 -14.5710466782183 0 0
-154.569577689169 -12.1147415430651 6.35764084300492 0 0
-76.9883170361793 14.8389397319742 -7.70530618015404 0 0
-95.886480020424 8.92773175859491 10.7874492872281 0 0
-169.387348873012 12.6417480508035 22.4094785507015 0 0
-88.7305601475627 -2.03088401296332 6.13565105180867 0 0
-87.8103884513255 11.379193558096 4.98151585064928 0 0
-70.8811764471571 12.7476498321418 -2.55871776714772 0 0
-167.959055195123 -13.2277555250837 2.10088360664543 0 0
-100.030506971035 13.3996127713839 -12.0755439793983 0 0
-186.600954502282 28.0725863405078 -7.6692329742013 0 0
-183.94119644479 3.60701685606884 -14.7596620184045 0 0
-144.426810353093 -6.07824611268526 -9.33446741758177 0 0
-167.523912439291 21.3531677662837 -7.0961405155553 0 0
-205.861882718923 -27.5931747471699 16.9210508226859 0 0
-102.422799555074 13.8699271565568 -11.3569214099663 0 0
-201.326259845016 25.7957725891598 16.1678730244835 0 0
-199.31836861575 27.8009559843185 11.025653920494 0 0
-191.201754824224 10.9846924698552 12.3081206382947 0 0
-135.693323203511 5.58481765295544 -10.7629128293712 0 0
-215.081913728696 -10.3882127127478 9.56598079556112 0 0
46.0003135292825 -0.0744175158465106 1.20968527936087 0 0
-204.53705942091 12.6091898112002 0.950286934619518 0 0
3.4835732376822 -4.74187652348001 -1.85579152947424 0 0
-201.581469979754 -42.5785518663984 -8.78738262595335 0 0
-185.692513414791 32.7170197783681 4.22025019332659 0 0
-141.612846533636 9.63481407830658 -9.88278161650859 0 0
-136.83641398581 -8.16244902963619 8.14583026679338 0 0
-194.587728186288 -4.61817012979711 9.34787943524585 0 0
-154.446373568355 -10.9420297700076 21.805092428621 0 0
-75.9584146996671 8.77591595084577 -17.619364994199 0 0
-207.157224664008 14.4677560905267 20.2736094813514 0 0
-193.536720438935 22.6022558598753 -15.4720170440756 0 0
-69.1606129115763 11.3463462800905 -0.629737915548713 0 0
-203.187298999934 12.0275133075503 14.395306954986 0 0
-200.727240021313 -17.4701025330164 -20.0731730786537 0 0
-26.0524075090129 1.99227380263558 5.28981103473316 0 0
-135.447006698908 -3.51584157610619 -9.80496114911881 0 0
-156.390977326492 12.9832183698579 18.2112637580052 0 0
-221.533919017622 -7.83481514333526 -0.102970385559848 0 0
-144.939313880254 1.31723044563214 -9.73143859189896 0 0
49.9137169268916 -5.7056255180962 -0.108889276834635 0 0
50.3736433645409 -3.84017033156252 -0.101890194896514 0 0
-213.255365062057 -36.98599135355 13.4153939653506 0 0
-155.637181765972 2.45696923043325 -8.63871127865072 0 0
54.9773912158752 -11.7060461073684 -8.31778459074216 0 0
-160.34832996546 19.6708127040248 18.73381675614 0 0
54.5927655426065 10.5368142356582 -18.9084061217633 0 0
69.4793919572136 12.1950226391712 -14.7576824309781 0 0
-179.860375601944 26.973446994666 -10.5873659098579 0 0
-24.0172552366276 -9.16693977793283 -15.3115464613516 0 0
14.7772465392414 2.65142577511319 3.70276004213477 0 0
-7.58078805117588 11.7358319201754 -15.4855066273493 0 0
-9.50739347180204 5.1572984278695 1.23614170792487 0 0
-109.15761472083 7.34141336379046 -14.3375231938511 0 0
-219.482745735522 -39.7183155100192 -10.3580310122748 0 0
-163.323496512252 -14.7254018123558 8.20705897998704 0 0
-125.471064133474 4.97186364548643 12.6481385351438 0 0
-63.1223205427015 5.43720515857133 5.70120734243288 0 0
-156.157051369104 5.61702445466937 18.3648365376338 0 0
-126.964034719157 -0.458548419705512 -11.8781171873933 0 0
-56.218916910766 8.02200287140989 1.42636435107874 0 0
6.74358369631273 0.946825510329638 3.93902165867078 0 0
-221.268120303541 -14.4457265442479 -15.5271995716838 0 0
-181.237142589692 31.6517705358205 -2.64319379482793 0 0
-42.2751276626419 4.98097051690837 -21.7361679435273 0 0
-183.501158459428 22.5125892838321 21.4397672626339 0 0
5.13325558450629 -9.01358921276519 -18.613323344071 0 0
67.548890356336 12.4872723997486 -6.87434262785601 0 0
-168.851544278018 10.1268820790288 22.669686304333 0 0
-216.298950633466 -7.38449950233551 1.66556364461274 0 0
-149.390400643959 -3.5518357891497 -9.85191847222787 0 0
-141.506880668269 -3.34084348408124 14.2884307817307 0 0
-189.252455870612 30.5608014492991 -5.46222604302502 0 0
-170.467764452202 -9.65325083631709 13.700584800363 0 0
43.3440186710714 7.91137566013071 -21.9265239908403 0 0
24.4564733733609 -11.2399654958492 -13.5713658565155 0 0
-116.741577746205 -2.85992950152676 9.04043028663252 0 0
-181.274236165558 12.3564136087869 -11.6551823783525 0 0
15.788104513486 9.99107961464721 -5.47289756164831 0 0
-194.492861202869 9.42882570502387 19.2206270114474 0 0
-49.1049370090962 5.07762235095648 -21.3973072268839 0 0
-53.5759435445917 3.28081862243222 -21.7441725525336 0 0
-137.035869535013 -0.0583973118246029 13.8873844785351 0 0
-173.704864442591 -5.99847635345012 -9.74349921287262 0 0
-228.720063780988 -28.1869791973043 -7.39252800052311 0 0
-184.066970629308 3.67565793624171 19.5113649303398 0 0
-172.037627707065 -2.08285681915903 -11.579767731445 0 0
-176.224343132003 19.7853464242695 -10.5972350427202 0 0
-66.2960821319963 -6.52781157316742 -5.4529740426464 0 0
29.53462342487 -4.12064835658023 -23.8022542635855 0 0
-138.337584144068 16.9417782287102 10.6439353032745 0 0
-217.386203617681 -41.9110672911622 2.91744045243811 0 0
-162.916579210198 -8.44792454957739 -9.82318386209487 0 0
-198.724688940908 -41.518310142327 2.25262277660871 0 0
67.0761925793771 10.6877246560524 -1.57859039766788 0 0
-170.89612116069 26.3946497919368 0.727741098912437 0 0
-143.214676700853 18.6801895691006 -2.30871504131776 0 0
-153.09441927537 -12.0128505905248 20.9709349663506 0 0
-192.594948288663 11.6810017059791 -15.6265281919233 0 0
-194.244328591315 7.86906985818103 5.71520681171857 0 0
-222.251171153275 -38.4621119248876 -4.67809744304428 0 0
-163.709202181937 -13.8402281445794 6.23373603915874 0 0
-82.9137535731838 3.05764449461905 -19.107458899625 0 0
-145.025484947305 -9.69130457336885 -4.68897581594607 0 0
-183.760969118886 -18.4713019388475 -6.21008484112362 0 0
-216.267645352002 -6.96706238553181 -9.5589912086765 0 0
-154.530668300303 17.16095094512 16.4891168758417 0 0
67.3848676433184 -8.18134985367607 -21.5627244502786 0 0
-23.6120914956781 12.5473135971558 -14.6956102796253 0 0
-212.434446651776 -20.2296840832718 -22.5819540503406 0 0
57.7409417962248 5.49703762302668 2.17077148360346 0 0
16.5046717355565 -2.88285315338852 -24.0283170690074 0 0
72.4608586737029 -4.93426038306183 -23.8131203160069 0 0
-193.985907923921 29.2490800904185 1.11037304506417 0 0
-6.32123376164225 -3.10292909588915 2.46960968545191 0 0
-199.747335000643 6.80354607192736 2.32010920464125 0 0
-208.274167843142 -10.9285827471181 9.57816626670764 0 0
-195.478551697829 18.6629519586187 -13.545092211998 0 0
-202.672099346223 10.9715178084855 -1.4361350890511 0 0
-175.46676998534 31.2852322345844 9.50952178955509 0 0
18.6024815298499 -9.52890937463277 -18.5958748037915 0 0
-123.298472762481 -7.20520837442817 5.75540505316196 0 0
-168.899724056095 -11.2411501738983 -7.75857580017757 0 0
-218.567350960616 -35.2394519995503 12.1855197037122 0 0
-174.682345465764 19.5620111256852 22.1087055651146 0 0
-164.884447346791 -11.6629525323903 -6.43919143782434 0 0
-197.830917026301 3.76400693956042 -9.2310103775572 0 0
-211.793619217247 -29.1372931315966 -22.5175999361606 0 0
-170.764756124372 -12.605696111213 9.28393946163625 0 0
-220.697095978994 -10.8232440512257 -12.4220917539838 0 0
84.4069528556466 2.45006240829783 0.525559101694431 1 0
-188.741065365866 -15.9737979265344 -10.7809381901341 0 0
-203.122260618079 -3.07803026322086 -10.6441422676002 0 0
-201.571969953389 10.7099148931883 0.0976174606158493 0 0
-205.229300908957 -8.88425452144581 7.90047078027134 0 0
6.49446569271405 -1.2969304757038 3.50442737383313 0 0
-117.969930330888 7.41906056920012 12.4645579326949 0 0
-193.805432121616 24.8832386542469 -12.2399848549812 0 0
-205.912833127091 -17.4401115651387 15.9882722538993 0 0
-106.485535686737 16.2203453735859 -4.4826470501976 0 0
-18.8266666557043 12.2657347850676 -14.9629935498432 0 0
-191.639603481705 32.715298878913 1.03207912300496 0 0
-204.151527294877 24.9754947152249 8.8113345126148 0 0
57.4137920856747 7.29481270303954 -22.8153159156915 0 0
-217.615494827997 -26.4012721830533 -21.2979117828297 0 0
-130.771543502616 -8.82917251013275 -0.199116768612648 0 0
-187.897093633361 -5.14699035940993 9.8489311648199 0 0
-204.959978412713 -4.16225691800233 -8.0772361204413 0 0
-201.245207752696 -7.02976418614064 8.04660641817534 0 0
3.09537013679049 7.63645834510514 -21.4212832425199 0 0
-187.108562707337 32.2320731291656 7.07438350745822 0 0
-196.74330985757 6.94932134947019 -10.6961400055009 0 0
-184.064677809649 29.9707578944471 12.3265073466144 0 0
-79.907328612792 9.06137484526564 -17.1116967625551 0 0
-66.2414623574521 -3.60828828557169 2.05463805001568 0 0
-147.056391812515 16.7503204312673 -6.33063870946145 0 0
-17.3701914751819 2.22322006468504 4.87039517436176 0 0
-169.236826736225 -12.8007363594815 -0.661419497244686 0 0
48.0121788018598 11.1251593205227 -5.84411064924353 0 0
-27.5968540595853 7.38252721935439 -1.40875137428163 0 0
-4.45214300490141 4.30009768806598 2.91927746379077 0 0
61.6528840952083 -10.00282240458 -19.389716361924 0 0
-189.383616543088 15.685699192682 24.2763153395069 0 0
-29.1323003912036 9.44726863804622 -4.40253687314819 0 0
-13.9487438840734 12.1066359448984 -10.9700758646537 0 0
-176.33233423071 4.98571850914822 -11.515163953576 0 0
-209.711402350506 -28.5089176509839 -22.8045505349554 0 0
-84.0118301165934 14.15814703866 -1.97015672355005 0 0
-132.673229852785 -5.31486126124321 -8.99691352911503 0 0
-92.7765152206916 15.6069822014021 -6.19442448234444 0 0
-15.2075925867299 -5.83239419851001 -4.5070108150869 0 0
56.5799143568277 3.95902436975539 2.20249911876056 0 0
-192.289830615604 8.64181008325194 8.7846842412288 0 0
-159.597605182581 -12.5706242440708 4.75541943101909 0 0
16.2264792934622 -10.9489893984189 -14.0217983699116 0 0
-199.567173161502 -2.31345559196465 -11.911296005971 0 0
-124.027178738465 -8.02964119407616 3.32405262231594 0 0
-192.938440001665 24.4803042749575 -14.0445770881826 0 0
-160.802873079999 -16.7600573595967 10.1527786491319 0 0
-163.359758862063 -12.4514856404486 23.2501172089637 0 0
44.2554986745313 5.96397303034193 -23.4591663991276 0 0
-179.667166557644 24.4500650437087 19.6957911623181 0 0
-200.253304076313 22.839653362687 -13.8994856807578 0 0
-215.091113931881 -8.54706977443166 5.5283888919442 0 0
81.8918796106221 7.54845005621286 -22.9654220628357 1 0
-124.755974204061 -5.60650027417778 -9.10368696262507 0 0
50.5075531087162 10.8903744779705 -4.4018807613116 0 0
-175.152946921431 -13.8827214704948 5.84394160933197 0 0
-162.160332605624 -20.3193771010711 14.0701859961731 0 0
-198.846729704594 28.035657675267 6.60643448465499 0 0
-148.483754519891 -11.0752840395038 14.7416002520956 0 0
-197.561519703049 -27.6302763836793 12.8130953102022 0 0
-53.5022782768806 6.69516102127219 3.17295340187761 0 0
66.4305006149379 12.5915087860479 -9.35354491732693 0 0
-166.533602666783 21.3080272321239 18.4179702877301 0 0
39.9085998658646 -11.3385895192148 -16.0109280901353 0 0
-206.5312549386 12.1399771570079 18.7175932454307 0 0
-27.3194083042279 3.817117052946 -22.6879515606437 0 0
-95.1038082761434 -0.428083694566319 8.07310537923441 0 0
-6.33525040951783 3.54703096112783 -23.4318627552385 0 0
-59.4764696459234 14.1151972236569 -8.10259334514336 0 0
-49.0029436948935 12.1938278269298 -16.4740683572729 0 0
51.1158559460848 0.1273457879165 0.82960626581464 0 0
-46.2935668169726 3.53591567633156 6.03102880668307 0 0
-163.114748963733 23.6031179046471 7.80505466539566 0 0
-201.435774168537 26.5399688236009 4.46629926933317 0 0
-178.941656034293 6.54266586538389 -13.6203722182207 0 0
-207.049994047318 -6.37337857068962 2.8043726460883 0 0
-200.83945022992 7.92923653036976 -0.290363582077569 0 0
34.8525711601608 -10.696217040157 -17.1136811722062 0 0
55.2545868002086 -7.64672501041598 -2.39617234981995 0 0
-26.0608732201686 12.7750990214722 -11.1433944613158 0 0
-208.892621075193 22.6341359813684 9.37579013895741 0 0
-54.0429883373723 4.79897951691891 5.82566615093676 0 0
-53.8393934789511 -4.21573523527324 0.161428260797802 0 0
78.9497399161816 -13.5079493628816 -7.4501843065237 0 0
-183.835903180249 25.3312170050965 19.5225971952467 0 0
-11.8158748781764 2.65688980560179 4.6958065895076 0 0
-200.379603981736 27.0333058333851 -3.40936712017555 0 0
-167.625767963654 14.8043878093857 -8.4364052121254 0 0
-44.4987448002787 3.89421423006252 5.84496202504292 0 0
-189.344142884578 -6.96628903296786 -11.5888105365232 0 0
-213.848416391971 -35.480658296819 -19.3462110755414 0 0
-197.341800810968 20.9998721903869 -15.4977627020915 0 0
-170.661206631563 -4.00169322601113 -10.5004851046009 0 0
-229.384479151692 -27.907097111976 -4.16693742188777 0 0
-151.801401715482 -10.1698799003098 1.24690602004419 0 0
-132.518526319621 9.98604437407487 -10.652423160157 0 0
-156.219701205612 -10.7496584730271 23.3909134018486 0 0
-185.547378031435 -18.9482230549286 -7.33412775474266 0 0
-33.4617346888337 -3.63531979570415 2.00048874751264 0 0
72.9536101167141 1.33205505556313 -25.2793873438674 0 0
-194.997997810996 11.6015904701384 7.80904085069471 0 0
-185.87223296931 -0.968840397269271 -11.5799823740067 0 0
