"x" "y" "z" "f" "a"
-189.948177117034 6.29994914519315 -7.12115643619059 0 0
-33.2513921601746 14.6865459920838 -0.598617671041272 0 0
-35.6233373034357 -6.27664887666034 -5.6991791199572 0 0
-45.14349903941 19.4237474462088 -3.91011501553135 0 0
-141.364241695579 -3.8629023008811 12.2697000170352 0 0
-95.9058031582251 15.1985848293162 8.32542745054787 0 0
-190.871060738632 -11.7962144756634 15.8552362988938 0 0
-101.362118032417 17.3070315432786 7.50448799570199 0 0
-216.831498631343 -5.44256746740143 7.55603311020739 0 0
-227.682808208265 -35.3739145137165 8.57640417582212 0 0
-227.698397737611 16.0355130514237 22.1753102517356 0 0
-201.909650953459 31.6522112111096 8.6987532052554 0 0
-208.355459503272 -6.38791958015507 -14.863755229574 0 0
-139.75005756188 -2.22567964431712 -6.76589779506292 0 0
-122.760203937939 16.1128452328189 13.1961239854156 0 0
-214.005852056746 -4.33698460078012 -13.9946402060791 0 0
-192.724381738682 -13.7365568977277 12.0806926399844 0 0
-107.422705194614 5.10164252886931 -14.4806522742872 0 0
-113.053964444649 9.5666533261816 15.4860374841231 0 0
-220.554832178595 -4.31046410448595 -2.21026864379782 0 0
-185.983590232761 16.0655491845981 -4.54564899993025 0 0
-95.8467287288225 1.23679860168012 9.82976255309399 0 0
-215.016660372756 -30.2240592765308 12.1415372142204 0 0
-161.313907339188 12.9607373487057 -6.31947665065808 0 0
-225.109705471418 5.00448019786336 11.3545385000895 0 0
-130.195952733214 20.0780420439796 7.85004802407736 0 0
-192.029476180997 -8.9353726372851 18.5531835849132 0 0
-200.781556360692 -25.4403142320084 1.83294288739897 0 0
-216.558992062051 4.89418934598195 9.75992078204842 0 0
-217.158590515995 -29.4316999382713 12.3589614786613 0 0
-145.603798290736 18.8285968140285 -0.989015760451921 0 0
-151.380752284285 19.8745159072001 3.01313961684411 0 0
-153.569941369309 -9.47064550843535 3.19755723576072 0 0
-128.627268847544 -2.78939759743551 -7.2943761571987 0 0
-178.060985690319 -10.1877134235222 -7.88006509337048 0 0
-98.6301619472114 3.78777855425464 -15.2058554337001 0 0
-214.290810228532 11.4246867691935 27.2255360274898 0 0
-233.099961643121 7.22827535152057 15.2033032627277 0 0
-7.41470850925589 13.763584635544 -1.62669318834964 0 0
-201.620888949228 -34.0634173204396 -2.03160048066228 0 0
-41.8618228601709 18.2599055692402 -14.0106894570541 0 0
-166.624696354612 21.1650735394007 6.93054887376636 0 0
-187.444554593428 -12.2972750978864 22.8363438219072 0 0
-230.71098655392 -18.3275921397632 -20.5097198352264 0 0
-43.7233858523714 4.53392904062269 -20.4783870705239 0 0
-202.019824028687 5.82765895139481 29.9997249108274 0 0
-141.027410713168 -6.73854198752234 7.86617810715925 0 0
-64.1699142087499 -7.06553713443867 -10.5058193496565 0 0
-149.919522671331 -7.57576207083924 -3.78004632035904 0 0
-236.015951232798 -38.9530707614536 -10.317788357268 0 0
-82.0552601474232 4.56124512005843 9.44280302326182 0 0
-172.304745100437 21.1340468520222 12.7044796022417 0 0
-181.154095785207 22.6917392585539 0.435206394507078 0 0
-235.176287341504 -35.1042862421546 1.00896437680255 0 0
-174.107225905188 20.7484371903524 0.363173900150699 0 0
-188.500669081215 4.49813783543207 -8.16565938662424 0 0
-199.795663700718 -5.01442292006694 -11.1932508174565 0 0
-213.214500937347 18.275057998688 23.9674977295509 0 0
-69.2514453253364 -2.70853378510096 2.17873834886801 0 0
-84.1379868868786 20.0048203345172 -7.23489619292669 0 0
-186.488301475847 -15.692455297585 15.5351748600136 0 0
-151.081722550058 8.07708896587072 -8.47854191035147 0 0
-140.480442047883 17.2816249168816 14.7709812676596 0 0
-213.45321532376 -1.66433856426105 -12.8304841837819 0 0
-199.32111275919 -12.8651547287671 -12.551192666166 0 0
-155.248919422451 9.92669844084741 20.1922385450954 0 0
-115.455393077492 7.04204569400494 -13.5837867746821 0 0
-138.987057505266 10.94211762637 -9.6356060781771 0 0
-165.353017760328 19.1458171047005 -1.34438814906229 0 0
-3.56844009679183 -4.38918198563743 2.14878871227232 1 0
-22.3639791282105 19.3844929557343 -9.06852831690031 0 0
-199.260177456451 -16.6971895014527 8.21202355166218 0 0
-26.5114158781916 9.73892900578284 -20.7249499255993 0 0
-221.672746465794 -48.4101594583077 -7.24857372986806 0 0
-204.436526436466 -40.08200862648 -20.3946942549443 0 0
-39.5640841980195 7.12383443369064 -20.6443699628587 0 0
-133.023098618506 10.604215925766 16.873432267008 0 0
-234.629428611943 -17.568255665647 -4.69577141126251 0 0
-84.5110496226621 12.5905073660221 -15.7749762800962 0 0
-217.652692367753 -10.6771822600637 -19.0894302278339 0 0
-87.5366974342565 -0.517566647655194 6.94265782377124 0 0
-160.640141814632 10.8154575038226 21.1064579658995 0 0
-51.1630451415126 4.7571443014643 6.58991431484813 0 0
-205.806730436441 -0.76960586806092 17.2432439514892 0 0
-217.411820393322 0.0165929159081077 -9.12500502287593 0 0
-167.969348947007 -12.8806624847234 -1.98426993224298 0 0
-21.8045693879671 5.3534415202666 -21.7278995838119 0 0
-139.889563063239 19.8797048379771 10.5495872187661 0 0
-78.9765247294831 -3.65975386141268 -13.1131234893393 0 0
-218.587429176176 9.2248579171085 -8.78804239981813 0 0
-207.656665915722 -45.0206428794944 -17.9392265064738 0 0
-178.873148123105 12.4911227326757 24.1913982195258 0 0
-136.206300703532 19.1323075276484 -0.114415363756721 0 0
-49.1029849919308 12.0592646723122 -18.6995743180935 0 0
-163.857921829071 -8.51571951018784 -7.11596280049829 0 0
-180.26671252536 -15.329852987761 10.3815124295253 0 0
-183.291821806265 -3.42517075590196 -9.16547582114845 0 0
-219.441397633301 -3.72991676785607 -6.88344074279151 0 0
-162.768640936999 -11.8624558621779 -3.95925187372796 0 0
-173.364908819771 -18.186963533489 17.2924846558868 0 0
-183.41559345309 22.6090087376748 13.8378086300051 0 0
-149.515981185407 2.95520763638026 18.0434570072179 0 0
-215.55162980322 -8.01294754246062 -16.6256644583863 0 0
-206.883490963206 -35.0326566127749 6.98130800225734 0 0
-226.870359412916 -34.3406207490862 -26.0795691530329 0 0
-60.1668706707783 0.286674870863147 -17.5573935627706 0 0
-208.168528043906 2.24229682033459 -12.9478545311651 0 0
-189.292836811212 -11.6925952394228 17.5850390075344 0 0
-15.7002852731039 15.2119453845342 -2.34049060159859 0 0
-154.831237451888 -8.73844899721912 -3.31303367201262 0 0
-99.5710710404091 18.9654970862295 4.45649898888384 0 0
-52.7577469448749 19.9052762183692 -10.0277428940691 0 0
-229.086073507962 -46.9199985312151 -6.83601144726199 0 0
-165.651100143138 19.5647596423696 15.0451053533608 0 0
-200.787810153756 -40.8023994659206 -5.98375355786221 0 0
-230.059614022371 -34.4552262629842 7.34353877912707 0 0
-86.0164997924739 20.439808628738 -5.36331674070588 0 0
-73.2037228778024 11.1684500476602 -17.4818751387004 0 0
-135.054898607845 11.4516281359543 16.745948433584 0 0
-4.04657033304223 -8.06709175979237 -13.5182361575894 1 0
-200.762357134244 -41.20748586524 -9.21724005625542 0 0
-123.159934541327 -7.04322488692736 1.28906018906181 0 0
-33.4105041100762 0.0346200789265429 5.48281545887379 0 0
-201.337930367617 -29.2366388095834 -18.7186305183047 0 0
-4.23837129526505 9.85308364224747 0.354532104925711 1 0
-134.957256190186 -0.105157195104513 -8.4474286540506 0 0
-148.956196054289 17.4587559474161 15.5599865332659 0 0
-220.448785371593 4.01321339152799 -3.37457831747871 0 0
-140.386479674164 11.7936265377866 16.3592748634671 0 0
-153.757284894788 -3.18404472674777 -5.89062581576679 0 0
-222.950078427362 -19.7401676112343 7.69270714511413 0 0
-107.868344895821 -5.68275269986055 1.84370276898658 0 0
-219.500825062775 5.75720417461146 10.0435313803122 0 0
-212.276843671491 13.5859384757406 26.9348287336212 0 0
-173.119404999986 -19.0517726904255 21.4359292311138 0 0
-224.041272983195 6.96247060464457 25.3215363228997 0 0
-220.967254977135 -19.3405077498527 8.0898182423851 0 0
-181.531424529646 -18.2554457426245 16.2187664691001 0 0
-178.304706946003 -17.8375883225968 25.8039274401798 0 0
-192.175941642953 27.5836662809964 9.45960546175337 0 0
-187.800616117785 -15.9240048996772 11.0956937588904 0 0
-63.1669740306106 2.96710080497138 7.53971657529689 0 0
-220.040714843598 -48.4659779862291 -16.1029796492113 0 0
-19.0770376467409 19.1699152401501 -9.05195567563704 0 0
-164.501102494624 -9.9429619762377 -7.6062858626854 0 0
-18.9706408196077 -2.95811371802342 -18.5425640176219 0 0
-232.608180601548 -25.314604716136 5.26896673123605 0 0
-59.2724712340108 7.47031785668629 -19.4271899410556 0 0
-193.076517171597 -20.9310775417551 0.29651442707602 0 0
-138.687389754721 0.935494441591827 15.1320573129999 0 0
-159.24867519132 1.81962709359989 19.9029980820886 0 0
-95.4582775318739 1.28763794630542 -14.2939727970814 0 0
-202.839370212811 5.67139699813031 -12.4029598980477 0 0
-235.87114372959 -25.7179519715356 0.770799559320024 0 0
-98.3764827160101 -1.89853328137953 -11.7934451654837 0 0
-29.5048650017963 9.12398311036404 -20.7550512822882 0 0
-78.154846687875 18.345377858549 1.14238179874977 0 0
-198.479075162284 30.2140561497454 11.2824163542044 0 0
-121.332211216704 19.3011600638734 8.83765705367164 0 0
-159.01356849926 -2.92855758461847 -5.81459828591336 0 0
-127.475302299467 12.1979546870828 14.8367367888758 0 0
-166.236845466194 -5.85026540452306 -6.89278813904757 0 0
-209.001949955906 23.2249642074702 -6.24935921257572 0 0
-73.6190153940845 -6.55685784345821 -11.0019888984176 0 0
-51.2427001521629 -3.79671128464752 -0.582007770818893 0 0
-3.73428326893666 -0.198014847422468 4.42231427346911 1 0
-41.8881086837674 7.37806799660148 -20.4593877658994 0 0
-192.336757048863 28.4800085277349 1.9393618433468 0 0
-125.618635678195 19.6343546971094 0.125797976402213 0 0
-148.040660920712 -4.55378325079809 13.7730808675596 0 0
-191.060750179052 -0.301048565325426 -10.0797416142246 0 0
-84.9399586444802 -0.645076593199769 6.51367878543988 0 0
-204.343946707568 17.1591275067017 -7.41074857936211 0 0
-79.6800460847704 -1.25412906228147 5.18566975227898 0 0
-179.432474988065 18.2087206502461 -3.38657965679657 0 0
-110.55501084512 20.1370837635661 1.5688452575988 0 0
-94.2393015329708 12.3020319739008 -14.8924010307635 0 0
-39.5257303820622 19.958700235654 -8.58266131988378 0 0
-47.2986368518825 17.0399339102201 -0.868202496178907 0 0
-63.5389316807081 15.0168369496954 2.11914510557529 0 0
-180.923135090727 -11.7586126007225 -7.32621852621326 0 0
-180.009785517015 -14.0823404861419 -2.07025216136257 0 0
-84.4409956439509 0.409204074365908 -15.2072370193391 0 0
-81.6903538169406 -4.20851096001489 0.793169678689536 0 0
-147.794400861063 4.09365110674082 17.9682623782623 0 0
-154.439139088754 19.6187552990232 1.62358062812714 0 0
-99.5133338276434 9.7926116790211 12.9094777255191 0 0
-193.057024542218 -20.7337260812079 -4.5472250943794 0 0
-45.8231781171213 11.2042048603274 -19.2701102107958 0 0
-220.684405691934 -49.1834022855274 -14.8245597575247 0 0
-230.469526965646 -15.5553428392874 -2.48494329072227 0 0
-227.698481011995 -12.8020374045312 -15.2278336700107 0 0
-161.370180864809 -2.31320136924162 -6.07311517137627 0 0
-183.333388226553 23.3067459584442 -0.165452432162773 0 0
-207.416524331262 -41.4241960131831 5.27223348417341 0 0
-126.597468726517 -6.05462836990465 -5.15988238889485 0 0
-211.077230425684 -4.61022335540373 11.0155746638506 0 0
-96.0548599926106 9.6719552630526 -15.7564789430564 0 0
-55.773673551183 3.48758373781734 7.31370287563504 0 0
-172.52994887903 -5.73716527445 -8.45084333269718 0 0
-102.533200619282 19.0486865995377 4.95364098364704 0 0
-132.511886831162 -4.44608680396253 -6.01161755640714 0 0
-159.99052853336 -6.14001536051189 -5.69339978242014 0 0
-210.195137676264 14.5770953577093 -12.1046313099975 0 0
-156.145571665371 -5.6589347465743 17.3457819363211 0 0
-225.53781412048 22.2809449326997 13.3600761313737 0 0
-117.982254448053 10.2721427166471 15.2865668680731 0 0
-45.0207309286387 19.6998874781449 -10.7848351702116 0 0
-200.334019453901 -1.64110982863779 21.0825097952048 0 0
-196.696659900074 29.4450249671031 9.83407705004016 0 0
-168.903438823835 -11.8544914509695 4.1327934410384 0 0
-194.211794736657 29.4601249385918 6.79433551626909 0 0
-163.345866522445 -11.1862587738379 1.82937740483063 0 0
-205.649710825363 -39.6572278292098 5.17637067273453 0 0
-77.6705398807534 3.78708607994404 8.57615769517904 0 0
-182.148522231634 -16.2525789556832 25.7818722197698 0 0
-69.5754673979063 10.4202344432856 -18.1083067817719 0 0
-155.828736124583 10.3844103197195 -7.65739151916875 0 0
-159.24575354635 4.37767479179318 20.139710448484 0 0
-29.9447592623064 -2.82084192288446 4.07967440839156 0 0
-152.153914959304 -5.48665597248781 14.4206999896972 0 0
-128.323715509514 20.0918034107352 6.03892899744768 0 0
-211.618030279968 26.3042611815332 -7.00847081306036 0 0
-30.266799452831 4.76369159255665 -21.3213647013079 0 0
-8.31147530483901 -1.30900491734331 -20.5698353960308 0 0
-209.666693385226 14.8519387402589 -10.7538210746696 0 0
-237.652052955375 -32.1295177611988 -13.0452468924361 0 0
-100.663590205719 14.3932608411082 -12.6748955632345 0 0
-31.2947575209751 -1.42588418347435 -18.8300433653376 0 0
-84.3159459282152 -3.82508860646736 -12.3943651024821 0 0
-192.357187777227 25.2415060042119 -2.53530749295416 0 0
-170.272126737973 -14.0406973183925 16.2178891321612 0 0
-75.2514981617747 19.0271180931033 -10.1597798424603 0 0
-1.67620010551314 -3.58619169651471 4.12648991831651 1 0
-202.278871264653 23.0968199091712 -4.55473539253921 0 0
-173.605198963446 -19.2449091481815 19.5466842565303 0 0
-77.9201986194102 13.8121954077204 -15.6335624570329 0 0
-167.856291118329 -13.3305139777703 16.3991680213561 0 0
-135.184213621512 -3.87688710189126 10.7763760009066 0 0
-84.9743455269055 4.12627176718493 9.65148275288038 0 0
-119.77379046363 -6.23145278033111 2.99635368413511 0 0
-222.330553824962 -11.1623955964509 -17.4975045439817 0 0
-89.3504865668922 2.43859118304312 -15.7625913953266 0 0
-220.200087821973 15.3546336129934 24.1702482157188 0 0
-153.792984423042 14.7791836719753 -6.12652767838373 0 0
-65.3776348610863 7.46649276823851 -18.9704881320519 0 0
-204.584849404359 -3.10974929975167 -12.4366676982431 0 0
-232.690966744448 -42.0801853123241 -15.2950654831619 0 0
-197.569545159219 -20.8625225159409 -10.747830154562 0 0
-82.2067049800519 11.7594129383619 -16.4544110564269 0 0
-84.8117378529957 16.2724410840064 4.34116400272163 0 0
-116.27264613831 -3.32289264111738 -7.88515358794144 0 0
-220.62496333932 -30.5816876516103 11.978205556507 0 0
-95.2542706900045 20.3658187370292 -2.45004158050153 0 0
-208.563921843741 1.6727817371029 21.0901232698912 0 0
-94.9824403262921 8.67706739960093 12.6029176991677 0 0
-197.964775739555 -18.427275042579 -11.7778077235789 0 0
-24.8951570090437 7.43362248079548 -21.3325034764829 0 0
-33.0143831473789 18.2122116317961 -14.2923719790369 0 0
-216.811970047826 6.96281996335699 -10.1379973538291 0 0
-229.240627211794 -13.9985216928982 -16.0595724245153 0 0
-69.6319086311425 9.0109491399596 6.46506727202841 0 0
-106.434477421079 -3.95039153793882 -8.84131400205018 0 0
-199.628493913687 -30.1274922620381 -14.303054464002 0 0
-224.837596863683 2.78341193897402 23.9362218698627 0 0
-74.3111403012151 20.6834600624463 -3.3573175296612 0 0
-32.8018013085733 -6.20047080102067 -5.43179553909325 0 0
-223.740893583414 8.13683197389791 1.14010894496999 0 0
-219.909352408743 5.82781623619017 -6.59046300738134 0 0
-213.508719672504 5.66806975887583 26.7494186629363 0 0
-71.4129925026481 10.2414828537615 6.15638994974185 0 0
-227.399506969313 -11.9047350825434 -12.5809927658414 0 0
-52.900733284122 8.19306136041266 -19.7535857361834 0 0
-185.22407900624 -2.79430108640146 -9.31301762050226 0 0
-156.471795223122 20.6032451066221 10.2237770426412 0 0
-190.892075317268 -19.4662044900931 -3.30895181173248 0 0
-152.021239691789 17.6476504867182 -3.60792266702153 0 0
-221.78321087204 -12.8382878576117 -19.7893884251293 0 0
-201.995874092267 -13.3941223981149 -14.0878096071639 0 0
-171.350336798764 13.7545155363357 -5.23597388464314 0 0
-215.775505648472 2.61308123190032 22.533583717727 0 0
-225.531303711205 -25.5785432060711 10.3385113869981 0 0
-99.7969765973379 2.85523709435526 10.523184342052 0 0
-232.253793970691 15.7386972250839 5.82253723129848 0 0
-23.2497570996104 -7.72154561224001 -10.9251853217558 0 0
-196.41544817161 23.5394032713286 19.187291790067 0 0
-130.485971986968 -1.15625142199865 -8.18390160201917 0 0
-153.330490328654 12.8298158929981 -7.17278629077408 0 0
-212.606813354658 -32.5146232177368 -28.4295945315101 0 0
-231.558783610339 14.436453610336 4.1622621653392 0 0
-180.121343815704 14.6325723790272 23.6439382029208 0 0
-177.532545386682 22.7921351451026 5.61858953458573 0 0
-14.7204853618148 -1.41197142035135 4.97924829946212 0 0
-198.994650565284 13.7104158137666 -7.08322358153186 0 0
-130.38492604483 6.11660881755189 -11.4827219780062 0 0
-218.616647536662 -48.4785243861169 -14.791070602672 0 0
-219.32601171682 -4.55004809150452 4.57299474799217 0 0
-204.632491582779 -44.8114203619733 -13.4744719467449 0 0
-106.427628049343 4.4074983167793 11.9026572729375 0 0
-203.7855252016 -23.5630357943828 5.01288828696111 0 0
-203.966633430956 -9.5718421368319 11.4952096470496 0 0
-109.197653374591 8.12412461702088 14.5914511530831 0 0
-166.994471122507 -13.6279641717873 22.50654914718 0 0
-221.170040266412 9.90868124318077 25.7365988051934 0 0
-191.054605016777 -14.1369253091231 -9.14825730933425 0 0
-87.0912791361765 0.144802465481103 -14.7015786080831 0 0
-24.7216349542189 -6.21513998237102 -15.4024310768224 0 0
-134.412077799047 19.8201787498037 9.75716484416767 0 0
-234.943985953023 -24.1595213028405 -18.7448349546793 0 0
-192.92060251926 -6.34111781695949 -10.053598388032 0 0
-167.279617967243 -10.7018432784801 -5.85035875819311 0 0
-198.944487695561 23.892108651561 20.1534657801251 0 0
-165.717162002562 15.6768057465974 -4.78478826875424 0 0
-19.856295942238 6.85504996827067 2.56576717436094 0 0
-234.436952390712 -41.0918057452499 -5.25388253000043 0 0
-163.34183051234 -1.37714425380451 -6.36252132995564 0 0
-157.547365607888 14.8699540612467 -5.74308783062239 0 0
-220.887149664153 -36.3749078268328 -27.5942913160585 0 0
-231.860036650063 -44.6499494968524 -8.81052894345614 0 0
-13.9193772850613 7.94512950379113 -21.6981923166716 0 0
-66.6054957103039 20.7170601227691 -6.63667675636528 0 0
-4.53372338190326 -3.71973355629232 3.94693524615996 1 0
-228.259045304067 -29.8175401217405 9.22357487582242 0 0
-230.052112996701 9.83529906921502 3.70628878700914 0 0
-231.250592038132 17.4262033213437 6.06276876746059 0 0
-94.2985474511105 1.63951529258534 9.93586964844844 0 0
-52.1367971733715 18.5111744703214 -13.0983874737577 0 0
-177.575629378118 10.3967021438654 -5.63015436018527 0 0
-22.1180715957796 5.9558255198724 3.16695721813639 0 0
-150.169040391982 -9.14707076144113 -0.497601793833579 0 0
-233.653036958443 -24.2121339016774 3.69215812382965 0 0
-80.4794446838046 5.68461061774966 10.0427451725269 0 0
-216.323878111964 -2.76086725564341 8.19561875040589 0 0
-210.901435142577 -37.5587815377037 -26.3361937796665 0 0
-170.37772790239 1.05989259037623 -6.88921586708125 0 0
-99.8592723250752 -0.556293789219915 8.94422261081085 0 0
-208.998659357293 -10.5519728755146 -17.471977657219 0 0
-149.034357865804 15.3030831594183 -6.18534984703749 0 0
-53.4898842379951 20.3960072615045 -7.6975077378475 0 0
-34.724751210471 19.2751446250181 -12.3828266918042 0 0
-171.516557375964 -0.222953631410778 23.619784383215 0 0
-119.633893882906 12.9055448488432 -11.2732424992423 0 0
-100.258210638694 12.4675250534615 11.5326868565136 0 0
-212.521615223233 22.8539525340423 19.6018890364924 0 0
-124.811580586007 18.9359967009905 -2.46716311019285 0 0
-11.8323605222335 11.6366118657658 -0.252384645465469 0 0
-4.32863005659641 -5.2188471291017 -2.36343245128987 1 0
-86.2713179363707 -4.25201296578995 -11.8050477495647 0 0
-219.687608569966 -15.1329841093778 6.72433237273759 0 0
-211.970236739053 -11.5003385683432 9.4518291868218 0 0
-168.380310113318 -5.03626255006947 23.4149492745859 0 0
-160.7953223814 17.7940149030912 -3.29794295063643 0 0
-200.529078250806 -37.1757691124572 -16.2957851106133 0 0
-67.2932339762392 -0.194188210430327 6.01433655626529 0 0
-78.8772420677773 2.00242902857994 8.02959294257593 0 0
-71.5309959019097 1.63244234564683 7.41008791605256 0 0
-204.071551010505 -33.976151175602 2.47726356627398 0 0
-178.347307247867 -20.020059051022 17.1291711954202 0 0
-222.228964974501 25.2061674286447 14.9859057073124 0 0
-67.9619956120044 -7.26853017942885 -8.08004589661063 0 0
-228.300155533747 11.0283257219548 0.802960987657677 0 0
-197.725421540425 22.6729248655275 20.7236774969207 0 0
-232.137534745769 17.6250077440187 10.8706992343327 0 0
-14.9784858619613 -3.49719416254663 3.61574923111128 0 0
-94.4505131594797 18.8118597981704 -8.21999026145075 0 0
-90.1893371141795 4.69907124058523 -16.4829417687044 0 0
-193.508771629888 18.5507368986392 -4.46577405406132 0 0
-188.95417030932 15.8269970202863 24.8041497369041 0 0
-41.5173805881595 0.704473780507741 5.73162006452831 0 0
-102.110283984107 2.59740703689832 10.5635362683139 0 0
-164.843685697852 -11.5997162425686 19.7096960544101 0 0
-36.8499056572238 17.3229810906821 -2.42634035515128 0 0
-151.286647909496 3.69288284947639 -8.50621113106498 0 0
-233.236120934734 -43.1821091179645 -7.53209339672253 0 0
-175.227942078253 -13.2892822688961 -0.296132177186768 0 0
-220.564242067579 -45.7932707918472 4.54167986058203 0 0
-4.67647381233918 18.0904709790463 -13.1528730699152 1 0
-218.242330210017 -44.3614813785866 6.41605028071673 0 0
-18.1183433346089 2.33515010559816 -21.5954994247167 0 0
-180.598957778352 -18.4384654653201 24.6790481891554 0 0
-233.599659831876 -20.5690085453815 1.34753900920349 0 0
-42.7127481184887 -2.20666920787793 2.6805276139883 0 0
-157.670025081302 3.32327133294417 -7.81076277860199 0 0
-207.529334392593 0.581157199414878 18.4970287874763 0 0
-118.912375683978 19.1543721667195 8.55176074606143 0 0
-4.2960538010588 15.5761167230785 -3.41191914029728 1 0
-226.696579999517 3.39192711562073 24.5886300965323 0 0
-35.4510127544011 15.0532719029016 -17.5402574436856 0 0
-228.761756377378 -25.1102902689078 8.42147845738985 0 0
-218.329765376994 6.07450713050769 -8.46803248317916 0 0
-61.6821499750473 20.3575590151588 -8.18825528691965 0 0
-211.406492973287 3.46004811577464 19.2865987926353 0 0
-228.404480186459 15.7187111467483 19.9731712880585 0 0
-230.572963255129 12.1554693975864 2.74490429026467 0 0
-52.8794337378942 12.3049664246298 2.42409086541984 0 0
-92.5051259364766 10.332417637897 -15.9086469143855 0 0
-31.3626535376226 1.01749982404096 5.66099397814157 0 0
-200.799936151105 -5.06042634851058 15.9827817199997 0 0
-231.163068685089 -45.0046824031552 -5.61629836638039 0 0
-224.520735075509 24.3540478400384 9.58133423643537 0 0
-0.52466099590558 13.7463216093082 -19.3774197031288 1 0
-153.284609643665 19.1608674833493 -0.322265542628939 0 0
-149.223382240382 -5.68194552966045 11.8424499081063 0 0
-207.020559866074 -29.3545764457258 6.55019781622629 0 0
-199.481128424933 22.1261030478534 21.942869033118 0 0
-115.431824564186 -1.18293977330723 10.0772034884836 0 0
-170.506360753358 -3.70328190307888 -7.63224228801051 0 0
-213.411190570664 0.436662725149356 11.1172571733376 0 0
-84.7686524112966 7.26830809692783 -17.29531552534 0 0
-229.970300154165 18.8867393990152 11.2017500827586 0 0
-125.877090889424 -5.63124421226748 6.2297060821008 0 0
-126.310926257678 20.0464290058339 3.70536279005335 0 0
-215.366044014358 -34.1054917873623 -28.539311865969 0 0
-62.7749804359812 -1.43514636641328 -16.1497508643501 0 0
-48.4614737201859 7.21033019798645 -20.2076971037512 0 0
-172.034670090045 -12.9634464046714 0.0227907706366152 0 0
-89.6962620542963 14.6689980764529 7.10382579703662 0 0
-158.3306194885 19.0295565140114 -0.708540093543168 0 0
-209.046849031604 -33.614613300679 9.08658329403431 0 0
-170.532786193226 -5.63867282257769 -8.01609722567072 0 0
-16.1303795717907 18.8670961891308 -11.8144959480278 0 0
-208.221159908791 -23.43561425503 7.65282839427754 0 0
-218.132549860024 7.52642234345912 12.7990755444329 0 0
-193.57953173453 -12.1277014782434 -10.2723718906936 0 0
-174.931838227904 -13.2783693573175 -2.73075693758286 0 0
-208.957530611765 -8.42374425072615 10.5441719231273 0 0
-222.896102096243 16.5455275064337 22.4796818324241 0 0
-117.770563273976 7.93556933506791 14.9617093712755 0 0
-50.6067416929838 -7.20370530707153 -10.03085644894 0 0
-80.6713609573343 20.7218645119646 -4.76706091144833 0 0
-189.899480025884 -2.6070568968591 25.938989698408 0 0
-15.8176495786585 -6.55938947947869 -5.53785765649513 0 0
-114.898842011743 16.8188468903899 11.0993650024732 0 0
-104.125017517642 -0.65214365899601 -11.7001074438816 0 0
-103.785674784894 17.7591879800445 -8.49743039456103 0 0
-35.4207677484582 1.84633156205764 6.07772277861648 0 0
-18.0661422967048 14.6800973117345 -18.3178553159741 0 0
-223.14118890291 -16.381065374055 -23.7674859383767 0 0
-227.40954439003 -38.936615524992 7.11587409131933 0 0
-203.828370935363 -7.77202343843478 12.5997208897903 0 0
-186.789314364024 -14.1872223227843 20.8114802032332 0 0
-120.973228632115 -1.39992780164199 -8.88442022090605 0 0
-105.589217188494 6.54785596136162 12.9583379362233 0 0
-57.8383147283121 2.66812116931845 -18.9544520900856 0 0
-83.8976050237832 -5.53788378940287 -10.8640640939466 0 0
-150.301574498767 -8.62661684782566 -2.22993950429455 0 0
-212.834675577808 24.6200495327387 -7.53044262417456 0 0
-200.279788701622 4.88994635298246 -11.8105491267362 0 0
-59.0854338660744 8.09831777604358 5.14247093414766 0 0
-216.877971785527 29.1073684801624 4.92833209997351 0 0
-112.797097202285 -5.71015822332966 -6.62011763162781 0 0
-202.897015886586 -3.39796138350392 16.0734605614187 0 0
-54.3345598667444 -1.70548133463185 3.68238450221629 0 0
-138.715325536117 9.95436649464862 17.3476742796268 0 0
-209.489352697612 -37.7696176292625 8.90086735961072 0 0
-20.8249535232048 13.2942223618768 -0.727270819319002 0 0
-216.353918306894 -24.1590654330241 -28.6384950990503 0 0
-199.956490084112 -3.73404772048822 17.5192984410852 0 0
-120.028549331072 8.79152925195335 15.4423020705042 0 0
-119.971316024118 2.52573508046989 -11.7689755160158 0 0
-17.8609638823957 5.03481098643968 -21.92662898094 0 0
-230.976521293577 12.3956971212118 4.27927319858207 0 0
-38.4505720309407 4.02242587557974 -20.7319715257818 0 0
-58.9182253475514 -5.14497088151173 -13.7754735777644 0 0
-202.754868439354 29.0959177242132 0.488897868593333 0 0
-202.055469540022 12.79042419022 28.6182279798746 0 0
-149.408409025477 -8.23717419771424 6.44820159724606 0 0
-158.563499318533 18.0357861174778 -2.85309676761654 0 0
-169.339544708163 -12.8802653375884 -3.3367869907127 0 0
-218.400981150991 -48.8654274649464 0.316461743659662 0 0
-202.324997254918 11.1233802777217 -9.70780408731956 0 0
-64.3809521649916 18.768252700702 -0.52672194621977 0 0
-55.3994232329006 3.69521470648197 -19.4889047527344 0 0
-205.879211334372 -38.4987064845811 6.09065616117533 0 0
-195.975041483072 -13.5043017199901 11.2406020652849 0 0
-132.554850398233 -7.01836326635973 4.40692427691062 0 0
-52.9410286107638 -6.76216346096727 -7.33482590820405 0 0
-219.188641119807 -33.2319406793448 11.7274350832011 0 0
-18.0657033744024 8.41577062515849 1.59518310394887 0 0
-221.887394229722 -9.64845961537726 -15.3404711703658 0 0
-222.561508355384 -12.8415890257073 1.51203954043116 0 0
-10.9149253427044 -3.81738116305887 0.981565605932752 0 0
-203.163395485661 -22.795439762625 -19.6908674193852 0 0
-31.4390492993936 -7.21045697985989 -12.9808288731697 0 0
-16.3506533267615 3.8592099159886 -21.9240065572584 0 0
-165.47036352486 -8.88361119760742 -8.02988283603123 0 0
-194.836537630508 -12.0434884169141 12.9396052471327 0 0
-219.547971853994 -40.8913122741671 -25.2532088691767 0 0
-180.257227262368 9.91776454117069 25.2301056425634 0 0
-52.0315111106505 -5.0222343092686 -2.91561036196052 0 0
-73.3097641742906 0.580524086120105 7.16895203535261 0 0
-233.464621385913 -24.8424605932831 -21.0898573613827 0 0
-223.047444306819 2.95719700424228 16.1669752270694 0 0
-58.9522496712534 19.4234810565888 -11.1813883243671 0 0
-169.25901361152 -2.97024262129939 23.210455433215 0 0
-178.970358210324 22.8617783610703 9.63484351190637 0 0
-143.180538393625 19.5278308590766 1.6563440400422 0 0
-150.191026753695 -4.81719891264893 14.5220107761856 0 0
-4.02755115006788 18.5405617789312 -10.5434535077102 1 0
-82.3361109368734 -0.768524234082188 -14.669769748468 0 0
-152.474376461641 20.2572733150774 11.4946046155612 0 0
-224.326265934814 13.0561745563158 -7.07962809204541 0 0
-107.301412038263 20.1370169586533 -0.210769999686373 0 0
-24.6034318405866 -6.8621663620373 -6.83929224183831 0 0
-13.2838652086931 -4.40954592605684 -0.955748093289273 0 0
-40.2566947126746 -3.82508075406767 -0.582825267082759 0 0
-203.601703272381 -6.28902700507544 13.2308480999329 0 0
-230.207646333313 -45.3082492745405 -13.2067292686708 0 0
-212.615430181528 22.3276913930891 -6.85450567127812 0 0
-11.7386973815672 4.77526090517852 3.11440915059671 0 0
-204.45828525154 -33.450758883859 -23.821371952161 0 0
-211.577630456494 31.4883993963163 7.10635953542007 0 0
-164.76125657903 17.0457248719929 -4.00572376852895 0 0
-217.827711752681 7.77905151343302 15.5455195122621 0 0
-238.324968666936 -31.2192028521943 -8.12101845789456 0 0
-144.486810632294 18.1098218490982 -2.84772798335302 0 0
-119.89852835915 18.4708490372341 10.0984134800447 0 0
-107.857081995871 -0.506725973830296 -11.4246613612044 0 0
-15.3082145725721 -0.0487168517206593 -20.8522924577265 0 0
-187.949779195828 -0.481185441855975 26.3327411616981 0 0
-91.4908937991627 5.86664898158285 11.277094461731 0 0
-216.522443106003 21.6513466084969 20.741304772678 0 0
-83.0810939680381 8.29505780882378 -17.3477401618772 0 0
-216.816743274126 -32.8792850362573 11.8997907003188 0 0
-195.3716080822 -1.32861392421996 -10.9024727312472 0 0
-173.500585832175 -7.64159692759289 -8.41833756818527 0 0
-3.58965788117357 13.0121788626797 -19.8987428133349 1 0
-62.8648787531135 19.4201343603428 -10.6549312538936 0 0
-199.677874368089 -35.3613487960901 -14.8403947250488 0 0
-197.232297061404 10.2000808617712 -7.94154851051656 0 0
-220.851709551605 -7.18759358020095 -7.64952224290898 0 0
-68.4375679127475 2.47981258058025 7.61479339055383 0 0
-116.826943375771 0.951689274032479 -11.184871161832 0 0
-187.062036089313 25.7481611861116 4.45526258524774 0 0
-222.230843522693 4.96977719320502 13.4339415538611 0 0
-26.8667212870342 7.1552959874995 2.76634977851227 0 0
-81.6511732251666 16.9622217365039 3.07035069704028 0 0
-87.8690353571857 -6.04094143577849 -9.79463018054172 0 0
-176.149572130083 -5.95353791244444 -8.53917713137893 0 0
-97.5344393008779 -7.03472043574582 -4.86994877652429 0 0
-228.276956147864 -14.8109782869389 -4.81876522177599 0 0
-212.390013409476 4.71101000175307 17.950580088721 0 0
-229.050102096041 -43.6026546810002 1.54512376314892 0 0
-32.4824046613193 6.99373556834882 3.10594624735898 0 0
-221.849887948195 -47.2025347799574 -17.2848208971548 0 0
-216.994593628684 -6.81066978868156 -14.287479610928 0 0
-161.302596353918 -10.7615720144907 1.53177312127493 0 0
-204.837686833202 -25.2464178364751 5.04480734819475 0 0
-217.995870241928 -47.6529426654436 2.37972734283897 0 0
-120.715155372181 17.5776763008079 -6.43707032284331 0 0
-149.891095066264 12.0146983830529 17.7347951063419 0 0
-168.8778544818 -16.3525228317832 19.5359697013368 0 0
-232.573760506259 4.50637442517986 17.7762450364984 0 0
-225.557735972583 0.530951075689674 17.3174694597268 0 0
-209.335306232595 26.8781245361458 -5.76414465986408 0 0
-143.914150158489 19.2436488182866 12.8702509069772 0 0
-39.2038228727133 -6.70730745626432 -7.26052502615923 0 0
-121.641198428846 3.59269252698354 -12.0656635514783 0 0
-44.3194876006198 14.6517971150965 -17.5159368416121 0 0
-103.232127258879 13.4501092027859 -13.0470776702675 0 0
-203.567994342864 -11.1575265209855 -14.0940542858018 0 0
-192.279691642474 -2.17807675625751 25.8850558709895 0 0
-200.396909147813 -30.3332254947125 -3.39684568032941 0 0
-170.147096676953 11.2883545995652 -5.89707869129742 0 0
-164.367704168706 2.7920094270087 21.4550613220832 0 0
-146.891890319336 -5.82664467260698 -4.92123588297581 0 0
-226.478640531695 22.1888841968508 2.23544762309203 0 0
-216.027231356021 -20.8571736935142 9.70685899058244 0 0
-91.5025987358139 1.58692710739594 -14.9977821570301 0 0
-184.413666559804 -16.4140777445049 13.0070704009246 0 0
-209.804688802127 -26.7705815102329 8.94705069592804 0 0
-148.733054197314 -5.42929201022236 -5.16475168161018 0 0
-212.319021923863 -7.72678151297866 9.97511813949956 0 0
-163.207141848782 -5.10100027538956 21.3751351595378 0 0
-109.904240102349 -3.64905297395221 -8.46139940191919 0 0
-65.4251677063592 -6.85492200828103 -6.70858592785376 0 0
-229.413144187941 4.83486922535072 22.1490971781306 0 0
-154.331761082473 -9.78447873912882 0.941437819659988 0 0
-211.373333402463 15.5265779311759 -10.8617920164372 0 0
-70.3468689830959 2.68290345409315 7.78636784015223 0 0
-214.190960648162 3.9724063696014 12.2049109858502 0 0
-215.110138093881 2.411798749101 10.5181809431413 0 0
-179.262572273315 -18.123651289463 15.730225451506 0 0
-162.990970007616 -11.2390585440018 -5.92227710306149 0 0
-226.963900995628 -11.9687968336535 -7.6979733191628 0 0
-97.834182394542 -0.761760057290797 8.08079252786906 0 0
-213.325432975682 -5.25109527543506 10.0255271686995 0 0
-220.746043904411 5.95852505800558 -4.55232039305389 0 0
-93.5783663542713 -4.14244555405641 -10.9314841113052 0 0
-188.915868352358 -0.752000549917934 -9.78414492978344 0 0
-176.598770503307 0.231576925466098 -7.62643193633354 0 0
-207.484883022585 -0.253585550782295 13.9719692237583 0 0
-142.894051040989 -8.05005745830602 5.07302541585297 0 0
-130.375248486417 -7.06137825666203 3.34045728116747 0 0
-180.397172920223 -15.2715750461306 6.12646376759609 0 0
-180.046916876644 -0.872798519016019 -7.85891178601138 0 0
-229.381390197308 14.0298971701939 18.7694315752811 0 0
-103.580290367295 7.3564920181678 13.5707661067277 0 0
-89.1889794075031 -0.0853296985320834 -14.2096640601351 0 0
-198.055337395532 18.4487893130386 25.3220581047819 0 0
-31.7344298234085 -2.53837959152162 4.51579702592958 0 0
-85.0043956409675 -6.72858193351244 -9.13768514513069 0 0
-65.6149022063096 -4.89692233820476 -1.9261481487987 0 0
-101.780057451665 -4.81763518312288 2.49492432391425 0 0
-202.982862422413 -9.29858440122363 -12.9508729344586 0 0
-217.812083970504 3.65654692210178 19.7638448175441 0 0
-142.644420877185 16.1393128164549 -6.00660241415924 0 0
-149.610344553683 0.146868159993502 17.4318555296411 0 0
-178.37930412845 16.9113791090787 -3.93871222979676 0 0
-220.267968786376 -21.6132789982838 9.9113236420068 0 0
-58.8097088701695 -5.2788499618463 -3.28399137596877 0 0
-124.054989368221 -5.99143042459391 4.77988333649523 0 0
-225.940699072768 -10.8704575179604 -12.4927794594634 0 0
-50.3572303172501 9.42450828298643 -19.5579892173232 0 0
-199.78458006788 10.9162306333614 29.2876370266464 0 0
-199.754164234704 -35.9175167460403 -4.87541983631633 0 0
-11.1793309558156 16.675780299765 -4.00978432167843 0 0
-214.023294822366 -6.87757645046533 9.43198599549474 0 0
-17.1787982085683 -1.16336331025188 5.01403429010999 0 0
-182.951228440086 -17.2916069382067 14.9245730175221 0 0
-120.807108063793 3.62455532255233 13.1844124280656 0 0
-226.810398553179 2.04507512166909 13.2656869967489 0 0
-214.481592942133 7.61746633107028 13.8593012072212 0 0
-209.090251395503 4.2877141459121 -13.228366390878 0 0
-225.298664013975 23.060399383522 1.92835131447545 0 0
-100.109287224679 20.0098820152101 -3.91568362094916 0 0
-81.5212531894266 0.735017207721678 -15.7105522817218 0 0
-167.068941128044 -11.3029845322579 15.0074199302912 0 0
-22.1185556686728 11.9706741002914 -19.9355568848036 0 0
-204.738893312795 15.5599691932499 -8.47756491515723 0 0
-206.791052872203 -46.5661287586162 -3.68543412259689 0 0
-188.31575304577 -6.0196107880229 -9.49616754911434 0 0
-193.845604600611 -2.81493694048507 -9.77676637058739 0 0
-96.4141743148686 20.0290800241696 0.332121022838516 0 0
-218.553362950048 10.8812390550866 26.4155016471913 0 0
-232.217720205369 -14.7574707983555 -5.8905220933064 0 0
-216.260547908488 17.3580582521229 -10.350971593596 0 0
-200.687304170548 -19.938276284676 6.19339140623156 0 0
-96.8850158907232 13.1924646962865 -14.0243802195394 0 0
-143.673136766517 12.4880402805957 -8.40292251556443 0 0
-176.447863092791 -10.271699176866 -7.56057368944251 0 0
-174.080524778828 7.09419053501751 -5.84293655496294 0 0
-219.870928774376 -8.6075023072132 -14.7193776510083 0 0
-103.362572159925 -4.87612503836647 -8.67234925150414 0 0
-116.881190714319 17.893080573387 10.2977309313295 0 0
-216.015805846593 6.51165767778864 18.6738798181222 0 0
-8.86944617709424 6.48771533592591 -22.0936180601429 0 0
-217.879299379705 -39.8964574177631 9.54277853973032 0 0
-199.043427878028 -28.0259251994719 -10.0409069534011 0 0
-5.96154837273588 -4.36796509931734 -0.51241567609799 0 0
-200.758357653488 19.2911436359629 -5.76718671333096 0 0
-218.11977769777 -1.84120113733019 -8.56639898563664 0 0
-99.2095117452064 -5.25401838302813 1.21428171577878 0 0
-234.473836312424 -39.0322203068083 -15.9679368270957 0 0
-228.850123808841 18.1674912442945 15.7461294142489 0 0
-203.442555734259 -27.9950272341261 2.55113081446699 0 0
-148.556988621871 19.7604793130192 2.54044307273417 0 0
-22.4299537759073 16.3145517120474 -3.04345446051582 0 0
-197.229463005453 7.43504340556931 -9.77218536316288 0 0
-6.5688640987759 2.28431681897111 5.13952258657996 0 0
-220.123489077912 -10.9439508012401 -18.6956477793436 0 0
-197.551082728827 -18.6511491559759 6.62785532508239 0 0
-177.976175752086 21.2238105166631 14.3189821450214 0 0
-204.705122744573 29.1542693714556 13.7466535602493 0 0
-17.2335859980908 18.740104526015 -7.25871064954294 0 0
-190.539402453474 11.4792029974717 -5.97186488212647 0 0
-219.844290031911 0.477240112476456 3.52578897271953 0 0
-7.56563635714772 1.4696763126528 -21.8021074711234 0 0
-36.8781715752992 16.285376345793 -16.4781046111903 0 0
-83.60530673772 9.81090493002706 9.63422880130168 0 0
-219.234708356331 -18.9026078675617 -26.3590037879299 0 0
-224.844505555359 -48.530782270292 -8.50098621359955 0 0
-84.8542905757161 -3.70027709417688 2.01059035835524 0 0
-50.106868143468 15.7721026715812 0.372060578832881 0 0
-9.79847357322963 14.5899090404393 -18.5241323162918 0 0
-108.835771269171 18.134442685047 8.0555909777289 0 0
-50.0278394307261 -1.91861753638022 3.37843131106334 0 0
-33.3809491630697 2.68993461350634 5.97010448550266 0 0
-25.1727127901829 12.6063273392217 -19.4598030907641 0 0
-207.984467398395 -27.4964459931798 7.67892633208435 0 0
-146.096512392184 -1.52513070064059 -6.68683159875364 0 0
-204.539027279535 24.0433477228524 20.3788924298663 0 0
-7.25437488920652 0.405907654084859 4.6346509138165 0 0
-93.1886524055595 -1.48336982111543 -12.6687613483339 0 0
-196.662193575821 21.5924907110889 21.9894219112977 0 0
-212.123078225762 18.7523479379388 -8.3857929012104 0 0
-71.534295210052 -0.230395724513553 6.26918154486498 0 0
-93.4544760187283 6.28668623279348 -16.3045504882297 0 0
-207.83820113756 0.443715618495281 -12.8756175486766 0 0
-223.323124515258 -21.3231874869102 9.08913144138441 0 0
-160.182710842226 19.674853911817 14.1573660955644 0 0
-185.733708285063 -16.5407241924117 21.6810810837325 0 0
-162.603994352844 11.4426576830195 -6.62454886506733 0 0
-175.00096055885 -8.853542497642 26.1293001942362 0 0
-137.426114452531 6.14407266902404 -10.4676842354065 0 0
-162.659880385565 20.5646288278832 4.57825980367181 0 0
-206.786628354458 -27.6371669753315 -25.5192443379993 0 0
-67.1019345003121 1.63863640676788 7.10652386086406 0 0
-230.955764582549 17.6634136856872 2.74233250425266 0 0
-66.4252915663231 -6.43217772383592 -11.7438838812141 0 0
-167.453197850324 7.71533058474247 -6.37611455515869 0 0
-226.943515744496 11.4375598473657 -2.32898740356602 0 0
-192.3040649272 14.6519898517708 -5.19428929072897 0 0
-203.234633409264 25.1200022936182 18.6548332170947 0 0
-109.965560582073 -7.24067386423948 -3.13641495323978 0 0
-67.9064720815763 4.77391805051929 -18.687856826722 0 0
-30.4009320351275 -1.15689601417379 5.26691404616883 0 0
-206.630508333716 8.30627945163937 -13.4645858771557 0 0
-216.649740099035 -12.6068332243624 -20.9189887132416 0 0
-181.281299582708 16.0168866222046 -4.45350801696044 0 0
-36.6162241710895 13.6361966288811 0.386380331204847 0 0
-167.591314847639 18.904952793172 -2.1126675369437 0 0
-84.4868405124668 1.46705940133786 8.98746901830341 0 0
-68.2067052390537 15.6385984576054 2.1308985242358 0 0
-228.514884830925 20.1050651751135 1.94279124216828 0 0
-232.372593073949 -14.4294797585273 -8.00884834298916 0 0
-145.205252755738 -8.52682301330604 4.22928807649582 0 0
-34.1862310780412 -2.87261734833577 1.87984658163907 0 0
-144.285371572414 2.20898677620468 16.7472431472363 0 0
-61.1001994797866 -6.50679194283989 -5.95173826556514 0 0
-150.241766441614 17.4093986432921 -4.01133704935708 0 0
-147.948299408467 -1.121812056364 16.6615933646815 0 0
-84.9158843541165 0.105290330073099 8.21085388632919 0 0
-193.684137697097 26.259068405069 14.1196624033706 0 0
-215.133630182913 9.61616573176776 -12.2173055165323 0 0
-127.312200522413 3.93842691696325 14.3288701496623 0 0
-219.075306518046 3.91985780150787 -7.2176590883943 0 0
-204.229362649696 -44.8571193963838 -4.74236177562618 0 0
-37.6892741138146 -4.14764295328754 -1.10695570937565 0 0
-213.480338479977 14.1653398915526 -12.5331097047566 0 0
-75.8659780991488 15.4501168038025 3.42638846179566 0 0
-100.378598550832 4.78222769070139 -15.3489712166944 0 0
-212.300534884578 26.317850358725 15.5776888307762 0 0
-213.680933022318 -45.1646110795342 5.07783044579269 0 0
-72.816643893761 2.90774641583119 7.88719888077928 0 0
-116.211643444825 -6.81676859422214 0.629021259367089 0 0
-29.2813672596847 -7.48391304770475 -11.5532303170857 0 0
-210.126540387798 -8.10624254581696 -16.4294420696491 0 0
-226.827194449967 17.652633383341 -3.03770803314117 0 0
-162.145561570037 -11.2791924171595 -4.99051707321567 0 0
-231.279391412053 13.4859588533819 7.12472378112924 0 0
-211.903175530364 9.70245372039045 -14.0605850925864 0 0
-31.9792935397912 10.0371110060286 -20.3548509902319 0 0
-52.1667670197476 -1.82141703865849 3.50832620716761 0 0
-210.002839562616 27.0509620446758 15.0118204622567 0 0
-207.631821678868 -8.81412989095969 -15.7690003038132 0 0
-93.4338822929876 -6.69863973636173 -8.05530293072542 0 0
-1.35032712000011 9.91340314115693 0.24851138287525 1 0
-67.7642470644056 -5.23003484727763 -2.46259855580929 0 0
-184.420569327097 1.42970188536471 -8.19486979541302 0 0
-224.545773234972 -12.3540306680631 -17.5397630299628 0 0
-194.816869252878 17.0736519379615 25.5593801234838 0 0
-186.055168141392 -5.64876932399501 -9.31228785024255 0 0
-165.585276046072 17.9496901853466 17.4564472009471 0 0
-228.896811837635 6.92007243606992 22.9657623314324 0 0
-224.041899586602 -10.5846124864549 -14.7936992589979 0 0
-186.416416831315 25.3937853922322 1.86714378375402 0 0
-121.839669908236 14.4082417868424 -9.93975468311561 0 0
-16.4079624776083 -6.00400013886294 -16.0034749436977 0 0
-216.887929029909 2.77361322626831 9.04575523777117 0 0
-27.4233706319698 1.68023158449204 5.74760470660921 0 0
-83.4200944150022 18.8296598764057 -9.8229672104196 0 0
-199.210494437684 -34.0749059582177 -7.33273662163952 0 0
-134.222344901518 8.70455866552359 17.2144771640748 0 0
-38.8919884610675 -1.82913128947557 -17.9709106168216 0 0
-155.679194774565 -9.44042462502487 5.85180604033236 0 0
-171.32791495468 -12.3326595741905 10.8821543835576 0 0
-160.040488456951 -10.1288146246658 -4.10402921016188 0 0
-162.609736383535 -8.85888813658537 15.0019884726205 0 0
-74.9247331969535 -4.25026547745007 0.0370826148379871 0 0
-39.0990036256968 14.4363675444701 -17.9357559092821 0 0
-6.21618773031404 10.7323959737957 -21.0661947730717 0 0
-150.496814349248 20.485158707541 9.57581637593034 0 0
-125.097603197544 5.00249970421228 14.3357717545423 0 0
-130.539603925316 18.1472723908651 -4.0524609432662 0 0
-223.940713504956 -35.7597906604339 -26.9587511273762 0 0
-79.2378504202862 0.152663235682421 7.12107998966963 0 0
-183.42310952842 -1.32406664133877 -8.4390393714928 0 0
-82.6118573089845 -2.65326502915393 3.47424175170816 0 0
-187.477699277225 23.5855514804968 14.5604507150963 0 0
-174.004797788547 -13.1565839714634 9.33369722078791 0 0
-209.47837444911 -40.7419789801399 -23.8574784227656 0 0
-147.486215377014 9.61991621919539 18.787528869887 0 0
-204.728678561017 31.4332436991098 9.94754008585651 0 0
-56.5897554156131 20.1336178961494 -9.40269419920661 0 0
-214.972272370458 -14.943036018464 -22.9338378196394 0 0
-168.14663156834 20.5430703544849 2.46847019651656 0 0
-227.496510512677 -45.5809824859042 -16.7665644730392 0 0
-200.326086293448 -37.2546357192741 -2.79821662965877 0 0
-179.991493573076 -5.9161150148819 -8.83907121457204 0 0
-83.5199900633211 3.15007540262809 9.06234353476165 0 0
-42.78937054066 -4.16010956582796 -1.2337065773952 0 0
-218.309532082564 18.8602831781781 -10.3624547696806 0 0
-152.835070068861 3.9041056365331 18.7305178572436 0 0
-213.538548230782 -48.9324190276744 -9.95807436549513 0 0
-89.759406622585 -0.593480526772867 7.10110229727918 0 0
-173.979714083985 21.0109955738023 13.69716337296 0 0
-58.2577974199636 17.5440205627746 -0.168793237432325 0 0
-210.231697640329 21.7296236871637 -6.94148923567512 0 0
-142.628191723629 -7.74560050320684 -2.80018059328121 0 0
-167.615257574876 3.93397140651483 22.5518100621005 0 0
-28.4077793343206 18.682061454814 -13.3530123776902 0 0
-225.047910854909 11.1844971727097 -4.57457008430874 0 0
-168.071533013898 19.8645485114537 0.407678481869353 0 0
-232.263402200939 15.3979669168687 11.510020815256 0 0
-234.037084922587 -22.5352405585274 2.42509218409448 0 0
-157.033439034343 7.96167162152099 -7.67633839659009 0 0
-182.861873756445 15.3675077767319 23.7127666891459 0 0
-42.2945250550276 -6.53394384707402 -6.87210626044294 0 0
-227.833765928059 21.8694800687847 9.23302259623748 0 0
-227.725515797399 17.6182713518497 19.4605470908355 0 0
-45.9509487107076 18.5879134161461 -13.2846889086283 0 0
-202.899380778098 28.5555136149378 14.9649864490411 0 0
-223.434445010296 -32.0250823470961 11.164908074585 0 0
-58.1892605923237 12.0942792074612 3.13510282749796 0 0
-176.420159827489 -19.6020087129395 16.9497880841368 0 0
-231.605559505497 11.1956285552896 8.72495895502715 0 0
-195.769134379197 -3.11059832585421 -10.3725069231201 0 0
-172.417914516181 -8.70536263564659 -8.14612857002738 0 0
-229.618443470951 -20.7918786738108 5.54872666233069 0 0
-172.032433672674 9.75689094206816 -5.87796725505993 0 0
-181.842102614981 0.389749216959821 25.7244361208494 0 0
-232.178113241133 -17.9712196737332 -18.253638976145 0 0
-204.373404053442 -31.9975542392542 2.64130419288339 0 0
-41.865549330265 -7.1603574608617 -10.1507730624032 0 0
-228.236482066045 6.99866323407807 8.1527229911906 0 0
-34.7548859511072 18.6032805237393 -4.22360688865404 0 0
-139.236657900201 -4.32703534875896 11.0902738343284 0 0
-220.902839081097 24.3609616292562 -2.73112972649434 0 0
-46.3963954521275 14.3957649818414 0.818382508378148 0 0
