"x" "y" "z" "f" "a"
-43.7282585836225 -1.68981093781792 25.0018041211799 0 0
13.433638010312 -5.57794941696624 3.23351682204643 0 0
36.3553158161315 2.09724912053534 27.4660224691947 0 0
204.939274713475 -2.32038039106221 10.8932828962468 0 0
198.662088827057 -28.6597950456056 10.0567149098022 0 0
38.9983253066087 -9.46382530641251 7.85171845031971 0 0
197.426973900334 -25.5330048207896 15.6674968769285 0 0
211.640521766155 -32.7438713737936 -11.0733688603279 0 0
95.8870597170465 13.9039402385027 21.7501277895765 0 0
198.788616270399 -16.5202879677998 26.6757210111978 0 0
124.005534359678 19.2984853262808 1.02103998974201 0 0
48.0379330338834 15.9193303485009 19.6016820939996 0 0
188.621951682586 -12.5337780095183 -27.021118273939 0 0
99.6091400054428 15.7135575400737 19.9545078102733 0 0
179.090888730034 -27.7857349634525 6.20728192396067 0 0
215.604209615599 29.2257544963149 -17.7810115259216 0 0
188.032136834502 -27.6303996565035 -34.6969235768474 0 0
170.157911807856 -21.2067270509421 -17.2435469854534 0 0
203.821696164492 -15.8780458971689 -27.7984206600045 0 0
174.708284877394 19.3098147054014 16.1368719585161 0 0
185.446409053431 18.7664902144617 -38.1733272858003 0 0
22.8850959338497 14.5817648061434 20.4489004272353 0 0
143.393030909441 8.83172152453553 -4.70908787215707 0 0
215.53780073196 21.636634247406 4.58362463675761 0 0
177.740584115982 37.24045093022 -13.6353646554612 0 0
190.035486316875 7.23646207556712 18.9582409804617 0 0
119.420749483059 6.32064119214299 -2.01970887209628 0 0
203.903729073663 -31.6064400510932 -1.23497870298612 0 0
32.1947068323776 16.3392610501128 13.8979805285179 0 0
-20.7905026988204 -3.98900260048117 -0.558271714136533 0 0
133.328760443904 17.1359161013461 -2.52221816053546 0 0
34.4548501389184 -2.35642663600751 -1.58864844964988 0 0
197.464673410831 -38.3329447808298 -25.565461476446 0 0
202.575441405807 -24.1986146732188 16.5168427847296 0 0
184.00187586808 6.51901931220961 -31.6657964144115 0 0
94.2024904603271 5.65649327641994 -0.353694573618847 0 0
-49.037868659138 -12.5993890525 9.2080799178824 0 0
168.085123333292 0.0095921331375457 21.7096561743864 0 0
77.7393167691474 9.86121375751524 1.18103808063738 0 0
-4.53331698491629 11.2279681126735 22.5380149465477 0 0
196.107751014781 12.7891944337305 17.668557479257 0 0
211.440783239274 31.23694846378 -24.9724256951934 0 0
3.3884678304047 -0.846394537448774 -2.55450315099136 0 0
180.871951204041 -32.6468326635977 0.854682687509121 0 0
-12.6827519192642 4.70795512959895 -2.40187524230392 0 0
-87.3519141484101 -16.9145040671243 8.21703840350503 0 0
186.425412009325 -38.3773484151134 -14.1982096931298 0 0
-0.400715151632664 14.3598439000803 16.7348806792244 0 0
212.674226680581 -11.7297554309084 4.90836340751421 0 0
161.853383413575 3.70026254517087 -7.90013065344401 0 0
129.271641715071 22.071858056289 7.97016785773791 0 0
121.019753474644 1.54728980725956 -2.43160354082129 0 0
47.8799352407993 8.0553505314111 1.58077510176022 0 0
179.520097014029 -17.9646727984985 22.9172981778947 0 0
-5.56747726718348 -10.6529110757161 19.4930415036226 0 0
198.787085479435 -7.43776391294965 21.973854691034 0 0
156.787762589229 11.8369318950942 18.8174848395673 0 0
104.397501212118 14.5737849572005 0.75577268785695 0 0
90.1526051865618 -4.15276215481389 26.11780208024 0 0
172.719376294435 9.183224020467 -12.5778315189764 0 0
168.450214443754 -27.6962506799586 -8.83679181699202 0 0
80.9938177761717 8.87371413240837 26.0158136753701 0 0
215.634799128054 9.09586209021243 -5.73003933626779 0 0
4.26303879279099 -7.98862941472066 7.30544597734722 0 0
16.8194937144984 -8.17551445346193 22.0904843764899 0 0
-45.2143495174124 -10.553904093801 7.05976791849734 0 0
76.2606562648528 -11.0699871219362 16.8336611084578 0 0
181.771054908366 -33.5517066118228 -29.092468245087 0 0
-21.2390488375037 5.25670112807995 -1.69385644494577 0 0
-83.5849134271369 -6.76575942586562 -5.65530927485935 0 0
82.0626164297099 -7.72297086774129 22.9720937545258 0 0
169.397608776087 -17.7103645020324 18.2720426447073 0 0
-60.0003717300613 10.4836687858787 12.0185194499691 0 0
190.801611464 -36.209334077352 -21.1469570616533 0 0
37.3889177570283 5.46724640569983 0.151468996865717 0 0
128.500775079804 -13.3752145058545 17.6640600881126 0 0
177.460541227495 -17.2519350986408 -28.5132824497481 0 0
-21.8469642477903 5.7597924181156 25.0075929398232 0 0
167.258367696968 29.0683674266004 -9.33951583363536 0 0
161.754622708397 -23.9741795505452 -8.15059162472937 0 0
31.0300489367924 1.79494057448573 -1.29439411602528 0 0
-43.0374830171698 11.0658743904441 17.7363675585179 0 0
201.291146011585 -32.2387330643639 1.60288319004644 0 0
137.521220249085 1.21529291358052 25.5340324920156 0 0
204.87250754073 21.5191250667773 11.408164557778 0 0
-88.9056849910488 -6.49890150543638 -6.17290440910706 1 0
78.4591297574562 -5.41707852477039 25.0158083930516 0 0
139.827466877505 -11.1529699256291 22.0106308738408 0 0
43.4754562626643 1.03259714670713 27.4771569395573 0 0
168.773768186026 2.30823442532149 20.802835475185 0 0
203.409767395693 -2.95603229259116 13.5861534209923 0 0
-60.4624228901926 -12.9987188496719 19.2173401482199 0 0
-40.4477424996449 10.019666087996 20.3830656990319 0 0
70.6221738893785 -10.1642724723079 18.5515046930769 0 0
-33.7194863122261 -5.67293907406745 1.02746039626341 0 0
169.705726197594 -15.3134847923056 21.2695279652452 0 0
149.304086907505 21.9370988491907 11.186879584116 0 0
1.92901285180529 -3.73626059395919 0.155511466416888 0 0
203.98726903594 35.4881943827129 -17.6769449092556 0 0
175.501998027826 -35.5481570908441 -7.03158134629324 0 0
143.801772535761 3.79976669190542 -4.69014881060006 0 0
197.056460226435 35.0112862684076 -6.03908428735765 0 0
-52.6608362177086 -2.23305010301983 24.3164354445346 0 0
194.237200483628 38.5317947110348 -16.1856036959578 0 0
43.4624013034998 4.78756319490204 0.0948252047943522 0 0
184.246584569876 -33.4792378788349 -31.0551691045246 0 0
-46.1055980040027 -8.38509395290412 22.8814917770824 0 0
70.5196783104813 13.2558413580295 3.9988898814289 0 0
208.614902484259 13.3564093672284 14.2006128318137 0 0
166.514120828971 -24.8232881809061 0.0682914433899231 0 0
-53.6791620334155 3.37881416353651 23.5998720854917 0 0
192.045537770644 -5.06263936405711 22.6001005572498 0 0
183.26004481457 -28.2833733047543 8.81507342549085 0 0
7.95066377100315 6.74787052844359 0.316460066128867 0 0
-87.9543118139933 -17.5380377234957 11.1447113614309 1 0
54.0015432940648 -10.2571887781198 7.38681239135165 0 0
21.4656104258725 6.87838676655881 1.21301915555035 0 0
166.091534324173 -4.39944875998025 -9.7617448715265 0 0
211.046652114931 -27.3492498443011 3.15702818849813 0 0
149.263903156865 10.2539923740621 -5.94437869470524 0 0
207.992206360101 4.73743619997173 8.49052435599615 0 0
198.599051698292 -35.8449844367157 -5.32017893506165 0 0
85.4682856914215 -1.0155586972829 27.4557909729026 0 0
131.054708112134 -18.0659974878452 1.49649567098364 0 0
198.926988579406 -18.5098224703882 26.6961194651511 0 0
-24.0723115244063 -8.26982058571467 23.0865306535119 0 0
201.900405736317 8.90326038712666 -22.7788894201393 0 0
158.797354529367 20.2157750629802 -12.1428033028133 0 0
135.064705371895 -2.63814078873301 -4.33559978612866 0 0
132.691068685592 3.51715080568894 25.432641666683 0 0
208.003608475738 -4.82019617725973 -5.97634971520404 0 0
-32.1471373799054 -9.46783964199212 22.2473034270252 0 0
-86.2985769889114 6.61670208969528 2.11863552824623 0 0
-37.0489017203687 3.82254895971295 -3.05396369277137 0 0
183.694214675238 36.7163822817405 -3.51280136779743 0 0
-50.5275466789278 -6.42596341383058 23.615607530393 0 0
186.548277753564 -38.4231487361362 -3.3780523524615 0 0
-68.904968602141 5.26430042839505 20.9535698330402 0 0
124.468926494346 -15.4066921627604 -2.94971874544778 0 0
97.8626156645738 -12.6570949179125 14.6724919811847 0 0
122.481332670892 -13.1873371471191 17.1301410845094 0 0
-54.7862488384449 -11.6696614608438 6.90276114750336 0 0
117.981606531291 20.7467161708266 12.4375390916609 0 0
-24.8497403638469 -1.97306870951673 25.8036851207586 0 0
94.539204268311 -10.9875404380368 18.4378927175946 0 0
217.745326035187 21.3732741635376 -22.3896433455529 0 0
-49.1147657605682 0.341559879313705 -4.09326643463799 0 0
83.135826567133 19.3674524465981 11.0153520966739 0 0
102.804936422086 4.68289590877504 -0.818679453595824 0 0
195.553373909954 32.3266692694808 1.05392726813204 0 0
-25.8148552397484 -4.40851003315408 -0.236342051936425 0 0
198.830216806275 -37.6006012895832 -29.6419131639371 0 0
23.8723104344253 -2.79622837855141 26.1156050374057 0 0
178.267327723533 16.0388953171995 -25.1404809293481 0 0
165.854076538162 27.1241333735194 5.46309374828475 0 0
123.774547965445 9.36646900188008 -2.32939279358372 0 0
-3.30627092200501 -9.41867307249118 21.2563378902276 0 0
-19.9530461409218 12.9916491571863 13.8366773743933 0 0
208.445250793862 -27.7407717414657 -24.4978667089923 0 0
204.813573201737 -2.60893402362085 -8.07099440969469 0 0
217.452153660039 23.5783323494898 -2.89620403248749 0 0
191.216733453351 14.9149123148367 16.6160020615584 0 0
179.412750940465 2.01573843009281 -15.8386103036287 0 0
-30.7718417963611 -10.6738284634496 9.3176235597536 0 0
-53.9217192502545 -10.8677662376615 21.0934814145994 0 0
-85.0271574145268 -17.2697934810939 12.4225437407458 0 0
-24.8559994099459 -0.347304609187767 -3.81521682583131 0 0
172.543690119631 5.71013335715135 19.0787867056066 0 0
210.335223494922 -34.5389920916587 -16.23860717504 0 0
137.263604759818 16.6955302709043 -3.80163963669862 0 0
154.069353255259 24.7503701651397 3.73588188000999 0 0
-65.1910633532078 -1.80209033172244 23.2523481264114 0 0
165.376137521359 -18.5584323905897 -13.5089132473095 0 0
210.931348488132 22.1593596455969 7.68833957126492 0 0
24.0542656912573 -9.53023902489658 9.74209139113701 0 0
-70.7430339168608 -4.46445333590889 22.6049410986303 0 0
-47.6109410960644 -5.61490878578376 -2.06910694764664 0 0
179.815300162598 3.87436410690362 -16.5731210738237 0 0
187.089761138889 8.59220377661971 17.2618077269594 0 0
174.191716994723 34.6914335530141 -13.9919356016544 0 0
194.604431106813 34.3980220211187 -1.95909629770336 0 0
-28.9104405895013 -11.9499293990368 18.6919648944682 0 0
214.961979887804 14.7789634147206 -28.327519996124 0 0
-33.282646667063 -8.50441334218098 5.92836706348149 0 0
205.101084120194 -33.1560178173464 -8.83834965094178 0 0
184.173880250512 -38.4242282230534 -4.36075352960743 0 0
116.073162983561 14.1113007049227 20.6184084179686 0 0
185.985501530353 -22.0445165615474 21.9771522096936 0 0
172.631220040046 -3.10852816738063 -11.8028205883018 0 0
165.705425505656 -16.1035923108561 19.0096128202152 0 0
-32.7650991247326 -2.55418023752788 -3.34440087776654 0 0
114.390079755747 -4.19052542846757 -2.36250947187127 0 0
169.181555418883 -19.2761006979497 -16.1345919990483 0 0
68.6533043323797 10.8827642163722 2.26475403265813 0 0
14.0466513704992 -1.24530917758797 26.5371830413569 0 0
-60.4983168675274 -3.56062872820654 23.5826448892267 0 0
-42.213488880451 6.7840355639464 2.65409541161392 0 0
-15.9667537364501 -4.40323041891729 0.729938933216441 0 0
-29.5693226148369 0.433997145796899 -3.88875284773712 0 0
157.281954604148 9.89652178738992 19.5171887951198 0 0
186.463863738388 28.9632971227577 9.50060024922793 0 0
215.178028213487 29.6044170710943 -24.1990232150624 0 0
172.553872799238 -2.78696782224113 22.2164095640171 0 0
169.91160441223 -10.5833978797193 -12.8530446662248 0 0
-85.0168405444941 -17.0466390871335 9.71589716169282 0 0
174.643261455518 20.3784220011021 -18.3933324791729 0 0
-86.7392413812656 -12.6414729385937 -1.71686202292119 0 0
166.654395454182 -17.3751451864489 17.3955086202853 0 0
208.733466115984 -1.02349044317675 -3.14649850784941 0 0
-23.0007406115273 12.9784940565908 15.338830109511 0 0
-0.192097285628802 6.40675688615224 0.0986803066511169 0 0
-8.87377090779069 -11.5191101128512 14.188851475482 0 0
-84.625009286179 6.06043346411599 16.943511425139 0 0
36.1438235102982 1.38228864084525 -1.05478086044011 0 0
201.680234095483 -20.1393759752403 23.6927824861627 0 0
197.846770746616 7.48103612791661 17.6125372376629 0 0
168.850529333386 -12.3544504746186 22.979522881809 0 0
203.694407539814 25.8222212968554 -40.7553875312123 0 0
55.8879470006153 -2.02433237590231 -1.05362758769412 0 0
14.0624654837401 -6.54018117766596 4.557943583902 0 0
178.871284416281 16.5796396267371 -28.798583781405 0 0
2.94864678798247 -10.150024290787 11.2451570530974 0 0
212.072343843611 -23.0666599075677 11.0317245401995 0 0
163.681277698476 -0.0457036844392923 -8.59475796606754 0 0
116.11301291986 17.6041272669062 0.889569094899147 0 0
35.1455842456639 9.23104839977722 25.5368814190762 0 0
187.329336252017 -2.4768222477042 -18.0388077954904 0 0
168.951370550148 -13.276853133492 -13.4978894072338 0 0
147.603820465068 -19.9424187060994 2.3240247128289 0 0
182.54784140594 31.2063320575326 -30.6278878678701 0 0
174.155371205406 -7.14863109052459 -13.5653806195857 0 0
62.3342198749099 -2.88829994596143 -1.12485728133458 0 0
162.893314665596 1.6503038482352 -8.24931430797026 0 0
50.011351359433 -4.5456708528756 -0.793293388997694 0 0
208.251574140706 32.4091323918904 -17.3676887636759 0 0
32.0451408509903 14.6014853349824 9.9408609368671 0 0
197.029317788566 7.62431506793116 -31.4952792694973 0 0
92.5810194978564 16.7677666947226 18.9935974957419 0 0
96.8518795410471 -13.9458649375498 3.94005761946893 0 0
-67.1934418362599 8.67372472873791 6.50442541524567 0 0
217.793095593601 17.5345802783875 -5.79707768626287 0 0
194.316874976066 38.1913390830421 -9.5234752087185 0 0
154.854620960842 17.3445663929376 -9.70028373707305 0 0
203.046666591592 -35.9174128639145 -18.2035513607415 0 0
48.6676244881813 16.1349174787458 10.2295682609729 0 0
78.0839751910093 -11.9508967787843 13.6757201563555 0 0
124.196399800233 -2.05442515625407 26.6352380264384 0 0
81.8494801193123 6.95262123734848 0.385172827840648 0 0
176.283143184817 34.195532781887 -3.53618572228469 0 0
194.087751174476 0.150405538557608 -12.7864833315188 0 0
-82.9849025814936 0.59250882070329 -4.47743014785634 0 0
202.655192367576 31.7780302066242 -33.9978628422844 0 0
199.277873446747 -12.3528035999137 -27.9784809351395 0 0
104.719170546666 -7.09607439197981 -2.31085252617588 0 0
-14.5638902944796 13.4188945567555 16.6017241862894 0 0
200.110334074751 29.4119137428079 -40.133353206317 0 0
206.210284139767 -10.502467004594 -21.0589029974738 0 0
-56.5047924811056 -2.38377549923437 24.000795401291 0 0
117.650780880949 -14.7121374527901 12.5537922489184 0 0
69.10060290927 -9.09551492058294 20.4710130789121 0 0
197.583036252476 -36.612536663852 -21.1953657258625 0 0
141.644291757498 -18.468085921386 -4.38626616238594 0 0
-1.03123352289595 -10.8326042035415 18.3354092953119 0 0
-8.92321117498971 -9.75877468445091 9.98174923694008 0 0
177.312223981986 -18.1937780945226 21.4849226660194 0 0
214.73246212675 26.7503394569232 -30.74112054573 0 0
47.7888991527625 9.92673108262796 25.3353152975179 0 0
-40.0083106195152 -3.82737943924334 -3.10796187718766 0 0
-17.3513080788018 4.4471669517741 25.6201652200835 0 0
136.14890133144 -2.15615032165533 26.0398289504069 0 0
108.239424223823 7.92633273516515 -0.907070562258107 0 0
205.248039902935 -29.3154637531717 4.42620438290435 0 0
-36.6456444133723 -12.2431806267657 11.129906212049 0 0
13.1851906187318 -9.93461626781434 10.9930736275729 0 0
-72.4631634817667 2.11127342162266 21.9745751924116 0 0
189.012988215366 -37.211885941864 -18.3938498561355 0 0
114.765970571254 11.6306329805271 22.6102509471069 0 0
160.857326422516 -2.67828241082001 23.4628550106652 0 0
174.247737618984 30.9489454867006 3.14913885764344 0 0
133.585334457239 -18.355770908196 1.54990077227836 0 0
198.654397517037 -22.0951739770629 -34.0742410227349 0 0
171.635511305 7.2916982989619 18.0993879172841 0 0
111.608755993163 -13.8665581615602 13.8320529641512 0 0
99.0772780547095 -1.41273561392516 -1.22077409053674 0 0
30.2661406547915 -9.81841556681627 18.8502819153101 0 0
194.762636569861 3.42509674457046 -14.3914888597497 0 0
-16.8152520001991 1.59081179174168 26.1026498938183 0 0
-69.1114723839086 4.72234393076055 -0.353943950226587 0 0
39.675547781168 5.80553719378614 0.311347313666578 0 0
185.31285747499 26.4955461219475 12.5534336872137 0 0
147.455957144624 0.246211138377089 -5.56611554236409 0 0
203.912148057225 -38.033009065038 -20.2981233599655 0 0
213.295549443741 -22.3424557300171 -0.470935258854454 0 0
191.775394487746 31.4567455176796 4.32576483804833 0 0
160.686921603249 -14.8642646019288 19.6090047737372 0 0
21.6785293389273 -4.45083623245792 1.40461169345037 0 0
194.132257732249 -37.8638497780379 -13.9459768285027 0 0
149.743573274286 -19.8407612224509 3.82181829829906 0 0
-73.1682620763928 -7.39145067826918 -4.45307439736667 0 0
58.0266167237137 -9.45529078015097 19.3315222842458 0 0
81.1695279845158 -2.71501776730902 26.7502206283031 0 0
13.7269208234909 -10.6885899023633 13.3092917261898 0 0
170.309865310942 30.9408742515182 -9.90787739896836 0 0
141.869620102313 -11.1446660681817 22.1726719601889 0 0
200.012535709274 -5.13909474863465 19.0934515946476 0 0
198.738197710202 20.6092747083897 13.7731838712435 0 0
-45.3316569472246 -9.24506250772241 5.43020278451362 0 0
166.141486538885 -6.47795756490689 -9.99688776970635 0 0
26.8902005373628 7.46976634165646 26.2348889663052 0 0
8.57398510384271 9.16742625794679 4.62616107201453 0 0
20.331940066707 11.0061556940503 6.26991076086029 0 0
178.244861920709 10.8498944170517 -18.4213623705266 0 0
190.695705307644 -1.3599973899343 -16.7168282500604 0 0
-16.306631404164 -7.54895766976014 5.90103004108161 0 0
187.497462323622 -30.1873897945878 7.29779334737508 0 0
144.313607026619 -11.448337879281 -6.74009126369913 0 0
111.977651857297 -2.38041748082497 -2.00723094072225 0 0
187.23063870917 -21.9841741892073 -34.5063699218596 0 0
207.959696153766 7.56379421446215 -29.5548377445707 0 0
-10.2808042673144 -3.81814996244574 -0.269513738869301 0 0
-40.2602359961167 -11.4867856817092 20.2712669658245 0 0
152.213328601359 10.653375457096 -6.4061363413242 0 0
209.652845830648 -15.3835768368149 -17.6223592068736 0 0
198.463598094676 -35.6978412949402 -19.6851536049899 0 0
32.7071219607781 -8.73633921801134 7.0242738865693 0 0
182.766865212859 -30.2810833161412 5.09533034404393 0 0
198.617509754828 -34.7143559773257 -17.872654662744 0 0
101.901419454838 -4.67591456000701 25.9582596313744 0 0
118.257582120338 -16.3354924210922 1.2259830476331 0 0
10.5901908010066 6.69209882273295 0.0665052354375123 0 0
86.9505055886899 -13.1375290268224 8.05794901195785 0 0
-51.5938004211083 -5.97182684829636 -2.16099631852323 0 0
210.812614372603 31.5389178502864 -20.3501927924581 0 0
-3.22964305434938 4.44518908805835 -2.3225896146568 0 0
177.381561567348 -30.0542985509191 1.17631110171339 0 0
0.225245521746681 -7.50739031393211 23.1999847534438 0 0
197.455448315076 -1.78301867241045 -11.8130772364765 0 0
-63.9880613481303 -6.8282673601116 -3.5258622738861 0 0
154.777398959099 21.9081049765559 -8.30735965335827 0 0
117.055406045462 18.3029383890161 16.7729329920744 0 0
183.063628095393 39.2969938187073 -15.7180508120225 0 0
-10.2076856549015 -10.5637764393013 11.3618838482494 0 0
182.1954544132 -31.2646180352481 3.25459779469042 0 0
-71.6882320705231 4.24530861769223 -1.08446868708678 0 0
205.067548821246 31.8384151887102 -32.3765042123438 0 0
153.03348960995 -16.7351804694327 14.0244785375958 0 0
8.32561834238221 -3.00955600403411 25.9374213759623 0 0
109.106637706955 -14.4549122969266 11.2928104129439 0 0
178.395714033249 -7.37812546083226 -16.6782129689934 0 0
199.900922363266 -36.4859111785519 -20.1643605581603 0 0
188.582421446346 -18.8972285937073 -34.0145751792094 0 0
66.1658613167174 -9.50333703187946 3.07790910204499 0 0
154.621243527547 -20.2719711705274 4.68153869053597 0 0
180.522887843857 38.1512922231461 -7.96752890433478 0 0
177.224009220332 25.0171412054757 -22.875723683377 0 0
161.154477721714 -20.0299633038089 8.85916740181743 0 0
0.657136765000793 0.493129742254389 -2.91476428332792 0 0
100.912831842586 -10.9484543401225 -1.55472111770296 0 0
198.448557671631 -21.6414781649677 22.3046270700558 0 0
122.947497568929 21.7111703884781 7.66301882301621 0 0
184.238109353826 17.1197030229046 17.175776814146 0 0
195.875788999473 -8.25629178385932 -18.6855858157362 0 0
86.9807867627136 -6.18720602120702 24.6083540892586 0 0
206.697267761197 -26.5865114088644 9.26314486115509 0 0
-32.7674360605549 11.665190425148 11.1750099405678 0 0
22.7473007881053 -10.2173878213203 11.5634393581293 0 0
33.2693142158612 4.79098072597147 27.2289821149233 0 0
206.328599538342 -6.82204100762133 14.4111380435268 0 0
169.608827009295 6.21349777060438 19.3260063950267 0 0
32.1448112652581 0.280523936260474 -1.56609030890186 0 0
-90.432801061683 -6.6563422219082 20.1372186470821 1 0
49.8144606008817 13.8299944455939 6.7963889764271 0 0
182.923941415084 6.86852651392337 18.0415316910332 0 0
74.8789681971131 -11.7673354294847 13.8839349589651 0 0
214.672386484955 -17.911326308565 2.8969016168796 0 0
-52.8554393212928 -12.0762258892716 19.982469778115 0 0
193.969726260684 -39.1604745819423 -9.76374290672981 0 0
134.295036537562 22.1039861642025 3.29104855821562 0 0
15.4152105383 15.2952068303603 13.8942252139533 0 0
91.9459498104008 -9.8385734022205 20.4551096097311 0 0
146.605084238673 14.8546877126555 18.1963219465266 0 0
198.478998604822 -4.31280711025645 -12.3766100396878 0 0
152.306955873428 -19.669901602398 5.60532318901898 0 0
189.32625069926 8.31524855328988 -28.0206293282085 0 0
144.629340180807 22.2052508814798 -1.20492370249084 0 0
144.025522789753 21.0077875087873 12.6876249690119 0 0
95.7388536671154 12.0132270137491 0.881636782857543 0 0
167.525849278063 23.8147534868806 -15.3672485973299 0 0
58.811885063729 -1.01518618733837 -0.618163094611482 0 0
141.194489791133 3.93677311158549 24.2747149775416 0 0
128.528577389044 16.3078394136378 -2.01571160645523 0 0
-17.9988211655043 7.24154034336491 24.5760791659968 0 0
18.4753285154093 13.4198616312186 9.58819184969681 0 0
49.189102794169 1.2602567798347 27.5853197499405 0 0
180.506661117154 19.3266407372379 16.9134750867155 0 0
159.754761234762 24.6913417359421 -9.38097313300013 0 0
189.055686356532 38.191743394582 -24.5809816120441 0 0
0.261716117035151 11.0924037694727 7.72604175977996 0 0
72.9449775261921 -6.20685428493402 24.1897794298089 0 0
184.277476845722 -35.9377177569478 -24.6105405164241 0 0
213.686313678699 -19.1273750865332 -3.50634197836156 0 0
198.090666082811 25.0744328456171 10.4743185914381 0 0
87.4730572446855 8.72874634390943 0.555227626985179 0 0
-32.0580192098402 9.20243692921257 6.50364606637675 0 0
40.3512878686666 -5.13745340184636 0.871289405282385 0 0
189.579096585696 32.3470883840954 -33.6882908174917 0 0
174.139597276044 6.1280174195173 -12.6061802666916 0 0
54.0334974907222 9.86451616079544 2.64782707605483 0 0
-54.2312040219029 -3.77165692485296 24.0289956239692 0 0
130.890923499408 8.25007920305364 -3.11066259715228 0 0
179.041702396162 -24.1730813803115 14.8881718380753 0 0
5.55939508385336 -2.22369271448031 26.2058363103827 0 0
179.479034719847 38.0266894024899 -19.5618766896827 0 0
196.102984183596 17.107589649492 -42.6558999170239 0 0
176.324998910099 -32.8739013131844 -2.23364728273956 0 0
213.305250913041 -13.3614455086864 5.95821811943738 0 0
-54.2864487355325 7.96213824260002 20.8602937584162 0 0
29.5646922599142 13.0858346141643 8.1046192308565 0 0
120.225674146898 14.1128329307215 -1.42146657617736 0 0
-8.35913896319232 -10.502089020356 20.0662764798139 0 0
181.214344495567 -23.7053919155515 -32.0521284369824 0 0
-66.9897544463481 6.16915164011615 1.88671898194811 0 0
-28.8636829562469 6.47656027938049 1.26759748289435 0 0
198.172138632084 31.0097125596491 -36.6156933196974 0 0
215.795093704641 27.5849051413197 -28.2180937750229 0 0
196.178155669183 -38.1993668659583 -5.87985395634221 0 0
119.682575319096 -13.0251542478393 17.0546213389005 0 0
63.1130865550311 14.7103054277012 6.30402224904998 0 0
-45.5116088158415 9.51447562282454 20.2868396391375 0 0
43.1745653632334 -3.8211552117427 25.5735617629838 0 0
204.311340792667 -8.21938443373895 -17.6721476550649 0 0
-5.35776418187332 12.6917743597902 20.6110314761126 0 0
48.256385810677 -10.3677778432947 8.9823031899048 0 0
182.722344762171 -14.4447118387906 25.5688835072624 0 0
187.609572190368 -25.0357180763567 -34.8681390295861 0 0
-19.6157851711744 -4.9028162954332 1.44185826891743 0 0
204.529999015497 33.5108176688627 -10.6670037310246 0 0
-7.39587241257083 -4.11727119068587 0.599934106874499 0 0
95.1407476726784 -7.12703868952793 23.9718568808238 0 0
206.95272580304 30.718102114957 -34.5021106543908 0 0
-10.6614773078211 11.4600314106586 21.7307169995628 0 0
180.149847144271 38.3221959563283 -10.9192805892835 0 0
166.095741681691 -8.08420099453602 -10.5420815926433 0 0
171.574382134246 16.3480858029928 16.8525218754829 0 0
160.753668441117 15.4320978660029 -10.9438086551029 0 0
79.8660980716028 15.3458772863221 4.58074460613819 0 0
-62.5915164274703 2.14720225786917 23.057117571403 0 0
186.021968381252 8.81193791805438 17.4889757480416 0 0
205.021430895794 32.965240064457 -9.17736775938839 0 0
185.090331597858 -9.66457074238794 24.9545681204539 0 0
207.60251964641 20.2774725369098 11.843481145705 0 0
123.275144945347 -17.0872609829121 2.44761929792619 0 0
-30.4808258677616 -12.8134982305065 15.5306600964325 0 0
124.643822327587 -6.61283111486442 -3.63520530739135 0 0
96.3621276834753 -2.21527824308618 -1.2494626010227 0 0
201.452768041641 27.7306225730499 -40.8369437068174 0 0
-82.2478396125098 -16.7223562868538 9.68837727954115 0 0
137.91392013256 13.5498225205274 19.6843709060343 0 0
211.77485742845 -20.7136809862277 14.0203689251596 0 0
168.792335530834 14.8085044292153 17.1472964706449 0 0
214.376136320218 18.1554660960425 7.60099275612144 0 0
173.765567783628 -23.2264089372508 11.645426892673 0 0
194.183185303216 37.8475868620572 -18.9967218620327 0 0
-48.6687788970324 0.905939795961989 24.4752412180202 0 0
-42.9387378508984 -11.4377399547779 20.4068671674144 0 0
-0.935333606730003 -7.00987888542397 5.59564762078032 0 0
-67.2951902308266 1.12503904673931 -4.32264501913833 0 0
-17.0648321335346 13.1580520287111 13.9240271275047 0 0
-36.2434505400252 9.09255823107658 22.0210606985213 0 0
95.7094962818946 2.96819858015854 -0.528469940477275 0 0
213.927413953251 -18.4756501911538 8.8168664192831 0 0
136.080662725464 -9.39063347346077 23.2832704633315 0 0
-91.6305770333613 6.25569563575353 14.7644294608779 1 0
60.211798521039 -0.254446513229683 27.3906503837887 0 0
140.075879135641 22.4296272526278 8.98346211763189 0 0
175.592038108508 9.23717326904194 -15.014458341832 0 0
150.081100995422 -16.3928586925949 14.3033145022918 0 0
108.686370254073 20.7678464505092 8.8617997747609 0 0
117.714026139964 -13.9277880730281 14.7514242449848 0 0
-43.9840177174996 7.22348788410369 3.37779124771417 0 0
166.726144206388 -2.10498279157363 22.0807709390013 0 0
146.453753280976 22.1549918604059 -2.39280967742767 0 0
210.546020723787 26.5598572902246 0.659608152890692 0 0
166.057629722005 -22.7075685044887 4.87336809724927 0 0
-89.9730884158228 4.78207906539806 -0.704398226227368 1 0
183.852280231167 -34.7307889751719 -28.670549822108 0 0
3.7408269434142 -10.9090887925577 13.2786883163297 0 0
3.36680013600699 3.23412700551586 26.6485193144095 0 0
107.577206054159 -0.131323570917646 -1.51020456924447 0 0
59.0488349924587 -4.09026751514768 25.5247569830226 0 0
192.28887505563 38.3172390342344 -20.1908848298532 0 0
115.541984102242 -15.3152256302763 -0.39954175038889 0 0
201.825546822889 -37.5395635331554 -20.0128410248338 0 0
55.1161184639951 17.1752631120944 11.2716607060147 0 0
14.4943763101956 7.73164652427298 25.8482398632775 0 0
99.8933358478367 20.3520031779789 11.4968019882741 0 0
154.349456561257 10.8760132187425 -7.08155613461199 0 0
160.122982095142 -2.94752584425198 -8.17932163206708 0 0
160.893117113836 18.0863486574109 15.5084094310956 0 0
101.765675852568 -6.08722175455549 -2.0071802812066 0 0
213.210252078814 11.6965845195462 5.97503742769211 0 0
164.316958689924 9.09645118350602 -9.33650819090515 0 0
201.742165207009 31.3193388905702 -0.679368435685769 0 0
56.9393877248141 2.17940586880795 27.7478966673307 0 0
57.4490665562524 -10.9831184431434 14.6535211125945 0 0
15.9948014181675 6.34522900235743 -0.289547201206014 0 0
128.86872409308 -15.1413473566956 13.7928497335115 0 0
-11.8103347250937 13.6248969765276 15.1577733895855 0 0
101.324177696396 -0.403028256856217 -1.18140328623355 0 0
117.070778353165 -4.01876245460405 -2.56450658688881 0 0
128.497836776603 -16.9649682357942 7.51979684863064 0 0
217.136945832867 28.3392311632568 -19.8563808417226 0 0
173.953771043371 24.2189542344137 -19.702441994484 0 0
-52.5248125215822 6.12868925904105 22.5358092617518 0 0
-23.3476823902088 6.9547050618914 1.86094915380159 0 0
126.628000606114 -16.7509191205923 -1.65872215829186 0 0
142.286657609532 2.3574200396233 -4.63512402674139 0 0
208.074410722619 31.4437682398578 -10.8650477756411 0 0
179.133700078319 -37.2184869798645 -5.09763914931041 0 0
193.823871957783 -12.3805724344123 -26.3315119422177 0 0
-84.1453570487421 -4.40981771855427 -5.78974379005176 0 0
199.432523174539 28.6622613540912 5.5863935634672 0 0
96.08536704178 -13.8378725929925 9.30973612093109 0 0
190.880710843666 -27.5785086733897 13.3342056513706 0 0
-5.08687055986896 -5.97648367524172 24.529842158362 0 0
129.973240075752 -16.6289777940687 9.35811161997023 0 0
-6.59916890434122 -6.97441332402353 5.36767329000928 0 0
-89.0943252779198 -0.158577785662225 -5.15808654521389 1 0
-21.3201298140652 -10.1509277426558 9.67825349676568 0 0
188.463578651685 -37.9306198213241 -16.5842809710333 0 0
216.265900037999 28.9616977472153 -22.2171226878277 0 0
84.4993866080289 -1.54199558126438 -0.592299042631486 0 0
200.805146826102 -15.9537257189948 25.6475145334513 0 0
-4.73822156473008 10.7128376886645 7.50979598653271 0 0
-55.7664664224425 -11.5254173790329 20.5847813574582 0 0
172.207235130799 -30.4035677221124 -4.34098771364686 0 0
178.685171664719 10.813415863173 17.3527286072149 0 0
191.699446426504 29.3816401234481 -39.3888974125177 0 0
202.013142455445 35.6655238449409 -11.4190807641934 0 0
176.606664452617 -5.09198108382095 22.7603877121965 0 0
206.651545175292 2.61477945387701 8.34673647983545 0 0
-87.5293853106804 -8.37751020176151 20.2337080981481 1 0
137.049304062936 -13.3151367128945 18.9291199691717 0 0
8.4273864377105 9.87216576287963 24.3925140533279 0 0
147.709718232116 -15.6806617078912 -7.59257141835303 0 0
23.604716556635 -3.73860567397252 0.227927827798158 0 0
206.075066652716 29.1950135035276 -0.663515839207112 0 0
153.809535644537 -17.4594367648149 -8.82738959576567 0 0
13.8498780935319 -4.53364298701812 1.72377714542188 0 0
19.6515666164304 5.61239738590641 -0.440777194400571 0 0
214.166052169624 9.81198371937375 0.703768955027448 0 0
132.438280917662 5.39978743685977 -3.29970060002452 0 0
134.188824707161 20.9817342303931 0.77478286920097 0 0
106.896973581112 -7.30752436764358 -2.44015902666834 0 0
190.490625390115 -32.4134793030384 -33.8712707528658 0 0
175.863706927633 1.36401087213425 20.3600921325475 0 0
66.5210472499108 2.17384679421188 27.9056718869367 0 0
57.9841480648194 -2.82000601375405 -1.26794708102998 0 0
149.065800986929 -19.1303231265089 6.00704915268641 0 0
127.555467882049 -5.90351013794587 25.3456214423114 0 0
209.198710122085 2.38485619278408 3.52879925927158 0 0
164.981231833769 -25.0295080658562 -1.86594140917314 0 0
21.707940500869 9.95208658122568 4.96935392982919 0 0
41.3245305028861 -9.87059532824814 18.496494354661 0 0
202.268403155612 -8.06279895811172 -12.7034143245077 0 0
57.0086598957662 13.6346208044055 22.5669449155964 0 0
176.189441958667 -25.6658680183133 8.13517238460222 0 0
149.555640790648 -20.9845657389871 -4.12353220065256 0 0
30.0699873256334 15.4203957398276 11.6113171527859 0 0
140.958578944638 20.4134472753875 -2.11171283279075 0 0
205.496041966202 -30.7011572199852 0.0564830223188896 0 0
-13.1397833940223 2.57894950912193 26.1154126816841 0 0
191.753071658802 7.46234004365503 -30.5852489941187 0 0
187.174172225137 38.3642352552055 -25.0331319501534 0 0
80.3826313740275 16.7162405868956 19.0857045856493 0 0
217.421337477597 15.067705895974 -20.4505594591641 0 0
70.7278513864489 11.6516157356471 2.65677954623737 0 0
209.45437516158 32.1707172310984 -23.2081574895722 0 0
78.1336864975514 18.8944363402119 14.4075007668069 0 0
-11.1346478454456 -2.62805561691384 -2.29976217316 0 0
176.928080245703 18.1674860678249 -19.6027736982967 0 0
183.087367118264 -12.4393594108187 25.2008477128477 0 0
216.548927567896 25.3597959009693 -2.54427961024572 0 0
30.9702947759972 -7.69063307401712 5.30724406841627 0 0
181.314642259829 -36.4998673858173 -2.45010123872763 0 0
216.300490469951 9.87339468137397 -9.61018443467595 0 0
168.549098848215 -20.4417011805347 12.7245914567198 0 0
6.38421556088023 -3.52888665027882 -0.0226997611440746 0 0
-80.093304573598 5.68854854355229 0.857343773228202 0 0
-63.5733292330733 4.29132322968541 -1.11790756921005 0 0
-74.7349342598468 -14.7482986263594 6.86267374091779 0 0
29.4223162597026 3.52481762945637 -0.868645801805767 0 0
-82.3602324499635 8.43994669261153 11.6817743808566 0 0
152.765252407889 10.965395248261 19.6757753546572 0 0
157.002186097889 -8.6071327677388 23.9979574859866 0 0
155.757948781263 -22.5454318185002 -5.73854838412284 0 0
99.1919687830626 -4.02674384508411 -1.62724336918212 0 0
1.93871735156466 10.1490953682213 6.17249800102955 0 0
-67.5097925967492 -15.6249607907963 14.4466182835887 0 0
-77.851567162192 -6.56459073621993 -5.29374694848142 0 0
183.172481845871 -10.3934225452678 -23.7245635199703 0 0
115.545124177922 19.3883894237817 2.97299858057826 0 0
100.214987174942 -14.1416288922166 2.7414098691222 0 0
-35.237830555246 -0.641001998451632 -3.99252231638118 0 0
167.049220015392 26.6443677339088 -14.9244427082441 0 0
145.756201068152 -19.3144273683638 -5.06261766867406 0 0
158.878011879951 12.6033176180403 -9.07620369973133 0 0
102.235196323176 5.37178437436019 26.9774104800074 0 0
214.494538476012 -18.5445001530533 0.97073910365312 0 0
80.0337366437471 9.28479110303027 0.875492427590035 0 0
28.399161283087 5.51074173307493 -0.189997391099695 0 0
203.192903410958 6.02861277230529 -31.8889239828544 0 0
207.527626066538 30.8001910071687 -6.02547836569369 0 0
-32.2257557720308 -7.67883186038829 23.5823482652383 0 0
-69.104589155195 9.50525418814862 9.52754778763711 0 0
-4.21286338796771 2.90212383369129 26.3910179709609 0 0
211.997688207128 -18.4394240683132 -13.0636659204269 0 0
200.48842491208 35.6516229058808 -9.38378892957246 0 0
153.824520746187 8.89103189708762 -6.57646141442137 0 0
213.315739426122 8.97069335319751 2.49062839343283 0 0
211.542896145461 -30.0327611708185 -15.669365428857 0 0
48.6672532262903 -10.870882390149 11.7065288607462 0 0
158.382890280175 -7.98929518665893 -8.81313503017629 0 0
185.275867094714 1.01422227120331 21.0290077386067 0 0
120.138909457101 -11.8934944706812 19.1796371274091 0 0
61.8503170300597 17.4471421917618 17.1522618236224 0 0
-92.1190406575132 7.84524374060182 5.49943316258492 1 0
205.891676800126 3.19123303888868 -12.4644056854828 0 0
-68.9520682906952 1.21827238631575 22.5981278861541 0 0
-81.1926592743765 -7.15802557799909 -5.36957805428915 0 0
16.7398219135945 -10.6712550496382 16.9556179567645 0 0
185.416859793721 19.2376555564152 16.845022588889 0 0
192.037974046248 -24.3149429487621 19.602536792713 0 0
164.349263393647 -23.7015202695568 -11.1518558203274 0 0
160.84251156853 -17.0314627914715 15.557260158462 0 0
204.961795395089 -12.5591367874292 -24.5865039531433 0 0
169.410330971522 -26.6321242966015 -13.4952367989104 0 0
114.81254796917 -11.6556319143504 19.0659156453322 0 0
147.488586204954 -20.0384676349658 -4.82250578954143 0 0
161.550402845548 -23.5413453331945 -1.03597805547122 0 0
218.441007913315 22.7072271918234 -8.80109762055949 0 0
198.33631490207 27.2068228712966 -41.5984481514015 0 0
199.904179120298 -36.2626135569302 -8.52461889715205 0 0
206.628691268881 7.54064863198737 -24.5786096064815 0 0
209.493284669674 -4.59801934391559 0.193699785118669 0 0
-28.3892601488341 4.09842025010474 -3.07009377843572 0 0
187.40898821645 37.9963726922459 -6.27734011685455 0 0
168.653144897922 20.1929758444022 -15.6742325317306 0 0
-36.9918359442201 5.66833606230625 0.0114073890768937 0 0
215.397165651551 26.6196551964579 -4.6178381587969 0 0
198.726168346079 -7.8932447564816 -17.5679212440231 0 0
164.428680751644 -12.155422902714 -11.4230181216277 0 0
89.5565908050853 17.309444508334 5.16849854222732 0 0
65.066235684046 7.9382520365832 0.977134014552539 0 0
170.169937574814 30.2793452812621 -0.613436478666043 0 0
157.010288342692 17.3941671490936 -10.7731055190697 0 0
206.594429005371 5.05511877114786 10.5358013474221 0 0
-37.4973622054433 -2.16610039905592 25.2922327396356 0 0
181.586885657928 39.0420656358288 -22.3025992207033 0 0
180.262756953994 -34.9365713113967 -21.8270426016524 0 0
179.176037887783 -34.6686210246463 -12.64458357317 0 0
176.723744966951 31.3849015423943 4.19263305045656 0 0
166.231475381218 23.2116160288624 -14.8688638271244 0 0
184.642352752601 36.1196662303164 -29.6174236934249 0 0
179.583164565468 -26.4416025007505 -31.3250812319712 0 0
-4.04614163387969 9.53772911126525 5.66283899680875 0 0
212.590223945467 6.17694477627469 1.44745531040273 0 0
-11.8577675568585 2.86055600181923 -2.92992569181217 0 0
-27.4131571449607 -1.56409477282689 -3.55866866969578 0 0
103.788363109333 -9.69519981930039 21.3111898993425 0 0
121.01789536153 19.9322699426411 2.51183048059516 0 0
149.367718984617 -4.43226255878994 -6.5054796757003 0 0
218.696966512452 19.2440033702341 -11.7803937504932 0 0
199.610525384434 -2.02692546768386 16.6222938379989 0 0
-8.43166439119856 -8.89288912576064 22.179294304301 0 0
-77.3704465134975 2.217787015997 21.2878351402256 0 0
192.318887861304 30.3892166127234 6.21619803707973 0 0
-24.9820918383768 -6.28051247357474 24.3866454082872 0 0
175.190428169016 -12.8631923593519 23.6290946936058 0 0
107.707722073201 11.001417192102 -0.418441490468298 0 0
3.78815013332484 -3.62627560157887 0.0780478759474428 0 0
-13.5271614803744 -6.85781895357627 24.0682321541584 0 0
163.226825102785 10.0680427851688 18.78062825193 0 0
207.97352772039 27.8492705263054 -0.353219634754124 0 0
136.543357759771 -5.03009233918492 -4.7493174215628 0 0
131.764799146807 -16.3149709880213 -3.94036597308286 0 0
172.868716798564 11.6325544395017 17.2222976503247 0 0
180.166171519726 -30.4605112568787 2.80571010801302 0 0
182.393623461647 39.2903305085309 -12.7193827567798 0 0
49.3853329772706 5.96141383571218 0.62409618141626 0 0
12.1342932544367 5.72359436706533 26.5551428913364 0 0
182.12499855956 -35.7959420154367 -1.60180817362265 0 0
87.9704829158571 15.7183932397831 3.67929804162086 0 0
216.982294650581 12.9575703964116 -4.14466846871301 0 0
158.525779907964 25.9484816122123 -2.49468465939054 0 0
193.229478825222 8.66321906187478 -22.3190098104895 0 0
156.884244628423 -21.2616247915937 2.65761789112994 0 0
39.665760545761 -0.443050977391398 -1.24778850176337 0 0
215.987024405123 17.9140720989419 -0.14088043510295 0 0
57.4775983067306 0.113480382197089 -0.36575913392501 0 0
159.572872661625 18.7650611266982 -12.4049104172663 0 0
143.793195390765 -4.39448209147689 -5.64102364355712 0 0
28.4491497195229 -2.29713582404612 -1.57979544159859 0 0
193.820528106046 28.374061115235 -41.0615470744769 0 0
137.386799733302 -17.9400992795014 -3.49854245518664 0 0
150.79613417993 16.9424457152308 -7.79128235185021 0 0
179.025509342735 5.83042381063402 -16.5726738862085 0 0
34.6653952193786 9.34851126904051 3.53642924185429 0 0
29.8488099560849 15.8030417447368 18.6195888670679 0 0
109.311837591067 16.6033643898753 18.7710233414213 0 0
68.017937135619 -10.4435424960078 4.53266761636688 0 0
61.0951412746935 -10.5797399655263 6.60972640574348 0 0
154.289374031854 -3.77160857901015 -7.23901010765842 0 0
209.302679816853 -4.25502499793196 1.85948586988655 0 0
-57.7538155178205 -11.6239149607924 6.24550965645155 0 0
199.969105728747 35.0032776676529 -7.4385484130453 0 0
213.560351578736 14.1369500681429 6.81805191226158 0 0
212.776835699987 -24.736567660868 4.40034281811635 0 0
176.178390872148 5.0504265350318 -13.9996674586477 0 0
156.803090025457 -20.5848150822535 4.58304041578192 0 0
57.1062952921687 -5.27201524365367 24.5519671001291 0 0
112.726392226863 -11.1126906605472 -3.12447386648979 0 0
-2.26095043195654 1.69254014113662 -2.94690786182887 0 0
63.514698650141 10.8599449208097 24.8878720931151 0 0
159.55136711996 -13.738272881871 20.8890213282259 0 0
119.986615239822 -15.0805736089434 12.0064528706014 0 0
-67.2132020365668 -0.482073083984955 22.9839382431139 0 0
-50.8054314584041 -0.737990598037113 24.4733010847713 0 0
198.980531683193 32.1581903641684 -0.261380599486436 0 0
131.52923640322 -10.1657947136488 22.3195862348108 0 0
181.085330113702 38.7652176646338 -14.2896891512677 0 0
111.141055503535 7.33756388489064 -1.23016827500166 0 0
204.234418085906 -20.2854519093535 -29.7142964924705 0 0
59.4398898827133 13.8281380948389 5.79178115593278 0 0
-24.1019885462628 -2.06039568163876 -3.17818289363396 0 0
67.5679465665637 6.2109383465607 0.606083120191917 0 0
202.56045339331 33.9648751639527 -7.83419707987135 0 0
195.044810340456 -1.46068836823143 20.1370890240079 0 0
153.283337446585 15.1483050076347 17.6110688129056 0 0
122.964209783047 8.97142124361329 23.7945731658753 0 0
197.109454053734 -17.3017959359068 -33.3560468105669 0 0
154.458628023867 8.71720885127956 20.407398433223 0 0
217.547039257201 12.8009534543288 -14.8478952492407 0 0
-23.1067788774878 -4.64756357030911 25.14429960419 0 0
168.362053007429 -28.1602841048889 -5.61224163336472 0 0
185.580006494728 38.6573190622287 -24.86153988406 0 0
184.86310848894 30.9448422248667 -33.0158840653835 0 0
78.299251960454 4.35645166265347 27.8061643192706 0 0
107.966629980737 18.3832817137804 16.737927666015 0 0
174.111900428219 32.7398419486327 -19.8778369726445 0 0
3.23037736496607 4.5231283721782 -2.05808561303799 0 0
201.603798177666 -8.25956910977347 -17.9307130557779 0 0
180.889636967907 -34.1726202820435 -0.687656095519854 0 0
185.127469366779 -2.52937727816051 22.9773825506727 0 0
45.0100297579293 -9.21988714364856 6.48919261048616 0 0
184.515424726267 28.1074009777369 10.4542620027642 0 0
163.674795333325 20.4561538085526 -14.2908347056115 0 0
144.927970284742 -19.8795609402912 -2.79382263672117 0 0
138.724226031452 -18.6564801452943 3.60828032810361 0 0
155.702504854409 -21.6757641897106 0.818528164709361 0 0
181.748221297033 -27.2164440932203 9.62613140421767 0 0
170.38809890069 25.708887768691 -16.8724539118455 0 0
178.649090466997 2.79956074544007 19.6194426843386 0 0
206.671690298199 -24.6789632845252 13.6522511595658 0 0
155.696986623616 -1.63835839454798 -7.12695358380094 0 0
30.0090910327537 6.53732962213708 26.7030642943111 0 0
105.999500359799 -13.7638628234715 -0.199428343230715 0 0
187.568463885454 -9.1507813471338 25.0404443500101 0 0
181.676715956417 -7.40602521163819 23.3627896357213 0 0
176.436355233252 29.6210453548596 -22.3754089376729 0 0
195.388903781899 4.94180436130455 -15.0828679983624 0 0
-17.948603308008 -10.3544277545482 10.3205912823757 0 0
213.445997190863 -13.3165337748282 2.94443678263572 0 0
57.1674163441741 -6.04448168085762 0.139675236441666 0 0
80.5555968192647 6.11198019680857 27.2833333920024 0 0
-73.1482807413894 -16.1707026373907 14.0721938717058 0 0
206.226014770436 8.6728110561156 13.880137137396 0 0
-58.7158892343773 -14.1369571901756 17.5392614235892 0 0
176.440124895039 -13.4819816870676 -22.4019887701256 0 0
196.60140326855 6.21841029073296 -32.5676278277872 0 0
172.622853426193 -25.3466239094711 5.10494002092663 0 0
40.0450988019091 -5.33277145748915 24.527684501932 0 0
213.975729872604 -20.8474653878774 1.34465719466714 0 0
87.6270640150092 1.47330737432492 27.8469738917747 0 0
186.576028049053 29.917796512504 -35.9785886092397 0 0
211.368040433346 11.5464315672626 -32.0599631639215 0 0
44.0716189837602 16.761876319421 17.3843666691996 0 0
63.753845555357 3.71721281612062 27.8134975151531 0 0
218.379239786734 25.6406481211142 -8.99595422068848 0 0
170.62390481407 28.2147547978715 -16.9715049030357 0 0
213.3578815072 15.7296238972482 8.59032639210153 0 0
201.33700480145 -8.18402604064054 -14.4484827987248 0 0
139.125428071839 16.5703267898924 -4.37377394448593 0 0
172.258852429217 22.5130397892193 -17.6883733678866 0 0
198.293079619383 17.6218125859389 14.9369563149745 0 0
37.2397650514034 -5.18179855630926 1.18150587673243 0 0
1.85537879661925 -2.34535578183312 -1.90298367646383 0 0
-1.84166906886751 10.4163038850096 6.84864985547285 0 0
-49.9664764175299 10.5472375891565 9.7681060700438 0 0
188.25733128629 38.5648833318987 -22.1820564565966 0 0
-5.33495354038358 7.18728440510654 1.85863565562025 0 0
86.3645637535598 -5.03376030837118 -1.55172677634046 0 0
26.2753750823433 -4.73303290207987 25.0859593308164 0 0
-23.8433739064711 -3.55791969837915 -1.64908666757964 0 0
212.659393819983 -24.859629984346 -1.08864167445255 0 0
176.669942545694 -7.1985794167042 -15.3570081705288 0 0
218.727337079725 22.5767777074373 -16.7825679932689 0 0
56.7017208864326 4.51999937869827 0.326602956846028 0 0
49.1533707914152 -2.91189106540393 -1.4330690397547 0 0
206.36609024682 30.6413094934029 -4.10250170236333 0 0
210.468925963354 -9.84608787079061 10.2932470554172 0 0
181.353148422451 -35.3192458695138 -13.1673490192098 0 0
131.923028447156 -9.49392480151681 -4.83128540435876 0 0
21.0643195851955 14.5187353210158 11.119287458092 0 0
40.3104928071626 12.3988627057536 23.4461083135811 0 0
65.5046109551404 12.5061180892015 23.6254112653383 0 0
175.961131545214 35.3567746399217 -6.91436697063693 0 0
139.599006900805 -13.7246927112729 18.601507123101 0 0
210.315017249788 -7.08859570381236 1.8179252591016 0 0
207.979897302422 -1.71167727224186 4.81730025260115 0 0
199.245009416139 -32.9047502396475 1.52720729141692 0 0
128.042166339672 10.9873153306445 22.0500069917016 0 0
210.109452615256 24.4364473141871 -36.6601834817352 0 0
-47.2854690282434 -9.69909698076809 21.9992809899468 0 0
-9.73719151342027 9.23204184250923 5.60613003926349 0 0
202.788042128786 -2.36414542973293 -8.61073290422836 0 0
88.9623459493313 -10.2512475770553 -0.298191487712824 0 0
-46.3773631338481 5.61050624622799 23.4584424970723 0 0
47.0044883406714 -0.893532848417257 27.0388787840883 0 0
135.041136511397 -17.5291060263571 7.45108707134143 0 0
14.558192862876 -7.58987426914253 6.26033665692264 0 0
146.051690809715 19.915922447823 14.2240504250416 0 0
91.8726469571245 18.8832587815954 7.21249604570611 0 0
120.169627222876 16.3090254103124 -0.565749663594861 0 0
186.175934835802 39.097395234192 -20.4635512643796 0 0
199.65135518528 -36.0696213352809 -6.89744801915843 0 0
171.857602617396 20.4891438905495 -16.4223457005144 0 0
98.238427375042 -5.08801896699279 25.6573741985291 0 0
188.466216220226 -39.9569192654822 -7.64160386763598 0 0
117.573199115201 16.3639502934666 18.7133490011951 0 0
50.1635429809238 11.1535773619746 24.551221487094 0 0
157.387228214153 23.607680837693 -8.53105144049183 0 0
