"x" "y" "z" "f" "a"
83.9430066164891 -3.19554648114903 25.0177873496936 0 0
188.574614861312 -14.5106615864398 -25.4169346324643 0 0
39.0514939355858 -1.64450588556912 -1.07595078133413 0 0
186.301779135102 13.6259738055853 -27.0679598880996 0 0
194.427915164985 -5.86412015325738 5.89846352187254 0 0
137.253226334051 -1.9963150235807 -5.70275973667842 0 0
73.8872863135347 -11.5837511120273 -0.559861353947932 0 0
151.258885848027 -22.2764641657336 -1.4943834271717 0 0
25.2340421357766 -15.1843613048795 3.48744137851875 0 0
195.129274659736 10.8677436514772 -11.2806363830673 0 0
36.2583240268891 -3.14910887900108 24.8183270237219 0 0
197.810648018356 -13.4583969208317 -3.40543738648792 0 0
134.824278344529 6.70788884140568 21.4087847860539 0 0
161.848330998435 -25.5522909090551 5.99226184792203 0 0
157.379886028102 -6.54608962165173 21.0470324943588 0 0
135.498138188846 -7.78963095271878 23.1568094136213 0 0
163.403472525055 -6.66661851258377 -11.6660533379107 0 0
198.445590874891 13.3216734401215 5.41972412261011 0 0
184.180369343356 16.086563089398 22.0037963082701 0 0
176.185814954077 -33.8600673969589 -3.06671843641268 0 0
141.06433005618 10.5184142558617 -1.52902139235308 0 0
90.44339876775 -4.65442119411435 24.9698597222039 0 0
170.075667968357 -1.60637485452596 -16.2652174503612 0 0
194.445990592817 -9.95508755217405 -14.5103603576819 0 0
160.170652672046 -3.03064908591185 -10.2287249303778 0 0
152.075440398053 -5.84852567717917 21.3688718904721 0 0
183.232593607054 -35.5918579447702 -10.2278157982279 0 0
160.15158591057 -22.5492925571448 14.6847623350562 0 0
175.800675553607 39.6075678105771 -18.5420750824227 0 0
123.104304815658 -10.7600507663653 -5.74940662782787 0 0
199.921232999379 -23.8383371233892 -8.20514771468604 0 4
178.858905298824 -10.2906586461701 -23.5857360331413 0 0
106.407915877898 -19.1027438189358 7.64409546881736 0 0
173.61595767328 26.7480955958648 15.2522583946763 0 0
120.482286834081 -17.106553342189 1.31063198766469 0 0
109.313055856871 -7.15448031109491 -5.423639037381 0 0
164.31339111434 -7.12028152350575 -12.4800558045893 0 0
113.961726035758 -9.90907690141175 23.5169876089969 0 0
110.215024929647 11.7366321797692 15.8368572214882 0 0
14.238708152984 -14.0200590582412 2.30179904032004 0 0
180.943315591785 0.435234374303835 18.2877808791469 0 0
71.9786490556848 8.38815742719543 15.981891193843 0 0
162.730122524331 35.9362838163681 -8.35089002987921 0 0
149.535360086318 -3.66418539585636 -7.54034664746268 0 0
120.533805235749 -2.81489841471038 23.7453520528393 0 0
164.119696098692 26.7825814998279 -9.91591494539437 0 0
172.72290429722 34.2122588261078 -30.1739303409972 0 0
161.628447369135 -23.0793003533313 -14.7660012357358 0 0
164.426750389864 -18.2587011179348 -19.6299329059376 0 0
190.463125944122 21.4150674544849 -29.6967055197883 0 0
164.284870107351 21.3750950020819 16.4108711486347 0 0
20.7927476259879 -12.2210326030276 24.6260900516764 0 0
43.9997366909152 -1.3318255375501 0.0563281489008814 0 0
187.676048812019 33.4724417525984 -32.3031074339554 0 0
181.42346102808 34.4359734327813 -33.5878157537113 0 0
161.246337564068 29.8270184062149 2.04214179424941 0 0
31.0564431665019 -8.8263610263985 -1.67032735483532 0 0
191.66541301856 38.5236965556705 -16.4671089445583 0 0
176.92209749064 15.331883455191 -22.2111274916392 0 0
159.629343583737 -24.7798127552687 -11.7371642849506 0 0
193.578469787815 10.135842130569 -9.6733832345981 0 0
32.7510183079852 -0.686941675786545 -0.20334747299479 0 0
179.2348377546 -26.4205359460823 -32.7147501910651 0 0
180.225704750696 18.1036378299777 20.6526792021865 0 0
185.16612008955 -34.1863666248356 -10.4013467689438 0 0
173.655120820163 13.1611361216375 -26.1389094905136 0 0
16.5877104699518 -2.62155423428303 -1.27095435939854 0 0
190.587458445494 -36.2852539595925 -21.813036055525 0 0
170.301609061873 18.4367296189491 20.9458050789682 0 0
179.013764475808 39.0759422924444 -24.0673332044093 0 0
193.094494342059 18.9645716957567 -25.7250246615144 0 0
164.407933901861 -21.1617562617584 -20.4899385901786 0 0
94.246795060156 -5.5991446812381 -3.99369847444375 0 0
177.040323152234 14.5998231806062 -24.3235351099404 0 0
184.119548722351 -32.6760226519003 -3.38059539636571 0 0
162.967037199024 -18.9200225491283 -15.9137265722945 0 0
177.258833656925 10.2636154244523 -15.3442073278497 0 0
186.002905588168 18.2950282045481 20.5613192359473 0 0
179.312147526398 -22.0352042725344 27.918589307935 0 0
72.7813108520606 -9.3172926326223 -2.35307074467541 0 0
147.769569774386 -5.40281360551253 -7.58613460454449 0 0
162.825545325927 -30.8921239086792 -13.1622121996606 0 0
197.625757490867 15.4120642664501 13.9766455288068 0 0
162.079032848316 -27.4204074145141 -13.1282015536665 0 0
174.096790856488 -7.03842661438826 22.5619509790589 0 0
41.2800290647986 1.96089161223924 4.23780783438564 0 0
193.063427569922 36.4052186731803 -2.82455242838727 0 0
187.42992464331 4.9659010391837 -7.71870159082319 0 0
159.075285240226 13.9702098857411 19.2970086537089 0 0
96.6477934382485 10.3276251337146 13.2625885621932 0 0
97.7741014808795 -14.6858303969342 22.0699489526829 0 0
183.025510860551 15.5082303756727 -29.2323417441037 0 0
48.4310806346425 -19.762234840437 18.1390976249848 0 0
148.769041994224 1.97902246062036 -6.18943086413403 0 0
46.6581150149865 6.4061476811557 13.0359175961618 0 0
166.522367290747 14.6772606531835 20.6591897092304 0 0
180.02748959675 39.8023155202461 -13.8195770512415 0 0
114.861137438514 -6.30035827219283 24.0095519504571 0 0
47.6263278676152 -20.6140726391316 16.3319083787382 0 0
177.600313357699 39.1528133188206 -19.4330000933418 0 0
179.284501238724 -32.3206930747607 -28.628315364138 0 0
193.683484568208 -27.1585648743101 0.123113031141999 0 0
127.503576165234 -8.68989699419677 23.4493139399979 0 0
95.2533099935586 -19.741264681613 10.9486320033891 0 0
78.8036305937531 -17.6824756147461 5.943208833147 0 0
130.870637626063 -19.2660143828343 13.5229364690494 0 0
135.286130747123 -1.76140635840004 -5.49817784285673 0 0
103.56764158308 9.3956903594339 8.70920066379697 0 0
194.80840234091 20.0853881248458 -24.455697322968 0 0
44.0470577410602 -3.37786135371558 -2.69080005217993 0 0
188.402938599515 -25.3347936623356 14.1526643390595 0 0
181.053965450912 39.258816663257 -22.4917464840596 0 0
167.585345079176 39.1155094810415 -12.9051288792883 0 0
40.4306818957449 -20.3924313766298 17.5363156193018 0 0
181.247648135967 38.9038245506923 -30.5140789036182 0 0
174.481816526991 34.0625347340086 -31.4928685321062 0 0
146.932263229227 7.91166011158411 -4.513178042582 0 0
173.199526688603 -31.3339666584486 2.74099961943246 0 0
80.7691400359356 2.75512831227403 23.4433725363225 0 0
195.792570890233 -23.5967429229919 -21.9053886516666 0 0
201.027592968734 24.3849078396542 9.3819600244006 0 0
186.434597095119 27.1284213894085 13.349400144739 0 0
12.9895543499773 -14.4439927522121 23.9069833893806 0 0
30.196186482653 -14.6795368280654 23.3476232427222 0 0
193.015881260516 -18.5129667123146 -22.852240802976 0 0
15.1040720467822 -0.132106755737005 2.15256038002755 0 0
149.797049052605 -20.3335403838474 11.6165042918214 0 0
174.646057504773 38.5948915120871 -20.3800195160344 0 0
163.651244307967 -28.0891418019319 0.174892351822564 0 0
155.45404576365 -15.5946761766371 22.5270154842139 0 0
133.748952083382 -19.1987695024464 13.9762842120721 0 0
161.82037012157 -28.2414770212179 -3.93891702879754 0 0
42.7796681133983 -5.74195193080443 25.2534577169454 0 0
169.118195188515 23.0274936329166 17.5825552371478 0 0
201.736452901136 26.2241036676904 -14.9105197494922 0 0
187.541739338149 5.46784713645256 17.2739724073064 0 0
168.006016033327 -16.4396944912474 -26.6929516931937 0 0
50.7177227861686 5.34703939474197 8.5344635041174 0 0
154.353248980716 -22.8561789261636 5.21535230275564 0 0
185.838115768601 39.8166548186274 -11.5800185950518 0 0
61.5171338088294 -8.28642393323493 -3.00994510649422 0 0
33.2722027426978 -4.48995222620117 25.0533972577628 0 0
128.678883649005 -17.3576692654989 0.185962029654598 0 0
159.2123439336 5.90966464053588 19.8222104286878 0 0
195.261736597181 32.7515875170649 3.90970566837134 0 0
0.406000757178688 -0.0585162171987066 2.23867451036942 1 0
30.1662611755315 -17.0993232470842 21.9165152502331 0 0
116.186343862252 -11.0641541160089 -4.5561223471664 0 0
29.9320189703905 -10.0062790175574 25.0368237785205 0 0
174.378901872552 15.3573263741256 -20.5107747236172 0 0
152.174141881749 -20.902760529786 -6.97767854537565 0 0
88.7440275293703 1.18768546894589 -0.372113695932651 0 0
165.569319367498 -13.7175977161328 -18.8933752120982 0 0
86.6683727846758 -2.77567462828854 -2.45922870602716 0 0
167.187730337898 16.5995697479502 -16.6884156396943 0 0
198.106582461049 36.8745882444605 -14.7598956998015 0 0
154.581112955091 -8.46254980363288 22.1626471662302 0 0
80.2819766023259 -7.31437310028793 24.9600656540418 0 0
36.3789913881012 -13.709650063212 2.460864206871 0 0
196.975417675573 -17.3332096124159 10.7924732862989 0 0
51.1923823294812 4.14143726973537 6.39233783974819 0 0
136.860971913094 -15.2263123072425 -5.61735346530557 0 0
161.931266092305 -11.0069898613943 -12.5048674947964 0 0
174.11522671288 -32.4552684612336 0.14716296657843 0 0
160.260660231596 21.3802114319748 -5.83616901112714 0 0
199.916539209794 13.5311305872737 -5.13143337403375 0 0
124.049304233958 8.66392858345155 2.19891148714035 0 0
138.571248005676 -7.13247517258944 -7.03433933366385 0 0
189.592684872909 -31.8999922400061 -7.91326356903162 0 0
164.79011157182 23.5790179762035 -10.7718334298282 0 0
169.39719811953 -25.0119186807591 -28.9245060244207 0 0
185.202121245943 -27.7885136960466 8.04595805173637 0 0
172.01595368287 40.2228318300265 -5.46020470650212 0 0
110.173275300752 -11.2417724857814 -3.71323562151873 0 0
185.950993169273 -25.9419310347179 11.8318484710088 0 0
62.9043838606949 7.4443367862123 17.4830618304955 0 0
192.043133184711 3.06766906817542 11.5796234405725 0 0
77.9090501717303 1.70461979703954 1.36261469551241 0 0
109.46632530599 -4.48824827110901 -4.90505393361793 0 0
173.346628600717 26.2911259919284 -31.1274705539365 0 0
184.865055679613 14.7728431286042 -28.214194287559 0 0
83.0325394167346 -8.53788237117197 24.7196565016559 0 0
181.233215686858 -33.4301407723491 -14.0865531118285 0 0
85.8543920240383 -0.424241101371708 -1.34968808029978 0 0
79.381198178843 6.0118938481854 6.79877769304754 0 0
121.676376094766 -0.658998618129264 23.5830229118215 0 0
59.7125373851441 -6.74902955902547 -3.02982242417663 0 0
13.0332231636125 -0.879678051043807 0.590564450311284 0 0
109.882456620155 -17.4977681104498 3.46536626696107 0 0
65.8005345046801 -5.15535407237393 -3.03466551956505 0 0
167.430067118208 -2.50399303919933 -14.6731264999156 0 0
165.780589567294 -26.6589926650385 8.75335248496866 0 0
192.37027276374 31.954293133111 6.13288199990016 0 0
178.302941959821 -34.4579903836258 -4.38528081132688 0 0
189.37918472976 -11.011062907815 -22.4454798597436 0 0
186.080404365374 4.79808358552343 -8.39951509729166 0 0
10.6580025238101 -0.188376396028289 1.97589335221411 0 0
101.370513773448 -16.7442888197899 3.18447994440827 0 0
140.238676712072 -10.4925460792852 -7.43493816892964 0 0
188.099498507535 22.7813488574559 16.4703707217342 0 0
166.029496411092 24.4500324492785 -21.2518626336827 0 0
53.6532384496572 -14.7931360674476 22.7696115184379 0 0
155.790068361739 20.0312651608187 13.7090493462717 0 0
184.413712039499 14.7095284741639 -20.1584226189854 0 0
169.42353047652 -8.9555922583449 -21.8072587157742 0 0
185.478648365452 36.5977460723934 -32.5351824217227 0 0
188.136359922531 19.9161768341169 -30.3885854056205 0 0
67.8081954551972 -12.3093406176455 0.370435712634433 0 0
156.311408614746 23.1441457621468 -1.47417982474412 0 0
199.391471548636 -28.7203752050545 -9.04195693703752 0 0
176.594713872658 -10.933929232309 -24.2640715435827 0 0
191.091068377706 39.1509471809292 -22.5306742591089 0 0
99.0389703902357 10.6618628980602 14.0453140386028 0 0
197.838375588533 13.9956360842592 10.9702534354614 0 0
155.432408683407 10.999581304451 19.8377896529753 0 0
17.6429475821282 -12.4933781424803 24.615011818381 0 0
48.8176798261509 -0.611810925817914 1.01119279006881 0 0
186.104976681602 -25.7244614524029 13.7362701416977 0 0
157.043042450821 12.7255756752901 19.5135926179676 0 0
184.421420433672 -8.31494095280848 -20.2851494393867 0 0
174.23832620434 -24.1423126208179 22.4622965508937 0 0
184.074720507791 -25.6098525007975 -32.2220392435813 0 0
185.76552443282 38.4674287351623 -1.32904325457088 0 0
169.392567367528 40.2572509774542 -15.0366923938258 0 0
143.119753417923 -15.4414973672693 20.399847706467 0 0
185.243507023964 -26.485940228415 10.3153909299058 0 0
52.3167135157026 -14.0575417197794 2.48199223729148 0 0
193.667165496459 -5.06837164742786 -11.4486244571969 0 0
177.316814747482 13.5312261281526 -27.9425040778639 0 0
144.957389241289 14.8601221174437 17.0416610718626 0 0
172.875774196701 -34.0723999083903 -4.55197234226982 0 0
54.9145074664395 6.37367262548374 10.7298434429016 0 0
144.359206355748 -16.9123110787754 18.753259669269 0 0
34.8843580436817 -3.48849192538839 -2.20105472705365 0 0
147.819276745932 6.13977714597735 20.8166058424251 0 0
55.8154144322704 -16.7851516637195 21.3643556084108 0 0
149.51672211269 19.7895792157347 1.47368901722081 0 0
153.746509855923 -12.4478892878846 22.959325397373 0 0
167.082584698004 -6.00360499959676 -14.52197062038 0 0
187.215046778718 -5.16779024146534 -17.9230346179801 0 0
88.2322028138126 -1.81852477153221 24.7570007570234 0 0
182.751932533459 34.3396624174279 7.25912238455236 0 0
164.213098077226 -22.360261223349 -18.7443109013475 0 0
20.2926533365836 4.81155047468801 13.6398322878465 0 0
94.1606403060231 1.6516425245302 -0.266798423055194 0 0
45.5501912126362 -19.4630032848691 18.8258654701484 0 0
130.558220638564 -12.6045264459325 -5.86635665535641 0 0
146.78941143089 -14.8479742614524 -8.10096975765298 0 0
117.97237689147 -17.7448990896527 2.85382983267565 0 0
47.1978988573756 -1.18213016319279 -0.204171548879421 0 0
186.181505311076 -17.6974893122529 22.4245454756492 0 0
183.057216363462 -26.9609976900419 11.7317623076703 0 0
165.51688819614 -4.9950951594123 19.7607919462601 0 0
202.021475333447 33.4067811455557 0.608836932133653 0 0
181.976052548971 24.9112039110371 -33.3012898138832 0 0
195.686971974886 -16.5639738825399 -17.758841794111 0 0
144.118708613471 -16.4623023791449 -6.6095681662217 0 0
167.179873278847 25.7546474765966 -24.1077675992937 0 0
168.748906104282 35.1902732423528 -26.3954343276229 0 0
80.5673550350224 0.511779908136999 -0.743514813995729 0 0
189.91251453447 -25.940509299584 8.8606268503148 0 0
129.868044358255 5.38625069778026 -2.10071142134144 0 0
198.368775461634 17.7636708021486 16.5343748084691 0 0
169.004435083232 39.4337391505428 -16.3198708790008 0 0
164.769059712405 28.7148964270558 -16.02450107951 0 0
163.234414028986 -16.4236856212325 -15.6116371578321 0 0
164.548953577832 -31.9536991890561 -12.9483468761271 0 0
171.908874922799 -34.5394163344879 -11.8347783955062 0 0
194.662739253881 0.608912158847904 -2.50201777940689 0 0
7.74672826064845 3.98906348255095 15.0037213983003 0 0
162.898545042525 33.1482355536631 -11.0907086070796 0 0
185.459208636542 29.5401141994502 11.6728642187076 0 0
170.375174501224 -5.30108143509894 -17.4673657455511 0 0
8.19593554787341 -21.1022978872019 7.55810393336909 0 0
48.2357474314935 -4.15150544907056 25.1304738265407 0 0
174.148592824794 3.77557469123134 -15.0064505559513 0 0
195.543460974931 -7.25215437710994 -5.7694705489928 0 0
157.125719886984 -8.57201028176158 22.0623210160391 0 0
69.2104302941002 -1.03869637117811 -1.15890775778113 0 0
193.810541656814 -35.4042134680209 -17.6883935375033 0 0
150.430236252531 13.9038085242631 -4.0513506635214 0 0
81.7462251361244 -10.8453031818501 24.2220246929459 0 0
164.222330478193 -26.390169517254 7.58541183791824 0 0
88.9225102138043 2.83952016685366 1.46571805916139 0 0
167.567543507663 14.7123336260274 -12.4965045840978 0 0
107.780017416201 8.92239809266606 20.4190533911451 0 0
74.8401830281544 8.28664627505212 17.9152361382052 0 0
154.775257510844 -21.7668016733801 10.4391114719319 0 0
145.462619716939 -14.0166612545018 21.5813601506746 0 0
135.419614033051 15.3344321653687 7.51239697674781 0 0
39.3657019268108 -13.7187051179114 2.42695379967447 0 0
143.401795628371 17.2792304732846 3.84718875523251 0 0
197.058027122204 -21.4532423066087 12.1291867563345 0 0
189.477867622285 -1.49392149963148 -12.7357522720999 0 0
120.871007498457 8.86204517542426 3.37639941113103 0 0
185.112899435394 29.1794128154966 -32.8529798837695 0 0
85.6084775707225 -17.4909557203099 5.37481818191382 0 0
182.12338618531 39.2009742031384 -26.2389990786367 0 0
123.012327064299 -19.039922026018 5.55933170051717 0 0
71.9654640620829 -4.0228386661643 -2.66997522526509 0 0
171.49083213083 -17.1810397933087 -28.818799167646 0 0
188.480526390609 -17.519156679103 -27.1017431836505 0 0
11.46500885591 4.23973050513107 14.7123842921775 0 0
191.519132320556 4.19101660242551 13.2588949960296 0 0
166.195721631027 30.8578962671324 -23.7178211807749 0 0
186.167550625764 14.3307626435558 -22.6460316792628 0 0
196.708045963639 -32.6063670943995 -19.5595810401823 0 0
142.090187595633 -11.8073323752104 22.398457275078 0 0
171.130798206997 6.81335009140972 19.4099007078369 0 0
183.182801949609 39.261884979134 -18.5041665486296 0 0
49.1311995921619 0.991901200112331 2.71760760411834 0 0
203.684096172856 30.3165458370599 -7.61768948312279 0 0
69.2320799802737 3.09476255547918 23.0714579455877 0 0
139.594816709861 11.7090254731791 -0.164497217122826 0 0
188.050778270897 39.7931613440295 -11.573875798149 0 0
180.84765433689 -30.9354354586921 2.55854675105202 0 0
140.672412906093 -14.5773208255978 21.0758691392892 0 0
167.091887479844 25.1445181352994 14.3408873822251 0 0
4.23912026026721 -21.3523837569824 18.1403636500147 1 0
154.274160917343 -23.5331580273745 -1.74525839766865 0 0
170.253155896627 -25.8491531868769 16.5689924472585 0 0
98.1469284515631 5.44523551855746 22.5045152984583 0 0
177.5014330472 10.789897670664 20.8610474007087 0 0
185.558308422082 40.15008238446 -6.06963172207421 0 0
199.973063759577 17.7011699705576 5.76296378775049 0 0
162.233918907364 -30.7077874183078 -7.31639076650415 0 0
185.487799297972 0.859700578621913 -9.56362825125419 0 0
138.209414936108 -0.493696939577182 22.3610253483374 0 0
185.353710892924 -1.07142364831886 -11.4970897517284 0 0
84.3978491636774 -7.83600295966581 -3.743827828151 0 0
192.083407427412 -33.0741783806588 -26.7379662852866 0 0
17.3274082835358 -13.533496583559 2.05928323823676 0 0
108.307119705777 -19.5731680856476 13.5844544881422 0 0
149.065439903223 -9.68287632041347 22.5174532380189 0 0
68.1128477622826 -0.340009384226073 24.5854617776511 0 0
182.652681104669 15.1819075170043 -22.9395142054069 0 0
0.603173558618595 -13.0824268055361 24.6641858964197 1 0
189.84339587903 -22.1957531749582 21.0110167747963 0 0
168.375046668747 16.9845936392377 20.7393538377444 0 0
69.924863400592 -2.71057418277563 25.0799286560287 0 0
203.602099228266 33.602411029271 -10.3705857655854 0 0
160.358791211471 10.2446554425379 -9.03100718207988 0 0
165.705939240603 -22.5245166845197 -25.9325470683852 0 0
187.022968466935 0.394961919389182 -9.5899636028224 0 0
158.077484808801 24.2124947849093 -2.34033589023719 0 0
193.135805228835 -23.4796629260811 17.26646928413 0 0
126.131295229475 -10.4989954544718 23.1540133084071 0 0
187.308600850501 -15.1865896181553 -26.679010445888 0 0
141.805854084216 -18.1351825033725 16.7585624030268 0 0
163.047847856082 33.9781071772957 -2.36203320011557 0 0
184.246066485741 -9.83228932094967 -22.4092292522742 0 0
197.171850953802 -15.2218082109899 -12.27953220814 0 0
200.608412483045 28.5548974036526 -18.5485592505283 0 0
70.0840186220318 -10.2169280004692 -1.59959486714083 0 0
197.160228175914 -14.6042312383979 6.10710149664957 0 0
88.7612410019277 8.74569249531776 10.4807093240493 0 0
154.360683748707 -5.90344508353853 20.749839096942 0 0
159.43511281397 -6.07282434204001 -10.2309302781752 0 0
146.704020795004 18.0660870023194 1.46665099461027 0 0
0.942132169123602 -17.3278863870596 22.398699369471 1 0
172.536765638564 -19.5150496212429 -30.0439712843376 0 0
161.293092749129 -9.68786740035481 22.21292722429 0 0
93.110761466639 -6.39762010455584 24.843154408449 0 0
117.627277147466 -19.4341580399208 7.75877822069332 0 0
148.700830407108 3.50669424834623 20.8855839053761 0 0
188.914678893944 -29.7767167431599 -1.1990901562396 0 0
175.04313773134 -26.2745859901434 16.8035444413024 0 0
165.848927515419 -27.4746323172291 -20.1889686793319 0 0
53.9607049966211 5.82570755641452 9.21605764283398 0 0
202.739063478187 27.0645087170561 -11.5936780059565 0 0
174.286248829725 -33.8727213628575 -3.73542033521794 0 0
165.805595107062 22.9135096172063 -13.9125086302298 0 0
3.77103569018583 -2.35650661123954 -1.22194631539391 1 0
187.689934580292 -26.5845185878764 9.46931136588044 0 0
103.270168123068 11.089000764009 15.1024697936554 0 0
125.714115060977 -19.6158761763473 11.4405858706124 0 0
184.217530131992 6.79953064460668 -10.1465176860276 0 0
130.622309807836 -2.63500164193077 -5.49380619248079 0 0
164.227599164391 18.564164127386 18.4087477645011 0 0
160.975547621442 -17.3665285310373 -14.4190615750685 0 0
165.4565306983 18.2199416606259 -11.8051545153334 0 0
152.022287945387 16.5082299953762 16.1429332816438 0 0
65.9884121760056 3.97828634804161 22.36627788698 0 0
143.218348600473 -1.13712977801497 -6.14947123333724 0 0
161.815089995596 24.1416230379245 -5.90762069618786 0 0
186.222978881961 13.2280173479387 -14.5269846948294 0 0
175.137756324627 -13.3563865529633 -27.7552800300655 0 0
52.1675026095579 -6.19272129580138 25.1639656926875 0 0
182.278023766573 -24.2059593708064 24.1191220100518 0 0
89.1202914134566 3.04397685445743 23.3415106010837 0 0
180.029596675742 -1.00564619780673 18.606241909889 0 0
189.147176341015 28.7275325143819 10.286647468377 0 0
194.619670801999 38.6719281276853 -18.884199781107 0 0
169.099881499438 -30.6908947368408 -16.9459473680585 0 0
56.1287248780848 -1.78670723305461 -1.85232415432904 0 0
190.52051103738 -24.8906106931087 -28.3189588547077 0 0
186.121890343938 -29.4732837728215 3.14887012077952 0 0
148.685176811046 -12.3951731189621 -8.74740250233457 0 0
33.7926175114769 4.80355281489684 9.3790973459618 0 0
120.105245073312 -19.2346255849537 6.61978461926601 0 0
112.568814235347 11.2732983036693 10.1798868486025 0 0
93.9405991737283 6.94087029319133 6.1226480222092 0 0
2.67681930491964 -5.07469509883183 24.4684086457637 1 0
168.820011371844 -31.5304472180929 -13.0193653403204 0 0
172.891503066697 -4.41603314790132 -18.1058920655081 0 0
7.75649504044271 -21.6266721581148 17.4727650297803 0 0
107.240253504681 -14.1664649663415 -0.742216120205297 0 0
75.5546256490371 -19.404727612981 9.00300183261645 0 0
164.608651736958 31.5011290127654 4.85963036449319 0 0
10.8419740281744 -18.5511872245674 5.37691706319067 0 0
169.846204915916 -31.7265654957306 -0.256153380112105 0 0
194.814147869857 -2.2187698960611 -2.48921764537818 0 0
126.334201722912 13.8259445102622 15.024413412966 0 0
196.556947385636 10.3080910671011 -10.9940407105753 0 0
171.656355921505 40.519920534148 -15.4346742354257 0 0
197.292986001159 -13.7503337531118 -10.115046848679 0 0
197.092871940289 -33.6872678115454 -13.1757237039662 0 0
167.539338353972 -30.5312163291636 0.184391047470382 0 0
9.04074382444477 -2.66269334771319 23.5535360410873 0 0
173.65230398527 3.53177355375264 17.9077288322114 0 0
184.411687185386 26.9951317561029 -33.1487843105124 0 0
198.306232987343 -15.8982644162148 1.58409777305743 0 0
165.355228942511 37.0473410765868 -0.31108281693583 0 0
156.087993119565 -12.3668048772464 -10.5955545742384 0 0
183.551373344043 -33.6602528330276 -29.6487787952171 0 0
197.762663749971 12.705308985012 8.12330990157918 0 0
108.082777416516 8.73549307560334 6.44717265881617 0 0
196.518945559696 -21.1816799898628 -19.3503759618697 0 0
116.001521962064 -3.31458952041339 -4.86148305532919 0 0
141.762470294646 15.842781788842 15.4271489700142 0 0
180.034694239094 38.5787662396618 -31.7573822548775 0 0
194.297849718831 12.3436029531032 17.57778731721 0 0
133.238634017069 -13.691945679561 21.6224778268101 0 0
188.720893837991 14.8058611870778 -26.622997084072 0 0
122.749290119424 -7.37920704628676 23.775274015563 0 0
147.779685881744 19.5439631680353 10.1458731516344 0 0
192.009774359095 14.9982474263708 -22.9219530159695 0 0
156.624837074263 25.3332876093801 2.56212158733664 0 0
175.897053915494 -6.88347836885713 22.8724673817855 0 0
197.250050749664 16.2679785507734 -15.2328734577772 0 0
126.814320028344 10.232270515866 3.20206272198486 0 0
101.896817160873 -6.74690063435225 -4.87999685067673 0 0
188.934547566536 30.7914570407857 8.83581090551853 0 0
158.673879139754 -19.621112124627 -14.5642250800176 0 0
186.66173343239 -34.9083291764151 -28.3891025712016 0 0
55.1920800300432 -8.18880948674147 -2.76583992783878 0 0
52.0610265768125 6.61111748089897 17.2597617294925 0 0
111.099178171956 2.96815560264636 23.2875453242302 0 0
159.359174759122 -24.6804388182836 4.59316268685158 0 0
125.714916450552 -14.9237438895544 -2.61446790298106 0 0
167.041025585371 -20.6305879850096 24.93096397872 0 0
174.329455601145 1.09845210467077 18.6223411714217 0 0
187.870802238216 -24.2819662004272 21.2404155747139 0 0
179.299365341991 -31.7564844425767 -20.3982683178282 0 0
36.6267774047597 -0.903514065122984 -0.027200700798138 0 0
182.574478734413 -24.614723817872 21.8647406102666 0 0
167.841048789201 40.0440903774185 -6.68783956051975 0 0
46.6851769899802 -21.0170168869598 14.1949769184711 0 0
199.869297502856 36.6188472472713 -15.5139712572583 0 0
158.272860929426 -12.5740210873516 -11.4706745555986 0 0
99.3766307182173 -8.56856288663265 -4.56457857426607 0 0
178.512711624175 39.408836471768 -28.7778035857688 0 0
166.742254213126 -10.938463458866 -20.9161605301981 0 0
147.621679638368 13.7440593198677 18.1762612213818 0 0
190.404260851645 11.0703971269002 19.4733164381653 0 0
183.645550942454 -30.3926419298286 2.5133566302753 0 0
146.570470656489 -17.0368645402795 -7.17827512984997 0 0
19.9085248385069 -7.85643970900371 -2.65718210610697 0 0
107.663369885334 -3.08087162315561 -4.1148685382518 0 0
169.989262157224 -28.9588314371715 -25.0067707853499 0 0
186.771185997124 -25.3105811974482 15.0148957631092 0 0
70.644154283008 -16.2643694356065 4.29915998720089 0 0
188.927968718119 0.859286106455332 12.8591415649238 0 0
165.264973786982 21.6086156836342 -19.7428295357934 0 0
195.707197071471 33.8838326813676 1.59242431824111 0 0
182.625247766859 12.3720123008616 22.8238372303381 0 0
134.144721068871 11.4190277378326 1.55623343184524 0 0
196.1978359706 11.5534061994538 -12.7752419921093 0 0
176.20114518621 -29.7931390269156 7.02144273191097 0 0
146.887600943471 4.16250522109119 -5.39653548757401 0 0
184.008071039692 13.5869001291487 -26.8059755867633 0 0
5.33878620905134 -22.6884224711456 9.83957998184969 0 0
79.3186784607981 -8.49220256546419 -3.26966446230612 0 0
182.031725795651 29.2725796175022 -33.7658384102023 0 0
196.755342741574 -29.1251588743728 -21.781488488296 0 0
124.818719264819 5.88016143476867 22.1628735038067 0 0
184.677905217085 -11.3415567061027 -24.9020119396165 0 0
201.898140292079 23.0486494493462 -12.4783836866369 0 0
109.667015468559 7.382281208502 3.99052902696619 0 0
180.889187998433 -33.9457226154922 -27.4908811860916 0 0
187.417722278776 27.6283920099278 -32.0557600606054 0 0
149.569318962724 -19.8581048057068 -6.35202123891155 0 0
173.989755120814 39.7569641867383 -18.3377569781766 0 0
177.361516883945 34.4157672639819 -33.100043113029 0 0
101.919690424828 -13.6380939735372 -0.752573446323464 0 0
92.0491609204683 9.30149696334712 11.1528149609923 0 0
149.252786953183 18.1173125683141 -0.259497893679142 0 0
48.5502126024866 4.02384783296573 6.46691686492401 0 0
81.0874537585745 7.00604205422011 8.2811614117413 0 0
1.43669462451567 -23.0312492878537 14.0618203621512 1 0
74.6706165161007 4.40126692259477 4.96115368626577 0 0
175.828141090671 -12.5663934839874 -26.9370606300114 0 0
101.042694145279 -9.31930927242355 24.0833007123755 0 0
85.5672381875044 -5.24498231132112 -3.37364574502497 0 0
176.601567905667 38.5872267661338 -23.8776021430438 0 0
152.635185736491 2.03532114984663 20.3371736656497 0 0
191.918159854613 21.9047323498194 16.4278080264085 0 0
190.778708026765 39.2524052218638 -26.0227134513156 0 0
176.045339796144 8.84331891043698 20.3749263665266 0 0
174.182631911612 16.2182863945193 -28.3686173640112 0 0
188.080629532085 13.3825116368185 22.0425955828546 0 0
94.4824136236956 -9.00544691936386 24.3892720405233 0 0
193.774534724767 7.18878339988806 -7.40191242998572 0 0
167.257280149671 -24.9201963237138 -27.3987703401514 0 0
204.137190680624 31.8145539262392 -6.00429317197112 0 5
164.672329688692 -15.5767579075279 -17.7854840577562 0 0
109.17414817481 2.06065712240179 23.5487411440073 0 0
13.6086224392563 4.1330570931974 9.50430239331536 0 0
196.738357099201 29.6645262824209 7.49108138707269 0 0
64.911747645439 -3.41553486791765 25.0898362183161 0 0
83.5841229525677 -14.0791062986646 22.8084869616246 0 0
188.377825155675 -4.33992249817697 -16.8932683928085 0 0
146.920514006482 -20.4946772561066 -3.02504127720355 0 0
183.518203827948 3.70597072526697 -10.5313077491968 0 0
149.087907083495 3.86033436958819 -5.80899589042925 0 0
180.994918184153 -32.729052748236 -1.37601208112578 0 0
136.359778150735 14.2253114958399 16.7368039688359 0 0
176.495952535376 -19.9700846693787 -31.1454443696554 0 0
170.305099431429 40.798655096334 -10.356764735262 0 0
165.991037516992 -9.42917825364037 -15.0356054936195 0 0
176.012080139295 35.2870700329028 7.08281889758292 0 0
153.882148796613 22.0159485992066 0.318382595460399 0 0
190.602826855158 14.1134260377477 21.2835066430082 0 0
136.321543214085 -20.1810632324925 8.66890547088584 0 0
110.266739350367 -0.398382002672694 -2.87673670320975 0 0
172.696347846935 -32.6814356371532 -1.27233572836342 0 0
180.742749941018 15.4230493903716 -23.3453767317668 0 0
198.95300419388 19.1828051213933 15.3505278504181 0 0
198.096577769587 -19.7797108885747 3.90583162771381 0 0
188.309529545735 39.2475689266639 -24.691029351189 0 0
195.834449239319 -27.0162132516921 -22.9370806018081 0 0
196.324506250157 37.2759817408804 -24.1845771271009 0 0
144.30353608227 16.5677739249794 1.45028961742295 0 0
31.1242075308281 -21.7703563249939 14.4965695769963 0 0
179.863985382901 -2.96684559902267 19.0115590509984 0 0
189.653001307572 19.392321915579 -29.1965148341549 0 0
169.980848442712 -9.18651948219495 -23.7272524818922 0 0
152.300933734023 -18.192888726511 -9.71914857212406 0 0
177.238442473812 -12.776967217844 -27.2118960490971 0 0
164.572397188066 -9.37146061164374 -13.6222864533439 0 0
153.732764024347 -22.955103828747 3.01829795961613 0 0
180.685166449406 -28.1233582774603 -32.3353273659362 0 0
177.269604909025 39.465558225149 1.04049529560027 0 0
197.364423646937 17.4852508445892 -17.1381803194339 0 0
173.035847249925 -27.9344463654535 -29.8866582199881 0 0
163.60189880925 8.84502222602675 -10.0784008228294 0 0
155.632507645601 -10.1954927910524 -10.0123865082416 0 0
178.932743066607 -10.2756823508641 22.879388222566 0 0
113.097694096912 -19.0733948100482 6.89975247051485 0 0
148.78637540209 -0.136806594682162 -6.54320047432747 0 0
129.728895743174 10.7126995666943 2.57940363263305 0 0
65.9585239453527 7.8369790589925 16.5141264841568 0 0
197.897120355967 36.0158839803861 -3.17030837215037 0 0
194.121014527129 2.99222581585392 -5.00230717569331 0 0
85.1623208039915 6.66837594978168 6.98180699159858 0 0
79.3664451654835 7.9535360312555 19.589901344283 0 0
194.029581992882 -8.73077033152992 -13.9015511007587 0 0
98.2906068402349 -19.8202001233499 12.3869692406512 0 0
178.195175731408 -9.19961306609062 -23.0083670858019 0 0
11.9820619378827 -11.9575425799735 24.8935278961658 0 0
166.23150329272 29.0999618589124 -24.7251556736341 0 0
185.041495620783 -19.2860209432984 -29.8165236673906 0 0
35.8501475753408 5.69217377133056 12.7759792839002 0 0
192.503645612293 -34.203247555352 -15.5555908820475 0 0
122.5383250932 -9.06307149785533 -6.14109459405898 0 0
164.218114734835 13.5751561298994 20.3347804250489 0 0
157.243678529379 -25.1537466708406 -3.25831760305615 0 0
159.639772485944 17.7686931599323 17.0281755059284 0 0
104.234816398434 7.5049339143902 21.4790067672811 0 0
177.546081650968 -4.8790662829156 21.6860606608051 0 0
23.2907071645286 -6.03165392815453 25.1861017263618 0 0
155.014206915269 -1.96780167871923 20.0365543073519 0 0
174.665110971863 40.2267016475543 -28.4296654462153 0 0
178.059347410681 26.3519136867135 16.2332073093854 0 0
166.882147443071 30.5424656901032 8.27180592860365 0 0
180.826950825856 -9.2465958283393 -21.0368363422613 0 0
182.772687500529 -30.7128625635469 1.3705392616388 0 0
128.141803230542 14.3993217780285 13.1058890096216 0 0
203.823838713651 29.3093086563812 -3.43244366048031 0 0
199.339984955764 -22.6179349718423 -1.55654257349821 0 0
197.029171635062 38.085873162249 -14.9329209271587 0 0
176.859713530338 -11.9111319260554 -25.4418873169521 0 0
39.5138136422137 0.325768122277048 2.61086270859494 0 0
55.7872311514348 7.11322951212809 14.175466383743 0 0
89.0750140657141 -3.69626453654932 -3.04460105364862 0 0
179.349571158463 10.4131195066014 21.7565583636647 0 0
187.352078451536 17.7511416430049 -29.6105463106356 0 0
57.0099022599037 -3.03724807506475 -2.7672626727841 0 0
201.214420941057 32.9766057245095 -19.1637640654021 0 0
34.5782835346316 -0.632395469128253 0.891077848089586 0 0
153.510668533418 -14.5841428414359 22.4671444554462 0 0
151.385002319778 -13.6402127073828 -9.6184212782615 0 0
125.838931844117 13.5272520267257 9.80716067537164 0 0
168.787486253662 -32.9808214823179 -11.7689820338272 0 0
174.444644182949 -27.3348833087497 13.1356396824913 0 0
184.212606688352 38.4538161976025 -31.4710051987922 0 0
166.096257827178 23.8186816849889 15.0749698096103 0 0
106.388109865765 9.85404780164218 8.94541449185941 0 0
14.4855277457211 -1.67761021740963 -0.890484888652318 0 0
157.458066982555 -1.70709148159976 19.5878971378366 0 0
72.6248559330244 -3.22836139072073 25.0856388601707 0 0
173.992499294673 -17.2334083745891 27.5820800743215 0 0
178.725787773296 -21.6333785653853 -31.8546345304793 0 0
76.6678524540601 0.728883007754266 0.0526734598253396 0 0
174.369788334023 -18.0620145442902 -30.1005807007627 0 0
165.305625001811 -30.3143529942641 -2.51077814768181 0 0
194.799001155094 37.4429799542877 -13.187051949705 0 0
98.8199061914473 -19.4125969112818 9.14661075327514 0 0
186.794957303192 1.08023415810259 14.3903013394639 0 0
178.669384964769 31.9087299102292 -33.4438972182784 0 0
134.400543724134 9.17072182859516 -0.532429896442727 0 0
192.596664201673 -5.42858877201706 10.3800961655044 0 0
188.402651128528 2.87740085434063 14.263786053452 0 0
145.750750744453 -20.7080816550982 9.54242174987707 0 0
165.254594991938 -21.4314277227724 23.2844629736964 0 0
44.6829262171395 -21.0738217514031 12.5305083477261 0 0
175.301670569781 -21.4500136690486 28.1322314522973 0 0
197.969242310088 36.5330767473336 -23.0797868483505 0 0
190.291164295746 2.58102337865617 12.9019329891859 0 0
174.620157888389 20.5816664288492 -30.7427391291365 0 0
68.544638486807 5.60392364791863 7.34768924473983 0 0
185.064634670687 -12.1709844162345 20.3522169141008 0 0
176.507504676181 24.322669415663 -32.7738072702852 0 0
191.631444568085 -32.559223269982 -15.7823141395414 0 0
140.715758416434 -14.3678144212819 -6.82427412459967 0 0
146.727852302643 -3.53194350279172 -7.15244523692473 0 0
185.744149196536 -15.6225643668643 -27.8056975535363 0 0
52.8746279514686 0.926558839678325 23.6676748714233 0 0
169.212508911824 -28.9298820069919 5.8427123049588 0 0
89.6593124636318 5.9829356282169 21.9729464991777 0 0
172.191789192557 -12.0797913624805 -26.2470365483856 0 0
172.300299049101 -16.888804288418 27.2839610357677 0 0
107.667181657681 -10.0094134040638 23.7196691639346 0 0
119.165186303735 -6.95129807358075 -6.1953778031609 0 0
159.720142902035 2.24177321902558 19.3379348302642 0 0
33.4383425447268 -10.5245081905266 -0.262250349029845 0 0
174.545995798856 40.3816466767573 -14.5112851147912 0 0
176.723290267553 3.73128055547692 20.0440860987491 0 0
170.620714829716 33.9267606652662 -28.3802697068567 0 0
168.364192972198 26.8404075803049 13.191476747785 0 0
165.661239561762 6.20274091469184 19.4996397983391 0 0
187.599963877377 -6.76632805120788 -20.8170544527553 0 0
185.784302837363 4.88910443395623 17.5934558810959 0 0
53.163613475293 -17.8823838072438 20.4253580295093 0 0
195.256401256945 37.0921568796001 -10.6379387462869 0 0
187.423103454349 -12.908721185754 19.3205129404113 0 0
77.2153650411664 -19.9855826877438 11.0951770322591 0 0
44.4883180418848 -20.3517409806197 9.82230909851162 0 0
11.7664127066839 4.44026654646128 11.5000843919706 0 0
55.5872787212599 -4.67269699789991 -2.97902655696669 0 0
178.797288398731 15.9338851871327 -29.3477990170012 0 0
175.720881204902 -36.7646018895393 -11.9293503627092 0 0
156.604894898342 21.8028359420081 12.0213565890872 0 0
168.283319653856 -28.0584775592374 -26.1077995534715 0 0
172.651907973149 -9.50247542930131 -22.524753749007 0 0
184.049810474426 13.5747812201009 -16.097709260802 0 0
161.120000990721 -5.09617405737097 19.8950220712081 0 0
194.150245220274 -23.5235640352984 15.6210312243281 0 0
40.740451313294 -2.55668582452705 -1.53968923660927 0 0
198.561625092029 -24.1650855737915 0.331809944463103 0 0
82.0430641399936 -6.55566026957461 -3.52293944369372 0 0
124.309268238648 10.0828506560813 3.96900502626518 0 0
166.789809745553 -7.67630302364286 -14.5361146124821 0 0
165.53139378074 4.05874667033273 -11.9504613838152 0 0
171.995024182675 40.5762170530622 -3.96782510750558 0 0
139.178876131154 7.60873298649557 20.9177655813919 0 0
191.420499418305 -24.8729778836174 14.3483667464072 0 0
177.114921700556 0.967343346680543 20.1774639795437 0 0
124.296262919985 -7.68936710609305 -6.36294724923387 0 0
23.4042086063135 -21.4865240211656 16.6837222669613 0 0
91.5688668851885 -2.25266056953249 -2.46318622081136 0 0
186.214552509476 -32.3653422665923 -11.4425261374117 0 0
198.259608090091 -18.0159350737185 2.52059252745856 0 0
77.116304320794 -11.6743384856287 -0.668945808314812 0 0
187.287285363187 -28.3321281790808 -31.1507589405204 0 0
201.1115407641 35.7046723400649 -11.6834941203777 0 0
161.146133599108 -25.8964499665599 3.3043761935807 0 0
192.909536380715 12.6304026923253 -19.6445175920978 0 0
163.125824311394 27.7782690369831 8.95661940047926 0 0
104.655781667881 2.61007877975918 -0.370819223998765 0 0
184.037657466085 -20.8346116578763 -30.722983905871 0 0
177.663356798726 2.55168391843308 -14.102889984532 0 0
194.843197021435 25.9832372467684 -27.7741075990563 0 0
182.482412669151 -34.1433148357681 -5.57897511056434 0 0
137.732935148818 0.0529257306706917 -5.22925705936338 0 0
192.36198393177 16.4091620117735 -23.9486557995339 0 0
26.8774732310838 -7.85564144052909 25.296871818395 0 0
25.5778673150121 -10.0824474641063 -0.493906918509463 0 0
12.2178744706771 -6.98087077826623 -2.6634222096306 0 0
130.464249026593 12.3381048555025 18.1954822162962 0 0
162.26040239338 2.68964846545525 19.0556862782721 0 0
189.556495231888 -22.7685803294115 -28.4135647503729 0 0
5.15632409274601 1.85656590694471 4.75561382600918 0 0
192.638410080661 -5.79297303744253 -14.3181211096566 0 0
143.319434885027 17.5486132891536 12.3705097409389 0 0
196.500877631876 -23.7262176314661 4.33314485895582 0 0
121.630579126334 2.07712916859663 -2.73857866798604 0 0
143.451049418599 3.70469795649689 -5.00712569427148 0 0
185.239553775871 -29.3112494855633 -31.7917882226212 0 0
186.67954674617 6.63817960331748 -8.23428126329352 0 0
101.706104894342 -19.7212104100978 10.9068696341184 0 0
176.533916410852 26.6965626270926 -33.1760955185817 0 0
160.950936779253 10.0894394329456 20.2227548968885 0 0
163.482456566901 -32.6614332221661 -11.4530126995438 0 0
67.6733406851988 -4.95128013697342 25.181666736282 0 0
160.394165045123 -29.4072311458418 -7.6293670608381 0 0
187.479247012201 21.5042175108721 -31.20020856475 0 0
199.797550360117 23.6079736867783 11.5485136463903 0 0
11.7273214588948 -21.8094757088565 16.9639958928333 0 0
169.894967897817 8.62667696553338 -15.3669771922737 0 0
195.494268944298 17.6803604655936 -20.9283663255574 0 0
167.608819562443 -24.9780192043006 17.0059028435936 0 0
176.866213784812 20.654230157599 20.2199996354126 0 0
93.6821277470436 -17.5446893403642 19.1775688686462 0 0
153.663564782009 -17.0095928776316 20.6939566996698 0 0
153.13178338447 -19.6381973045796 15.6793548251068 0 0
167.802987406624 -9.79288936431468 -21.5228662822422 0 0
202.142651175438 20.6659265868613 -7.55328344994891 0 0
58.8978824557476 -0.601796332386804 -0.648349321954769 0 0
128.586407508747 -19.487663562949 12.3556896316941 0 0
130.037097814818 8.57542025109304 0.111308469047218 0 0
27.2246887025237 -20.5640454989045 18.2463685787704 0 0
22.988336794894 -5.47691938992453 -2.98473544075456 0 0
193.107920724385 38.9386822618925 -25.0478390239906 0 0
123.77317856961 10.2344341001482 19.8134331165781 0 0
164.30441861407 -28.5572100381951 -15.6647463177788 0 0
177.99500768635 40.1097338214859 -14.0221921022006 0 0
187.355356506749 8.25119463771068 -8.64467182395329 0 0
192.927504242998 -14.2045535158402 15.2598958162067 0 0
184.823969651098 5.07877942043165 -9.54898879856596 0 0
33.9640770759622 -18.4494065316347 6.49043577516741 0 0
189.520809748219 -26.8520602983917 6.64800206497 0 0
122.482407567553 5.88297207595639 22.1595541432299 0 0
191.25772966961 13.4208199954701 -23.0036366868909 0 0
160.681273960183 26.8454723267519 -4.39920142901133 0 0
77.7712850389025 8.86594566177202 13.883054563069 0 0
182.960520361605 38.7434569689122 1.04207703025485 0 0
17.9686794492165 -20.8230526576559 8.19855104080964 0 0
170.557678753084 -23.3994142200096 22.8657357946781 0 0
189.833144925904 -32.4810168419372 -16.7712555403744 0 0
141.490839092349 -20.4935592740999 8.84887619056015 0 0
138.943563538461 4.79357600394172 21.7310705316367 0 0
93.6881263948061 5.31659170167391 3.92837593096435 0 0
59.8602146882309 7.18348779238247 12.7113050964584 0 0
165.178369692171 -17.2861647674307 -24.6137391786076 0 0
40.2597354513909 -9.12894307297439 -1.75576280806885 0 0
187.074065247036 6.65753264285351 18.5567009953617 0 0
188.211879679566 36.1656722555064 -31.7231796465937 0 0
158.117000940403 21.3400201372897 -4.25329803937054 0 0
46.9248668972132 -0.92582205815978 24.3737445763185 0 0
82.3274988316851 3.40266234890382 2.9262725679111 0 0
201.089780794777 18.6996590828066 -9.19930619172979 0 0
197.109938530181 -16.3005561035611 8.29353833063512 0 0
152.666872250982 -22.2253999831015 6.36582418469139 0 0
196.943189080158 26.7846282502318 10.5579451669891 0 0
192.416552029673 -35.7580533146412 -20.9219247274917 0 0
4.24970118023927 -18.3778117427211 4.77509925209897 1 0
121.549448219303 11.2954897941076 18.7094260683301 0 0
172.141656750991 15.0663719446694 -19.4360300829036 0 0
181.04891242059 38.6558323148886 1.24424271560011 0 0
147.063142939651 -21.2087331701035 0.226710655094322 0 0
181.198800542967 -32.3530091719054 -29.918013394791 0 0
74.9296638331276 8.36477323146643 12.8827734948837 0 0
178.671597012157 -19.3380818553146 -31.1194270223724 0 0
177.85987115934 -15.6568729565404 -29.2845465949283 0 0
164.863292133033 -7.42594008160208 20.9259825734863 0 0
177.984536698539 -27.3333094148964 -32.0149330173075 0 0
104.331407839406 3.04803956694902 23.4037154495736 0 0
183.809271920578 17.8740089882315 -30.6394791492419 0 0
66.4367157063498 -20.4246151347921 13.2916103270161 0 0
175.643907075541 28.0599412399432 14.4850777303635 0 0
7.30954956509984 -2.1721554601441 -1.7904209253026 0 0
196.167962382582 14.7683598091415 17.7615643358346 0 0
194.74363831964 -34.0228058401733 -22.4261303671731 0 0
62.3725150390499 -14.0657758665386 2.19768608652765 0 0
168.773718902707 29.9698183264303 9.83765175050545 0 0
45.1528612589905 -7.66515053092536 -2.83601355283898 0 0
175.942536818348 39.7220452018777 -29.5909673892205 0 0
179.486226812993 -6.050259825345 -18.5553187021049 0 0
125.534952520803 -11.3820310327778 -5.75575704893479 0 0
149.453673403831 16.8490610474406 15.3776418718366 0 0
202.840050927019 24.8600123356512 1.35578772262745 0 0
188.196232559651 39.7824486494104 -13.9002988062913 0 0
161.793447752469 22.6154294232344 14.0398022808876 0 0
197.974205737874 -26.5156587551482 -1.00461172237645 0 0
158.469610546001 19.2452606068237 15.4202315483555 0 0
180.883655529181 13.8060212180074 21.0645401894171 0 0
193.554598868897 -24.3732075705116 13.5541667952866 0 0
90.7258433023986 0.724391053670261 24.128941593992 0 0
155.334921494662 -19.8313343028568 16.6569143083085 0 0
144.999338287791 -19.2881350302339 14.0958707655771 0 0
160.115673771991 -23.5610779569178 -13.4097478964734 0 0
149.316224098839 -16.0741544577595 20.3708608282104 0 0
86.4011646912525 -4.01688122143172 25.0136129748586 0 0
180.553373067812 -13.424459338318 -27.355790848822 0 0
123.964907530309 -19.5444106973187 8.02720404579708 0 0
157.416542655568 -6.57648277533257 -9.69252879849148 0 0
199.804442936179 26.0585572713726 10.0240226734587 0 0
173.551349657403 -8.23189401927598 -20.9959786037983 0 0
169.750517206104 -21.639178925066 25.0092661443532 0 0
171.822057540062 29.0028084289481 12.2196749895829 0 0
197.842524209 25.2044807113969 11.6543368267443 0 0
54.5219335614304 -18.3093434683766 6.87388295506929 0 0
201.497827415928 18.7835869206778 0.529446234173538 0 0
182.360620032585 39.2932075980564 -20.3697962017232 0 0
169.456334137079 20.1477104501477 -26.8025211838127 0 0
73.0673723434349 -20.2279346032423 13.3412977882254 0 0
189.577043725906 -24.368971203486 20.0400370028637 0 0
190.560010649645 -21.8614588427545 -27.1729927672094 0 0
165.529084257559 -11.2782269945145 -15.8237282127466 0 0
166.425358378919 -11.7935365006572 -18.0679688215111 0 0
64.7909364244911 -1.20320269910357 -1.47748128676802 0 0
177.488717473718 -1.6141457940527 -15.4117524882639 0 0
73.0104524211352 3.18791509173166 3.5676329383778 0 0
164.846536327974 19.3571895063954 -18.8779623111866 0 0
81.1351230166079 -4.55235215974489 25.1077742081323 0 0
181.204154047712 27.3615145868953 14.832798784306 0 0
118.203831325141 8.37786500702613 3.41514435356564 0 0
181.802031722014 14.0916326462524 -26.2829775115086 0 0
192.889337497936 5.89636892686044 -6.5335455000414 0 0
157.422066677817 25.713197713428 4.78813816508489 0 0
54.8687000800227 1.30511531233006 2.86034945898925 0 0
176.098958264169 -17.2580308353415 27.9956842986215 0 0
191.137856670698 -31.6450223712208 -10.9868257762372 0 0
177.258564596608 39.4547514207765 -30.0487244938921 0 0
175.86267141254 38.4699292096596 2.69429478562775 0 0
165.406376009027 -28.3769426193952 -17.5401775265241 0 0
126.407790536786 10.4062963329791 19.7477106986371 0 0
84.4051919047355 -0.659269250109746 24.5800137792787 0 0
189.558691660382 29.7100029733056 -31.3550433290384 0 0
43.9009053317845 -2.21900242765548 -1.28283611461557 0 0
197.51841470631 -33.4502184400352 -16.4095634018031 0 0
201.10767984339 16.6794517796781 -1.00579839856221 0 0
108.365036956727 10.7086042179487 10.2891852155747 0 0
