"x" "y" "z" "f" "a"
-205.450482161911 38.436660216455 -10.3889794740954 0 0
-174.382614055762 24.9818240570094 1.92167284273062 0 0
-2.21991081158358 -14.8128397878132 -0.193391577931384 0 0
-193.048338259097 -5.93019093130026 -16.8107785114415 0 0
-137.769309154035 7.58224316141543 -20.9669374244693 0 0
-182.951772474141 -29.4106128049846 -15.7340704877253 0 0
-185.094559556358 26.6438122545331 22.714625110643 0 0
-143.103349217287 13.5926828330084 -10.0423485070691 0 0
-62.7284400250892 -16.8440420109276 19.8900135048849 0 0
-132.007436900463 6.93468702062145 -11.6603250836421 0 0
-208.398831250092 26.3823398556207 18.634967491932 0 0
-128.058606916859 -18.0088912071931 -15.1642678764628 0 0
19.8035689168219 -7.51890853476713 -2.20769757655698 0 0
-56.25536457128 -18.4200827804982 19.8886213547058 0 0
-49.7221945410976 0.443407305361163 6.7370082811059 0 0
27.215506904684 -8.15516515126333 -1.82049684211809 0 0
3.75354080256087 -11.9242662328571 23.1092456534047 0 0
-24.7479757905566 -10.8106581602031 22.6217938938557 0 0
-86.3116804258522 -2.91344070034016 -2.88645514110259 0 0
-48.8612115702931 -3.21071756040189 16.6529797798049 0 0
-116.884854284552 -25.0731765174954 2.74718956952967 0 0
-185.702239601601 4.16770022408505 -11.4185303327447 0 0
-21.5415431900473 -23.3851576931241 17.2042247578895 0 0
39.9407043150884 -2.73776736758661 22.1888442072916 1 0
-35.2384706076628 0.79372296653296 8.33156519736725 0 0
-109.257571280119 -21.2896600928212 -10.6153704977208 0 0
-192.113676676468 41.242027204667 21.6146399512736 0 0
-16.5763364728379 -24.5837041456783 15.2817651676083 0 0
-211.465399674121 36.3131573621532 13.4165122741524 0 0
12.0403391077536 -22.197484831708 6.30256455148598 0 0
-193.839297293576 51.9299567007519 2.32709112615683 0 0
-181.057760154404 15.1577843590205 16.3303593357063 0 0
13.539395311051 -11.2446311546949 23.1052030415909 0 0
31.1181259885157 -16.2204607198201 1.12217020189192 0 0
38.4705060381002 -22.1297511823583 11.5017516279995 1 0
-168.183012773012 1.6023439849676 9.50434062875645 0 0
-148.256363739392 -10.6139600089327 9.21451829819648 0 0
-192.934665362102 -5.95469123486739 4.08737320120008 0 0
-198.671013595306 50.5226985194053 -0.477532458205565 0 0
-192.64401949269 50.3082375590841 -2.04619829382953 0 0
-191.517517119264 22.431211661127 -13.788144761422 0 0
-156.275195415356 1.58775753922436 9.7264681128142 0 0
-181.38138528804 -16.9718152156483 -27.6879864452519 0 0
-155.878212388387 -7.94150721084493 -24.97564176403 0 0
-212.059114656213 36.2192084154807 -3.59915431114243 0 0
5.75713519212631 -23.6886315449602 8.46469424886626 0 0
-42.8249475315372 0.666053198741956 10.226397818636 0 0
35.8234604569866 0.419999975407938 2.27110692865274 0 0
8.98037014821578 -5.27076102043813 22.2926955567629 0 0
-196.104255293208 -18.5252295945065 0.839568633476234 0 0
-179.958009920563 41.6555619884629 -6.79888158243187 0 0
-49.5987240371833 -7.12232990383106 19.6503433527364 0 0
7.11208545943546 -22.0953709661719 5.68523134739037 0 0
-191.167752844696 -6.12574683543414 5.12144556156024 0 0
1.9132568651108 -22.515824790113 17.6452870577548 0 0
-143.351876394655 8.13790074918247 -23.600550053779 0 0
-130.884618820551 -22.1889804952383 -13.0063421870555 0 0
-184.758573043926 -31.0580391248895 -3.88953052536481 0 0
-127.886591097006 -4.01563732154655 10.4309118937783 0 0
26.7856304692027 2.59070325954057 6.11590392467169 0 0
-43.0785498799362 0.673030499766649 8.08279369241351 0 0
-77.3958367415423 -24.8012358732763 11.0352415822159 0 0
-100.763891672339 -26.679417436493 -1.48249902035073 0 0
-211.341819894888 32.5422505135426 15.0776314418307 0 0
1.1892456539925 -13.4578189579462 22.9352713740518 0 0
-180.747486562006 -7.39759423731233 -29.1470749813142 0 0
-197.095404489283 -9.92724929142221 -10.1123447818237 0 0
-166.20772004404 3.3395560136073 -17.0906851540127 0 0
-103.02721778659 -0.0467548742986631 -1.2152272407671 0 0
-195.314504502873 -5.23641082812189 -19.7071321777761 0 0
19.4309910098565 -23.515565037975 11.3644919616389 0 0
-157.705567765864 7.71224441016787 4.63727244142973 0 0
-210.128573883272 17.6031731476442 7.39364933985389 0 0
-208.649876639601 21.1205887510054 -7.70469089906271 0 0
-180.815817729156 -27.0362603666118 1.68598807157236 0 0
-65.8053149626753 -4.74991441201093 -2.33113519487678 0 0
-118.192435116394 -7.30024580963495 12.7928535390058 0 0
-187.718914347353 49.9887679377986 -0.292933473605099 0 0
-196.983591558182 14.9588116268699 18.6961672657189 0 0
-200.281879269322 17.667378211519 -8.20366215794038 0 0
-178.726188608014 45.4561279086456 2.54523315509283 0 0
-159.104592896834 -8.63407575825896 -26.3457162976811 0 0
-175.944576696902 31.5538281697844 -7.59953549079941 0 0
-142.862311637654 15.0862732664635 -15.3649331458506 0 0
-66.356979500759 -2.19412198010449 0.00965552029000515 0 0
-84.4965588202396 -26.2555477129593 6.23690921735505 0 0
-83.5181834139789 -26.5603140260363 1.32718625753808 0 0
-190.648638520148 -2.8409508711578 -26.0485463287678 0 0
-192.565737226376 -23.7332889612378 -0.786453483119619 0 0
-166.738531576504 -31.4876490814674 -16.7889890888409 0 0
-9.85713234135566 -15.4900841220166 22.5464397664349 0 0
-153.15793856951 -1.32121991382326 -23.5954379731118 0 0
-206.182518925829 13.3107872010191 7.45147236128427 0 0
-11.7485068629682 -8.99545053568082 22.7476843199588 0 0
-175.789401444418 39.7202977938236 12.01127445259 0 0
-21.7730247393318 -21.9562573311799 2.53463294431047 0 0
-140.828140783394 -6.96103095552987 -19.7302345365746 0 0
-158.662033297327 -11.5314019580456 -26.3023995626764 0 0
-133.679204966058 -20.0055323883116 8.24479279336579 0 0
-140.582211091933 -25.1848391469078 -10.2648294333944 0 0
-191.209136443052 -5.65587865432877 -6.39829393620341 0 0
-185.046559577745 -26.6062289323542 -0.399350165593314 0 0
-141.790854704599 -23.2451275198578 3.28116070398585 0 0
-41.6297165447477 -16.0051529000042 21.5473117673402 0 0
-180.636264502838 46.0836557237989 10.3838574448745 0 0
-41.9744040966493 -19.0952726885218 20.345992481689 0 0
9.99744342425936 -10.9113103603062 -1.0583966353717 0 0
-191.510582225706 -3.27715960882789 -23.3510830228649 0 0
-111.86390817278 -20.7018446245306 -11.2192531169754 0 0
3.76500754553458 -9.79783570476246 -1.71103905742982 0 0
-175.845651576015 22.4346037955643 -4.94173440130328 0 0
-205.088856558209 36.513246329649 -11.5043018971297 0 0
-76.7448736970899 -2.09640252445085 13.6467401195657 0 0
-7.18893404590665 -17.1697790679721 0.462980248840283 0 0
-180.072602981449 -5.13826686301869 -21.22122213357 0 0
-84.1973209578336 -4.30319772001672 14.9379247765312 0 0
-2.83777847304178 -1.84290840340047 1.64591726775548 0 0
-105.323500804351 -2.41991654594821 11.2432955984458 0 0
-167.215235272393 3.18874668397345 8.99946856845517 0 0
-187.19926447039 6.07256583467058 14.1056707019865 0 0
-181.637495054573 -28.7417447779522 -17.6814967545539 0 0
-27.24406298913 -12.7339892520785 -2.38579122771408 0 0
-194.50518704257 34.5333477680514 24.8491595127624 0 0
-151.705255818484 -16.5022181479766 -21.7266841847822 0 0
-28.5421138133005 -5.18622151632963 20.0712602853123 0 0
-72.4584085343895 -10.8427999354835 19.1120551648055 0 0
-29.2387711200625 -25.8812153889881 10.8535754273292 0 0
28.461459885065 4.00605212257119 12.3973125546272 0 0
-174.607484707245 18.0565730145922 9.56252170400941 0 0
-199.540256124521 19.6999121744576 -11.5467035468971 0 0
-197.661269170164 42.3852729345332 19.6685309745151 0 0
-197.468358949251 10.6237427832373 13.904668733794 0 0
-168.835841164734 -2.3571339268475 -23.7272008917976 0 0
-78.0586090931406 -6.92401135683101 17.0931654272304 0 0
-182.061172542963 -5.58332670692577 -19.7399557807241 0 0
-177.466713409519 33.8286984191804 -9.20826780398733 0 0
-148.261218322478 11.4266739708276 -9.21246026898467 0 0
-180.940114326719 -0.165054911511258 11.6663062372945 0 0
-82.1318580152291 -10.5885292672377 -7.37743109008488 0 0
-170.019209219618 0.821373883487923 9.80440525792435 0 0
40.882984942034 -21.873427499748 12.2264809657856 1 0
-114.831422382551 -3.30458328262543 11.0890590246341 0 0
-72.1609872814369 -21.8720175156822 -4.45793044920107 0 0
-105.47563719432 0.69697111987903 1.08011203036118 0 0
-25.918450480487 0.0928890955618117 14.6921484293587 0 0
-193.768832284385 -20.0261397045099 1.92063807904082 0 0
-59.1740624207495 -20.1406509914091 18.6724840926177 0 0
-79.8996103918569 -24.3977402483583 -3.37003496718728 0 0
-167.873008351042 -26.8413640015292 -21.3644132008909 0 0
-18.0433995486272 -19.973939415265 20.4326407021323 0 0
-51.8481452449175 -6.68058355217591 -3.01092800104234 0 0
-172.82048667696 -10.539572021391 12.1016697719998 0 0
26.2618509919044 -6.2871339241437 -2.35166076062789 0 0
-150.23202565621 -14.6247296593429 8.75686732462218 0 0
-145.661603766817 10.7689104164234 -8.7503468333747 0 0
-184.896955515149 0.34581075827001 -10.9222931490513 0 0
-196.792420384786 -11.0157866830452 3.09245734169092 0 0
-64.9414343369854 -17.664187709581 19.5190847731323 0 0
-41.953541185902 -0.162907627830132 13.2844936960437 0 0
-84.6641111048841 0.615796173480363 4.78209703014747 0 0
-125.066719253491 1.87992357912516 -4.14883206621818 0 0
-29.3789432502153 -9.89618433989374 22.240632590281 0 0
-181.190162086342 20.0705932820903 -11.1735371254004 0 0
-119.59148537455 -21.4015015709358 8.72470917818328 0 0
-188.420196164118 -29.4442147856659 -5.3732468088496 0 0
-174.968650166672 36.8328906979553 -3.32324449535657 0 0
-197.359166810612 47.1914135344484 14.2959895634935 0 0
-72.9818383018808 -8.34346935067495 18.1658077792331 0 0
27.398513381719 -22.8340287558856 12.5789593345946 0 0
7.43725684708197 -11.5599333116764 -0.905415686976229 0 0
-182.973052209267 -30.1324255447486 -12.0333620156774 0 0
15.4450928405079 -5.35534758530054 -2.18485434335154 0 0
-93.6384526538104 -1.28246174448592 11.0564359753045 0 0
-146.940244508487 8.20505112027807 -6.62542060690343 0 0
-175.586446805076 -2.63023608797762 -20.458360951379 0 0
-35.1979545756793 -8.30142792503729 21.2932961664487 0 0
-177.583336942531 5.8313993599723 -12.8486802899745 0 0
-17.5395848443765 -24.0849286324139 6.04933948842415 0 0
-126.708892443844 2.15813257424921 -0.726266459098955 0 0
-184.474546222539 -25.0553980289152 -20.8154518934643 0 0
-210.417961548679 43.1142911260796 6.82790066608077 0 0
-32.6051415918375 -8.17791660409707 21.4787246498609 0 0
-180.260798015164 34.4221887581509 20.6217907430533 0 0
-95.903947469393 -21.0822224091258 -8.82979306279917 0 0
-99.6571579728819 -17.7788886582709 15.0689134830497 0 0
-71.3313036196587 -25.4381819382996 10.4860691166659 0 0
-209.846544130193 43.0671369035225 9.27139303430656 0 0
-70.6821827968352 -24.1682177814234 -2.00335313598085 0 0
-21.5990544148625 -6.52149371600118 21.5009447390621 0 0
-101.396536756164 -15.6557802145544 15.5956857782927 0 0
-113.617361997729 -23.7371143920675 6.11360639120598 0 0
22.7154775289762 -15.5541715435606 22.0557731168662 0 0
-73.5785999089999 -10.3071826121992 -6.64080549229393 0 0
-197.095742265788 10.4051823883133 7.45543017808674 0 0
-69.6686319065176 -22.8579105198844 15.2496253373835 0 0
-199.48940000581 22.7234045286357 -14.6147390177851 0 0
-165.950201260314 -27.3832309333736 1.71385049785518 0 0
-46.7391645341031 -22.6138909841627 0.144465782679572 0 0
23.7823930454615 -3.0413321153115 -1.33340170440912 0 0
-195.190321905548 22.7327127380747 -14.8949298257328 0 0
-158.722088219582 9.60407593703386 1.1732508646803 0 0
-189.457547982135 -3.01481973866884 -7.70655629340623 0 0
-4.83063932180611 -18.6874918123603 1.45710921896517 0 0
-120.359259454406 -20.7744484475648 -12.2035485277426 0 0
-47.3151638304017 -26.3681784608565 7.15277597646964 0 0
-10.4015691745147 -2.72371451199309 0.957613033677643 0 0
-152.696140465513 3.07302884936209 9.3529215579378 0 0
-189.509400158545 40.3844697222502 -13.4303492614401 0 0
-176.402328021066 13.7950429422124 -10.569824102748 0 0
-203.818824740323 48.1853521247989 -1.29639233105074 0 0
-171.855325879551 -31.1386130793953 -17.4660211017497 0 0
36.369309360284 2.04501230202229 18.9509764658963 0 0
-28.3473401081229 -12.8453962202006 22.5497750243027 0 0
-85.0871979728225 -25.3707410458301 8.67780166099309 0 0
-194.190234467971 -22.3288949123699 -18.8846357830432 0 0
-193.382666330369 49.3798137833131 14.8450561727077 0 0
21.0493657829125 -2.63527030610122 -1.21077537982304 0 0
-179.775589148077 -20.3101847217237 -25.7076719416366 0 0
-139.856155237318 -16.7691989267422 9.35570935521335 0 0
-136.111724215936 -4.40100251227656 -18.0757923699082 0 0
-141.029205519518 13.4937537526822 -19.0430559392637 0 0
-194.093424997381 -5.12724488705932 -2.34508967961363 0 0
-140.853118326637 7.77387904299723 -22.7132675612641 0 0
-71.5287712077088 -1.50480731848672 13.3097758014277 0 0
-194.175150198155 -6.57908324608756 -15.6926033460787 0 0
-50.2399895591338 -15.0843769219551 -4.28837485999056 0 0
-181.623533075102 32.308754301904 -13.124694001254 0 0
-178.561188377569 18.2327421006479 -9.69487866273709 0 0
-72.9502015465021 -0.0268869460222559 3.02106350968281 0 0
-160.047694353567 -3.43251383685909 10.2580723294723 0 0
-195.656681827094 10.166999292132 -3.12116913501684 0 0
-133.14956470628 -7.40698556279981 11.1241577758042 0 0
-161.050728249357 2.78404220889106 -19.2135462342852 0 0
-113.208227982574 -14.8520080770659 -13.0922808790096 0 0
-206.343548867612 44.4506243924311 13.6900599990355 0 0
-128.741996982832 -25.1955475184959 0.235195974278468 0 0
-48.516737480434 -15.8608389434828 -3.79241516074605 0 0
-1.60723733593063 -0.755405032247364 2.7197701362778 0 0
-177.461266779232 42.3945826747649 -2.14315191332193 0 0
-45.5947804022907 0.465311090269027 10.7909023403709 0 0
-156.1732016551 -21.6055430640919 -22.1919162987047 0 0
17.1791718151216 -19.1602479657904 2.9389990018407 0 0
-34.293746520744 -1.61289814037818 16.3770320499455 0 0
32.7759407139056 -9.77456883210563 -1.14351856967931 0 0
-24.3888500913144 -1.35683381574921 17.1054569603098 0 0
-64.0490868325873 -20.1075229419129 -4.03553792410207 0 0
-32.4533757359405 -25.6730509035817 7.62063335791422 0 0
-172.934551679276 -26.491663157084 -21.7163036025173 0 0
-142.8204144618 10.5694271304479 -8.4809396258347 0 0
-198.712607236284 -14.0905575287402 0.703365007745265 0 0
-198.749061093305 31.738309639496 24.5795492975703 0 0
-137.761931156811 3.18909783082489 -0.528712673763775 0 0
-189.272181334349 19.1203666947026 21.6837880188127 0 0
-157.624385872619 11.9624878550171 -9.97580769576833 0 0
-184.67144353534 6.28204372024875 14.4924263761431 0 0
-195.87762868674 -7.43926301579557 -25.9630278426072 0 0
-83.9844890388316 -21.9660237824516 -6.61594653535201 0 0
-213.8073908183 35.8241099564411 2.5064759002539 0 0
29.9262842580692 -10.6654102131944 -0.851493302227047 0 0
-62.2887064145082 -9.03873092886569 -4.80268420170514 0 0
-208.020411208356 14.3147184709689 3.2679593702395 0 0
-51.8684240331253 -0.136116366882137 4.78056293940763 0 0
-194.690100361465 32.7161503466892 -15.8725879230081 0 0
-148.884272707914 10.4454250850379 -22.2358977364532 0 0
-208.955149006276 18.9089962180434 12.5783363038574 0 0
-179.026971228714 36.7458100442527 18.708564789757 0 0
-183.436298089908 -4.54019048389616 -25.8035506278273 0 0
-187.255305038493 17.6125284936488 20.2852988029754 0 0
-80.5829729821002 -9.35427191112552 17.7048766270042 0 0
-182.061181481863 -19.2745476186165 8.25734084226941 0 0
-140.160952656623 -20.8502152030327 6.75367571856865 0 0
-173.960096643281 -7.49393343212852 12.6601494779395 0 0
-194.976304932132 50.8340436885351 10.6956400330133 0 0
-185.712995235741 41.8178605303075 19.6795814376228 0 0
-88.390714076878 -23.8535330364939 10.8359510295022 0 0
-181.079261720411 32.1037199564915 20.9900588759106 0 0
-152.585646777959 1.1543984589019 9.77391920659241 0 0
-161.610397300342 -10.6200632907356 9.21522283129765 0 0
-195.769079336716 9.00141089043834 11.8542096012257 0 0
-96.4845124385606 -0.912541339656352 10.1940881653512 0 0
-156.837339512145 -19.542242256987 6.66203221139684 0 0
-160.187463645197 -13.4230018316343 -26.4308480546711 0 0
-192.4891276592 51.4642105694497 9.60963781259075 0 0
-171.830142761795 17.3020505130329 -7.56601397135469 0 0
-174.931863458235 -15.1908032200645 -28.3325215839432 0 0
-113.874744457861 0.868877693299306 4.28086449730278 0 0
-169.763958325992 12.5975691516196 7.98079785037853 0 0
-190.649939857677 7.06778087435847 -8.07600971293057 0 0
-138.267396504131 -5.84440014947326 -18.8229709317692 0 0
-78.6180318638942 -26.1964537372893 0.67348431079344 0 0
31.4577869438186 -6.68119332717355 -2.25403049711031 0 0
-190.511819205017 52.1018673367831 2.21335049639947 0 0
-86.9889640797663 -26.3702318554198 -0.660626443921681 0 0
-66.1917580027455 0.56569670049359 7.65158987228212 0 0
-210.666796888938 18.2566017215299 0.706709788702177 0 0
-67.5785629710413 -18.1400408653835 19.0887650248163 0 0
8.61416643115891 -14.2452873600941 22.7623798380484 0 0
-134.231450466708 -25.4716911106736 -7.83473099619152 0 0
-38.8385618804503 -19.1599141093806 20.4551661828013 0 0
-203.671427436753 35.0519353575189 -12.8676111481131 0 0
-194.254131763146 -23.7270330164055 -1.85015302066174 0 0
-170.347892498064 5.12329375927079 -14.8629906556452 0 0
-191.646304892499 -7.32428344969617 -6.50316889702839 0 0
-160.196108979851 -28.6338000614615 -4.44172460390443 0 0
-154.11038220556 -6.68066746228795 -24.4468761019681 0 0
-200.042245866691 -15.7903074177599 -17.9978105166592 0 0
-104.544038826723 -25.3282577201933 4.74994535088904 0 0
-142.223647982656 -25.2218483894622 -1.63026424585052 0 0
-195.238758324861 -7.80626155205431 -0.476894268075206 0 0
-196.939529182722 -22.4838705551579 -14.7415101982246 0 0
-189.456289538813 -7.87654854581722 -29.5139438168889 0 0
-96.0116413375122 -9.72235186054115 -8.90142029292256 0 0
-186.666459757668 -20.8443495924107 4.59235410194601 0 0
6.6367515661186 -23.7467277763791 15.278952179006 0 0
-183.491236738866 -6.84296626615353 -15.7880674451189 0 0
-186.434649828258 -19.7123881301694 6.25279668021468 0 0
-178.979567788952 10.6950708797276 13.2260052870828 0 0
-93.522809112577 -14.8496647473961 16.8999612609071 0 0
-142.089659400072 -0.0794685152448568 8.70377372680551 0 0
-144.2593151618 4.83516481289503 0.85094777860452 0 0
-103.770916825339 -5.51890993918546 -7.9980284088045 0 0
-75.8192064960354 -8.06322397167668 17.7992715302627 0 0
-145.708971739876 -16.3819435681237 -19.6442039552643 0 0
-191.739165485946 18.7331079203521 21.8060324492838 0 0
-146.252676622452 0.919282207821166 -23.1194993865565 0 0
-54.3909596165278 -1.54181678611801 14.3956506054557 0 0
-18.2157966654047 -21.8211900648147 19.0736061592483 0 0
-173.060317067201 36.6052665396208 3.66690833826265 0 0
-202.355602656563 -14.5357518892566 -14.9030459063303 0 0
-177.61462278203 27.7507437402809 15.8630194863106 0 0
-175.363426518441 29.7947376443799 -1.27624154286695 0 0
-72.3276777324103 -14.2233744970741 -7.43099914616026 0 0
-118.397193224786 -25.3828262906657 -7.64951202889183 0 0
-189.739412451508 6.79257865058354 13.6343391688734 0 0
-53.1059749170507 -2.48817802862298 0.727575263003461 0 0
-187.412615573965 -15.2485234708409 -28.3423629300278 0 0
-183.622694256003 -28.0962972810535 -17.5617325063583 0 0
-205.880414356615 13.5134254570724 1.49122069988064 0 0
-144.475932855983 5.54140402010363 -23.7580807658441 0 0
-141.882912778416 -16.7141830514027 9.14882194309214 0 0
-49.508401438013 -10.565003068693 -5.16368720453258 0 0
-111.841068089453 -8.73473933328505 13.9571001128524 0 0
-0.909159125593245 -21.7509194499668 4.51949440510819 0 0
-182.204826203179 44.0087744480665 -6.80478663619653 0 0
-7.25342564109093 1.43874019799338 14.2456293190945 0 0
-198.259669416105 -21.1612717904356 -6.02213773643043 0 0
1.7218545536372 -16.6811119072483 22.2057537329742 0 0
-203.960698972345 44.5548516171816 -7.08635997211423 0 0
1.54584416107462 1.78533957831176 7.45074932875021 0 0
-193.412357479668 -2.64439921808645 -3.38386740524141 0 0
-213.968277065875 34.3794388662171 0.992910380966247 0 0
-14.5840085263379 -3.01418720866712 19.5255959682665 0 0
-191.143067585961 -26.9577797374956 -11.7403408763763 0 0
-133.035797755154 -18.6507004595923 -15.7934444964051 0 0
-175.438094131408 24.7328110924772 7.75217063168986 0 0
-177.527393591731 -34.3291101018191 -7.14984982710217 0 0
-173.030868031951 21.590082508263 -1.11880750713897 0 0
33.8107646127477 2.69662340952178 5.48339013055601 0 0
-195.952509744995 -24.0073246240175 -8.81744239102635 0 0
-165.320271901708 -31.8796756055356 -6.55459914299196 0 0
5.54521006555709 -18.9053899740802 2.36623261538776 0 0
-65.9585843844647 -9.16260302053679 19.1653654751871 0 0
-176.626911143133 27.411154399639 13.8138961387062 0 0
-64.5180057569833 -8.67850711515104 -4.81104147622153 0 0
-180.885275088984 47.1183600607588 2.01084989038281 0 0
-177.801956201172 -10.406401692433 13.4556259077729 0 0
-95.4556413980413 -25.542464399358 -4.49425315499386 0 0
-175.908641043639 42.7809405148908 5.8419790254626 0 0
-186.479503656024 15.8918896425044 -12.7587781200654 0 0
-201.443227868292 -13.8206319537089 -16.7713353613448 0 0
-191.144932088495 -22.2504216634812 1.55274041934718 0 0
-130.115585572791 -24.6306353162451 1.59919481586919 0 0
-164.590964422893 -22.1264558533191 -24.2177762184655 0 0
-186.872754629306 -27.5605058520646 -1.80156655429833 0 0
-71.3724828278477 -5.99973619739728 -3.77976865743107 0 0
-211.999987190118 26.4731210144451 13.7537709710518 0 0
-155.084468485399 -22.6114973953057 4.1279347527904 0 0
-100.707071691119 -3.27468500102838 12.4241547219551 0 0
-74.1256421767775 -1.46630298600381 13.0885777594937 0 0
-168.912332378954 -29.4851060942357 1.08789918121579 0 0
-123.318982289981 -5.35512598510421 11.6401671268771 0 0
-155.042376423546 -14.8215441153447 8.31730055924507 0 0
-122.33606002136 -12.1143385634532 -15.1137987891997 0 0
-183.140777017372 -6.63780213114314 -28.9595605800016 0 0
-180.725916489544 43.8059421928596 -5.35291943219446 0 0
-180.910479254918 -33.3209384950734 -7.47923306581236 0 0
-87.7086204542529 -25.5113951569884 7.7131651259774 0 0
-32.0414932457144 -22.4844868390286 2.02089360876546 0 0
-207.512489221366 22.2228233748062 17.7764826583055 0 0
-200.068848443884 -15.041570127971 -3.95927586268763 0 0
6.40174743016 -9.70172396011693 -1.67908157890115 0 0
-152.260974564679 9.5483531410813 -4.57272462161471 0 0
36.8566206437985 -18.349436669714 19.7531410198152 1 0
-209.962584312416 41.6102381839332 -2.41474935698217 0 0
-138.941405917798 12.6343153698401 -11.9926848470693 0 0
-120.596676346418 -4.54854252724952 -12.4552851645312 0 0
-66.59729622613 -25.1608329218755 11.7672628339328 0 0
-165.569706963088 -6.06666833357495 11.1251331627753 0 0
-78.495880595221 -1.02463387886302 12.0318585108254 0 0
-12.2538711292526 -16.9523016039231 -0.0250268040114022 0 0
-194.593177948746 25.792220979752 -16.015697174301 0 0
-122.381621057774 -25.4680454402499 -7.47228407630155 0 0
-140.676829473489 10.5055217023806 -22.0125611934612 0 0
-149.513592017148 5.95312443886441 5.80386700094611 0 0
-210.969268649027 41.9547569426081 1.14101157633163 0 0
-31.8838763610205 -10.4045665923541 22.2168168386456 0 0
-201.331620422711 -11.4404541428544 -9.72471329406751 0 0
-93.6813213913607 -17.2103606979605 -9.63156575238553 0 0
-184.60206471516 12.3018157315267 -12.9373145877242 0 0
-39.5058812620665 -26.152387076111 9.662671092657 0 0
-32.2678414071433 -18.25540155418 -1.01656090041314 0 0
-132.741085234227 6.91697610199998 -10.0254919630639 0 0
-179.768782762554 28.5930866371489 -10.9937379325435 0 0
18.2036783329366 -21.6815777119053 17.3800866775926 0 0
-104.130057136972 -20.2272251745392 12.4484688455448 0 0
-159.411724710178 -25.9007162797274 -19.7929442093905 0 0
-196.260031538652 9.51513672492405 4.20373785683338 0 0
-112.616526642631 -3.42233076412213 11.3002229339393 0 0
-17.0999781075911 -3.91698361098003 20.0348728666567 0 0
-205.619880776485 18.4436445279608 -8.37950318108863 0 0
-193.143711541036 -3.60879338390579 -22.4164318845311 0 0
-188.442935949107 -5.69610808005699 -28.7619657877969 0 0
-193.43558287855 16.7774263911619 20.6373564286232 0 0
-138.933284759298 -24.3586477492929 -11.8497360663197 0 0
-60.4939115656665 -22.6124809308202 -1.80095708593338 0 0
-6.37326224310819 -11.4774606041995 -1.49273656060317 0 0
-118.791845815361 -1.59672538387412 9.52828099024193 0 0
-73.7919649597216 -26.1827760271641 1.29996477218068 0 0
-43.42332852631 -12.9594898196375 -4.42527195931395 0 0
-55.0856762153489 -8.45244788882391 19.9335933955339 0 0
-174.83470609439 38.1772476574189 11.3438597757369 0 0
-91.0441974951296 -8.0471676162975 16.1244785670125 0 0
-186.090849522242 28.5787997112668 -15.1627051639702 0 0
-18.3118174355697 -23.6684702818365 16.997168511845 0 0
-123.688492172639 -7.77855885135882 12.3787278380584 0 0
-48.4111527541753 -11.5548230639598 21.3907963157181 0 0
-29.9121781028978 -18.5783255172251 -0.653937525496639 0 0
-140.724014921184 -18.1513076661936 -18.2183191057012 0 0
-159.67992834708 -0.950842383984277 10.2620473268325 0 0
8.80544397307706 -0.98414637166664 2.31648382095753 0 0
-125.498948048383 -1.49678336921068 -13.224580808412 0 0
-141.309267501457 8.56150391166265 -8.05796524492916 0 0
-5.34307349586211 -24.3875741645172 14.932401100545 0 0
-121.666612401885 -0.295921414043929 -10.7875250417666 0 0
-64.9966775386806 -1.49996459561333 13.7719639481778 0 0
-148.306118361366 -25.4349706795972 -1.39327535273919 0 0
-127.176693344325 -24.1813952157637 -10.35273064083 0 0
-176.884884472514 -29.2168369911491 -18.4059205102568 0 0
-154.971027780703 0.71284116196322 -23.3577961780133 0 0
-190.260263148642 50.6981819401006 11.5100451648368 0 0
-176.707048959691 27.9114807192993 -5.71375152974305 0 0
-126.159665054973 -6.97658597444466 -14.246346036783 0 0
-119.742306324655 -10.0099335630513 -13.5066435004797 0 0
-179.213318631178 -14.2111228817127 10.2743450147224 0 0
-155.608895316504 -16.8361205927695 7.78686943861236 0 0
-175.571842881189 -5.42877175405233 -28.0483547787001 0 0
-179.846868651185 -1.44922302593354 -13.9024068088828 0 0
-181.712556203912 29.4573595067616 -12.7360221632146 0 0
-203.170525244184 -14.5960847204094 -11.0132674348108 0 0
-133.331044815109 -24.9728218065878 -0.218235047204495 0 0
-185.062966450435 -17.3595132796343 8.94257603421345 0 0
-7.94394113685755 -0.664145176412634 17.9769749860413 0 0
-174.762082725575 39.5377160841587 -0.133435567609555 0 0
-69.905009172643 -12.2139118153829 -7.11534993244725 0 0
3.69512966932389 1.65011374445326 6.7611913994461 0 0
-142.061323219996 4.05759339765162 -22.9223270914882 0 0
-183.857321350424 47.4440345447404 12.1641684444267 0 0
-157.556504301938 -29.0356300425004 -10.9358249809878 0 0
4.33055305922517 -3.96350817708459 -1.06895470588444 0 0
-68.7195232619524 -10.7260989401448 -6.54339105982578 0 0
-20.2453281482407 -17.2857729201416 -0.39760919321831 0 0
-130.543222405301 -25.7178265158461 -2.98012721824203 0 0
-51.9911708254923 -9.61931107717399 -4.90855478120122 0 0
-0.760657776908945 -19.5358382857658 2.39997331022231 0 0
-137.594286702566 -8.47326291994469 -18.2125066331933 0 0
-122.477693047973 -22.1589246728452 7.22552658777273 0 0
-196.876924535844 21.9340024472952 -14.3819498579044 0 0
-8.36491161645584 1.74300859022476 8.65303915948654 0 0
40.9004635587348 -21.7083176372415 8.99710332579979 1 0
-208.395089508834 15.5916498086991 -1.16618800479129 0 0
-180.304579608948 5.76230399248871 -12.8650527240487 0 0
-204.716749674018 18.4489969337825 17.5118136806371 0 0
-138.737045319269 -18.8580961970403 8.50823126976483 0 0
-198.90359038864 25.2628573312682 23.9375257456628 0 0
-186.602526139151 24.6096785571971 23.0514265950091 0 0
-97.552722107429 -12.4145011032148 16.330526014831 0 0
-178.44758779633 -33.2179772480648 -3.6578748725549 0 0
-154.069315284373 -5.7378015134927 9.01717080620979 0 0
-30.3021003360664 0.0416386358614813 5.34479705799583 0 0
-160.139120873471 -9.61505647584247 -27.0085055677209 0 0
-157.562717805318 3.99231155052449 9.30172412662203 0 0
-56.4989579072333 -24.707785008883 13.6562799818867 0 0
-166.361318867417 -31.213795530969 -4.40792210682288 0 0
-109.194910763898 -19.0393202515591 -11.469296531478 0 0
-152.185814650619 -27.1257842940957 -10.4736954365124 0 0
-157.239970298677 -10.4118004745616 -25.5754963078792 0 0
-142.159815899089 1.90722628993655 -22.4964332848719 0 0
-162.01069881044 14.0867558420598 -6.72756134713249 0 0
-155.151053255496 7.2203979904636 4.30611927406866 0 0
-14.7563695582004 -8.29399302167966 22.4981738178386 0 0
-198.993210143536 -13.8267768620807 -4.89755336918585 0 0
-113.717724658996 -8.42600317117005 -12.079134385861 0 0
-133.495489237724 2.20578227520764 4.99082798221991 0 0
22.1068661560796 -9.89108573689536 23.1150889609781 0 0
-196.540108916879 -6.82540502767671 -17.8266702362537 0 0
-186.149884258463 -6.29616464574219 -28.9849323132341 0 0
34.4327895554146 -17.340661418342 1.86308580763432 0 0
-143.097784615392 -18.7639587439281 8.13896820081112 0 0
-186.154250729049 -23.6353418044454 -22.3188680732361 0 0
-211.654745881889 37.4891357228027 12.1488842191608 0 0
-173.061474446007 -12.5732508705103 10.3786229355761 0 0
-156.03712256432 7.78986062698335 2.91735835373318 0 0
19.9198165558248 -18.5673222964529 20.5543141713853 0 0
-171.769455392787 0.990451265057559 9.96032221062985 0 0
-199.470795628556 17.9351567506104 -7.09152139395986 0 0
-94.715759104675 -17.0362890639195 16.1719946371219 0 0
-133.235869813868 -1.09596963804608 -16.8521161351312 0 0
-146.560222276277 14.6114774620683 -10.4150627724237 0 0
-176.23556929698 40.562186383137 -2.3964589902691 0 0
-190.503800090403 20.8665499802551 -13.4048267633159 0 0
-158.568456511172 7.36056046182316 -15.6271381711582 0 0
-53.8252658518905 -18.1994671074661 20.1436628310891 0 0
-133.316500732797 -22.5586037597673 -13.0111233045328 0 0
-134.855072357222 6.13256354612765 -17.9650911675082 0 0
-74.5167373756507 0.599343842512119 6.60465796056283 0 0
-154.066856510016 7.4116166629636 -0.452034106597711 0 0
6.51431614209819 -12.577566760958 23.0496019829767 0 0
-29.7096911156576 -0.249909231482956 14.9953249300616 0 0
-121.21603139131 -6.70535823295466 12.3384404416641 0 0
-24.0691013630683 -1.84341006545625 2.26773641478018 0 0
-188.171558509016 1.7503868735797 11.1678258830277 0 0
-68.6283891833257 -12.6736758857807 19.9016615543597 0 0
-189.216959366237 47.4771295417948 14.8837398257959 0 0
-203.247135203378 40.2452690113813 -10.9177805574459 0 0
-53.3466156263278 0.44650916709657 6.60389618829052 0 0
-150.458413196384 6.63329019075105 -2.6454127796055 0 0
-28.1875386184437 -21.0792402431123 19.4196367323993 0 0
-132.938923345151 -25.5461848094743 -2.71938259073211 0 0
-161.042202818257 -24.0146166964798 3.44479538192685 0 0
-77.6908341829562 -12.2787449082085 -7.73011851223522 0 0
-174.127250818724 39.6540567178743 8.15849342952108 0 0
-4.69313664489589 -10.2877573273716 -1.80180419238245 0 0
-177.119759485116 18.6694151373772 -8.64851821597775 0 0
-79.6491042422574 -5.3251049701986 -4.1322457274391 0 0
-124.507218759869 -24.4993173119856 -9.61229525947459 0 0
-60.7312991739492 0.53598523668085 8.39622474464035 0 0
-142.687158083989 -22.1303683575462 4.99636256033053 0 0
-91.9812420566834 -7.05405786178644 -7.22473838996977 0 0
-192.507033150233 -25.7230360729395 -4.39774933274187 0 0
-48.7257157556368 -13.0041627991081 -5.00357615938059 0 0
-193.394699857466 52.0937811889992 7.88421420930138 0 0
-157.321772329315 -4.93634261799695 9.57991712319818 0 0
-146.309812246635 -1.22891328515122 -22.5960013551814 0 0
-109.377395360759 -0.332626663649819 7.99378823050464 0 0
-1.10073360260238 1.58808690831461 7.04157389029444 0 0
-44.1515917205438 -3.27006673131646 17.1165255486279 0 0
-117.904532583498 -18.6448453206511 -12.8157847550985 0 0
-158.469882999956 12.7471355516014 -4.83370248117147 0 0
-126.59182910999 -12.0315385207518 12.3415719215688 0 0
-17.5550547904839 0.828621527298373 13.869899262846 0 0
-178.613747914413 28.0356280765606 -8.6574719459754 0 0
-184.447216353144 -1.11910685553854 11.7509458927552 0 0
-23.9957143568472 -5.65627948885351 20.7750141599513 0 0
-71.4655517434841 -25.7401094244891 0.441807262008863 0 0
-182.830864700835 33.4352703657823 -13.4045335619352 0 0
-181.334833318774 3.33839516756027 12.3320459679179 0 0
-32.1431026264121 -18.4064521543531 21.0597904388989 0 0
-111.304784138357 -12.3871051778334 -12.6956282164589 0 0
-210.862054534246 18.256978824891 5.56052462716106 0 0
-183.338657719406 -5.75124040136824 -18.1957214145712 0 0
-194.590476175586 -4.48843775920769 0.126956471565652 0 0
-163.6243461528 -31.507791902625 -7.62244755188061 0 0
-172.609602600819 34.6448108579591 3.81697469519302 0 0
-159.027841537334 -0.453304301067789 -21.9304954871935 0 0
-174.97407054552 30.7485953638742 -5.30374813160145 0 0
-86.7479213841538 -26.2012890130562 6.11430005115731 0 0
-139.575617799223 -12.0489324349362 10.3125998081737 0 0
-176.051580602932 29.9748519269678 -6.24587943789447 0 0
-173.020455299531 18.0161175568446 7.82045587178261 0 0
-211.455823785241 22.7262937776497 12.2829008208175 0 0
-172.150101035198 20.5095835043801 4.32662332920824 0 0
-159.999938210416 11.5040817246656 -10.4623411993351 0 0
-37.9066848664611 -23.1939206522766 1.91267526476953 0 0
-104.200626148579 -10.7972025866055 -11.0996343960182 0 0
-179.472540513547 32.9327205972469 -11.2803703662971 0 0
-175.756422471971 20.0448796079894 10.3207219496319 0 0
-107.31204948387 -23.6522901656036 7.4828026998469 0 0
-210.571595705606 19.9284031013749 -2.33803637628715 0 0
-130.881607675886 -4.40300234457204 -15.5649143829363 0 0
-134.37169031166 -13.5299134344501 -17.4427322512197 0 0
-178.433703932815 22.8204614368527 -8.1865626876096 0 0
-163.277260964701 -12.9367827678553 8.86802921517543 0 0
-110.912722221476 -25.9184892888516 1.48462667558798 0 0
-139.685872794668 0.386269346060123 8.27280013024669 0 0
-150.441669765622 0.221604355886267 -23.3126862265243 0 0
-49.2720575442457 -26.3872582374555 9.26169375028288 0 0
-200.213016842867 33.3521271026894 23.987662933705 0 0
-191.096513334776 9.39046863952022 -8.80592371548369 0 0
-178.547616197674 -32.5147174079448 -11.6857149510893 0 0
-92.4692071891596 -11.6638175896666 -9.64605799105723 0 0
-206.01952030694 26.9190882829488 -11.7291242314386 0 0
-142.738170896305 -4.79152545885062 -20.7628269652796 0 0
6.94253104086886 -3.03960630785006 -0.0457246963717144 0 0
-194.517612159924 7.13245584410637 8.75598094491334 0 0
-155.035808634358 -1.29418492500086 -24.0285216341228 0 0
-193.238708851537 19.928212607097 -12.6768866835534 0 0
-165.237525463626 10.0278550555008 6.70159597690823 0 0
-141.867542950939 -22.5072815281032 -14.9997849268031 0 0
24.9815799399182 3.09211546995031 7.6984052839243 0 0
-110.346706026287 -14.2620076304154 -12.6084685728684 0 0
-136.269899683093 4.91121997104623 -19.5486189144646 0 0
-196.704300566668 9.36014730101176 10.3218084079791 0 0
-189.396530307787 -8.73789319229848 9.03566877904971 0 0
27.8643630654329 -12.4413755453434 -0.344369377970666 0 0
-21.7104397644692 -10.1590559294825 -2.79484816204598 0 0
-177.349387857684 39.0892114454322 14.9849714044131 0 0
-196.525434910895 -15.8464727390226 -22.1072218408169 0 0
-65.9567119188996 -0.00547318315959225 10.6022086684693 0 0
-206.635204242724 28.7491698451996 -11.4846758023788 0 0
-190.724743667872 -6.94345443174248 -13.0867703586669 0 0
-181.497960994204 -5.55030365887189 -18.1596325283667 0 0
-92.1066533304682 -14.6159909319995 -10.0821695984581 0 0
21.3875195515389 -21.147485577118 5.33776939760125 0 0
-172.372752226954 2.89625708739128 -15.7839827405329 0 0
37.2171500666094 4.801303142366 12.4116289542378 1 0
-11.764942287189 -13.9730370972084 22.7647218188737 0 0
-15.7683056445436 -4.37709564743526 -0.324479105295145 0 0
-182.348595894994 30.6812829942207 21.7667300451943 0 0
-205.122670718986 20.6303471318269 -10.6829886707931 0 0
-194.691081100636 7.6937257521458 -2.98073197854458 0 0
-207.14277286906 30.6769011729258 -11.1386703147188 0 0
-186.754840868547 32.125806083108 24.1254986977906 0 0
-199.600121798376 47.7159238066013 12.4227819298269 0 0
-118.926150944557 -3.78940173876261 -11.6454715684191 0 0
37.8030888567334 -5.73087263318185 23.0166424940426 1 0
-171.462804719144 3.99262996557326 9.87049669726003 0 0
-32.8073519451542 -10.8389642178194 -3.65769102692608 0 0
-4.6706842922991 1.64188064966844 14.005447947081 0 0
-187.647745018732 -16.4432703686552 8.39555430242858 0 0
-77.9616119595251 -18.383078194036 -6.959860935638 0 0
-92.4287407068997 -26.7330444610392 2.36216654874558 0 0
-160.226750904416 8.78379332834534 4.73827234647032 0 0
39.5879841727024 -4.93700814284387 22.9014832922091 1 0
-181.299939441289 9.21647217417545 -12.6922225592417 0 0
-49.9626381743563 -17.8340666312987 -3.1249022807766 0 0
-94.5475558160661 -24.5519734815548 8.41247527843518 0 0
-176.98408083182 24.1308969410841 -5.67389055006983 0 0
-148.16530626456 5.83908179467799 4.4878483559616 0 0
-180.613395849579 -6.51737048577227 -16.3207612564517 0 0
-17.8834039152724 -7.14665145020793 -2.92670443560921 0 0
-198.8254744091 -8.62642922144453 -16.0036842989768 0 0
-59.1280948759643 -24.4552777173947 13.895221848205 0 0
-30.1404931174564 -1.32324384980127 2.92662688727425 0 0
-168.226109394196 -33.365109500745 -7.14278708683223 0 0
-166.737156685176 4.69690845550312 -15.8207986709924 0 0
-139.498326194409 -14.5028622563209 10.0912371125526 0 0
-58.9119188685716 -3.92738844376043 -1.04010516640089 0 0
-111.263704858456 -1.80527488142877 10.1144042248046 0 0
-95.9597573149919 -15.4947834882476 16.4096967236917 0 0
-177.080168540061 22.2012314047306 -6.57874078205384 0 0
-7.20806306664796 -8.86219782646267 22.9591856839386 0 0
-6.94252227062059 -4.84083205191433 -1.21398160888156 0 0
-176.314025766249 -34.112197712834 -4.39490084792472 0 0
-169.509881678967 2.9641961852081 9.50678187496766 0 0
-186.60200109451 15.3754344874028 19.0298429039174 0 0
-183.578600109213 -30.8732762774855 -10.0037357216891 0 0
-126.747160057028 -19.7574616830084 9.53672667565068 0 0
-167.630481857492 17.19947128123 0.655096894785831 0 0
-134.557867147925 -5.72621729966073 10.5341057211296 0 0
-146.781186994273 5.60010377425178 1.52030341558682 0 0
-67.1349544271692 -20.862949709672 17.4537597636288 0 0
-86.4164708278439 -25.5983199707967 -2.90525732996435 0 0
-89.7737522119177 0.291844670456861 7.57428029513845 0 0
-163.972122295532 -33.6792557671788 -11.664951879273 0 0
-138.154819783508 11.8840209004496 -19.1419504938527 0 0
-196.409374180021 50.1777189835182 -2.30420228595132 0 0
-135.740558739643 -24.6977361947153 -10.4895179335992 0 0
-76.9862089885019 -4.82253682269196 -3.48142622500624 0 0
12.2357776789834 0.0400969172921059 18.6358651874956 0 0
-182.552599807172 -7.43921481086014 -14.1120594089945 0 0
-194.305612818051 6.71213356765242 5.50925366698853 0 0
-199.330227046111 -10.8650814909052 -9.54717378426406 0 0
-212.789243848306 34.7692070359117 -2.81510869684183 0 0
-22.1873103305688 -8.52047721668584 -3.3384970307917 0 0
-206.486168258408 44.9527238067317 -3.8521280347772 0 0
-100.525610566714 0.339379983137758 0.386839129054546 0 0
-208.773607939983 15.7443110232005 7.12240460130127 0 0
-91.086842010835 -14.2876273560412 17.262507190526 0 0
-157.453046368969 -28.5932261563816 -15.1757862498944 0 0
-158.92340150165 -27.4487594761507 -2.13253528415472 0 0
22.6168418242004 -16.7877743848424 1.34249972204457 0 0
-184.921555329296 -6.24708716111922 -16.5191620112582 0 0
-31.5518092918095 -12.5070791413367 -2.91469424139439 0 0
-36.6978520839626 -12.2253532892554 -3.78825560412189 0 0
-165.299649960062 -0.565293081081792 -20.6928474373382 0 0
-111.432306130201 0.806222220771177 4.30369054748512 0 0
-196.57565707978 50.8825900999028 11.5404220941839 0 0
-186.064953826915 -29.177032230169 -10.3960551910078 0 0
-159.283221595719 -5.59379132020616 9.87828539899987 0 0
-177.739294424863 7.96283186761174 -12.301492853769 0 0
-207.316265456425 18.0362518535615 -6.80513613145327 0 0
-187.565311094913 48.1302993472508 -4.54193609275545 0 0
-196.848986115226 50.7917171210898 -0.164776526862211 0 0
-110.058787038153 -23.2378599646413 7.57332152981606 0 0
-178.538436668784 -0.807302204432675 11.1982747961595 0 0
-169.865621854263 -33.7697931747178 -8.24640196493031 0 0
-71.7938440678743 -3.88185858479769 15.8809894877108 0 0
-203.912817636743 19.0157810522845 -9.52636958464441 0 0
-174.704624611805 -17.3403836450736 -27.3994236293937 0 0
-31.3558782611018 -8.78531765998511 -3.64263678662639 0 0
-78.082858863265 -5.12480673815613 16.2354001556425 0 0
-177.962641616924 -34.3824308787929 -5.29785570777967 0 0
-98.7046867111054 -21.1123667257227 -9.21335674820548 0 0
-175.181810700877 25.3418162882261 -0.494630370390076 0 0
-195.172285233285 -9.2647657960886 -27.3981403168002 0 0
-67.8220127986844 0.413072906132727 8.87514026298756 0 0
-108.002778913998 -3.25576910999536 11.6360035030033 0 0
-144.421750986897 4.23417932523773 7.30232057388525 0 0
-206.508588088975 20.280769204852 -9.19840397197867 0 0
-159.059670777037 5.66645784074124 -17.2293612660976 0 0
-192.733640469349 46.9232931627746 -8.28894033080064 0 0
-124.735408670444 -21.8414702385043 7.36977713240953 0 0
-158.412013069153 0.743774373431653 -22.0501335189998 0 0
-135.022060913432 -14.5147809813136 10.7379376034539 0 0
-14.4782964650868 -25.0597475428171 13.6105118928433 0 0
1.48215694551339 -12.2234875568478 -0.871379273992698 0 0
-190.414313727893 -27.6153237588764 -5.28520983302417 0 0
-177.805953176236 -23.9445486400267 5.81307172999145 0 0
-32.4582520773014 -0.195886989033069 14.6239994142305 0 0
-182.15592392241 24.6140012253804 -11.9576273946277 0 0
-205.322015354205 30.4823555056688 -12.4629687851173 0 0
-67.4116350090779 -14.098998804932 20.0127438283613 0 0
-38.7296299830482 -0.0509620252745921 5.21632935967503 0 0
-173.423206157253 36.5654367792665 9.42553159806228 0 0
-74.072954458464 -14.2294570825674 -7.66502752634134 0 0
-125.509383967159 -18.6330162232593 10.5362572579899 0 0
-97.58181569102 -4.55793955281873 -6.46406041792082 0 0
-86.4440004095712 -8.72341737490047 16.850684356101 0 0
-162.880166171948 -30.3506607505527 -6.54636490722867 0 0
-78.2329671800782 0.11911075298543 9.32553149956723 0 0
-68.9037262786413 -4.5732770392804 16.5701091215565 0 0
-115.067508709297 0.656120476942625 -4.36737430671844 0 0
-3.33277810504986 -3.43976372688623 0.318385588964913 0 0
-188.501072474226 51.3725864081673 7.96062729357966 0 0
-169.090706034265 -11.8889569610267 -29.4451703511646 0 0
-175.157716916244 41.7676013486198 4.171523431523 0 0
-132.688514074625 -20.6829640096126 -14.5397414914126 0 0
-197.044550492125 9.4552878872361 2.015681943205 0 0
-65.4514619521402 -23.7970176240764 -1.59983568362946 0 0
40.640819320256 3.12438815806197 5.15846900981339 1 0
-111.62957279603 -11.3790618591543 14.3678879067821 0 0
-178.549659601991 -19.7958864399577 7.59295808940313 0 0
-36.7160580071315 -0.822982856261969 3.72758616798158 0 0
-158.877958710357 -27.833198942426 -17.5090902567178 0 0
-76.7331459780795 -21.5538735041117 -5.51955280292022 0 0
-208.713672826411 42.4662564827857 -3.77196955545996 0 0
-95.4615943833077 -16.3531967854915 -10.105195719585 0 0
-3.95235130640527 -24.1524044521079 7.99832939908064 0 0
-179.622580614741 6.16206285165734 12.2977040043938 0 0
-207.148450668937 45.3161282053478 -2.10970134803184 0 0
12.2903769923227 1.56024251933919 16.9876570878139 0 0
-193.29633103495 7.53814550539782 -4.99332565099842 0 0
-66.8658117318865 -3.28995256182255 15.5759762192943 0 0
-110.963553588561 -23.0220097107342 -9.84993517823652 0 0
-42.9030630862454 -21.2026527950451 -0.467273633389223 0 0
-135.11403192318 -15.3968305368998 -17.3385002176056 0 0
-202.713984605803 32.1297060837211 23.0927316002436 0 0
-177.90452672005 17.0936058447538 -9.9304630622373 0 0
-116.973431294883 -9.09930092847062 -12.7583557952307 0 0
-178.554474245829 9.17666797092553 12.3789731575364 0 0
13.5067469727826 -3.49470914745395 21.5487031617701 0 0
-107.781171975124 0.892781853168002 3.14016848472908 0 0
-121.421204028113 -25.6114536098209 0.196300654969712 0 0
-13.6579963563565 -3.24293900423782 0.557356641434865 0 0
-70.578677178158 -0.339672397113381 2.50532162440942 0 0
-172.768778351482 30.335795013419 0.32888547857591 0 0
-2.91031823257778 -6.17733271720016 -2.33248185586916 0 0
-202.592991272396 13.2139293171326 13.0411091541093 0 0
-68.1314723129079 -18.3189513260359 -5.37898573068968 0 0
-150.513313534492 -8.32114326283823 -23.0082568066571 0 0
-150.014816373107 3.62446443460694 8.69954728854614 0 0
-155.658195272929 2.14459187981318 -22.3863122461629 0 0
-206.78202822465 24.6308533583326 19.6491981868487 0 0
17.9943273558586 -11.9599059977978 -0.598739831089845 0 0
-175.48951460169 -29.3990422143498 1.96321661512423 0 0
24.1463819999492 2.02475062613617 5.31395943749438 0 0
-15.1364137078733 -14.744848085958 -0.966006697371945 0 0
-110.521134285669 -22.0128151804162 9.35372931180366 0 0
-201.131669773324 -16.8072822438746 -16.2295638578962 0 0
-149.097403240041 -18.1900063975092 7.77366074973335 0 0
-188.260074349518 36.1558599803242 23.7471322912263 0 0
20.6830594004713 -14.011217033451 22.5668177510878 0 0
-78.3119294622288 -26.6501605310248 5.51379772973711 0 0
-132.634647480619 3.36598310321632 -16.1860587276007 0 0
-112.08682744678 -22.9199498416176 7.67928651710826 0 0
-162.484576628024 2.49871654050649 -18.6314742391095 0 0
-88.0181757044905 -16.5441655032796 -9.02501140589253 0 0
-150.327935579597 -18.8081664753965 -20.4933033990876 0 0
-149.525570768515 12.4165348114883 -10.2255576501754 0 0
-207.215894006944 35.4818240550357 19.2336475914258 0 0
-198.803946867421 9.84856741346145 9.55844972359621 0 0
-179.326489295428 9.4609336615126 -12.221378747556 0 0
-67.7358800852174 -24.706364057099 -0.772468124757053 0 0
-174.853369002203 1.51436461211797 -15.3439243301344 0 0
-194.31123362935 24.9873175961192 24.7191804920991 0 0
-206.418410018474 40.216218370928 -8.5902020257911 0 0
-197.013993849096 -22.4804032433326 -7.87147878048176 0 0
-107.892425209997 -11.7356409871306 -12.0328681228783 0 0
-180.668451147065 -30.5211718813817 -1.47927363026353 0 0
-117.261877498307 -21.9605922603811 8.34561365859119 0 0
-116.048739665921 -26.344902366737 -3.74819635066327 0 0
33.6633707013476 -6.86690560934238 23.0722902126042 0 0
-158.015295892999 -0.381319294017009 -23.0347201749933 0 0
-203.315146420031 46.966263491867 -4.42343499352824 0 0
-165.487393981629 -12.9841510870574 9.13826537261916 0 0
-52.1396611757664 -17.7492851784373 -3.44017958933095 0 0
-192.578822404193 -5.0270952189077 -18.8501131986079 0 0
-136.312822470383 2.27231675140453 6.13457845312275 0 0
-143.338974297416 -23.9518955399433 -13.7047694024938 0 0
-131.380012041397 2.90232713913054 -4.65348471208095 0 0
-194.135414001129 9.07435187973056 -4.73407776119905 0 0
-134.099999071594 6.5907128557388 -8.93661167324599 0 0
-92.8653960390805 -26.3726520656649 4.33930362100296 0 0
-9.4069502070439 1.54489019175987 13.1834633115877 0 0
-69.2839563363412 -19.0802131316069 18.4343854810532 0 0
-79.3130200273771 -25.2217356898793 -1.81557433511774 0 0
-152.721121944399 -22.3746053571601 4.26133686262108 0 0
-184.298024166782 -7.37294267423019 -12.9345013430509 0 0
-174.679760123432 32.8796664936373 -5.49208877629896 0 0
