"x" "y" "z" "f" "a"
-86.855929199377 -12.8909620009277 2.57347248586 0 0
-124.635942296531 0.513185544098986 -17.5610003947947 0 0
-54.6028220405576 -6.85765708606219 3.17820661532027 0 0
-232.612243280299 -35.8247134473164 14.2814620154582 0 0
-243.09827182514 -12.3199364297794 -16.9333417585315 0 0
-255.839913157508 -15.1853220073928 27.7020928308439 0 0
-91.5201862397412 3.91446643693432 -0.0876884264685423 0 0
-255.486076775149 1.24143547178317 -11.9979744501098 0 0
-106.255929597739 -15.5884197321691 3.88703509967246 0 0
-146.229286916056 5.9369716214103 6.64930143642644 0 0
-249.412053237851 20.1200738920871 17.8826056635834 0 0
42.5123185896311 -17.3239874643054 -15.921483290933 0 0
-1.37337956823192 -2.0085127203146 4.10884673009834 0 0
-126.952909868971 5.32995997044675 3.54463838884285 0 0
-252.746715758799 -2.27669392194951 -10.7011175989712 0 0
-237.938848161823 -35.6674685813854 -0.692382157318149 0 0
39.3541793993497 -17.2328215144073 -16.5528810984915 0 0
-177.230113268525 -6.77962027667435 18.9438663714719 0 0
-261.417293727249 -19.7639525767978 9.55469359887574 0 0
-80.6477717363095 6.39502176569319 -5.99410650318218 0 0
-254.226175107665 -3.05382495737507 -2.52266981373207 0 0
-205.23840282596 17.7709081733003 11.2279045697704 0 0
-2.89666155059101 -18.2549205407986 -16.6951908412559 0 0
89.7261563589626 11.4630925429558 -2.77357160401499 0 0
-211.193692209489 -29.2784628992428 12.5423639768019 0 0
-205.43832006955 -25.3576114885564 18.0160622361457 0 0
-201.379472661712 -3.28966329637854 24.5389891866411 0 0
-263.0509748735 42.8000038221198 11.1070879565867 0 0
-242.712893553083 -19.2970609929254 28.8614441047457 0 0
-146.730109823468 -17.5185307741266 -8.61477980833066 0 0
-227.223567784552 0.612493959022342 -12.7961304869694 0 0
-199.519889774987 6.50336519968895 23.4673798718717 0 0
-40.147903391905 7.11677222837127 -20.0035268633196 0 0
-222.144527693818 -1.20626078464452 23.4681725161753 0 0
-208.966100314492 12.546049897384 15.3853533290798 0 0
-57.7885315531823 -14.1825389016836 -1.99911216558009 0 0
-256.524534456192 49.2000207059918 -11.4697468048637 0 0
-52.8827818836694 -19.6487137057513 -12.9534067285837 0 0
-206.13186699566 10.8358344852847 -5.29355582361292 0 0
-120.148339716938 -6.01148652301485 -19.1614429147884 0 0
-177.601646270179 10.8087668936311 10.6322322949268 0 0
-252.650119666831 49.5375588759127 1.96634751119787 0 0
-170.180413134824 -13.758602445446 -9.95951504557724 0 0
-174.456654025707 9.92407371771224 3.25008995500876 0 0
26.283191419587 5.12473452714165 -23.7871880341059 0 0
-122.558369356278 -6.57384350561039 -18.7948980183244 0 0
-141.2920008568 -15.5570055070208 -12.0612354178201 0 0
-94.514851478499 -19.0622216852286 -3.67372364949922 0 0
55.7856978058002 3.5756638161274 1.72687689327743 0 0
-168.450726106866 -20.1934306834595 1.30788095397205 0 0
-235.482142961238 30.0738857123415 -13.7535832385666 0 0
-88.0964927594001 -6.02788668492579 -22.5887259845395 0 0
42.6137941153704 -17.5291198329642 -8.79617657927891 0 0
-208.553175662 9.41335222670344 18.245189313153 0 0
-206.712224676425 -7.909118040718 -9.11970746036661 0 0
-175.022022456573 3.94219163907819 -7.9143011793004 0 0
-179.9745279417 -13.5844649804074 22.0369956197029 0 0
89.040054290377 -11.3256629265618 -23.4642185731406 0 0
-269.037306587635 7.84227338303243 -8.62457469912306 0 0
26.2789469708331 9.29066892942433 -8.43213886311545 0 0
-235.884454793954 -13.0128780069455 -15.3724742667256 0 0
-186.986183122943 3.26390122299266 -9.07146028916406 0 0
-60.0061340863153 -19.6662727225524 -9.24232503917378 0 0
53.0411742496661 -16.0897646081419 -18.5695233200497 0 0
-95.1308594602548 -17.4056207380768 -0.804939449769152 0 0
-179.932859452967 11.215367099442 5.50376344727679 0 0
-30.1009464779789 8.12807991890776 -11.6310808340041 0 0
-243.14323851141 -4.03046660237623 -15.7372176743502 0 0
-153.547264986591 6.57923523951174 -4.44968503693579 0 0
-26.8861280938107 1.9224445566908 1.62756958280711 0 0
-49.2585086376389 6.23362047054064 -7.62186722576729 0 0
-171.02267727954 0.525573477531257 -10.8268110492393 0 0
-250.309614770214 46.1779719583955 7.98634800732142 0 0
-188.561115760228 -3.85950476104593 -9.95823699362663 0 0
-222.655091742477 -0.378257525642889 26.1633914126522 0 0
-198.073159958353 12.3463333979845 2.57016838897735 0 0
-231.855026694874 -0.0409820540172412 -13.5338877286289 0 0
-204.434402237953 -23.6468561802845 20.195022132797 0 0
29.5728167475956 -17.8674031302273 -15.1679006511169 0 0
4.36156612458595 4.5060055865805 -2.94589579165837 0 0
-276.077658203155 28.2855095984966 7.97063829574268 0 0
-178.91506068285 9.87249387184731 12.5068464301724 0 0
66.790735295749 -12.5451618715751 -22.3121384133036 0 0
-229.241150562912 25.3563766389826 2.01671729083107 0 0
-218.683717269454 6.74259859755366 -9.74893854087318 0 0
-9.69649168349125 3.8744214339351 -2.07647434090486 0 0
-74.9788324879082 -17.8134122340034 -16.3984837747255 0 0
84.1412250746901 -13.7335662298199 5.17662661972805 0 0
19.5111151270825 6.11832122674711 -3.38502815053914 0 0
-202.499574353279 10.9966763179055 20.6191306479463 0 0
-188.533365128908 12.5685144713837 5.53371182843686 0 0
-240.242963750508 43.1996484635558 3.30875313883875 0 0
-216.010376819714 6.92814839227292 -9.17239886694065 0 0
84.3050831144249 13.1785300835922 -17.1191619173613 0 0
-89.6980094473136 -15.6380500571179 0.354654693027495 0 0
-101.369717202301 -12.9593517271782 5.36939677108838 0 0
59.1333313346649 2.83435874440232 -24.6294219837344 0 0
-187.826149933784 -22.0051822884008 0.995261415539548 0 0
46.4530652417318 9.72735822166691 -6.54981860330775 0 0
-26.7172687366021 -5.58192627673064 -25.6226393404288 0 0
-100.604166304129 -16.5705798224801 -15.8978134411449 0 0
98.7626012313355 -13.0892663473494 -22.6453047279836 1 0
-243.950785017836 -32.065880410868 6.90159087358183 0 0
-118.113532228477 -2.34974035273828 7.51177785307925 0 0
-15.3940817768743 -4.82610053120614 -25.729618765987 0 0
95.0646384871365 -1.00489964338524 6.06611316910076 1 0
-205.286080069381 1.97443396755273 -10.3441751776782 0 0
-142.936889362804 -19.520004110675 6.78250878676079 0 0
-258.95596513654 22.3610378370796 -26.3351232752571 0 0
44.4403158997088 11.2369085748183 -17.370701125019 0 0
34.9445259432519 -18.1442937496058 -12.7815862412688 0 0
-261.976109530056 -6.67923896063399 18.2221971676274 0 0
-230.900456593807 12.1606651331204 -12.4463374525893 0 0
-12.4816701055662 -19.039348921414 -12.4640962557739 0 0
-147.913573926789 7.16084037676992 4.95191768130564 0 0
-178.343431833526 5.56763717090199 -6.62221825314291 0 0
90.7353110735936 6.25354172848859 -23.0206435856816 0 0
-240.424889473078 -12.0515478241328 14.1571514686485 0 0
-136.601365436906 6.14951426722838 -7.80645566577285 0 0
-231.683116072372 -18.8037259826636 29.5366057819545 0 0
-131.065823807615 1.27608451883902 7.51996093813011 0 0
-19.3055894988491 9.27983610288641 -15.6709206515554 0 0
-167.566369156246 -19.0553995096046 13.2119118965785 0 0
-192.268231982867 16.702602212359 20.8820487546596 0 0
-117.586060616699 -5.48745367837922 -19.513202128718 0 0
-38.5461007061501 -19.4199229114256 -13.6993194378916 0 0
-31.1113687593996 -9.2312571564198 0.403438623258109 0 0
-233.307667232775 9.28516644879718 -13.8575805647168 0 0
-244.784086785468 -20.0782318203659 -14.3191668536145 0 0
-165.473202148217 -15.2919026377106 15.3979382556428 0 0
-245.388902270666 25.213757678249 16.9381265624128 0 0
-243.714294210606 9.36917920118491 -17.7052058965565 0 0
-238.21771879092 38.3664984965353 2.14512197066454 0 0
-247.702894352332 35.9894006097584 -23.3336942426248 0 0
-197.457568159018 -7.00038982060396 24.1903023288366 0 0
50.9301627001112 -1.20443155434318 4.00093872945369 0 0
-210.453063417216 1.5087428159237 -10.5740565259566 0 0
-254.687343999438 -5.42878794653135 18.5850040906435 0 0
-154.735403764527 -16.5255605915978 -8.98114702822382 0 0
-207.310123859106 13.7202148089485 -1.53794697277773 0 0
-256.349655323428 -26.8494083596422 13.9925584337698 0 0
-239.935685260448 -35.1197665702139 8.08862386065297 0 0
-260.907616155633 44.4072495987202 -3.81965406308756 0 0
-254.747246381261 2.75064262170046 4.28243230015869 0 0
-141.872071480661 1.99786029870678 -13.7302991717418 0 0
-231.85997351423 -36.2058401964301 -1.39943182826373 0 0
50.9121970365331 11.7837588923809 -12.1977357847432 0 0
-209.566977363664 -28.7128934466087 10.4024438096983 0 0
-262.162370754719 9.96286299798361 9.64282430272777 0 0
-129.649606769928 -17.0354753564357 -11.7008221496979 0 0
-140.484355168662 6.22115309292398 -7.14543035164908 0 0
-221.881800486442 -1.6823805502138 -12.029243325526 0 0
-16.0828639021157 -1.13315182450361 3.69687627522307 0 0
-152.583392606649 -20.2383233881679 7.640529680398 0 0
-242.427712580406 -21.7451652993416 27.5465013836123 0 0
-241.808161110676 43.3113616467164 -13.1909640703696 0 0
53.3831864205376 -6.80024842070444 4.6966138555684 0 0
-48.4502574208256 -12.1717815560397 -0.809546126244029 0 0
30.6333863864097 10.8035722993315 -17.062893747531 0 0
-57.8619101296786 2.20110777988068 -22.8872589050834 0 0
-186.590974515497 -17.6187150388556 21.8443021664321 0 0
-25.0730333950934 4.91986944775255 -22.7905922322919 0 0
-91.5293356587221 7.68173525484406 -10.2037104626077 0 0
-99.7157707921259 6.67943781125707 -14.1665068321022 0 0
-112.25749013814 -12.2743421132219 7.66727920215238 0 0
-164.040477780719 7.70609301227067 -2.6063622758572 0 0
81.6442990526469 -17.9963953922379 -1.62365256023233 0 0
-123.556745000535 4.76845012835775 -13.5254191783207 0 0
-236.056787529386 -4.66378777922911 15.7764455832068 0 0
-64.4242550277318 -6.9666881806251 -24.1964285079547 0 0
-232.849883914493 29.4462465015615 0.354714497900169 0 0
-114.504700457576 -10.9040999500543 8.62930082995596 0 0
-177.960279544509 0.133425903532456 17.408511611876 0 0
-84.461066773741 -10.8845764232523 3.8943729082848 0 0
-238.084487804457 4.28634398261489 -15.1059169585629 0 0
86.2735785228794 7.99545667422805 -22.2924876026669 0 0
-47.9857593247313 7.38167573233773 -10.4148367106345 0 0
-243.966532554685 -17.5759701447277 -16.0325648649507 0 0
-207.712704161301 16.1147291141254 3.69441777734669 0 0
40.5532090864478 11.3306535759681 -13.2199935584815 0 0
-175.839365443782 -8.80186418030495 19.4780650811547 0 0
-21.081075623293 4.67938659212239 -23.0844157109615 0 0
-259.614448940907 48.7010996361554 -11.137192918934 0 0
-239.471120772138 26.2258470986556 -20.3038755018864 0 0
-182.627469374712 -22.1950400690404 6.20404132172957 0 0
-143.203573857548 -7.91905499500328 -15.5999582341794 0 0
-234.683958044797 34.5394566728846 -3.02162941212281 0 0
-110.163378880004 3.12860949875586 -17.5647839540965 0 0
-199.878951727075 0.970951361814459 -10.1375592434733 0 0
-241.899615641436 40.9270527834406 7.48784572012755 0 0
-76.1477102349164 -0.962970008365416 4.0869932368817 0 0
67.2703974181606 -12.6755064067055 4.05078698862081 0 0
-14.8558318105891 -9.01395192239641 -24.9313393433051 0 0
-195.460042123054 18.6599427856611 17.3013293924222 0 0
-236.023585036728 38.5880236409424 -5.94209524334422 0 0
-44.3796237748966 -19.4908385928885 -13.4561943632984 0 0
-253.535550904644 -6.75867894440173 17.0867404427135 0 0
-134.693743321088 -4.12133623618711 10.1474567810385 0 0
-236.611718433696 7.58721332108056 -14.3942785549739 0 0
-145.833157066325 4.13095353870027 7.88342378213987 0 0
-7.06193131768147 -0.265699630924298 3.03287520143387 0 0
-44.8281693756282 5.85373568326313 -21.1096635497579 0 0
-37.9090203937176 4.28219779708179 -3.93549714149335 0 0
-225.25449910395 -37.9165626365719 1.32798750025512 0 0
10.1123595053175 -3.98956164673591 -25.6815660128522 0 0
34.972040185593 7.60645988823915 -22.3114118473148 0 0
70.3618054513363 2.44111363473372 3.24344068060793 0 0
-146.683796267231 1.34128302355104 9.56135644152889 0 0
-220.209035215666 -0.898374102943811 22.5228234755092 0 0
64.8611777100083 -14.7062947723606 1.65534327424191 0 0
24.9573788387118 -15.0307718334875 -20.5982749419717 0 0
-44.1259096792838 -13.6091096902049 -22.4626159125434 0 0
-272.787966935201 14.9452485917625 -14.4157624525042 0 0
-141.132412442001 -3.96728342394383 -16.2798999745654 0 0
-146.000211183844 -6.57399091552576 12.2905891079154 0 0
-272.566868602995 10.0934923786791 -3.38860587711174 0 0
-118.222845298552 6.99828283218962 -6.52873050171156 0 0
-244.155572294593 -11.1229970748893 13.733558671657 0 0
85.3316436109111 5.66463276573478 -23.3506565444898 0 0
-157.713983586352 -15.397773840002 13.8124952111879 0 0
-242.393437587035 38.8877891117676 -18.4487102273926 0 0
-228.766328693858 -1.98836412176688 26.9083799374917 0 0
-186.292854818158 9.25694230420182 -1.31968580752579 0 0
-225.928670973678 -12.7015751939369 31.4314076904204 0 0
-97.08638250302 -5.92377834465857 -21.800659048106 0 0
-237.102394442461 -17.1893409045746 -14.5378767841866 0 0
-239.102066230466 -19.3318401957651 -13.892932562726 0 0
-260.793690431075 5.85516901114288 2.07159590989366 0 0
-244.945441848879 35.2247472962803 -22.3614249914228 0 0
-233.107485456719 -6.13809171897988 -14.3462875432361 0 0
-60.2360387876429 -9.18821627972849 -23.8921286920059 0 0
-210.720099581884 16.5767593725648 9.48232618387571 0 0
-155.816022364129 -14.9710243091655 -10.6972689208371 0 0
6.45805164274221 -17.3704781372519 -8.05929732348244 0 0
-139.817490560465 3.32104185521319 -12.6120308484739 0 0
-36.4324619579028 -13.9956096892473 -22.4202369215729 0 0
-274.618968325729 27.0644944211156 10.2148422937232 0 0
8.9478897227188 8.31427176410683 -7.74885291552278 0 0
-271.535621356548 35.9211148056596 -18.2238449494112 0 0
-259.275932381946 35.4608517848645 -24.6056510217273 0 0
80.7416588925643 8.44854600025496 -0.373078536900381 0 0
-18.2634868017081 -10.3386137635572 -24.6091453260841 0 0
-254.520105756024 39.9585105849096 15.3498591364551 0 0
-236.111120184591 37.2081189598898 -11.1136656331776 0 0
-206.288014407807 12.2057510940995 -2.82248664835458 0 0
-261.539790111215 47.8001784158844 -7.29348290013458 0 0
87.1007564220992 -4.42601086188824 6.48358274037779 0 0
-244.88139990659 30.5689856610862 16.0112990596855 0 0
-181.259420013099 8.05045991530429 17.5573610107498 0 0
-42.0895970852847 -18.1942977764424 -7.35337178318552 0 0
-254.444742506806 -2.22125192334757 -0.0472129641741853 0 0
-221.80879698421 4.70628342290311 17.8864856947755 0 0
-235.050534334042 32.8701498144268 -10.0329876918982 0 0
-233.086060248141 28.3201853732772 -7.96701598012423 0 0
-29.7453340471211 -3.73980971204475 4.81559560966061 0 0
-93.9792210880425 0.192845990234054 5.02749428952331 0 0
-58.3549492152211 7.07374847890567 -18.6413184454319 0 0
-189.881073301744 -0.725038533680493 -9.9451137717558 0 0
-219.047372330359 14.9158932506299 -6.4934288803715 0 0
-144.314310922385 7.17939787877608 2.72297530688269 0 0
-58.2721653658075 -19.0015626953005 -15.0478269021531 0 0
-134.283539843434 5.88472955618415 -8.82519913715612 0 0
-97.7880402307113 2.88988649397495 2.63023363914338 0 0
-154.310118631571 -7.61478699816676 14.2511261049542 0 0
-66.0981970544328 -19.580395522695 -12.1916261007035 0 0
-169.643576633514 -7.27717215195016 17.2230266872348 0 0
-33.8775030515542 2.56794899889135 0.298027118846373 0 0
-224.423563926808 5.8585915101106 16.1682536852484 0 0
61.7082675586379 12.3638279701817 -11.3294918745493 0 0
-67.1128593835998 -12.4168312832863 -22.100249805095 0 0
-256.165203724787 -11.5765396896474 9.78403885779383 0 0
-13.3429106427511 6.40091803972276 -22.1291188988043 0 0
-257.475799396856 37.2843907706877 16.8362324896845 0 0
66.8022816689286 11.7716562865259 -7.51373009946183 0 0
-38.3649289604235 8.56681799549041 -14.0572111719755 0 0
-252.354341667802 17.6603032337352 17.4643160973265 0 0
-129.803571721488 3.5282521366862 -14.3711317993132 0 0
-198.785400123368 -16.216535642177 -7.8618074281058 0 0
-237.968519444195 -34.7431578946987 14.8878709607087 0 0
-218.792602394018 1.32118094078493 -11.5095169722711 0 0
-236.512317744319 -6.868928259247 18.1518939946692 0 0
-24.9857007987543 -12.045464771201 -1.91177352696322 0 0
-132.475838431738 -5.59372770235414 -17.5123905418975 0 0
76.338861368557 -13.9999293195016 4.11560560988765 0 0
-243.420544959784 -31.0063048687369 6.77123803525495 0 0
-252.505349856398 13.636704205056 14.568599198132 0 0
89.7309058779535 8.6868908084367 -21.8484131125446 0 0
-232.914724664486 -25.2555369084806 -9.1358663240271 0 0
-105.325259389148 -17.0973410589781 1.79314213195366 0 0
-115.913688608605 -9.69616780436129 9.34235330294162 0 0
-127.710324207439 2.16772014711541 6.92664042451705 0 0
-160.786866130886 -20.5704860910362 5.31070189383961 0 0
-250.25833208701 -23.4466194860111 -8.94420402869472 0 0
-257.05434570704 45.1752581893075 10.0758590036976 0 0
-188.67354761237 -17.5578130040049 -6.87262548902837 0 0
-141.805792982243 -17.532066908932 -9.17205362873964 0 0
-224.285621066506 -7.27330809808137 31.3704999622614 0 0
-137.610234441318 -5.66137367692556 -16.7910461320672 0 0
-255.387440006612 22.8696038813957 -26.6274628924626 0 0
17.9963143390602 -18.1717075969664 -11.7531150235376 0 0
12.3412229849405 -17.9243050680437 -9.66360127170582 0 0
-172.755747337168 6.05601916619574 13.432837963283 0 0
-233.166570945039 23.648658410765 8.12679565034257 0 0
-229.560100081877 4.10894904835402 15.9217431405778 0 0
91.8527285080764 14.0989272784563 -8.47065425473212 0 0
-221.132772841458 -8.36373918851434 31.1153042917758 0 0
-6.34250246654727 -9.63236167042396 0.0443586779119835 0 0
-158.306961527254 -7.09762102387208 -13.5612979386295 0 0
-172.802704646237 3.25527712930321 14.9532729896351 0 0
-107.142675343409 -18.6128608132097 -0.352526116214408 0 0
-45.794625291811 4.14570362473224 -22.4694775895636 0 0
-210.290535981881 -25.2347373806952 -5.1247998194958 0 0
-204.73382788948 -22.1093969651915 22.3255339587642 0 0
-200.754038224335 2.44450414838104 -10.2641593090636 0 0
81.0132281232491 4.86531624972447 2.44013591179931 0 0
-137.368303449722 -18.4972548584693 -7.68899212257157 0 0
-175.930206967735 -18.6354360200699 -4.88987152745032 0 0
52.6716705568037 -0.367853199077068 3.77275022726946 0 0
46.9128596372105 -16.8640055557113 -17.0915159293502 0 0
-186.131485444889 -13.4243710781104 22.6983031494811 0 0
-187.007255454531 16.5035569510723 15.9702246070077 0 0
61.74563712641 -13.8370366860912 2.21476782268777 0 0
-250.105059372866 16.2897027377 -23.2150929280841 0 0
-231.840823926628 -27.5306850861652 23.6221561018681 0 0
-154.003113026923 -8.01618538516236 -14.0927984751806 0 0
-170.050777111646 -11.3544539852697 -11.1600244459198 0 0
-245.280525233356 38.6894693558086 -20.669958106456 0 0
-172.098035388182 7.82107033261059 10.6360104650282 0 0
78.1598689194085 9.66815007192123 -1.81449164047158 0 0
-148.583832008774 -14.8846297806305 -11.7518081206402 0 0
-211.802801770825 17.1198262934907 2.74145946585693 0 0
9.60866763918896 3.84487293176144 -24.2807866911509 0 0
-48.2869017310159 -16.2079101985281 -20.3785548086475 0 0
-38.4495628312593 -1.08034886466402 4.52226712420043 0 0
-250.589404615802 43.9976034506463 -18.7796921001684 0 0
-157.956443339078 -6.75584185628283 14.8517256504224 0 0
51.2818409841211 -14.6532572283444 -20.4785775025018 0 0
4.43776344839877 9.91541220853107 -14.1934286799154 0 0
-164.450554683729 7.80681955483996 6.99583950832783 0 0
-39.3892423585945 -3.06187570138345 4.92807823768256 0 0
41.2463552858366 -12.9334195241933 0.236028373789994 0 0
-249.699523742376 24.5362527737725 -25.9451540808026 0 0
-248.96571822372 -9.19780429363986 11.2674529921644 0 0
-213.123251683735 -29.9829280307069 3.3429718873791 0 0
81.9486719642404 -14.8514066142646 -20.6324112653292 0 0
-38.8931134635715 4.32723159147815 -22.6299929589004 0 0
-259.9416161235 -24.6903104647077 10.6570376529593 0 0
25.9450112756773 -11.6164352288314 -23.3818549947625 0 0
-13.888259691164 -3.98037143679993 4.75323357725393 0 0
16.2049788687628 -8.01913785706366 -25.091718402312 0 0
-212.462305860232 -15.4327296904955 -8.54792498799632 0 0
-39.807699490934 -16.9540784753463 -5.74229194262215 0 0
-30.6063236988349 8.77224172333482 -13.9886519588972 0 0
-270.673772212919 23.2934038187143 14.0443843214027 0 0
-269.145077050159 45.8837184896064 -9.08861803634198 0 0
-139.386085635698 -19.0500858204915 -5.76649385425459 0 0
-87.9194772253862 -2.14929618521364 -22.414710602605 0 0
-274.898658623502 40.4027310377074 -3.91398563850624 0 0
-254.768626677854 45.5777200710914 9.80255514524962 0 0
-248.535270161798 44.5766720479864 9.3891346758427 0 0
-181.392066958623 -21.0681956591583 0.912371628898546 0 0
-209.880599704886 7.65952213367837 19.2695014459128 0 0
-195.945149394719 2.97583398356727 -9.72920585289874 0 0
-118.39383513368 -19.414746559191 -6.09214792303967 0 0
-202.501269566724 -0.793222215469278 -10.0757313394903 0 0
4.94891331498654 -16.0777207804607 -6.18907266744529 0 0
4.86543125070552 1.26273465174079 -25.2228677992759 0 0
-260.92153892891 47.5092964906676 4.20200424579526 0 0
-226.565300793074 23.647804938137 2.24330504676102 0 0
-249.453125435057 4.17932859493428 -17.3953397263213 0 0
-32.8320083338764 -18.6366229321322 -16.6071976829504 0 0
-148.382778223005 6.26511185129716 6.5615715412834 0 0
-255.011816578195 44.4585818809832 11.2273025838326 0 0
-9.20308933580149 -5.84855128275052 -25.6352933822154 0 0
-204.528526461623 16.9749276582177 6.80652647669445 0 0
-273.485802715519 31.4378259642894 10.7731686897981 0 0
-22.9129125876245 -10.4784751639165 -24.4443537192415 0 0
-232.919096758749 -11.5278215797436 31.5145906323312 0 0
-230.15978976127 27.1087447691757 0.361454689871367 0 0
14.0772030016421 -6.57188359798723 3.55700732362433 0 0
61.9523487366156 12.5321113532525 -14.4225431589347 0 0
-238.781375062027 23.267121511902 11.6344741576218 0 0
-245.795134841219 -0.889903294382221 11.8849927837238 0 0
-180.477960301747 8.6237243815036 -0.34261319029235 0 0
-3.58107928522128 -16.4549964853501 -20.2449205957578 0 0
-143.329928341894 -16.6075311684348 -10.5481409545197 0 0
-38.1016931357801 7.88273209089787 -19.0356898046732 0 0
16.5913357397985 9.7711546152285 -11.4980767101336 0 0
-12.2342775213947 -16.7274807024267 -20.1988780158875 0 0
-232.034405653305 27.336526019158 2.27706176607588 0 0
-164.908959481492 -16.528358623607 -8.04795823969133 0 0
99.137008305409 -3.54232455914477 7.05476882576181 1 0
-172.51005388201 9.2085132180717 7.7189221475387 0 0
-120.37933836791 5.62174444486607 -12.3628824095564 0 0
-203.959100197524 14.4895838237875 2.68623982886476 0 0
-9.01963388216481 -14.599999883832 -4.58974517743413 0 0
-185.627258815495 -17.5883531640012 -6.7768174003657 0 0
-219.663714269638 -1.14493407257374 -11.7550944377262 0 0
-244.156893257093 17.8533621357456 14.7363054532881 0 0
18.3225181628348 -18.2083720708866 -15.1042501849815 0 0
-188.019962426828 -21.9676911160774 14.0476248035557 0 0
-234.4665385375 17.2411915428637 12.736162623253 0 0
53.2223249144453 -15.5420433211778 -1.85680753869242 0 0
-117.721222815317 -13.3100268526134 -16.9891260076036 0 0
-155.082008791524 -20.4766148455286 5.53400924473204 0 0
14.7348741401813 3.67179005514704 -0.655177133824762 0 0
-167.52015991548 -21.0149172601387 6.88418573427812 0 0
-210.22919036865 -22.2246168437013 -5.98000522301885 0 0
-195.935338388085 -23.6791875611304 14.8216009098444 0 0
81.0381956668229 -9.05691022479056 6.36063394206303 0 0
-146.080930858868 -17.2129372634088 11.0563815503555 0 0
-257.168224311921 1.97175402076345 -13.3537314513652 0 0
-244.321023314031 -25.2174467761209 -8.20511099013708 0 0
-134.114068570624 -19.6941422677144 3.77177567615966 0 0
-151.813594246983 -17.1014291321446 12.1791320824699 0 0
-178.220065951024 -2.83079793396172 17.9359963087181 0 0
-262.136477784799 46.8167576293413 -14.0868465881635 0 0
-189.238031055436 8.50176499768355 -5.09158626982156 0 0
-258.111633169673 48.1190212324427 3.42290662471544 0 0
-167.967105783295 -2.23913549757012 15.1134330363219 0 0
-201.673430500897 -10.7643699294832 -8.9830325872383 0 0
-254.536263025091 -11.7448676987991 -5.00502606812739 0 0
-223.934234251579 -6.46945282195044 -12.2937481772782 0 0
-276.734292296606 25.9687043066365 6.79151270835091 0 0
-49.7125044970825 -14.7871814083591 -21.5711621515394 0 0
-192.240159141689 -4.85512400747022 22.533497182264 0 0
-116.222758160271 3.52027762478578 -16.6401928583376 0 0
3.96411621929416 3.75339855069176 -0.221861595721823 0 0
-164.059559003747 9.1961081865394 2.15071142893764 0 0
-129.789808038116 3.36979215560461 6.71735473993732 0 0
-262.666935559273 46.4142165036156 -4.80998995867666 0 0
-173.920360646483 -0.961024317340916 16.2323386101149 0 0
-38.018786654179 -9.27021731437879 0.549456069561813 0 0
-225.364851973604 23.3206995586539 -3.55850953542382 0 0
-230.657769842519 -5.73158896555002 -13.8574520130692 0 0
-260.433353827549 -21.7863152906607 3.2102977725111 0 0
-53.6075352047694 -10.8778927512537 0.417195600942164 0 0
-246.102082544543 -22.2636109707228 -11.1362668720138 0 0
88.2383830679305 -1.88133485327331 -25.4556184552579 0 0
-113.024684298465 -19.5211814294792 -5.97861473801896 0 0
-259.466253155665 -8.3182467217662 14.9587378199463 0 0
-69.4654055657959 -18.9354088047274 -6.80256399399946 0 0
-232.17183135458 29.2438634991139 -5.00843268375224 0 0
-176.124517585939 7.751340429582 -2.45220746551348 0 0
-119.450519372516 -3.6786623101284 8.00796775786105 0 0
84.1391682614408 -4.84184395519572 -25.4277380334677 0 0
36.8536105604886 -5.65225592075182 4.46503269711356 0 0
-174.825366928855 -7.54311511148095 18.7727963657827 0 0
-216.323459310594 18.5419479481975 4.73206378071381 0 0
92.0649060899225 10.4626713135116 -20.6242681859065 0 0
-83.7294437921658 -19.2245709900851 -12.6797007256738 0 0
-210.119177161686 3.49919707450477 -9.63437163620184 0 0
-32.5186813430986 3.31614695721995 -23.5541692468843 0 0
-116.999163799106 -0.350452166902964 6.88340021564254 0 0
-262.608855699353 44.4734049112679 -0.211453427950697 0 0
-105.164851523511 -15.0547799621005 -17.0835603853711 0 0
-240.39407897737 -27.5581842542372 -6.17101368110722 0 0
-161.290413028525 8.98717754727925 3.40402453004232 0 0
-257.29495431979 31.511137030087 -26.1999514701025 0 0
-240.525811396484 -5.78600832241916 27.9787392712045 0 0
-83.7384994256029 7.71023425426045 -13.5622115655261 0 0
-254.933397993654 -0.472348696860937 -9.59934841111875 0 0
-185.028288304246 -19.0733102301379 20.0709666510764 0 0
46.9397290134854 -16.9316713806761 -6.15979616246145 0 0
-192.613119972903 17.9999466054772 18.1622237411511 0 0
-255.413569351121 -16.6927049914793 -8.94792516572092 0 0
-171.256190605231 -21.2100625192829 6.55725196743814 0 0
9.90623413421542 0.182683733859737 -25.4776878077703 0 0
-90.6340069797347 3.83480206895304 -18.9893721818752 0 0
-32.7072365634425 -0.0504357911010426 -25.0429161795082 0 0
-260.796516487799 44.8407316428384 1.09462566309518 0 0
-253.066323212799 -18.900106519467 27.2037885555236 0 0
-70.2336029362473 1.16777891849749 2.62903139555376 0 0
-247.246258945447 13.6251061382802 14.3910456427133 0 0
-18.1098083950315 5.8927556109632 -6.27068259856339 0 0
67.3033563637644 7.4989931553825 -22.4388802867036 0 0
-254.179773212291 14.7001363082993 15.9578791706547 0 0
-225.417587240822 23.105534333818 1.52130011682227 0 0
-265.50277725761 6.17878395404845 -0.00200708459941561 0 0
-219.392536481721 -21.0291683087862 26.4992689864534 0 0
-230.51192204515 0.911354577743815 17.8361319439499 0 0
-145.27636922809 -2.27464279685462 -15.4264469629164 0 0
-245.070378518329 -10.5165008959392 16.8152002444996 0 0
-244.855853205261 -10.4851306405285 9.96874149758647 0 0
-203.629694903595 -8.49684875716726 -9.08643602585012 0 0
23.0767318316495 7.77757855946723 -21.9824742594171 0 0
-198.927487051744 19.1301040893384 13.5522104823105 0 0
50.3222589549427 10.7003989176322 -19.2350959164178 0 0
-263.416384622423 -13.5010705660642 15.9835406058552 0 0
-171.910890127245 -7.25257074839626 17.7455169801123 0 0
-216.40828571606 18.1750617425925 -0.470936339393345 0 0
-247.840723656629 41.7036870506911 -19.7018450170079 0 0
-55.6622691116427 2.29283682327331 0.500486735225874 0 0
-259.879032253935 48.2265678576405 -13.4830797925967 0 0
-270.585478777789 41.5929708969322 6.6283189817827 0 0
-250.963084329071 30.4495954330935 -26.1338843089244 0 0
-213.213296488314 -30.5723815077731 7.50282782923501 0 0
-196.514647215046 10.3660946638458 -2.63178932136291 0 0
-240.495980203263 30.720429330687 -20.7521855461831 0 0
-241.385015260409 12.0987729598772 -17.3219536460793 0 0
-247.294579991157 -6.19658745685169 27.8290337434153 0 0
-85.3300855316063 -3.85308642889489 -22.8474939109551 0 0
-263.131885215271 15.4720758573282 -22.4659692990326 0 0
-227.79087634355 -10.1356644828277 -12.8555053459476 0 0
-219.146588488432 1.28575520267912 23.1763965879384 0 0
-216.709325081927 2.33984910685261 23.0592230513807 0 0
66.5327354184324 -10.0165548560577 5.14074395228443 0 0
-143.378696242489 0.14939086891245 -14.8352544044125 0 0
-264.554168324451 10.6590322378739 -18.0013505394961 0 0
-252.610370742087 22.5884809679918 19.5515239469143 0 0
-124.989752048166 -10.8282133972648 10.2784215114462 0 0
-248.566420583859 -26.2650783430727 22.2419832854379 0 0
20.2643306041175 3.29123110861907 0.901396429988981 0 0
-23.1524866010977 -14.5409179572076 -22.2056946917087 0 0
-28.4343857770145 -18.0316306830942 -17.9424513032589 0 0
-155.868722722956 -13.0400707314967 14.6520987119361 0 0
-12.036997315745 -2.57130950003449 -25.8089500832535 0 0
-214.799336366993 -17.6774451010814 27.5311642728104 0 0
-218.548342796245 19.0749578080633 -0.908714701869879 0 0
-210.578177793412 -23.079571533056 23.6916760670172 0 0
67.6692359495268 10.6242519169213 -4.5813993517481 0 0
-112.327055856508 5.88607258598972 -1.48697709147444 0 0
12.7835089862637 -13.668429031765 -22.2030041320527 0 0
-23.6494807866461 2.93268603011772 0.132641131228633 0 0
-250.254953481277 -23.3644468891832 24.4668323376526 0 0
-148.659059234766 -4.40799522862196 12.0786926999785 0 0
90.9423666398217 13.5392901878423 -17.0644527547775 0 0
-234.96135325726 -1.85019818571337 -14.5384536472872 0 0
-103.367495850572 -18.7270786215714 -11.7358325553459 0 0
-65.9945465282545 3.35904952299222 -1.37193775058472 0 0
6.21770339257575 -6.12577003007303 3.61070004217868 0 0
-3.56858113098689 -18.7779928230358 -11.6619492500192 0 0
-203.375366049547 -21.7582168187911 -5.29299600279735 0 0
-177.910004286907 8.49018685662844 14.3879266094439 0 0
-219.202279687574 -6.76195501506403 -11.0392083860254 0 0
68.1733811182283 -15.0731739867285 1.68317194092687 0 0
-260.012231854723 -22.2528888830437 17.188876681378 0 0
-140.389867628549 -10.4637118554671 -15.0998615316744 0 0
-126.561273754154 -7.69371421634894 -18.0600090172873 0 0
-236.582935548023 -8.72637639634034 -15.7948751024468 0 0
-92.6250943565009 -15.7378047692457 0.657360203435226 0 0
-172.406047858993 9.74585702567256 3.31003376366027 0 0
-244.652555982358 -11.8820946486447 15.6631446403131 0 0
-240.939778684485 -10.9162822468024 -16.8622384214673 0 0
23.688808511075 -16.684429391489 -7.26863399822955 0 0
50.733337590988 9.32206954187346 -21.0828935353129 0 0
-182.591955264411 -11.9707262447002 -9.85792668067899 0 0
-109.903718672765 -19.3079415931622 -8.95697239507024 0 0
-0.496934125983227 -14.0497609030872 -3.82807172873758 0 0
-5.98479409209907 -13.9071398265327 -3.77995191808321 0 0
-269.940509192564 10.9983000681129 7.8218408137126 0 0
-146.657503356348 -13.3821491216412 -13.0806903870389 0 0
56.4593223486239 -3.7875311163972 -25.4822597913349 0 0
-178.777570538633 8.86505648117904 0.760739145748696 0 0
-248.231191886878 -6.17516308008152 23.2743133667767 0 0
-215.682441759526 -31.0490882218094 0.887539199646688 0 0
61.1372086958989 -13.6281456405149 -21.4154894714617 0 0
-221.287041959007 20.9340556057979 1.65967280610861 0 0
85.5528499877341 -9.18448767290171 6.84224682746623 0 0
-160.269636800976 -18.7529331157553 -3.58451161471871 0 0
-89.3264373542104 -19.2382312835206 -5.34007859487533 0 0
-218.036891825252 -33.0066562953402 10.4603394752285 0 0
-246.604701400585 -15.628189635033 29.887435495064 0 0
-7.83678801134475 -11.0680049572363 -1.10734972877048 0 0
-35.3930618534281 -19.3653196699437 -13.6483825991338 0 0
-254.49334548968 -24.7821530328173 -6.32390625805438 0 0
-122.260236457731 4.26969439576202 5.67059562823228 0 0
-81.4431320744675 -3.1821807557296 -23.0732920737835 0 0
50.5060871435099 -17.5712753317033 -8.24613961258929 0 0
-248.530700549477 -17.9610340851581 28.7290547113878 0 0
-129.836804738763 -2.60357596781967 9.49705524505494 0 0
-128.03401012337 -3.37475744256847 -18.11812628784 0 0
-207.52261705789 3.62476116558848 -9.61811866508792 0 0
-242.344425099753 35.7657687227379 -20.3824863996279 0 0
-245.15705911865 -13.8631200984728 -16.6604592820048 0 0
-239.42738885106 28.8495476862184 -20.1890876892461 0 0
-263.860157184925 11.6030248394794 11.8028028626303 0 0
-203.387690506702 18.3913400340635 9.47043934825344 0 0
-184.135689853463 -2.34682623665926 -10.3515941001863 0 0
-250.746113319927 33.6633257786499 -25.2372022746032 0 0
41.6040862228329 -3.62913544415307 4.42003324091985 0 0
-4.104169155967 9.71829809756624 -16.5968872104454 0 0
-204.712923731173 4.22444161891075 -9.13989574558479 0 0
-210.77142488345 2.30423853948307 24.4270535268551 0 0
-117.705239178692 -2.8548001047122 -19.3420940832816 0 0
-247.788181251417 -8.27212076206498 6.82554539781586 0 0
-246.581364847117 -8.9880654097909 21.4171650082175 0 0
-185.938947281682 9.28197719644461 1.72716248081607 0 0
-207.628371529322 16.8967619474647 10.8114651926532 0 0
-231.014485750217 29.1982697576866 -1.04217913180921 0 0
-254.675265192043 -7.84612126015352 14.7939708729134 0 0
-120.128733841117 6.38731037428419 -10.4206234395749 0 0
-200.456177713174 -23.4024686080633 -2.97190377463919 0 0
-220.524599804791 2.03583752397332 20.3856880495963 0 0
-199.643754265193 12.0641480035637 21.9793423742228 0 0
-250.512300914945 -8.29597857603525 -11.9893606020893 0 0
-241.094496335533 -32.7356294787003 -1.98629259753137 0 0
-228.773090635979 17.4157129485431 10.7440976030286 0 0
-210.802602619003 -4.07696360036884 26.6665621924829 0 0
-187.777382202325 4.939408207844 -8.20674848964434 0 0
-244.655263601042 -12.4094741171039 19.4477216240495 0 0
-256.519692154267 1.74172201942403 -1.67755724261678 0 0
98.7387622691402 15.0209610743193 -10.1393150909541 1 0
-160.712683675136 -8.5965050829361 -12.9454494205438 0 0
-254.116120082586 1.55971215187111 -14.8141348552806 0 0
2.47030096975651 -18.6502107817697 -12.9644816341649 0 0
-207.22224447404 -3.66786236347041 -9.67791716371283 0 0
-120.04733949385 -0.0345514400577742 -18.2921553689486 0 0
-237.475065084939 -2.21540465595445 13.4278633728305 0 0
-64.1303609219088 -12.9733082255559 -22.0516967734661 0 0
-57.12126936176 -10.6585464059029 0.773745262159982 0 0
-208.300488402204 -6.29474418827258 26.7300629242203 0 0
-270.413337765703 42.9057017540252 4.64474428273468 0 0
-36.851557785899 -5.09631703669494 -25.4701850937315 0 0
-183.788502068935 -0.208507987292601 19.2621378611117 0 0
-246.989786383712 -9.62679432386635 10.5469677176839 0 0
-237.378244527616 39.8045667050898 -11.065454576127 0 0
28.5738059928375 -15.4090722219372 -20.097337655283 0 0
-269.484886157223 36.3619551477288 12.4178248109467 0 0
-22.5525357776932 6.10418284861765 -21.9827651790145 0 0
-104.616200418515 -5.96229425524437 7.93841106484391 0 0
-211.785062745376 8.93847097272932 17.36664157669 0 0
-15.366501862922 -5.54220808245307 3.24154720713463 0 0
-164.213810812296 -8.91557828285455 17.2490544954946 0 0
-265.564340229834 37.5206343347095 -21.7247375912837 0 0
-226.984050784823 19.0850881404373 -8.39433063147466 0 0
-175.783536132012 -11.4602088108764 -10.5979303364318 0 0
-262.941860025743 6.77913834659728 2.09035947338737 0 0
93.2063716398797 12.6352436295945 -4.22179354489845 0 0
75.5546708289865 13.0948419517503 -9.83060468826997 0 0
-34.4755105860535 -8.59928033588035 1.03628177938291 0 0
-248.270192987299 47.2628439320101 4.74943217079446 0 0
5.98414479220571 3.24605497168307 0.562564488521436 0 0
-223.755362704765 -0.51779901472309 23.725777407586 0 0
-70.2741636644431 6.85579973712184 -17.8703078150509 0 0
-260.73786254366 -19.2469453506874 18.2208782116181 0 0
-260.710087716825 -5.19050460229662 20.3464015534185 0 0
-219.521906918275 -0.416193439856324 26.4961211836186 0 0
-166.003437157384 1.7856274740201 -10.521600702995 0 0
90.1102467152123 11.9138190197204 -19.3156431347807 0 0
-142.418241922336 7.35008908040976 -1.3752720828201 0 0
-252.430147249036 39.6049260819345 -22.7369684297507 0 0
-274.227121107732 40.9687430887567 -6.74726340746195 0 0
24.676394829788 -0.638680758240919 3.63062324078849 0 0
-230.655835205762 25.9057693073481 3.0854870942184 0 0
-77.095651999756 7.39031083428604 -16.1043285822399 0 0
-220.964943348085 15.3767108655988 -6.93320185130747 0 0
-197.621565817255 -18.3071957192185 23.0629920311683 0 0
-277.200890192686 23.3364390283798 -12.5180612927918 0 0
-267.14202678212 8.36251110534725 6.08061974882627 0 0
-175.879073551797 -3.43974871642799 17.4561862602427 0 0
-104.128821737717 -3.15950524640988 6.6843046084099 0 0
-20.4868991015427 -1.41057473199235 -25.5904228883798 0 0
-182.2156530369 -13.6959706782123 22.732520217484 0 0
-246.208065014767 -5.17288092551842 8.34548126444408 0 0
-258.512943896835 48.1518378062512 6.84162353172539 0 0
-271.635548285881 43.4619093836852 0.1483635701053 0 0
-279.178864246591 24.568235193774 -2.01614254965172 0 0
-218.555312864519 -3.98532734792309 28.8949170088173 0 0
-110.247028620582 -16.0880230833105 -15.3289722934326 0 0
-191.573830460083 -22.1923301666365 -0.567303095988135 0 0
-204.274363144681 -4.73156611560354 25.4155345231555 0 0
-258.091268309963 47.2442732083362 -5.95997341243062 0 0
42.1093144357387 7.12443643015346 -2.74199811230456 0 0
-246.564135129033 -0.457336346060872 -15.8939597919519 0 0
-217.183649858132 -28.7690130687262 -5.90323606734062 0 0
22.2949943810457 4.64052037482989 -23.9963139955538 0 0
-243.976758082598 -24.4529406813728 25.2985694632924 0 0
-145.893227767547 -15.2723520513355 -11.754678047587 0 0
-130.902201205053 -10.4821532125822 -16.5883168270406 0 0
-231.71891263864 4.51634595231632 15.0580142379868 0 0
-75.0496213963388 -11.8193023305839 1.60522724651799 0 0
-207.049505951778 9.73134433566698 -7.05955651769394 0 0
-66.8357629107277 -6.4115505087036 4.4072007871379 0 0
-47.3810631819559 5.7857952259766 -21.0453816915125 0 0
-141.017819822557 -4.42157387383747 10.6361311479369 0 0
-222.57189893065 -36.4158114973762 5.03180319419492 0 0
-201.267183213048 -15.0381466636071 24.7747725527631 0 0
-258.909225306507 44.6960785660341 -2.98694044742024 0 0
38.9324645296456 -16.6157940042483 -6.0200064655703 0 0
-220.773719939997 -22.9844019730838 -7.18302245720965 0 0
-20.1114239051494 -18.0589852426156 -8.71419744344582 0 0
-226.576237969626 -0.923427291114487 23.5498270179435 0 0
-262.870390106162 30.9260792863096 17.9081254483042 0 0
-158.496445629804 -0.428645207718295 12.7342572826388 0 0
5.15157022672427 -4.17294685164225 -25.7593625915836 0 0
-240.374214321901 5.85603168171644 -16.3495174290294 0 0
-52.3883373951908 -10.2680909725096 -23.8398204746604 0 0
-49.3805473129481 -19.2192379086819 -15.3846282320134 0 0
-237.869757879449 -6.78197131982683 21.2941672085203 0 0
-178.144473877435 0.10844814533148 -10.3714654807973 0 0
-9.79099742202403 9.42017937417794 -14.1105776330657 0 0
84.2944932212688 -7.04533127411965 6.8503911394813 0 0
-129.677911067823 5.6802705359116 -10.1245349100251 0 0
-134.420583821106 6.80540979164397 -6.00777665836096 0 0
-237.822578212121 -8.75951254675577 19.9110463028458 0 0
-166.161247734518 8.99404141976524 4.55459741954109 0 0
1.51348490890341 -12.778469603575 -23.1821204200029 0 0
-256.921790290755 31.4236097180404 18.8898965843456 0 0
-216.441703542133 17.0641014165502 -2.82735276734764 0 0
-116.128851769664 -17.0567318264027 -13.4644004539763 0 0
-254.204451523732 -6.35617547099995 -4.90531209049973 0 0
-197.09195743316 -19.5393054184951 22.526264993632 0 0
9.22223775079534 0.962948497888786 2.79181210798442 0 0
-162.633101732239 -2.86735630226274 -12.8155607210305 0 0
59.3980885653173 -5.31159044928525 5.25921054215685 0 0
2.69146732948676 -6.29106264858178 -25.559125894796 0 0
-261.10346888906 43.1064266151399 -1.82731011722788 0 0
-235.071325359847 -30.2286356710725 -4.188269537382 0 0
-211.502257694892 -0.780538757818617 25.6614322511835 0 0
-116.855589739079 -10.573081081273 -18.482296322174 0 0
-135.033072732579 1.46664023971313 -15.4322874183699 0 0
-229.520294671842 6.12027539506065 14.7541210253732 0 0
-40.7112410655563 -10.5343318051174 -0.155350472023959 0 0
-234.339195215429 -10.7332057757843 -14.6702908979413 0 0
-92.7213735901694 4.43934394816544 -18.1789436920553 0 0
-262.362709850406 34.1649644307608 17.1616265373595 0 0
-144.308113954406 7.23416347274204 -2.85130789970815 0 0
-167.549461866789 -10.2543167305043 -11.7734918949865 0 0
15.4216213409559 -9.66723390624608 1.26806267540601 0 0
88.7259402690888 10.574031686351 -20.6393675046984 0 0
-241.258976586224 -30.8776941863174 -3.12469794405731 0 0
-220.29864363705 11.3495440480146 13.8957733045626 0 0
-168.29438321534 -0.836267579025764 -11.6031710346635 0 0
-162.347965007698 -19.4111365197292 -1.39222772052871 0 0
-236.082084466223 -22.4772280223751 -10.606081740763 0 0
-238.121479658942 -0.4908410281414 13.8052376703884 0 0
-215.238394971069 -26.4027677931546 22.4592032427197 0 0
-261.465200475455 21.7642658186597 18.6510987674191 0 0
-112.860433080272 7.19269554189469 -7.03808232348005 0 0
76.6407894149158 12.4085470087339 -17.7977648210369 0 0
-138.201775823014 -5.75501740562795 10.8125977073917 0 0
-109.669125091548 7.23483002980452 -7.42286385908656 0 0
65.1440755110755 -3.55210726370656 -25.5135681947543 0 0
13.1801926842791 -17.9009062000459 -16.8740373861049 0 0
-67.2738737776222 -8.84008373717408 2.77050426958062 0 0
40.3185135827488 6.55129183615896 -23.0992629388527 0 0
-261.73971233828 41.6324391381948 12.7356733841284 0 0
-277.850882623441 20.6418231025527 1.81210057431912 0 0
-132.275098784712 -16.075547008155 -12.6597947754599 0 0
-232.487281407707 -18.8514665651125 -10.6649551099659 0 0
-247.102714842214 -1.94245998235741 9.82852453132286 0 0
-133.945410116606 -19.0310969527977 -6.49780023740655 0 0
-145.665694647083 -18.4774339467237 -6.33129578072202 0 0
-271.237145452901 33.6385542574781 12.2151000082836 0 0
-64.9288783903272 -18.7973687070955 -15.2382261047261 0 0
-253.691679893526 -4.10952722711715 0.728270241447159 0 0
-258.713232776734 2.30992771506792 -7.42466868831392 0 0
-272.447237832753 15.7650337965788 9.19779490027155 0 0
63.7771482347953 -16.4038903222512 -1.42626087191788 0 0
-33.754824924745 6.23146815971983 -21.3692143814728 0 0
39.8695565970849 -6.57015191343183 4.28346224907635 0 0
-223.838887558138 -37.8403510827909 5.7878561934455 0 0
-223.447961595355 22.253590466683 -0.871165492617038 0 0
-174.637726183739 -7.91373241859807 -11.3638432987181 0 0
-167.875629696476 -9.48723515447226 18.3292710799933 0 0
-230.613885360012 -38.0199915246795 7.60011252318972 0 0
-184.209773585742 -14.2534889047457 22.8951360260598 0 0
-248.020161801606 -9.72317614729115 13.076500197565 0 0
-235.294083510746 34.9125381028605 -8.86969311004677 0 0
57.6212808850922 -6.86653942695326 5.00950237204249 0 0
-99.1876031848903 -15.4586616522004 2.43889766700262 0 0
-264.607052488001 19.0802257343327 17.2320003743187 0 0
-260.784950832262 14.8882476671027 15.6542688312448 0 0
46.9599479727438 -17.7734111376707 -9.96690292679344 0 0
-172.925761359012 8.17270929575724 -1.47328835536939 0 0
-49.1069768362913 3.23190720960567 -22.8871129181111 0 0
-274.147074760633 23.2656990214683 10.5317450899319 0 0
-154.576413172155 -18.2792963692994 11.7610371355813 0 0
-215.465013475701 5.43540339998765 19.1498427826628 0 0
-242.505430860726 33.1431040088331 11.668983179344 0 0
33.482939698617 -12.7622979182126 -22.532640822459 0 0
-234.167382521886 -4.27782367534427 14.5947150657244 0 0
11.1874780512553 6.18689051570868 -4.03514882510531 0 0
98.4831358487583 -8.02033537448122 7.65482255559968 1 0
-221.759803489293 -27.236426381336 -7.58117611862776 0 0
14.8043123162659 -0.827742998371821 -25.6173762700237 0 0
-258.652166749593 3.78294009866521 -2.2105943740294 0 0
-79.8371897059392 -17.5072280723971 -3.2576034813406 0 0
-190.464460727657 -6.66496951195243 -9.67596965959888 0 0
-242.734432525815 36.5879454853706 11.7694934719555 0 0
-185.041943306433 12.4916317852717 6.4091433060581 0 0
-207.289494830922 -27.8286076312399 10.6138997707624 0 0
-252.567309477795 -11.8037228482766 -9.85813530754232 0 0
-179.157742801983 -21.8767807670498 6.54489172364461 0 0
-221.274128594251 -29.9298325061071 -7.14045130221955 0 0
-213.034735303054 10.8029769735638 -7.2332253859911 0 0
-232.886155299015 -38.4002479855104 5.72241031629097 0 0
-17.125538687477 -18.3900188882884 -9.43618658462094 0 0
-173.848093681352 -13.0043309156444 -10.10904953494 0 0
-227.608965757442 24.471140218655 1.30721863517633 0 0
-247.796954905396 -3.92414989715799 7.40275389100999 0 0
-237.092938851826 29.918037668581 -17.121376086805 0 0
-225.872250869427 9.75646307211614 14.6011488110636 0 0
-208.94717544291 13.7916585636888 -2.49375538251861 0 0
-102.523335192706 -19.6248750054783 -7.98630220109741 0 0
-243.851801083607 5.44520999627645 13.6088729258971 0 0
-278.709660275869 21.4497529028862 -4.17189244248526 0 0
-124.140773730407 5.00129543796746 3.88616968296425 0 0
40.5399693177772 -15.5507400671549 -19.5762201407027 0 0
-249.104541116926 -9.14848184351892 16.2077402167698 0 0
76.5918130693443 13.5572121289868 -13.5389462978055 0 0
-249.506835059589 8.20281921658557 13.1409131310144 0 0
-255.860815413362 0.576544066116961 -4.03215746380538 0 0
-276.435333983813 35.7713223775766 -10.3654673745737 0 0
85.592217995055 -9.28234901796887 -24.3348702516529 0 0
-259.524921754596 46.2802288204464 7.70159186560877 0 0
-32.9475959914562 3.59565369075516 -2.29927588428787 0 0
-107.739316519146 -19.6974005916468 -6.23286848018325 0 0
-29.3410051055438 -19.1898138291222 -14.5761127936279 0 0
-246.849594626701 40.1939920801039 13.155553579293 0 0
-176.968124077537 9.14846695247995 1.03739275754245 0 0
-201.634730716243 13.6402143171066 20.5171713080734 0 0
33.1399256632279 1.99961374967827 -25.078533777749 0 0
-145.298074266374 1.0175839976649 -13.9861975015504 0 0
80.8613067412236 6.71929653422694 -22.9109910925209 0 0
-267.007861374092 7.06328808060584 2.73145688923157 0 0
-117.175004980975 1.62394325686689 6.40461274501899 0 0
-244.550146894859 25.1214658534263 -23.7407437115902 0 0
-223.525749244488 -10.0753977263217 31.4547725507341 0 0
-239.167210552147 -36.1698785197976 5.31223792202768 0 0
-152.186863306392 0.364170145370701 -13.2697334503146 0 0
-181.559756063684 -0.613732966885115 -10.3115507362926 0 0
-134.08866495117 6.98483238722082 -1.71773528818152 0 0
47.3591430266005 8.65981203604136 -21.6719772646688 0 0
-224.415195474255 18.820070298159 -6.64483970435237 0 0
-151.917955745275 -0.968695305818686 11.6763179362975 0 0
-155.676599842345 3.05198678609409 -10.564866143598 0 0
-147.157071110886 -18.5353178468305 9.87781609523894 0 0
-62.2030686693746 6.68683344119994 -8.07704997298199 0 0
-246.370783476152 -30.1606954444492 -3.53786874132621 0 0
