"x" "y" "z" "f" "a"
-206.573082053102 -31.2825050835131 -11.9777515536933 0 0
23.9303497226722 -9.53012714153113 -3.46071187569565 0 0
-239.920602571501 13.7571362689328 18.2551573688925 0 0
-66.6932711036755 -2.99345667971008 -7.15412498335507 0 0
-221.984904253578 -19.3758630135215 -21.6602327294745 0 0
-170.078249757217 9.58451540124734 -21.6711906270683 0 0
47.0533759558672 -16.5900522995834 9.81664597014114 1 0
-110.806689146619 -6.25489034355401 -9.75506595444218 0 0
28.2594841376929 -16.6338823530837 4.64567917719314 0 0
-214.734455209704 31.5966785999077 11.4288186633941 0 0
-80.9662219214434 7.3504303474296 5.94871178914372 0 0
-126.700370577839 5.26956335177704 4.40941100644389 0 0
-206.372225506649 -12.4973092255045 11.8100007343772 0 0
-246.817816617475 11.4594772640371 -0.608008753510805 0 0
-214.400551316673 25.1524740590181 12.4680163346821 0 0
-113.861515571687 -8.7978103681332 -11.4602796028076 0 0
-147.54775687005 0.487225412528335 -13.4375129987721 0 0
-178.975729642045 10.9307645009136 -3.52625869807631 0 0
-19.0282160349605 -18.9320968703489 11.2048846784724 0 0
40.1392872554903 1.65100432315279 -4.74197869455848 0 0
-203.114891273749 -4.92636149606176 -23.7404870640522 0 0
-206.021577931369 -3.66000528537103 -21.1308296871797 0 0
-215.142611646465 -33.5193000989327 -5.81085442854007 0 0
-41.1041522645186 7.16192945004673 1.40196885577331 0 0
-236.926196369194 30.9911515702041 22.0601461606324 0 0
-39.5568283670046 8.04113205373093 2.71037812458966 0 0
-58.7257627162941 5.60140120980522 -0.845832611858212 0 0
-212.393980587065 -5.13777840214761 12.5159153946179 0 0
-194.284189897174 -11.0177625132626 7.61483288380854 0 0
-227.528189518017 7.38204578798457 15.5681423979719 0 0
-200.052361132183 -27.6810364999612 -16.4300877208125 0 0
-231.353431750072 11.0976711546358 -9.33935275476408 0 0
-194.705120114536 -16.0052455997132 7.58301229382841 0 0
-84.6311607796119 7.02247485371844 1.00303323989882 0 0
-43.2212680781471 -0.373646868861348 17.2181889802523 0 0
-211.226816373859 -30.6072745330077 4.78104516810157 0 0
-207.896849203266 -34.6550456706946 -1.23431849425629 0 0
8.95482245308131 10.0743206874408 10.9586065303956 0 0
-85.3506296822547 6.79086824715172 6.88064095097388 0 0
15.3762248847096 -1.4317190622569 18.4567474519654 0 0
-124.594656516267 -6.3256276544139 -11.6463192268983 0 0
-225.554438441619 -2.53728257655569 6.70656684488428 0 0
-226.319997940888 -5.97151596894297 -22.8554268204023 0 0
17.5577990299777 -15.786127339655 2.53260989853063 0 0
-131.856422300451 -20.6619032539005 -9.7156461458791 0 0
-100.677705262066 -1.18929400403182 13.0533009299255 0 0
-76.6857398509082 6.65428175341081 0.0578506269748708 0 0
-93.6019964179277 -22.1670727148596 3.20444667427914 0 0
-153.00545337313 -23.1411630486019 -4.9902367253429 0 0
-212.164530030753 -34.4422598385041 -3.90191883447763 0 0
-233.835864352966 38.9983461876021 18.3727605917659 0 0
-156.205471705811 8.67526497913968 -9.74368815900682 0 0
-89.9325846511599 -0.66046363482488 -7.90183771067906 0 0
-23.7680288459525 -15.204284029693 0.270077551935676 0 0
-206.321111752039 -21.448634055584 -20.818025866754 0 0
-166.8511494212 -23.3267666997228 -1.67186539572926 0 0
-103.794646554855 -17.1760929861908 -9.30583331054248 0 0
-167.548626556561 7.55718463904167 -3.11711569481993 0 0
10.9895413801076 8.80894238436319 2.82082956761851 0 0
-217.484818020658 -18.0533376836549 -22.9239698108906 0 0
37.6569097346786 6.95229014324878 -0.398371037203722 0 0
-188.274465230038 -27.528387889317 -6.5171947048855 0 0
-79.1517902252801 -21.7371810730461 4.36332267334634 0 0
44.7185354683562 -11.6009022765545 -2.51691441716808 1 0
-198.880959763149 -28.5486618164006 6.37950226851484 0 0
-157.284450547687 -21.4530196178574 -12.9127282674915 0 0
-63.7940885145898 -21.3055607230758 4.99141970837246 0 0
-45.8840540318749 -3.9604886242895 -6.68361749966853 0 0
-83.1853829133834 -7.37217733295639 -9.11843244752149 0 0
-75.8993139241065 -11.3606905609385 16.7790085172832 0 0
-56.8210327646304 -3.87903390739852 -6.8660480693519 0 0
-20.9259571776722 2.70324846336907 -2.26139827356232 0 0
-241.409146619006 12.7498771700828 16.4833987072403 0 0
-220.337645978966 -30.0589435398824 -8.84707871246694 0 0
-222.017908346597 -28.5805849684376 -9.77942708535766 0 0
-172.580579277267 -23.9639791168305 -1.28503138488372 0 0
-51.5881113738511 2.25892411221691 15.0491961211124 0 0
-88.53938719888 0.626742019310842 13.0988288012385 0 0
-36.2727944803135 -11.8686977465232 17.8871806312745 0 0
-228.483785693159 2.43790091224501 6.4339459040999 0 0
44.1411146245177 11.2344580196745 5.07781031970075 1 0
-116.58437844509 -20.5338647358945 -8.6239845446939 0 0
-190.60763672631 -26.2764676588971 -16.2785035699263 0 0
-167.390293136696 7.49297423992903 -20.6922606129987 0 0
-62.0923776142978 -2.48162320402869 -7.11550369882429 0 0
-98.479901884104 0.807891970030668 11.6400839446922 0 0
-218.879818605427 19.0429859733021 17.9127492560147 0 0
-216.078274782639 -7.68391335056967 -7.05309456784711 0 0
-219.662167162751 4.38443929175263 14.208003139695 0 0
-61.9206113277885 -1.48025222180744 16.6861681160465 0 0
-190.560096336706 -28.7804774943144 -0.768204110891871 0 0
-201.319288621683 -20.7174756951878 -20.9869330796514 0 0
-232.503132622738 -15.6811139751486 -4.63191186418159 0 0
-76.3287823747382 0.651296144356411 -6.28638881343231 0 0
-242.995521823684 37.7356681028191 -9.22026538541225 0 0
-232.493540743101 -17.1073209760054 -2.34804710072567 0 0
-11.4898403486941 6.46574980285565 14.2919614229212 0 0
-200.681805992704 -27.0231787979176 7.71148232317658 0 0
-244.543763996556 23.0381654553789 -13.2150789975746 0 0
-182.933657507959 -1.54675739896626 6.67408907744378 0 0
-93.4286258791106 4.59922383909366 -3.54068411336469 0 0
-229.673145061469 -19.4933482732093 6.66476156510369 0 0
-6.83983649352292 0.240714946523997 -5.17124341613399 0 0
-119.244351031792 -18.6777405505445 -10.0933143636784 0 0
-65.5460236052037 -20.9558033022022 2.72136322320314 0 0
-246.351552293647 25.1869577088216 17.1858067692139 0 0
-123.899049805217 -20.8382142249608 4.78868206818979 0 0
-84.1578125247287 -10.3430886739718 16.5799074199037 0 0
-242.420052309263 7.12272429821842 0.341312181748873 0 0
-224.211858849767 22.5547613721033 -15.8759224693244 0 0
-241.069506690911 9.50224207175045 13.0550978297001 0 0
-229.681125130687 12.5497847784814 -11.2856473523341 0 0
8.69063212743961 5.66908734726333 15.0857061847647 0 0
-233.002290016598 -13.2739509446324 -13.782638889022 0 0
-230.109028220818 5.82715864446951 -1.06323326389815 0 0
-231.335614242795 6.22934039361716 0.526694200305469 0 0
-250.52969401448 33.6822220502723 2.68881678975777 0 0
-61.3916007039471 -18.4457312541016 -0.649735848841973 0 0
-111.022635601664 -22.4078248673105 2.35416832053922 0 0
-132.265711861192 -16.5046346434227 9.08922212795422 0 0
-202.004288827768 -21.9635069187293 8.73595906303004 0 0
-230.780419640703 -18.6576466105588 -15.2119109177951 0 0
-215.983460650626 8.62920847236321 -10.8751512445189 0 0
-146.13227135686 -5.0644606155027 -14.2450123449989 0 0
-176.977397010671 15.1353609503447 -8.82875018859023 0 0
-162.213056232926 7.576443326197 -4.50447971547492 0 0
-209.062471740185 -22.6126193591241 -20.1363436732505 0 0
-27.9397162584984 -9.960632037254 -3.72351484614646 0 0
-204.099970394687 2.81405995291074 9.08275080616488 0 0
27.6851544673248 4.80751995307017 -1.32314178157169 0 0
-180.841414616302 -2.81725526800598 -19.9954151387977 0 0
-218.557835384277 -2.76851612916872 -6.07928454731397 0 0
14.0324423996799 7.34554975445628 13.9198712067875 0 0
-38.3589217843833 -1.01054730558834 -5.70428531663548 0 0
-219.429549561487 41.8590884306684 6.54222113996893 0 0
-134.600270000437 -11.9735850697163 -15.8686165330632 0 0
-193.528338328432 -23.1000843456797 6.58568605149723 0 0
-68.9817165427537 7.7414013449629 7.25727077112469 0 0
-221.267089944698 -7.93343470692829 -22.2754613358503 0 0
-181.647171808135 7.16220776962291 7.08959626057676 0 0
-127.067194510252 -17.1123617729427 9.10445083206266 0 0
-245.199034459751 38.5473562362685 -5.93761568526792 0 0
46.2963704138246 9.14103607366315 1.12310329449631 1 0
-177.121182907436 7.89984321833916 2.95443679780785 0 0
-199.227788912475 -15.2165533760254 -22.9217409713162 0 0
-194.198194031187 10.6093945244926 5.34640639701182 0 0
-214.231045484469 31.6676427805852 7.55247038218234 0 0
-173.64890786199 5.40944745876714 5.80650790422 0 0
-36.3292405728897 -4.30282676404418 -6.74235713936874 0 0
-98.3757205122991 7.13680222604263 3.33104676054683 0 0
38.2878730500001 8.44303758296729 0.861469308414439 0 0
2.17639933422856 -2.14511426752687 -6.3044798428461 0 0
-218.237546605842 9.58303477358705 15.5283181451927 0 0
-74.1308368615967 -0.669883052379618 -7.31375398569747 0 0
-140.639001665298 -3.01448216151646 -13.1929501749872 0 0
-39.4357039419764 -15.8247219777495 -0.216082397117511 0 0
-185.408216660481 14.0054193319626 -4.68518307399449 0 0
-225.516505934896 42.2348851513508 13.3943589174179 0 0
18.2144603207506 -4.48640611035651 19.0492848775657 0 0
-45.6592894677101 1.32626075770879 -3.66092577904823 0 0
-233.635333880925 25.0695034093392 23.6085212693117 0 0
-108.059265362834 1.26113502704642 -7.59893095055193 0 0
-143.241402174713 -19.0753292210564 6.11694855003452 0 0
-168.865921474367 -9.42723717112995 -18.9421765402593 0 0
-217.356215627738 -15.9913944812661 -23.8110353417925 0 0
29.0407787538187 6.50197153097614 -0.214800410966636 0 0
-218.614757767289 34.452583176533 -5.18984906592923 0 0
-212.764570500278 -30.527104328898 -10.8792374902089 0 0
-220.830815721746 -10.2829850489961 -9.52544153075113 0 0
-232.001301781125 44.7421768811262 9.50651620525571 0 0
-246.843144327482 34.5604022184326 12.7825873681623 0 0
-206.572157970845 10.4476189073888 9.13454847334686 0 0
-139.051512822801 -1.99546581265256 -12.807372898277 0 0
-67.6330943556443 -19.6600493430335 10.8863558194145 0 0
-216.993621755258 24.7736858082656 -8.60217574451353 0 0
-195.087209328311 -28.8478805983237 -15.0107222601248 0 0
-2.42726556190569 -6.86937717022538 19.0761940732432 0 0
-195.003725181175 -7.38763282511518 8.74585280874554 0 0
-56.272626678525 -20.7028936023173 4.71751084721221 0 0
-220.432426167762 9.32658469482747 16.1774842600387 0 0
-208.584469864397 -33.9078799068186 0.34490107355271 0 0
-250.576974869229 29.6918170172177 9.02284261879535 0 0
-227.466531050176 3.02791190957842 -1.72954046757531 0 0
-213.689840460465 -29.7968091958918 4.57740623755215 0 0
-223.264655120343 44.4366628413929 3.31345746705587 0 0
46.2792920344832 2.65675612042897 16.7692596053591 1 0
-190.849007945758 -18.8881823637141 6.82045123476138 0 0
17.4174922759267 -8.2380239458717 18.563121093843 0 0
-72.7429805507087 -19.0629264506663 -1.9895255158483 0 0
-9.25871353511367 -17.2371647884529 4.04716097610027 0 0
-194.555274545175 -26.1125223207879 5.69039368207692 0 0
-32.6739033909572 -13.2735500227729 -1.82639354610816 0 0
-67.2088722214648 -3.52868329891619 17.2660957199194 0 0
43.6751652278345 -7.33889639551263 18.2059558737049 1 0
-192.783519853669 -19.9581997514588 -20.1205587522463 0 0
-212.157516692826 -9.32803309840547 13.642483741998 0 0
-208.896940882444 -18.9004094424537 -22.1238065772324 0 0
-223.914600486249 42.7909093941956 11.2325337513438 0 0
-223.389682680377 -10.2103095853865 -6.73891372794419 0 0
-217.615121399872 37.0156469268044 -7.13619531772862 0 0
-187.592687110533 14.3831665578217 -5.06568727287289 0 0
22.60774933481 10.1724047355938 4.26169518483428 0 0
-188.089483538699 -11.2162138172961 -21.8526874560105 0 0
-241.796729126826 32.4396221197331 19.0597249382537 0 0
-70.9361316671896 -19.5634771229976 10.9801124138995 0 0
-210.517912581238 23.5830003822633 3.05815967776936 0 0
-200.871982154354 -11.3066623506146 -24.3310422204557 0 0
-112.618507276287 6.63921285517038 -1.05418131890886 0 0
-117.79862271 -15.6087971598467 -10.9901827003547 0 0
-183.978042677113 8.40950307956297 -17.3292810401428 0 0
21.7718824278955 9.15305149060283 2.65683191672637 0 0
10.5961455380151 -17.0117435681026 13.8091358685891 0 0
-190.001810105652 14.7487016648181 -5.5033971939478 0 0
-158.285833023547 -12.0877424694197 7.70081019674289 0 0
-212.097408011355 21.9156169209876 9.81326254018646 0 0
-218.236060763171 28.8016611867214 -7.85393627274285 0 0
-146.279867552606 -20.9350248487712 -11.7484132835208 0 0
-208.186748442413 19.5750791511879 -4.75445693479838 0 0
44.2785659623891 -1.29859391517399 -5.08426824288011 1 0
-168.028038153073 5.35589683337012 4.45597017129528 0 0
-135.603975141133 6.32749236967419 -3.88369414010855 0 0
-226.318121518446 1.54555212354266 -1.61660845164155 0 0
-60.5580233856527 -16.5276688256785 14.5871097186155 0 0
-222.073134608056 38.0900882041867 16.0572761738499 0 0
-33.527162707362 -10.1059663839062 18.4913313200159 0 0
27.5076164328158 2.06155415194711 -3.65633345491578 0 0
-218.107338442138 -19.2697398810337 10.3621122183825 0 0
-184.254458091426 13.943343435705 -6.16699253670332 0 0
-102.705019457533 -20.2024500537784 7.94729239874132 0 0
-225.082743421287 45.1228823872221 4.17365299441843 0 0
-29.866628456757 -18.3158516221678 3.96521330905535 0 0
-156.944482202065 1.26709227163756 -15.4876651500984 0 0
-6.90222702293554 -16.2560361865065 2.70639348354955 0 0
-213.3003518034 -5.48119177184827 -17.8759158657864 0 0
-252.264362765155 26.8174917473285 1.86329736252317 0 0
-171.395918268476 4.70969703446376 5.86866472491824 0 0
-32.2370884307371 -8.39862456218665 18.8828037930781 0 0
6.70170963874562 2.56930152512644 -2.61267880436552 0 0
-209.890259754005 -29.2598314037076 -13.6572935169125 0 0
-90.529178174007 5.48090322220857 7.92943668475441 0 0
-167.575792551208 6.71149287122318 -0.477014737762138 0 0
-246.175749843688 20.089328186431 16.8936670374306 0 0
-215.794413169917 30.4518883578862 0.794874383938547 0 0
-60.9435489932251 -20.6826349566823 3.31244926995637 0 0
-215.581104175281 20.6853467919145 15.1827703349677 0 0
-240.442031705439 20.3883760741258 -15.1800333025327 0 0
-162.533274446335 -21.7328079054934 -13.8777897508882 0 0
-204.274223886293 -32.1853741846218 -11.3236118113452 0 0
-218.065482974453 -21.2657335729781 10.464401913602 0 0
-231.690329523654 8.40959562943054 15.5088799805722 0 0
-215.847604252899 0.730076511545405 -9.85672360882235 0 0
-54.148361213974 3.84092096627361 -2.17514865453015 0 0
-224.092838687595 44.5231841463976 6.39573190558838 0 0
-117.008378720953 0.741051015476443 9.87196198653843 0 0
-161.98708006168 -18.4536283125665 6.3369247924165 0 0
-122.668998232178 -23.3706400520697 -3.76012440891461 0 0
-62.0917596512971 -19.8126516452362 10.8638580268951 0 0
-145.533945022508 -17.1574230494794 -16.4911904456589 0 0
-100.722726157957 -12.8234152504129 14.466789381145 0 0
-108.299361994664 -4.2772067176808 14.0028395787052 0 0
-167.115163319082 15.1501567927691 -10.1234626701297 0 0
-211.826936858344 -15.4390457241419 -23.6348699502957 0 0
-104.8030677877 -14.1946575745285 13.4608302711328 0 0
-209.440131543777 -15.7573996510796 -23.5669438640273 0 0
-216.902585560679 18.5201351658772 16.2711194251627 0 0
-233.379556705651 44.1156305950992 -2.01341200563002 0 0
-191.2133438057 -28.3886950047442 1.6052702138933 0 0
-166.677612294225 -19.0921078880391 -18.3766707966471 0 0
37.8867549286058 -6.47608485226136 18.45873111654 0 0
-107.293027397683 -15.1006274061985 12.715879061914 0 0
-238.456747498505 7.92133011818746 1.64250659655346 0 0
-28.934788533947 9.50455356322027 6.09414361524828 0 0
-202.006584004506 -16.3112578891352 9.663607725187 0 0
8.52038841959793 9.96094276047874 4.90000745044508 0 0
-6.33377626965246 -9.74330113298635 -3.15065341655937 0 0
-225.853589946856 19.0846090762277 21.925032273015 0 0
14.6858187507752 -4.10119406987772 19.0522878857982 0 0
-221.037477948735 -16.0812176182383 -23.7962327974885 0 0
-227.045105553505 -25.2668072388126 -11.953457484841 0 0
-199.924874055974 7.29002994265825 -11.2199597322355 0 0
4.23323277379069 -9.10011459984657 -3.44752272705974 0 0
-225.261115052809 -28.3749416171872 1.54325620999332 0 0
-192.458359280009 4.15969786159497 -15.2887616667972 0 0
-96.383837124155 6.27857504995342 -1.01329892921099 0 0
-218.728899124153 30.6134571755025 -9.75135434887804 0 0
-112.140230344979 6.56154162105286 3.69251648299177 0 0
-63.2376298950401 -15.3514354804048 -3.23615294786054 0 0
-211.83867153202 -4.86627587660752 -11.0860999255695 0 0
-182.187700862391 8.88346595875002 -18.9322152979381 0 0
-195.812542639438 -21.702915758137 -19.7116722757324 0 0
-251.596203772643 20.8721566226462 -0.974253206747669 0 0
-129.608493375592 4.06030659157537 -6.86988496444752 0 0
-36.8793264389291 -19.2331962988635 4.62016767511883 0 0
-234.909371401637 22.4646992055571 23.2210703473461 0 0
-28.0967005756647 -1.81294095724368 18.3651626683915 0 0
-110.33809681016 -6.03521110809972 14.2081299199991 0 0
-13.4403573685336 -13.6561268423782 -0.5568941705997 0 0
-114.75655333526 1.80908686958931 8.98056867585407 0 0
-223.907442688803 -3.80547252390541 -2.74922344939362 0 0
-224.617733128856 -6.44983930993392 7.4737452974161 0 0
-178.361117779443 1.08736717978668 7.91268074718977 0 0
-105.442741581751 6.98054106988489 0.940764759095922 0 0
-86.5833160828334 7.36515978351865 4.95913612877547 0 0
-244.668260213159 11.795851028232 -6.82001464147236 0 0
-51.6650713137752 -5.76437963873797 -6.81071870500163 0 0
-221.346782422839 28.5257515181382 -14.5756069040688 0 0
29.2313416783976 6.29410771599719 14.9330468560859 0 0
-74.5368667664468 -21.515950776505 2.86119171918227 0 0
-19.6432305892294 -12.8519325879259 -1.44928747350103 0 0
-195.627542744395 -19.1083919792762 7.42696776748704 0 0
-50.0044077786278 -3.44081659893223 18.13417600596 0 0
-207.929869163759 -15.6833306520134 12.3731452861979 0 0
-217.997750825977 34.0453513735271 -3.2736433729707 0 0
-0.711183731789288 1.98072713340937 17.0035355059429 0 0
-221.3761469288 -15.0122262811396 12.0376568838324 0 0
-85.023259672854 -19.1756295572719 10.3125288258636 0 0
-77.7716478392655 -6.94350267260522 -8.9359542543022 0 0
-102.377467554709 -21.5721996683113 -4.93085005012067 0 0
-140.978920792213 -2.01107426033507 9.49199662732571 0 0
-177.362565121525 -12.4136565582822 5.93241090900073 0 0
-224.50196681119 -17.5628920760301 -21.228930633448 0 0
0.148552096689165 1.80902035808742 -3.81379576068186 0 0
-204.799578581212 -30.4419455696997 6.16794177357327 0 0
-196.417272656349 4.09783659218583 -13.9288469299089 0 0
-125.799808193639 -21.3323747317949 3.94721630396746 0 0
-226.43955874797 8.44239695053553 -8.47419223480376 0 0
-31.6878150946901 9.2787631401099 5.48132763692375 0 0
-32.7679586569535 -18.3002334132201 3.43721498060451 0 0
-61.9927350744394 1.48940303554056 -4.43273604042394 0 0
-225.072390934335 0.978621957033052 -2.83514361962964 0 0
-224.60616879848 -1.01252687920438 -2.49456409050602 0 0
-58.8929347000993 -18.5855225788008 -0.170680696438545 0 0
-49.429335939537 -0.0591645601053878 -5.34485309351475 0 0
-215.344134428731 24.8813671209159 -5.87808104567954 0 0
-233.634683071362 -21.1846534471528 -8.93291837285243 0 0
-102.021873876654 -11.8570892369766 -11.149355454699 0 0
-237.547830335841 7.31807697729699 12.099407086762 0 0
-163.345802629929 -4.21751107422106 -17.1680575477641 0 0
14.6521603863973 9.92753837526659 11.079705310359 0 0
-195.615501433852 11.7670353929566 -9.2277182245662 0 0
-136.256875521991 -20.0172230397755 -11.1437143172831 0 0
-88.0477786126897 -18.0172374506385 11.701585213003 0 0
-201.791735961965 1.19637149709635 -13.8789219264627 0 0
-65.2116870119719 -4.30690225575708 -7.47485787317882 0 0
-228.569885999689 32.4207125336075 -16.1408682281831 0 0
-62.770464390483 2.99950232901445 -3.28694972169896 0 0
-146.965220225179 4.22303509146039 5.10534404994581 0 0
-237.278907046569 10.1980447302684 -2.64584081499805 0 0
-237.424811483154 44.5395278830332 6.48373624663688 0 0
-146.408507521243 -22.892312406771 -0.0624936013213574 0 0
-84.2278724318752 -8.57891707668886 -9.67066123039069 0 0
-238.08551373278 16.7348398905084 20.7897288621942 0 0
3.14136905331051 -4.01392489759544 -6.45825054039732 0 0
-33.6567223280554 -14.8054620898961 16.5317765783477 0 0
24.4735838531741 -5.80553999806381 18.8600543264644 0 0
-176.789644405031 -5.9975388138754 5.43339770542842 0 0
-17.4433544540038 -17.5836658523846 3.98546527512896 0 0
-231.047566492526 9.11285015334157 -4.61868291759838 0 0
-103.375167176316 -13.6727392325968 -10.684985573286 0 0
-192.276346416264 9.41517956177148 5.97234266051972 0 0
30.6940129094081 -0.407504495586121 -5.43564271438307 0 0
-55.7781836791903 -13.3279148197174 16.8132450778351 0 0
-221.461116525935 11.3006249285496 16.6371991332661 0 0
3.37142365527897 10.207306164687 9.88116130938086 0 0
-38.455829293555 -7.72239295031519 -5.6597467120916 0 0
-157.662148614486 -11.8809561306627 -18.8954752062398 0 0
-147.003962295497 -11.9230931311647 9.08856830990146 0 0
26.7945791095332 7.79310644206822 13.8487817018544 0 0
-188.25289778216 -16.9931790806414 6.72394357536794 0 0
-224.80380889929 -4.20784628078958 7.32625525168011 0 0
-199.059632536907 -1.18831206352977 -18.5252229039772 0 0
-146.554395352949 -1.39403112991326 -13.827692251928 0 0
-240.204046918104 41.8487627110983 -2.25370949656635 0 0
-159.304662016702 -21.9033821357573 -11.7434238762505 0 0
-154.261536381774 5.72270344740377 1.88480936022487 0 0
-169.458125617311 -3.00835787377827 -18.3515504308732 0 0
-216.566044298896 20.2369181256209 -10.0790571464186 0 0
-167.113911887544 10.0435485380315 -7.11604620425815 0 0
-229.217886429808 22.0224403171621 -17.1053897276696 0 0
43.2014410248218 -2.80675216004203 18.6046548033078 1 0
-90.851823268951 2.31483613148549 -5.41440280027555 0 0
-56.1918488549644 7.58080470218816 9.74061557002557 0 0
-133.82728006493 6.42170624411373 -0.0355307151816096 0 0
-160.774510494531 10.0383064790915 -9.47791393429861 0 0
-112.850667844618 4.73813892686662 -4.68111961675597 0 0
-154.677035611684 -18.7062075443085 6.35445374990067 0 0
-140.452996138978 -5.17271595988318 -13.4743318241437 0 0
34.0930507970684 10.7458991795267 4.67467557047549 0 0
-82.8347309958905 4.56074439514633 -3.11735538312337 0 0
-81.0385613653848 -1.91419402900548 -7.70028918660307 0 0
-129.72672986708 -11.1789679853257 11.6131407013766 0 0
-143.33366749172 1.88408604402903 -11.6315291137113 0 0
-200.120275945019 5.65824072994497 -12.0676276295303 0 0
-17.3323584926484 -3.46249003967407 19.0602135703441 0 0
-143.238255237588 -16.7789080244039 -16.6466182994191 0 0
-174.864851547277 16.8606789857404 -17.4394875013323 0 0
-177.120721834102 3.1929884560944 7.84746069939184 0 0
-209.593575732129 -30.1084043050625 6.03894324092818 0 0
-199.772628565501 10.6866605396368 -9.3756683496714 0 0
-83.8567683298762 6.44243862906252 7.53544939928451 0 0
-52.4577177632689 -20.3946103455646 4.23473697227603 0 0
-197.928742531474 -19.9838674550951 -20.8529972276019 0 0
-119.157420194318 6.81720497017484 1.18559055085316 0 0
-232.23562013432 45.7870616312826 6.51588264693519 0 0
-185.959759465021 -26.9643195148218 -1.08335471228396 0 0
-93.8663260022936 -21.8783367106722 -1.6610704059751 0 0
-168.237740631213 16.3337167606819 -17.5378871668446 0 0
-183.55499323212 -7.41979789143616 5.2229468923667 0 0
-192.059116808287 -26.0408856738246 4.92953462796742 0 0
-203.619030043918 -18.0810607884894 -22.6572497385732 0 0
29.2182958581843 -9.83547493382168 -3.29927438270667 0 0
-240.160015901788 6.32772924925053 4.64978572509623 0 0
-213.116788708577 -10.7218275326524 -24.0588147058975 0 0
13.0907963981228 -11.1540135549927 17.7352028433136 0 0
-177.007410481458 -24.8175609213162 -7.63815308269311 0 0
-198.859154563972 -20.1808880517211 8.09495942864748 0 0
-206.065510983421 -33.4727479622377 -7.83536895697781 0 0
27.6316531655055 7.85866427160569 0.929421343241219 0 0
23.4186403086559 -12.2879262124395 17.0289378050076 0 0
-242.74773582379 23.3251662357598 -14.4971855177159 0 0
-5.9631813326848 -7.74538743356623 19.0137640456912 0 0
-242.724615223879 39.2309140166912 13.160973441848 0 0
-119.421411339324 -12.39170132088 -14.0024314181891 0 0
-199.931057968467 -0.227587722808513 9.46068161240843 0 0
-26.4606545191923 -10.7243299427633 -3.20663510040312 0 0
-146.780476206247 -18.9277725148336 6.25232249594822 0 0
-187.45968562164 9.13634842774215 5.00809083741099 0 0
-11.1303238388315 -4.52352575078353 -7.05356741187542 0 0
-17.5874335712214 5.35920386067646 15.033065044757 0 0
-8.84612118970966 -5.46936050260569 -6.77716909811962 0 0
-165.343388667435 -4.92053254011509 7.01308901847899 0 0
-10.0573733175672 -18.7456356044845 9.15953740325853 0 0
-164.225079462143 -19.5389484082985 -18.3100099587812 0 0
-1.73055823163103 -5.9110150867859 -6.63242150936542 0 0
-217.176611765233 39.4581422778382 -1.93773582856991 0 0
-223.706808086129 37.2241310521263 17.9154995106549 0 0
12.8756732737773 0.826166632390002 -5.01606392650933 0 0
-25.5144590718658 -6.05116035614463 -6.5918070883835 0 0
21.4674747617973 0.732778689023396 -4.54462131324805 0 0
-234.15625127735 18.3592979112531 -16.3416519182317 0 0
-200.13299750742 9.23620442173267 7.66151662934851 0 0
-210.409893657135 -0.185189285407624 11.0346565179437 0 0
-142.458061610983 -2.91638614771049 -13.4432680127995 0 0
-234.299541990073 29.4294665556308 23.0488067176332 0 0
45.7430963838597 5.63803125854343 15.2227751307187 1 0
-25.6240278297537 0.458017703984872 -3.98923652269925 0 0
35.4719247851271 8.27606032168629 0.903647793471475 0 0
-241.40402916799 41.0359160672529 -6.79891148463382 0 0
-213.654664062192 26.3229677378282 0.927012727784909 0 0
-229.854575815827 7.32038800216794 15.1650761300598 0 0
35.2314931160215 11.1661284739262 6.3014383471053 0 0
-47.8839949008392 -8.23150696149976 18.5868821728058 0 0
-201.756311429758 -33.7848740382677 0.667711925370569 0 0
-201.786900519879 -33.0561855527817 3.00010900624879 0 0
8.40980732070202 -16.1550144532418 15.0372456203942 0 0
7.54163366651168 -5.62813778571731 -6.74107436095559 0 0
30.2181669754259 -11.0251977449824 17.6050405637432 0 0
-222.611849785731 -25.742295431661 -14.7629369863045 0 0
-175.84770386362 -22.8817233685511 3.71747021266043 0 0
-204.262847293281 -15.6682614383525 10.8752117118157 0 0
-11.4951596304577 -3.69787219981502 19.1269588427977 0 0
-210.439499235981 -32.8686693289824 -7.59159483500056 0 0
-234.333610993932 9.39663632470821 16.1902971097691 0 0
-203.819382525635 -10.7756082453761 -24.6864323067629 0 0
-214.383549523961 -26.1243747552466 9.20754430863358 0 0
-145.707914147126 5.05749905723988 -9.14928507927283 0 0
-162.942225280273 2.75178984015671 -17.2054990316503 0 0
-144.036104505213 -22.9265249686405 -6.7547820986392 0 0
-209.688739721849 18.8012239973179 8.52271066698639 0 0
1.49266671817344 -11.0698645879279 -2.08397773600181 0 0
-127.583383057111 -5.99037881975811 12.0418757714456 0 0
-207.225620810378 16.8804487309882 7.75573660193985 0 0
-184.469160625457 -22.1186486433574 -18.5441474085502 0 0
-226.380046465276 -15.5337654762105 -21.3671522605847 0 0
-212.873417345025 22.4327370344183 -5.05233080721117 0 0
-32.5395466347313 -1.48267223677472 18.1183817694981 0 0
-210.083320808823 -3.28404584393326 -12.5777398341428 0 0
-165.138520985604 -15.3457220904883 -19.9087750509685 0 0
-234.608130961394 9.97385271787364 -5.9048758638446 0 0
-20.959490632206 2.24276720160986 16.5619522396634 0 0
-206.183217993933 19.3789460895764 4.65518638877223 0 0
-157.251893403708 5.42849353877393 2.63791825260645 0 0
-24.7577749824431 -1.59480370853435 -6.16814256169154 0 0
-0.48704573740189 -13.9572369939932 17.152154506683 0 0
-37.754365804249 7.30115777817674 11.7363547903134 0 0
14.8947512021766 -12.9399628046697 16.9028724802909 0 0
-30.8405836194433 -16.3486425891895 1.06648529795986 0 0
-49.358249395726 -17.5135685438915 0.144536459724847 0 0
-249.83423016444 16.3786269444733 7.36827497862342 0 0
-70.4956144983252 1.97193851397962 -5.15569426508446 0 0
-50.7284188310583 -16.2925817670578 15.277975441136 0 0
-242.095333563463 9.74664186271513 -6.92457254434274 0 0
-194.989092899896 0.315576895580056 -18.623121434559 0 0
-10.3024327538767 -12.0202474922156 -1.74686203830922 0 0
-205.433768924033 13.7539576759492 8.19308701489353 0 0
-65.303241202784 -13.150596422315 -4.63657770622697 0 0
29.1581874946085 -14.7156289601907 15.1468288657745 0 0
-125.015791930093 -14.7882375315066 -12.5276961011492 0 0
-232.375899141651 22.6309273129354 23.5299896737671 0 0
-65.7570057281427 -21.2373031024843 6.71187793148768 0 0
45.2239378699169 -15.5402242025048 13.2094250819542 1 0
-249.471669432155 27.2343354099963 12.382912828559 0 0
-2.34547922817928 -3.7691197542427 -6.6080385680717 0 0
-248.537965868494 22.7323950553134 -9.09781023482956 0 0
-218.055596578115 -26.6844971500105 8.24450270946412 0 0
-95.3969734807222 4.21373975541579 8.55867922586555 0 0
-206.034637225734 8.17715767255763 -9.90308654809067 0 0
-235.066897933496 45.0229001536596 5.60086903091962 0 0
31.4819618679127 -1.16347725529091 18.2766854826689 0 0
-34.0730802828195 2.83762906721482 15.6762272191226 0 0
-191.848970368255 -30.3785051711864 -12.3594695997993 0 0
-13.9632099025635 -18.8530011848787 10.0053526251137 0 0
-132.410957800712 -21.6557599909311 3.021916631554 0 0
-24.3709995499817 5.82749166542982 0.199773678798768 0 0
-130.649743281162 -0.416040226455942 9.48710384981374 0 0
-125.226114566907 6.31187516824269 -1.90869066970594 0 0
-230.867657191034 25.6336690004014 -17.4811135441181 0 0
-200.555825305801 -33.7507918095281 -3.67237128487987 0 0
-171.34788652659 -23.3201597807163 1.38037388244826 0 0
-241.096404074922 26.4207886118893 21.2500613825844 0 0
-221.300716688341 42.835443948875 7.35649456970298 0 0
-45.1055209985335 7.67725025059409 2.15417176738605 0 0
-183.286259248747 -14.8036591047046 6.20959453223057 0 0
-23.7337657481903 1.15847451721708 17.0953156453514 0 0
-29.3105773964031 8.43410649949313 10.9149748038096 0 0
-224.258059000395 40.5122793977606 -9.27611984504843 0 0
-98.373713393651 -1.3595660184046 -8.01364136165873 0 0
-218.819556932866 14.0666265355839 -11.6987621798711 0 0
-52.3455209023103 5.74782342986408 12.2557351662059 0 0
-119.039443683582 -22.778244923198 -5.57794994344161 0 0
-180.805220794485 -25.5928768029436 -4.12240855569377 0 0
-180.540935968793 14.9019251497599 -8.74724765752591 0 0
-18.6982360868584 7.2128822456178 13.3365932923737 0 0
4.04344247251154 7.76597298025639 13.4983062731512 0 0
-244.935699858521 12.6435958498789 12.6839767308116 0 0
-197.495163620779 2.46150988287488 -14.8420375826923 0 0
-94.7485752601384 -2.30729703523711 14.4441863506619 0 0
-22.8876269002265 -10.9386471403742 -2.87162718700036 0 0
-228.20002694516 41.8794874446296 15.246556399525 0 0
-106.981022041397 -21.6565146949735 -5.6412267894123 0 0
-49.7096568586859 -20.3885788143801 5.12501096608539 0 0
-133.959125068396 3.09368029984034 -8.28594594773902 0 0
-218.454130998396 -6.91325023457108 11.2595295639115 0 0
-158.447932806655 -22.8603442730944 -0.0424204340325852 0 0
-98.8474142996772 5.26810180333777 -2.91092390432447 0 0
-190.301586188062 -28.636911908874 -9.27219030180478 0 0
-112.436389572175 -13.9053711874131 12.8316187777759 0 0
-245.265853201635 40.0322618020104 8.07754368669982 0 0
-110.912884957429 -9.00192317452367 14.2563956234459 0 0
-43.5013661518375 -16.1448528244442 15.6178506193387 0 0
-95.1906696007502 -13.753970800041 -9.49466920366327 0 0
25.1080921228101 9.71025045074028 3.30722647419215 0 0
-214.527701814841 26.4654525497283 -0.879785745912876 0 0
-161.991359595608 -21.2133669666436 -16.3536849826411 0 0
-244.034262831716 21.1068402150014 -13.2674695328027 0 0
22.1747522394525 -16.0396907440798 14.0503738896855 0 0
-155.178428154483 -14.7521052206743 7.81066491267339 0 0
-202.120688946315 -2.52347637855311 -20.5870464746724 0 0
-148.857453194792 -21.0529520580064 -12.788667852612 0 0
-72.9230303112606 -6.30162610314428 -8.35834661933432 0 0
35.1589952880015 -8.80512752891603 -4.08584686524133 0 0
-85.3996653558389 -3.13757591547116 15.7005566378052 0 0
-53.8166819158818 8.59147700280566 5.23373931524457 0 0
27.7295877335082 -5.40508458381498 -6.50353062156814 0 0
1.01389219349155 9.91077294607748 10.6209550215597 0 0
-38.560983792928 -0.442862273925202 17.408788902985 0 0
18.7793714305123 -6.04106039632939 -6.53963822455653 0 0
-110.270401037689 -20.2915039777187 6.85980191347633 0 0
-157.686794268055 -22.5220492730811 -9.18207709009624 0 0
17.774143306967 2.89413423395161 -2.32719874604737 0 0
-99.1161568264192 6.33451215482265 -0.992329134608414 0 0
-130.380342761136 -11.1945055798923 -14.7085125834032 0 0
9.72515113731702 -17.6199506507133 6.66945930699358 0 0
-244.852703978866 18.9938518952127 17.8783558629802 0 0
40.6075765638183 -15.9221316183009 12.8360295320701 0 0
-232.313645722168 -17.8396565127288 -0.139854459466182 0 0
-225.150221850119 35.9493277518643 19.5101817463944 0 0
-46.1721114507342 -18.7011341550045 1.92432795806453 0 0
2.16871463880838 2.61933241196754 -2.86946431119321 0 0
-223.741721682003 9.62942869537007 16.6720154630837 0 0
-9.74114013867847 9.76136748423907 6.012928904227 0 0
-217.495830192442 5.77179366615585 -10.4567472072706 0 0
-90.7222657883869 -16.2345836119098 -7.32986200402454 0 0
-236.200625474698 12.3942483242622 -10.0328251165724 0 0
-141.76971933183 6.10566233184523 -5.39926424869 0 0
-169.617303555407 -11.3337841798576 -19.3575422945357 0 0
-240.580860024285 38.5261741014169 -10.4020174234014 0 0
-81.1366852378802 -0.177935036313225 14.6517846659488 0 0
-12.014830758091 -8.08587906588579 19.040786786898 0 0
28.9813777059751 4.03358515641023 -2.03908910563111 0 0
-66.4809952125347 -19.5546019607221 -0.0778312188553397 0 0
-67.9341084345208 -20.9392863100198 2.06969826348301 0 0
14.0174108683113 5.87439471756349 -0.175150669122806 0 0
-122.777408045155 -16.8062111926664 9.83639373201655 0 0
-229.619563209165 34.229926585861 -15.5808278396444 0 0
-106.390667057554 -5.39937325910179 -9.36933321882595 0 0
-244.861919765538 26.7764756628028 18.3981356560697 0 0
-37.9901110177822 -20.0357235451767 7.90074561796657 0 0
-143.5522259559 -5.12887001554446 -13.8643758112291 0 0
42.2019596330804 -0.312460169425369 18.0141423836348 0 0
-186.018526989263 0.767478490488826 -19.9979444777975 0 0
-187.081768795193 -21.5908811963593 6.07544324219814 0 0
-9.14712608784563 -10.4434222070164 -2.78185276332181 0 0
-133.962742364384 -19.9209980295065 5.53504397875685 0 0
-197.185072498584 -27.1365120470813 -16.7050293660813 0 0
-238.771930520731 38.0767287986391 17.3598395908871 0 0
-217.968056930517 -18.6400296871949 12.6017145799006 0 0
-239.972925430014 31.9165872647757 -14.7647821954068 0 0
-230.523213503814 5.551208630476 11.2474851407177 0 0
-174.687360244656 -20.5120612598937 -18.7469326480998 0 0
36.0253306394098 -16.6857185411625 5.34031136992181 0 0
-7.12322901794247 -18.5648310709839 10.8267423373176 0 0
-206.304062727861 10.1833621779133 -9.2430597186807 0 0
-214.418685696734 -3.00224648013066 -10.0874908844821 0 0
9.31020731208844 -16.0667632844518 2.92258443334199 0 0
-35.2091214700996 -18.0163287582823 2.68370423757441 0 0
-176.759129425717 -23.1860543238533 -14.7607887996991 0 0
-236.340521922292 43.8727684125396 -4.49388147797271 0 0
-227.88934551685 38.3653148369012 -12.7529249048693 0 0
-29.8317141949682 -2.01414754112489 -6.05258320499522 0 0
-229.915205825036 24.56782587791 23.6293289452049 0 0
-193.175942814368 -7.2100341315267 -22.5597004154695 0 0
31.911196199631 -12.4689875466647 16.8584241315441 0 0
-197.174695088344 -32.0887864257578 -9.81581609009245 0 0
-28.2195095196965 -7.2150339667108 -5.66412366228107 0 0
-228.70785634486 -16.136290601612 -18.4983862920872 0 0
-101.403824072779 -0.472174534012818 -7.70944596415352 0 0
-173.658695283378 -17.1748786758107 -19.4708918956056 0 0
-214.724324952937 -12.6958951159851 13.9887589162408 0 0
-216.883605380023 -17.142385035237 13.4925278264246 0 0
-221.527325941433 -2.11369565398859 -5.12724117521856 0 0
-173.134189774621 -22.7782192631434 -14.0297865990159 0 0
-218.153588469203 20.0788944201384 -11.4338257270942 0 0
-18.9735191724176 -0.600954160332887 18.1380866852239 0 0
-82.7305749627285 -2.54335068091755 -8.05726765409174 0 0
-183.873987130231 1.15520907431839 8.82611791026738 0 0
-216.039006786273 17.8136971751591 -10.2765785598867 0 0
-70.4574012203842 -18.637493472866 -1.99252645349076 0 0
-50.827971358344 -5.0519861543721 18.5065722200207 0 0
-96.9353512679882 -15.0097717683096 -9.03332342391765 0 0
-41.7789641837024 7.6864913997739 11.1787684024473 0 0
18.6487232087084 8.43875519542582 1.95856819088354 0 0
-114.482798521912 6.96986056807485 0.688447443860606 0 0
-71.2514045450207 -1.8934987411557 -7.14857022147586 0 0
-192.619050569919 10.839155788087 4.47341713653328 0 0
-138.353788093887 -3.59728172648816 10.3410249728832 0 0
-59.6583688302126 0.85189205762651 15.561122575018 0 0
-58.7011614804357 7.92576969002288 8.76367284738969 0 0
-228.727688466491 4.23897353060472 -0.666246288608257 0 0
-213.79284444117 -16.8233842806823 13.6135044487424 0 0
-242.085763650626 42.7565018364687 4.40148084420328 0 0
7.04895507017474 4.19310643309867 -1.2201631491063 0 0
-242.317788918253 41.5871134009105 1.19063307970468 0 0
-214.36227142065 -28.3387645797878 6.43308003473425 0 0
-215.601479474656 28.0294827987985 -0.973598405374263 0 0
41.8451184789692 -12.8507576697083 -1.36414702242568 0 0
-250.459895126035 20.2741355804684 9.38499340995387 0 0
-210.282881629748 4.78861141778181 -10.216295952944 0 0
-183.924974569612 9.77584801624138 1.66432167643574 0 0
-102.979374609222 0.0151297053640177 11.9262550027315 0 0
45.2620440773581 -0.75704420773622 18.1832581208748 1 0
35.5571047419968 6.07460443790064 -0.954662747273386 0 0
-33.4417140476055 9.46264453591474 7.01706284218632 0 0
-145.102298365818 -20.4920015071598 4.33703516944326 0 0
-217.493663821948 27.3587351869197 18.060694002733 0 0
-227.968323249024 45.708635843502 6.32344480892716 0 0
-29.9310929787837 8.62513350230959 3.70098420946694 0 0
37.2105176715321 5.10912698583119 -1.67793943299989 0 0
-245.25320129743 33.6878576229564 -10.1357122062386 0 0
39.9900957003869 -5.52718328251781 18.5290291987329 0 0
-229.566458604255 -25.6716037244383 -8.09580719706159 0 0
-215.381409779159 4.50452904645734 -10.5391328425904 0 0
-201.871087834802 -13.4878608055394 -23.8736160558134 0 0
-179.724244652398 -13.6947735861649 6.07747912465127 0 0
-186.837859095029 -25.0038076843291 -16.1230336281957 0 0
37.4758603294138 11.2799094248374 6.87856027580345 0 0
-216.347614919457 31.5638022895237 15.8280170164942 0 0
-196.356899160632 -30.1136779606848 -13.9361089439934 0 0
-68.3192531027816 -18.2086129219765 12.6517907373986 0 0
-225.382469789319 32.952512418353 -15.1361224519532 0 0
-191.873066895215 -9.48128713000854 -22.4503341895208 0 0
-201.18903076705 -1.85874676605378 -19.2019596272032 0 0
-199.555865592288 -33.1732572155201 0.502941611335341 0 0
-133.28892847965 -7.98667629552373 -13.3911241687366 0 0
-76.3731680614642 -9.20667308329537 -8.82278787776072 0 0
-133.407215440867 0.911180697615537 8.5305128412979 0 0
-216.876608057733 -7.91817443339644 12.5871762657157 0 0
-245.844550990323 17.4206803703707 -10.1401713639911 0 0
-30.825396283691 -18.5749652500278 12.9879566095633 0 0
-76.7433742001564 -4.45068040056566 -7.77733581740561 0 0
-125.655137864563 -10.9699132579379 -14.4602787796162 0 0
-229.690286298294 -15.8220594368193 6.75015552985113 0 0
-250.832467203575 27.8830170614979 -4.65481007295299 0 0
-207.61228543327 18.8377048045964 6.82551372899247 0 0
44.2666742806288 3.74791144912388 16.1878231813263 1 0
-235.790938610045 10.9458458746712 -7.84961840802529 0 0
-185.534573761015 -5.93481169036628 -20.8239736054907 0 0
-233.603953646391 5.89078132844379 6.3542187647818 0 0
-12.9855916388277 -15.0137302545774 0.836886303539916 0 0
-131.870948551466 -18.2612797642964 -11.9577694166632 0 0
-32.1368418651613 -2.50484628427949 -6.10630023027633 0 0
-128.746767110409 -12.4353538532152 -15.1907097893931 0 0
-203.84371394403 18.9597082772742 -2.09404705106197 0 0
31.5789759910342 -3.61804597248067 18.7609929313094 0 0
24.5863688662554 -1.96901061304731 -5.66851791301455 0 0
-89.0177949909275 -20.862142580643 -2.89233039530776 0 0
-247.658188036154 38.3113598810994 2.55379064942585 0 0
-64.1564880804434 -10.8851732812937 -5.74144627726162 0 0
16.8753800172469 9.45602395032579 3.39842558060677 0 0
-206.528980713465 8.25950051733631 9.469134426934 0 0
-221.312036234121 31.541525104411 19.8747716303096 0 0
22.6944465499136 -1.84904451769749 18.5864112977685 0 0
-165.79750374272 -13.3320018176548 -19.447923962545 0 0
-25.3702668495939 -7.55220570833973 -5.24622432324601 0 0
-240.156384953639 35.4859248450779 18.4135298419122 0 0
-47.9751710075403 5.77815581940567 12.4560019325221 0 0
-210.537219385568 -13.6287286944335 13.7482968773373 0 0
-226.151260468503 -11.6286118961149 -4.61394324123155 0 0
-169.539407870543 5.87758622902213 3.70360100575059 0 0
-216.74925931879 -30.7753372048984 1.72416558497245 0 0
-227.950294337242 44.6194858301161 -4.04780278324947 0 0
-21.4465231328047 -10.8618026139847 18.365467007776 0 0
-41.0991194000575 -13.4136965460033 17.1194417385794 0 0
19.512810088311 10.2576534682356 10.5339897782555 0 0
-27.7626813044378 4.38283622471962 15.0612864879026 0 0
-15.7485714683931 -4.99958654853103 -6.86554205756374 0 0
39.9295313994196 6.81025762872957 14.521660121427 0 0
-141.966466224933 4.15594967406243 -9.05847037318575 0 0
-212.054437950816 24.8428143627124 1.37618663306185 0 0
-214.927625380989 -9.14913185438829 -10.6427525302699 0 0
-206.3469783287 -2.58141981325575 -17.3431630939462 0 0
-224.518558247878 -9.99698454087648 -2.9189109591154 0 0
-114.640148373381 1.18751922105556 -8.18589454094247 0 0
21.2870445610951 3.0496214716234 -2.26125747285845 0 0
-39.4854359011867 -3.50703212551908 -6.61139090225411 0 0
-113.538598423841 -11.3884190763662 13.56613438961 0 0
-107.470604017528 -22.349458953922 2.54645317187806 0 0
-9.65461151943275 7.50291183004729 13.5001693179026 0 0
-236.62090460443 25.6249379139403 -16.975323335326 0 0
-250.896868625167 31.5134716739019 6.63580645654998 0 0
-192.016614915061 -29.6341843348077 -9.85267418551105 0 0
-234.269982447128 7.93031159978484 -0.126966613266726 0 0
-150.802220507719 -8.90082188960241 -16.3408742008482 0 0
-169.378304890214 -16.1651962318399 -19.7712326709877 0 0
6.39386976981664 10.2801547888702 5.9588673550992 0 0
25.747669371669 -7.44630835567598 -5.01432726932602 0 0
-26.6941664397074 9.62176174870601 7.89194000974393 0 0
-194.83532346166 -28.3986083061211 4.10778215062009 0 0
24.5074881486081 -4.14204600162461 -6.1528199538681 0 0
-124.459025829241 6.4297622179058 1.95149723863336 0 0
-178.797168349941 14.4138504320181 -18.8140559431711 0 0
-6.39176066053395 -16.7682928034117 14.814609462124 0 0
-190.238835274512 -21.4853163817548 6.56272547810893 0 0
-215.955047062852 -10.0890517320897 13.6058348813279 0 0
-75.2401008039514 -21.1176371615664 7.52133427873487 0 0
-169.609919611062 11.9831874676985 -8.13242933972899 0 0
-219.567330637464 -13.4986024468853 12.7443606075623 0 0
22.4132743993333 -6.57537429607866 -6.09249915206663 0 0
-173.467598113198 8.07844814077192 -2.39402539884749 0 0
-247.064227673669 32.13827931428 -9.02467167617413 0 0
-46.9709638218391 -0.208931155462344 -5.29087744318282 0 0
-63.5620169276621 -9.05177148030972 -7.15251197503554 0 0
5.29677667304615 -13.761146105653 16.9638844059426 0 0
-126.699977909962 -0.117547418931759 -9.5010688023774 0 0
-187.270644515245 -20.9344965221077 -19.2132503775925 0 0
-173.465361563344 3.25576295222287 6.97666499343582 0 0
8.36170281382451 8.19912110825043 2.19211525547557 0 0
-222.998107160193 33.2187726903861 -14.0179192529346 0 0
-167.095440913663 16.6940830186441 -15.8919397905273 0 0
-115.212970326747 -12.4417690220054 -13.3798897767708 0 0
-224.235990445892 -5.43750106072055 -2.04665366288373 0 0
-213.034070065676 -18.8297960154531 12.4413515111503 0 0
-219.414231735374 -14.3335201831353 -24.2435757045759 0 0
-181.826617124011 -11.7336349348623 -20.8738588904173 0 0
-69.0196729043008 -19.99228556666 -0.0535146244051001 0 0
-226.366914862366 -21.8988236035218 8.8273379880655 0 0
-72.6974063118804 7.84035091971629 5.10257143354213 0 0
-42.9839649993738 5.88803273835363 12.59539071734 0 0
-199.29246659418 8.79578232205744 -10.4781978240766 0 0
-56.1480872884854 -11.134301774303 -4.78933862059278 0 0
-48.643641689443 -18.80875868091 12.9188496099756 0 0
-206.359762387432 19.3217214957954 -4.03137729311144 0 0
24.62962276478 6.03467994719204 15.0373052089411 0 0
-140.299059188929 6.81969310861578 -2.03727888571497 0 0
-116.411950948109 -8.84893337919372 13.5937849446363 0 0
-110.824595622623 -2.61585734365946 -8.76434770076321 0 0
-205.340172238895 -27.9429187470479 -16.1341401866558 0 0
-199.895272262769 -32.3911511262356 -10.6227304216657 0 0
-248.193577632111 13.5772956918914 7.79172757611126 0 0
-231.101021820406 12.3894267709778 -10.9402599714937 0 0
-205.501831102789 -3.05503065115376 -19.3158266126161 0 0
-204.223236406656 18.2261751844492 -4.35263096764579 0 0
-233.537155346355 44.8255360729446 8.50588885173209 0 0
-225.471397988083 -0.737353988506762 0.780371085571298 0 0
-224.945853781776 -19.9158220579837 9.75078930342437 0 0
-198.417471403061 -32.9739299290458 -2.99192076580108 0 0
-238.901673909844 42.7914210700851 -2.24221084552864 0 0
-239.719044840013 7.95047970626309 0.430996612458632 0 0
-15.0580166160415 6.4815219537607 14.2701617554421 0 0
-246.452719281786 16.1206285704674 -8.47497879671001 0 0
-166.651292437642 5.62438119669558 3.35374608747371 0 0
-21.7825931960768 -18.444402255058 13.0159074542838 0 0
-6.7044397315 10.1446605934609 8.50950762029494 0 0
-199.816226174853 1.58120512805472 -14.6493083437101 0 0
40.2636117010914 9.06685203284665 12.8492335102297 0 0
-4.30796120342241 -15.8033666217385 15.8273346289857 0 0
-219.208048131278 29.9347208391638 -12.2248563831417 0 0
-78.6806421622326 -21.3765465641784 0.865045805055932 0 0
-250.270866821183 30.4966916921797 -4.31620906470199 0 0
8.37784836817311 1.35505743626396 -4.54706584641685 0 0
30.2680794182183 -8.5850734821951 18.291420601669 0 0
-7.0412547556112 -15.0667788212901 16.4217947527044 0 0
-237.279505633871 10.2623288545959 -4.2442249360488 0 0
-241.135584271476 43.1613189221384 2.32366171174193 0 0
37.7500797375104 -7.6503434129183 -4.94691833758084 0 0
-22.5862885933955 -1.55267559667861 18.4439880479839 0 0
-67.9293023050865 -7.45262733607253 -8.48738234685489 0 0
-44.9707523244255 4.63480631950548 13.6136876738269 0 0
44.4230658526383 -16.2397476775501 4.62907277782519 1 0
-210.459408921978 -34.4217878431828 -2.98323745436986 0 0
-202.559202613612 2.55969591759922 8.13969209350385 0 0
31.0666919342313 -17.1830409088065 10.4551693349261 0 0
-220.139678112864 27.3469310118451 20.1618505327411 0 0
-217.823685114998 26.6108841331012 -8.52742245959658 0 0
-27.0461032237794 7.04427464310976 1.38931545655246 0 0
-237.504164181294 42.6769426774747 -6.99452151792758 0 0
45.9355188759182 -7.28823433459428 18.1550602390063 1 0
-238.364757176571 38.5023793221674 -11.6694404827157 0 0
-74.3161246974347 5.06892472033815 -1.92907480469166 0 0
-199.50629335245 6.51167973522273 8.2799691831508 0 0
-177.465466530213 18.0455988436358 -11.1494150374785 0 0
