"x" "y" "z" "f" "a"
-224.72389414504 30.7473642965837 0.701378842333665 0 0
-167.062756421264 -9.20043552955576 25.1685034382664 0 0
-53.1576070853331 -11.4390367442763 -20.2303824271934 0 0
-186.444427845199 -3.11879162703609 21.815425639188 0 0
-182.306524265056 -11.7098500688526 27.9095457965243 0 0
-220.979647939702 -16.0666090921981 -1.69959014353233 0 0
-181.636764542853 11.7481790112368 -15.6070824158606 0 0
-186.986495111986 -29.5832970604579 -9.6233575283538 0 0
-105.40890365241 -14.4227905281427 13.7421917716687 0 0
-151.33379156704 5.76905916582599 -9.3445673321105 0 0
-203.797705289868 -28.520374675117 -7.05010760178862 0 0
-207.33467685755 -9.61579766380923 0.651043249589053 0 0
-161.184631581742 0.0343497380986557 -12.2944895497722 0 0
-189.618401731809 -2.74449281558435 23.4460162126218 0 0
-112.200648963494 -21.4862615036856 -8.07726021910478 0 0
-220.971377275878 23.6721446672459 6.96712487316854 0 0
-205.080999219857 0.136267551283777 -15.1143463113317 0 0
-198.427057135469 -26.1370384865764 21.5671853754245 0 0
-215.851569717646 39.8038682475973 -22.9675299466162 0 0
-11.8150647264511 -8.93284370137144 5.04318213063564 0 0
-167.862388444015 -5.45145596544071 25.6568009342581 0 0
-13.534600981147 0.659917861678491 2.24849900958878 0 0
-81.0436279510203 -22.3166662899499 -5.72777367032711 0 0
-202.935199464636 33.04241477849 -30.4229011801113 0 0
-214.835851838411 -13.6977398379925 -9.84969140897911 0 0
-115.463773536945 -23.6862772811494 -1.38565205533069 0 0
-195.338643773187 -33.2243889459432 14.2946931721734 0 0
-222.312299808248 21.8218257052661 -18.1929455395596 0 0
-182.14668925137 -34.8535086441617 -5.30169526632335 0 0
-27.4599079088726 6.59617792588708 -17.3386355734117 0 0
-130.862818267805 4.1838258235395 7.44405907613124 0 0
-187.293116150133 15.4231986661016 -21.6492417347479 0 0
-203.472946447773 -5.03779909677266 1.04423704220367 0 0
-124.641429198433 -3.1416205611739 13.5952280725673 0 0
-170.819600234907 -18.4653096046712 23.8519074541611 0 0
-202.525288800456 -4.95537253133056 22.5215602971112 0 0
-181.985365499606 -11.3476290645128 -12.6065073176587 0 0
-112.870967536258 -3.92519474554433 -13.5730769530976 0 0
-214.378180345101 -27.7441686685488 6.0262980155708 0 0
-65.9547211650748 -19.3299695588789 -14.1356986127974 0 0
-44.8800395247158 -3.465746943897 -21.3440026437111 0 0
-123.999013691207 -21.4644699742551 -7.01067742440701 0 0
-200.92534953401 22.2476413694579 15.6004501222401 0 0
-163.186510652877 -25.7325254931243 17.8574070549856 0 0
-200.504438918662 -9.12114371865267 -20.0123403323274 0 0
-6.2138415640635 -4.17819873864925 -23.7776832119501 0 0
-179.56565123088 21.6575061725151 -8.35822208129585 0 0
-22.6865466791496 -18.4275320957657 -7.38577864024833 0 0
-32.1263767561769 -6.76821906065731 5.48834718923506 0 0
-208.804527419698 -28.87515983603 13.8242480995819 0 0
-196.314231150053 47.7801582693801 4.92670076313361 0 0
-210.964528665152 16.9300468055385 9.46909639258895 0 0
-188.904208532317 46.6698236594007 -12.5254811929009 0 0
-146.040233822291 -18.1389945974337 19.4931337199031 0 0
-184.566020460358 -16.3385363352296 26.9398128113827 0 0
-211.743746201814 -11.9071886755816 -13.9009514514096 0 0
-214.951184451516 -2.64553007682271 12.48238811287 0 0
-216.899142995966 -21.886380169285 16.415807821681 0 0
-217.614480886045 -14.6901653755164 -6.74161130313146 0 0
-191.495232076847 -34.4990771580755 12.7017086392526 0 0
-211.409659086472 15.2061475655043 -0.314118490116912 0 0
-173.229373334393 13.6552694118441 18.100645462933 0 0
-221.197412683245 -3.59808111108811 10.6647280569134 0 0
-218.449453706834 -15.7891976960417 20.8380585617667 0 0
-133.094777079607 -23.842516847051 9.30157371802792 0 0
-29.556707397028 -3.03576361741979 4.75369785577801 0 0
-212.743211994365 46.2408236878026 3.73973793677562 0 0
-5.85958420653261 7.36653009180937 -2.21398558473995 0 0
-201.708012651651 -6.3238231276774 3.11489607118849 0 0
-181.239440514081 36.476686598286 -5.08513838888989 0 0
-160.243207257115 -23.4875829382242 -5.46599638663209 0 0
-115.161256106535 -12.9565981003721 15.0689868259483 0 0
-51.8864210690238 -6.81556723824685 -21.1485391852973 0 0
-208.5516603807 -4.85416077689926 -3.08543508924595 0 0
-206.831492422532 -28.9314747565895 -5.05435463131372 0 0
-101.521087803054 -15.1088883326093 12.2599767760697 0 0
-204.726959018638 50.5195174014765 -0.990469580369072 0 0
-34.4870380862366 -13.568255967871 2.35425317490798 0 0
-220.484417927804 43.7358863440531 -6.56556578903604 0 0
-134.877427488876 -24.5338451138784 3.78789178319373 0 0
-192.940204878976 -3.24550259996629 16.7541846116893 0 0
-10.7403642245607 -6.21201520457404 -23.4110146889833 0 0
-29.5561201682674 -6.04757152854483 -22.7590542791142 0 0
-138.79545320265 5.99327621339331 -4.93592458096437 0 0
-153.148585561857 4.84406814579687 -10.2544138854838 0 0
-177.332988626292 -32.9759923187974 13.3072906647153 0 0
-32.1035783248792 1.00291128753387 2.19001081770833 0 0
-172.268392397727 15.7831477177437 -1.72103995806178 0 0
-78.084071007243 -22.0126824550633 -7.49597003029598 0 0
-17.0662135123189 -6.67783028979284 -23.1800813246641 0 0
-188.642430806687 -1.72298806264554 16.3837971255522 0 0
-23.3734505435117 -17.1749584582707 -3.94202639087481 0 0
-206.638265785502 31.3177474935476 -30.3162090216598 0 0
-154.81207623906 -7.83421447451589 -10.0863449089404 0 0
-136.659340240026 -22.5363051386614 -4.84006417663444 0 0
-137.85479011225 -24.6622841067385 7.00197019549481 0 0
-199.038426939256 -22.1254473478844 -11.8037368323486 0 0
-179.856802312821 -6.94192220553826 -14.5439577157393 0 0
-211.986793369249 32.2538290576283 -28.3658508204069 0 0
-76.8521535742337 -16.2815809226112 8.58537228424824 0 0
-172.198446150763 15.0591462913908 6.55924642961878 0 0
-179.977148011612 -12.563590086093 -11.1956538801909 0 0
-19.6278336953819 -7.41799565217646 5.38583413450035 0 0
-205.289069876125 50.3690582404395 -12.7514251239466 0 0
-211.475463409528 28.2164768758743 -29.0347334496082 0 0
-121.513933298638 -12.1395536586556 15.7443618055445 0 0
-223.107513462891 16.9262137992577 -4.79108087253622 0 0
-38.8860927831647 -19.9247815129625 -9.97213218517248 0 0
-150.227198265872 7.79549040841773 -5.87079167308159 0 0
-193.823560955854 17.347086238332 -26.6721162014635 0 0
-118.673655393473 -3.69361050578637 12.713830244778 0 0
-195.527727444886 6.10897364662516 -22.3667403622456 0 0
-221.411035309908 42.5133654889237 -5.23339039123454 0 0
-193.618711402449 -34.5285737271944 -6.31233483800246 0 0
-71.9104168915531 -15.1550500109052 -17.1243138203498 0 0
-203.056590159714 14.4981410608377 10.4127365563087 0 0
-141.837986450085 -0.315513482474143 16.9198806264191 0 0
-215.357115189687 27.4660163260718 -26.8545252565484 0 0
-159.802358270992 8.46061303742052 -8.53373214465861 0 0
-205.286115696319 8.31327848328999 2.26475827981733 0 0
-213.519320594648 -11.1386788814479 -9.04059032961514 0 0
-173.929063302529 -7.364849920802 -11.76914191245 0 0
-44.4133950233391 -19.6136710033978 -12.6710524837885 0 0
-99.0107937369439 4.62205352983617 -9.99292152142605 0 0
-207.061316796962 20.6605448990866 14.8437059297885 0 0
-203.302634689578 38.7890709758253 -28.3531221783644 0 0
-214.267086998166 -24.3569275106292 -5.30358411023634 0 0
-94.9961646169484 -22.9792977955045 -3.77909840939792 0 0
-145.022108752837 -14.2252906674026 19.5723079809961 0 0
-195.074923193715 -36.0026816972027 8.21137441496169 0 0
-152.338262331853 -26.2952029280881 7.27992274374602 0 0
-204.328994648515 -8.6210184918434 1.89619636129203 0 0
-160.417352861351 9.58228653994749 6.82887653883621 0 0
-31.8473735892384 5.69183052703356 -2.05738928496193 0 0
-80.9236821982484 -21.8929977613253 -8.43251452340463 0 0
-180.349148500184 8.50477174857585 -14.379633336366 0 0
-83.6966663096705 -2.84919009372837 -16.7175538120498 0 0
-196.049215074437 49.157006980059 -14.3115396894634 0 0
-194.057649655988 -2.16904800368608 -19.0133140130847 0 0
-184.302389540747 28.9806728456603 -17.8309761638526 0 0
-206.383251865497 -28.401159989342 17.6130524245071 0 0
-147.477100067402 5.14078301020003 15.7224827884759 0 0
-196.13214818103 37.3627470045084 -28.0850873794725 0 0
-129.471972194827 4.16152358967953 5.34881182112679 0 0
-120.20622060809 -13.4535963355906 -12.1335578487668 0 0
-120.739124443138 -0.516251398755534 -11.6784650571917 0 0
-161.13853826099 10.1715397234069 -0.582767525936402 0 0
-111.248738626285 -16.4815221392108 13.5051772071473 0 0
-192.50949782785 40.9846386797636 -24.4073038798511 0 0
-119.610554672929 -3.31312500710286 -12.6924952273895 0 0
-92.8144165011965 -15.3692304320577 11.2119514523685 0 0
-2.83214525417729 8.23398241213898 -2.97974786817353 1 0
-215.848767873785 -22.2207985429402 -6.8423236389307 0 0
-222.9245327626 -2.65877099128851 17.2118099537851 0 0
-176.976789944139 6.20707859232085 -13.280086952844 0 0
-182.784138553136 25.9058445117572 -12.1221026433624 0 0
-211.592772680763 11.0764772740014 -5.87498763313026 0 0
-4.13042236640685 -11.7582902350065 0.791038530269747 1 0
-46.0921363594384 -20.3921921591971 -9.05362553376374 0 0
-200.591234993861 48.9574085872543 -2.48220731426471 0 0
-210.170250790241 -27.554214720775 14.8351205957098 0 0
-96.3378655385163 -13.4221235954874 13.0273943869121 0 0
-178.784798664573 0.392080770854145 -14.4664844106561 0 0
-3.99361490420829 9.52497380015037 -5.10031424726063 1 0
-182.641315060883 28.1778976573723 -9.85658534660846 0 0
-185.443300611932 -1.79614144729559 -16.6122932837286 0 0
-201.379689051462 -14.4406318262361 12.3011295993604 0 0
-175.414174289171 -32.6430061855677 4.25839479402024 0 0
-184.814766823237 -1.9350569752979 21.8237906088751 0 0
-9.09766161207344 -4.17165505041295 -23.7248600133408 0 0
-209.556308745955 10.8381767902789 -2.3845375313197 0 0
-220.035290495666 38.0242690647025 5.24054233671351 0 0
-201.916845289772 -33.9827352032574 0.342604363002512 0 0
-177.314292990441 -33.678745432397 9.44463972540984 0 0
-208.457550254403 5.96192376758551 -18.8428660634946 0 0
-206.037332761322 -17.1577631958134 -14.847094418986 0 0
-19.092206878099 9.70247486126539 -9.02602755010965 0 0
-75.7243222467835 1.52469199838091 -16.1857454920675 0 0
-77.508695897636 3.27503660703298 -14.6776013603505 0 0
-140.639030105989 -24.8070224401479 2.95652036767425 0 0
-102.177005516993 4.14408823641321 -10.6733191382501 0 0
-178.32751421262 3.92219554998616 -14.0360315810935 0 0
-133.224133583285 -18.600937388421 16.3698164410823 0 0
-216.690013203169 22.1013330433348 -25.0517127821144 0 0
-112.495878092781 -13.8563736275029 -12.8980669199902 0 0
-111.07277789459 4.42722716004589 0.668629177699919 0 0
-185.206334303082 2.79378342177437 14.1004784451862 0 0
-178.86830779266 -3.99307484573901 -14.8942082098695 0 0
-210.620188994848 -8.92693318356648 -4.86995153266746 0 0
-25.8168463567508 4.74649194592462 -19.2378400016448 0 0
-152.1824253607 8.25471373635304 13.8621962165685 0 0
-127.76235533486 -20.9157571071928 -7.33585274419574 0 0
-168.166659706677 -26.7458784821213 -5.47862530247295 0 0
-211.403616117859 -26.7427942865838 15.9866025106408 0 0
-168.343286906646 -29.5881498950895 11.9747994919123 0 0
-37.1804010550587 -18.6925124821495 -4.11328438050437 0 0
-206.204527833135 37.5338653855259 -28.6427745952002 0 0
-211.67457140731 -29.0615000379884 1.70598123245138 0 0
-190.380611312539 -9.69928305162009 29.2926991299798 0 0
-183.056941885803 -26.1889238470598 -10.1762076470343 0 0
-176.290834854215 7.21326872205197 19.6675603791559 0 0
-29.547753355067 -19.2765457318965 -8.92510116935984 0 0
-173.460200420837 12.4734477441717 16.7074112739583 0 0
-169.184928409949 -26.9762015403026 19.0144618541936 0 0
-190.79172420676 -35.0849176168545 -6.32696300272864 0 0
-38.0599239344821 -5.92598342986627 5.63234165864403 0 0
-222.391700332001 -1.60728390905447 14.4322966353652 0 0
-181.194590833329 38.0741847153117 -6.53679426333885 0 0
-134.192113656775 -3.68116732300285 16.151057594669 0 0
-193.714357580712 -33.9159968625967 13.1011402129517 0 0
-25.9809921052094 0.0428797080578615 2.70904362351394 0 0
-218.92528497026 -2.1546582393865 22.0945937667084 0 0
-215.141711142674 -25.0447835225822 0.5231204114041 0 0
-222.44576532351 22.0101668851101 3.91676900441675 0 0
-46.5864490278401 -7.659626009263 6.9283707606665 0 0
-43.0564911169173 -15.3242956010076 -18.7771838630644 0 0
-221.182247924738 41.2715268912705 -13.8090060730492 0 0
-107.726931251014 5.33524328040223 -4.50928045952962 0 0
-118.032603235056 0.85802429087752 9.34218716280356 0 0
-186.344433452834 -10.4455716047141 -14.8266790694219 0 0
-213.682844106345 -2.51850931085888 14.823323230559 0 0
-179.468015626137 11.4158832979106 -14.3240633086076 0 0
-163.520389795315 -28.5129040374788 7.08326900040505 0 0
-70.3579817583313 -17.1885411442019 -16.0695854996164 0 0
-52.937914876359 -5.82210543447244 6.79468979335803 0 0
-157.391789192762 -18.1961529795066 -7.61013014674034 0 0
-76.9883902681479 -6.30371203906344 -18.4824541172048 0 0
-185.397714926996 44.8266694659252 -4.08965459447404 0 0
-185.331713315611 -17.0063859164821 -10.9567801481035 0 0
-206.403554521225 50.0174881493344 -10.572853023739 0 0
-75.3105670237628 -12.3993282046993 10.3939941385719 0 0
-14.9666517233393 -18.1145039115395 -9.24340761983833 0 0
-193.511310277066 -5.06947608666072 27.413447306364 0 0
-75.6769429856249 -9.49787873549798 9.66536710049602 0 0
-155.690423266224 -26.8005400286814 6.88385932842185 0 0
-185.164595351313 -24.3716958025065 23.6393790683272 0 0
-184.441749361536 -1.77960993701684 22.8416399074373 0 0
-56.4142538449319 -7.94952624753631 -20.7420451851026 0 0
-197.385021982189 -33.7228576904974 12.2444553863187 0 0
-172.479778280421 15.8209864245632 0.297047810400675 0 0
-187.683615438784 6.09113538407497 11.2265344205856 0 0
-158.238646391296 12.6996987492406 14.5507532087404 0 0
-175.890039320223 -8.61680416908555 26.9312178788499 0 0
-195.823695923092 45.7179533696185 7.77002330523898 0 0
-164.024156475117 4.99581329900618 26.3869629900343 0 0
-159.404153537001 -1.42775513962973 -10.8264569966124 0 0
-133.299760467881 -8.17681807224042 -11.6482938441048 0 0
-200.686640773708 -8.82325797936547 4.29950169622333 0 0
-166.505804877279 10.3151538489874 -8.80623047150411 0 0
-186.856210474078 -1.80898747915805 19.7861477926946 0 0
-97.8516484017164 5.38113782735768 -6.35619212481449 0 0
-182.84561218892 -3.34843895039003 26.8846101377383 0 0
-152.724763618563 8.44757770028271 -5.73261108998063 0 0
-170.205674549755 14.4371065815401 5.20089976343451 0 0
-125.539482246097 -11.5147612742689 -12.0059591970773 0 0
-108.527682711971 -8.13459800072046 -14.5278254346557 0 0
-4.41016662404135 1.15946163422656 1.89780385622307 1 0
-183.009925360687 20.4523477384925 4.62035720716163 0 0
-203.266619279941 30.0798685094838 -30.8188281146854 0 0
-196.684077776242 -31.6496065045375 -6.97070508125138 0 0
-190.43914487939 -12.8971409962484 -14.8158139885023 0 0
-11.799671763435 8.67678525523767 -16.9044974655183 0 0
-202.837953162966 43.3207077396852 -25.385278052393 0 0
-164.042979080659 -3.13331185562729 25.3005380315942 0 0
-188.475375882672 -9.46962890170679 -16.1759622584318 0 0
-190.162996529058 -17.2481990288745 -12.485070528007 0 0
-179.685534852059 6.17860766285512 -14.2046494438875 0 0
-151.98924153649 8.25905744373049 -2.37434668898199 0 0
-23.067467895549 -18.7799531113199 -11.0467125684247 0 0
-212.98707885132 42.8179138763366 -22.6110092677028 0 0
-64.8996052218359 -20.7201249415156 -1.54393910471988 0 0
-63.7835211461448 6.50728234320903 -7.89877688664602 0 0
-194.158845586686 -2.24923257182478 10.6259620359097 0 0
-194.559429767056 50.1691800048219 -10.4138762662892 0 0
-199.049694151114 37.0973007287138 -28.8569210489286 0 0
-119.788147112408 -12.571481673381 15.6765756702802 0 0
-202.977495752349 -24.9265620478224 -9.16177066012284 0 0
-194.362739172897 -31.7516671242156 -7.31734307445452 0 0
-221.169970177128 14.6600238309216 -1.95033473845216 0 0
-211.541266181418 -23.9563823701314 -8.94284505452565 0 0
-202.195052847912 -11.6088137825015 7.15287932298679 0 0
-143.324630904939 5.68694993090369 6.38416870606867 0 0
-211.472490159289 49.6125439407257 -2.54375534483286 0 0
-165.299816736935 17.1452908697708 15.5917375958157 0 0
-117.190816800662 -23.0414165704842 -4.6382457895146 0 0
-190.722689694002 44.6890233936326 -19.001291439774 0 0
-198.087782271175 -10.6251657323732 6.51857242723087 0 0
-168.29128929218 -8.21043061085757 -10.1587488272322 0 0
-149.241552213014 -18.7599716587274 19.686562743793 0 0
-187.396265939593 -21.5572362936531 -11.5165897379782 0 0
-205.900237828823 42.870850052745 -25.4243432826061 0 0
-83.9682498835262 -14.2263703079393 11.1258619044501 0 0
-28.6747531631065 -14.149207736057 0.855927730812842 0 0
-36.9653891176874 -3.00318497497222 4.75260180221475 0 0
-217.499550783879 43.7592324804034 -16.7184021182125 0 0
-210.710248443114 8.828620474448 -20.3523852332845 0 0
-199.823251911485 48.984292451685 4.01564973817833 0 0
-213.142967194918 -17.7214799102902 22.5347542878745 0 0
-183.923982071938 -10.2275563330249 -14.2756847330282 0 0
-127.732837092808 -12.5104639009551 16.8191552379731 0 0
-92.0046888330335 -13.3068510905733 -15.8073006144143 0 0
-65.9842965842127 -17.2717602266294 4.94831945345362 0 0
-207.411033213388 28.9648314379053 16.0565329412031 0 0
-146.812170508154 5.82510018532063 12.0775695838328 0 0
-160.31714464098 -3.97304803652065 -10.2823923563431 0 0
-155.688163375553 -7.1128616943516 22.7993895162179 0 0
-109.193721857256 -23.6240814587891 1.54945186134523 0 0
-45.4567211390228 -15.1408617659598 -18.8874326104752 0 0
-206.075488761566 49.2957178801569 -8.3274532895945 0 0
-224.830388672227 34.9694557883743 -3.03461111859393 0 0
-102.075335796017 -12.8130480202817 -14.6036457171707 0 0
-122.40326711743 -23.5967289563145 6.7412142407279 0 0
-61.6063548605682 6.43601875025245 -6.25694969634559 0 0
-142.274226942043 -7.21735284247817 -10.9135262397943 0 0
-63.1151466506222 -15.7685102917184 5.87261027020767 0 0
-135.215184010914 -9.78338134208075 17.6657321527094 0 0
-157.051139128797 13.2188575319135 18.3247788563924 0 0
-124.567202648057 -7.68341890653762 -12.6402708949031 0 0
-217.01006118726 9.38284917099266 -11.7318423194081 0 0
-76.9686955091882 -7.60557507575742 9.18160673680305 0 0
-168.925972667564 -3.3199111019873 25.9030685995337 0 0
-181.939568450235 -2.77455248694195 -15.8162449156221 0 0
-213.975757186725 12.7818246311427 -5.90913958182683 0 0
-127.123237251474 -20.5169135953286 13.5590617859083 0 0
-33.0554546640184 4.43540759596945 -18.7351320695772 0 0
-153.162917035574 -2.04511568155321 -10.2719465765455 0 0
-75.6990880677576 -0.953982891417923 5.27973727345565 0 0
-182.641030153624 -37.0578675367648 0.255203138906951 0 0
-200.811202494904 -19.6352029601813 25.1464603210085 0 0
-111.36536280921 -10.1766178854603 14.1673141473834 0 0
-203.334988421656 -31.5689740028192 -3.40031449474842 0 0
-133.009989177093 1.46862097477492 12.174556105872 0 0
-210.151055050034 6.0004722702049 -16.5017992080122 0 0
-135.357210268721 -19.2274868540458 16.3207921758371 0 0
-193.131106517794 -3.44526177786125 15.7635851173145 0 0
-105.720176449233 -4.67714497481177 -14.5265755062477 0 0
-173.982880345605 11.8261178782128 18.9769968658911 0 0
-169.467782695286 -12.1306637370672 25.165773592207 0 0
-149.818053332145 -16.3665258214725 20.2822555339145 0 0
-45.5218602243566 -5.97161540688407 -21.6922736512018 0 0
-221.076449673114 29.6522653047622 7.56455629758089 0 0
-139.329024253816 -23.9796469858721 10.8876504385199 0 0
-143.600141603877 6.38741361714909 1.65593257553354 0 0
-123.522822051504 -11.450245433049 15.8676105874285 0 0
-45.3110543956931 -17.1992137524895 -17.0422137091852 0 0
-153.794390125195 4.47439070159195 23.6903792591361 0 0
-91.6799147022444 -18.8049356428026 -12.8967467911732 0 0
-37.0052682823823 -12.534663650816 3.73488748134945 0 0
-215.805835070841 -25.501841130955 10.7254600017438 0 0
-202.783044312411 -23.8333635487117 22.2240028179742 0 0
-55.4477347156292 -4.58875293887802 6.44707624343122 0 0
-9.75958948077904 -1.50014746265208 -23.5875617854628 0 0
-156.183574381952 9.59088646199297 12.714840513247 0 0
-121.131908160185 -23.8143053156736 -0.95498958730463 0 0
-145.637576675709 5.57825127573471 13.6623122134231 0 0
-166.426573185771 8.60405977284014 26.1530083602904 0 0
-217.058288830829 36.684273008731 9.384023962688 0 0
-221.04127715982 32.1993110938105 -20.6180378082241 0 0
-19.8510416322177 2.8189180772676 0.999229395992547 0 0
-65.1654462561446 -2.44271814299988 -19.0259271956648 0 0
-212.293357558439 -22.097406823166 20.407416435864 0 0
-177.26712927021 -2.07626101984595 -14.5786954806733 0 0
-24.6804674871706 2.6439440871442 -20.6668143973973 0 0
-215.375587375224 33.0308619372628 12.1541790923174 0 0
-3.50166395891034 8.74529874989946 -17.8884523578146 1 0
-163.46540079857 15.9074279372294 13.5893122936664 0 0
-213.426953134971 49.1152395258945 -9.47616333909711 0 0
-220.747166262733 17.7085953000102 3.99456821308138 0 0
-68.2898914519847 -21.3953261067074 -9.54054000379868 0 0
-163.462577665004 0.174590216034483 25.7431591602065 0 0
-134.344515476104 -24.2793091140892 0.710385701931086 0 0
-162.921464701961 -21.1386284311228 -6.8225537749259 0 0
-217.923212243148 -19.9410909481706 17.9087043682091 0 0
-211.367101296195 49.5941500196572 -5.48805332775273 0 0
-191.387092799212 23.7410521550292 -27.6251584775857 0 0
-35.5153231367332 -12.8749565576522 -20.5099905161357 0 0
-184.523433468033 1.53354724238075 16.6587395875799 0 0
-53.3470579838448 5.95598412843172 -14.2240861417667 0 0
-117.78122245203 -1.50277994210602 11.1715112711581 0 0
-47.455278305802 -14.0187611731024 -19.5292084737377 0 0
-93.5141260922477 4.44220941211978 -10.9757934041441 0 0
-112.827887720887 5.35308813014613 -4.57239862252197 0 0
-187.902920205371 -13.2060126541291 -13.5910200506154 0 0
-22.9602772788159 -14.4992220035428 -0.265173295819141 0 0
-216.160185222611 -11.4253305011449 -2.13914524326511 0 0
-171.782346213469 0.561144556324402 -12.8080713542405 0 0
-192.517400072691 -28.1711356190687 21.0266979348194 0 0
-148.391152036106 -14.3850291143709 20.0934687401416 0 0
-111.149099270381 2.5745914504437 5.53782466667992 0 0
-191.479000139547 41.4255990972242 9.80092279361237 0 0
-170.570619966383 5.65748441036659 -11.703180792863 0 0
-186.379512564534 36.3566092288945 -20.6677119771893 0 0
-168.868727804014 -14.6938676902641 -8.50202981102337 0 0
-4.24001363187534 11.05315914884 -11.8552082713098 1 0
-22.5243125638412 8.12102794274419 -15.9955210704983 0 0
-206.140364606635 -13.2607328067217 14.2709883195537 0 0
-210.009111467551 49.4949979680807 -14.4356880494693 0 0
-203.173117911263 48.203577708514 5.73678892641135 0 0
-196.839079317085 -36.0502457441731 7.59267130953665 0 0
-183.766815266626 -1.97541692292067 -16.0730422124339 0 0
-98.2555820110753 -11.5238720712508 -15.4145123074136 0 0
-181.97286840227 34.7569616202313 -3.47861535248453 0 0
-180.290551860488 -2.36478058001305 -15.6351359763946 0 0
-152.351275342304 -5.69254547067691 22.0533674136984 0 0
-159.083229415566 10.499891985848 25.0803662868346 0 0
-187.467651048771 42.8207565185651 4.75571096854567 0 0
-174.559443244412 -24.1938512706522 22.1991833434868 0 0
-118.293239828081 -11.7625999698638 15.3036800750463 0 0
-129.812261793085 -22.1967443232682 -5.54425626608997 0 0
-118.197028438597 -8.07424163152799 14.4637869222424 0 0
-197.197756388784 32.7122373475096 -29.7935417825861 0 0
-208.509664686268 38.9202043697585 -27.3918651542501 0 0
-51.856388356592 7.1900763584341 -8.22892084506819 0 0
-204.117514301173 48.4893501779896 -10.4069550356798 0 0
-157.091193807478 8.89505834185716 -6.47174659246388 0 0
-131.193299259263 3.63140359232068 -8.30543531374023 0 0
-194.811300768545 22.1966069646724 -28.8815674323858 0 0
-175.248649703092 -32.6431747529931 9.16893739506921 0 0
-134.785438548238 5.84609334550593 -1.43243003215293 0 0
-207.267503744974 45.4375137392274 8.09113747533373 0 0
-192.67422098998 -12.1935129461672 -16.4871127885422 0 0
-218.521014188227 -10.779934466996 -1.19069777640347 0 0
-184.283054267769 42.2645084591311 -13.4693839161075 0 0
-216.626859285695 -18.4832504361791 -7.57181277172536 0 0
-99.382132388387 1.06217919436413 5.88084166700146 0 0
-207.042530877722 -23.2383394983057 -10.5401294088574 0 0
-213.453144900931 -8.13697215066717 6.98158078795021 0 0
-214.611928349487 13.4041737600507 -4.34556740309291 0 0
-38.7473770949571 -7.74946589355621 6.34026111462351 0 0
-200.629670972338 -31.2300742839528 14.5953899044923 0 0
-186.008334270556 -11.9209190870768 28.3983595560259 0 0
-95.8157499443291 -16.2722940783849 11.2219791913821 0 0
-103.861110857407 -19.280236646817 10.6504464655279 0 0
-205.578357614184 34.3535300086758 -29.891409470794 0 0
-157.275909175292 3.69939209547187 -11.1568828941426 0 0
-133.740506649494 0.865941280139942 -10.1676543436542 0 0
-16.6643084436441 -12.7205685958089 -20.4800094644292 0 0
-138.807194309269 -22.0257964085448 -5.59333965230977 0 0
-92.6815249366 -22.2216746377216 3.13110753025548 0 0
-163.408082389857 -18.2661897249798 22.6684292080127 0 0
-186.90408470378 0.348328906259222 15.4130354980748 0 0
-156.724594496124 12.1382548254513 22.1843909435328 0 0
-185.865185750114 13.0127283795939 -18.0416728040976 0 0
-225.307550220428 25.0324214302408 -1.92624602463757 0 0
-202.419155606075 -6.08695501287469 24.288177786276 0 0
-122.864898233847 2.27672674050786 9.29986218372743 0 0
-200.927062556513 -8.17449339553349 26.7790112264681 0 0
-122.015108204881 -3.30544218055382 13.1376307362531 0 0
-61.5242520851077 -12.5063753805883 8.08796354738561 0 0
-8.42424928216226 7.00948984904123 -19.1215908596493 0 0
-198.782815283372 -29.9694385122918 -6.75947766000185 0 0
-106.279464558867 -21.1481987917284 -8.99348718974622 0 0
-225.06095926418 32.3427511523792 -12.6440721849309 0 0
-203.270011780164 -16.9460528940154 25.6630648345635 0 0
-79.5871518950489 -9.50973815735228 -18.1680241464 0 0
-95.5662319958061 -22.9925266764405 -1.04219642975408 0 0
-117.710137489345 4.03283365015154 2.63343248631486 0 0
-92.874439180118 -7.31433551670698 10.813102227316 0 0
-214.425667991167 -25.8431722661244 12.8403713956303 0 0
-206.274735265085 -12.4893741876951 25.9235407093093 0 0
-68.3167409545097 -19.755863517894 1.94430876436034 0 0
-69.482494609703 2.97354526558666 -15.8727485805933 0 0
-209.09443897851 -17.8021989500887 -13.4040811218419 0 0
-205.309109582654 36.0511889102738 15.0076014413827 0 0
-33.3732461296716 -17.2601973737925 -16.4792846292998 0 0
-73.3474114542338 -19.7006471120511 3.57979628801144 0 0
-174.974987444621 4.2822787895051 23.7159493854101 0 0
-215.420124290341 -17.5073369055774 21.7927000337324 0 0
-177.171865104041 -31.1213188952426 -5.92219186140759 0 0
-87.7394073660029 -6.34859981964954 -17.0894340867637 0 0
-194.593869034319 -28.6526736955303 -7.93620331639294 0 0
-208.803749746237 6.26824873657508 -11.4654751783655 0 0
-106.398508437351 -7.32284597841843 -14.7689557569786 0 0
-177.938991004666 14.3793774461195 8.37156865377323 0 0
-192.747992282275 47.614459452748 2.43817046091975 0 0
-185.998782099229 15.374543462594 -19.6158181903241 0 0
-79.1940891066348 1.56715472733085 -15.7807048323247 0 0
-219.148944729773 20.6443689653958 7.72509101997301 0 0
-193.465209510846 -3.92733427023318 11.5610595397766 0 0
-151.188447211726 -19.0023837097988 20.183435584771 0 0
-93.5146027336225 -4.77177305170922 9.60196440355854 0 0
-192.727922830714 -16.9692304645738 -13.1746686229541 0 0
-196.144662505836 -14.7423168628308 27.9039333266513 0 0
-31.6926225032773 -2.48506420675702 4.28893031257112 0 0
-223.563378058847 35.6411678819719 -15.0054615377596 0 0
-1.76064630681863 -3.70704949629481 -23.869265279507 1 0
-186.797047654051 31.7811817885601 -21.8801346033597 0 0
-90.5008813982056 1.48541611720669 -14.445799617985 0 0
-102.675819130535 -1.28962022645694 8.84778247095209 0 0
-87.705431307887 -0.258143279391463 5.84354218691247 0 0
-95.1022770724706 -2.83152697256939 -15.305190535492 0 0
-169.304053550163 -29.0574982166814 14.7985450908271 0 0
-193.281323282397 3.99685506215212 9.71434123084767 0 0
-38.0505309324426 6.72550999053056 -15.5986608996963 0 0
-209.286692723361 -23.7227082987236 -9.97086964596872 0 0
-93.3463756067805 -20.1435525060077 -11.3358351841027 0 0
-209.145931653669 9.40742498919271 -4.10987002245897 0 0
-191.315093593569 -7.66260275752422 29.2571795123548 0 0
-71.5820076190195 -7.7757591777194 -19.228016750461 0 0
-151.76627357828 -19.5009492585204 -7.26934063066962 0 0
-144.056082023277 5.40754007218907 -7.66454350405656 0 0
-82.3759095474588 -20.852365031106 3.99009589494083 0 0
-224.057170395405 -14.6293800468994 6.85632455668464 0 0
-192.172071570291 -10.4158456951612 -19.2347120356774 0 0
-66.7929466445859 -1.15234499909849 -18.3519465707784 0 0
-217.000197062859 10.3663933331932 -14.9271152839593 0 0
-200.388327305536 -12.7067833452637 9.55941424742494 0 0
-208.780516414791 -23.006017573958 21.1764958755327 0 0
-214.064414252129 -22.7832800262894 -8.23795330558611 0 0
-165.057770867497 11.6457261822205 -2.64257240815267 0 0
-100.669214272087 -21.3911886385321 -9.10581263311949 0 0
-105.08036383479 0.959446922751922 7.27074952216404 0 0
-198.233784285929 9.27457384205365 9.34240004334442 0 0
-223.41330299715 21.6396254604805 1.69961394048522 0 0
-16.6997368008222 3.41479778192213 0.649105250673354 0 0
-198.907734860242 -34.7186534827233 -4.06150550347145 0 0
-165.722313018987 -15.482173103736 -8.12481653856549 0 0
-0.609524304820694 -17.1166896140045 -10.4392800695792 1 3
-192.411055499243 -21.3204994269944 -12.3438309359778 0 0
-222.98521542817 -14.9685412953717 4.0398460642438 0 0
-213.768228372588 -19.3960181680835 21.4958295353398 0 0
-197.630050610117 -36.3779147736123 2.970053390835 0 0
-186.426841906804 -4.15611620061122 -16.7646414789945 0 0
-30.3141466131848 -17.5921632331633 -3.36671409066214 0 0
-175.767504138351 -29.7938181089368 17.7011501028224 0 0
-109.103071823007 -6.37836920590808 12.4159097619798 0 0
-66.4427788046539 -14.0185572031881 -18.1199229692714 0 0
-142.640513944629 6.11171051997384 4.02266001609785 0 0
-185.453027118142 -8.77154349933044 -15.1565079927557 0 0
-181.840367083938 23.911765885304 -10.9798653112915 0 0
-175.552466156223 2.17800223422694 -13.8272856747372 0 0
-210.897929039207 -9.03674480837623 6.41128142677423 0 0
-205.334702864871 -18.2954849366417 24.6583210817128 0 0
-20.094647994237 -5.13648241151979 4.81822302645537 0 0
-202.983851779758 48.0059227996695 -8.2669598184266 0 0
-148.049336193859 6.09603024363803 9.59022129856571 0 0
-129.946630674819 -16.2817077977398 16.7660340173374 0 0
-217.784823680776 -12.0102595308196 -4.29081964074092 0 0
-155.287447630808 3.3030078422299 -11.0584639499246 0 0
-188.202433376214 -7.9230669896594 -17.2356803331506 0 0
-70.2270119629583 -4.39012477560542 7.05578601447885 0 0
-178.491643536775 6.81979722422742 15.146874018625 0 0
-179.876436629289 -21.7920500013641 24.2876429489161 0 0
-132.797486959564 -5.09427553919446 -11.8505306709573 0 0
-131.327547314666 -0.770583154301169 -10.9943851327165 0 0
-105.350183308261 -13.2251951634132 -14.0223249881777 0 0
-182.436714856923 28.8163408403212 -7.36319064649085 0 0
-20.6215300299827 -13.082518268773 -20.2831275727568 0 0
-201.646822095443 -25.8147271574115 -8.38397746638372 0 0
-65.5815629328109 -10.8411464658447 9.10845667027021 0 0
-207.828500573375 10.0870440041279 -0.438305251509969 0 0
-127.405300652337 4.73658266635795 1.62191943187577 0 0
-28.1651454305666 -7.42322421786414 5.35258716113143 0 0
-104.955716114893 -22.6732909675851 5.94463197081612 0 0
-182.886949527876 26.0607717545023 -2.34342430697753 0 0
-124.3251990507 3.7939528732841 6.1357676097885 0 0
-156.921008150668 -22.5667639672625 18.8823270943436 0 0
-199.481412233468 -12.0012773332161 12.4062793974491 0 0
-169.936761511908 -5.97951334806967 25.963322784509 0 0
-185.834417802176 33.8337720263599 -20.2763316352414 0 0
-189.285929965652 34.0425575603775 -24.5438280701892 0 0
-222.131708766936 -5.51303504265912 18.9686034794969 0 0
-39.8165157653012 -19.3349726852633 -12.8169089047994 0 0
-194.678746910651 -29.2531839849049 19.7850130115962 0 0
-146.461825842434 3.03384550237392 17.1979834471594 0 0
-23.1148300212466 3.52318024624942 0.439046352595167 0 0
-198.020726379259 1.10179863778483 -20.2057773414991 0 0
-8.77631656599124 -10.7724646592986 -21.627496323717 0 0
-8.66604332530901 -7.98784663052891 4.96953835868645 0 0
-78.5165477288121 -2.01989985819669 6.31613426158669 0 0
-202.526101342302 -11.0709843095849 5.49136958141246 0 0
-89.4130981144467 -10.2051719047878 11.5726258894248 0 0
-94.8691799909947 -9.79275055997453 11.6280234483102 0 0
-163.157046720884 -6.09897760359146 -10.1562028585752 0 0
-47.6613411800728 -4.3105700984073 -21.3172247210503 0 0
-60.3317495515586 -15.1194546874996 5.85768546092028 0 0
-217.012059892396 19.0121830684388 -23.6092914689768 0 0
-208.746389335752 39.8257925344195 12.3532697469077 0 0
-97.1590511607877 -16.445595516618 -13.9255862728454 0 0
-212.256374052801 13.3475964226472 -3.03402661608737 0 0
-222.777568070792 -5.2637681213045 9.59399900875167 0 0
-122.031864740193 3.85010272665596 -8.87783243499105 0 0
-7.42652959379947 -5.39451723767344 4.78726475862766 0 0
-84.8952460109909 -20.4109683203807 5.98393884793614 0 0
-199.01722099119 -11.3177344026879 10.9290996601446 0 0
-169.06071015857 13.4688169511284 1.69531021038386 0 0
-195.690942859461 15.051363986506 -26.2910777759678 0 0
-193.07509166659 40.2597771687379 11.4025521620996 0 0
-158.62333191914 0.330334286240609 24.5974990652053 0 0
-221.556645691578 -15.0879104407631 14.847394060225 0 0
-122.85397071211 -5.38636393850133 -12.8189190729304 0 0
-177.260402898596 17.7286574789772 -9.57378973892661 0 0
-203.335147144098 -15.0650688418742 -16.7535787307 0 0
-222.876038312152 -10.7298843889914 14.809607599845 0 0
-223.320732590252 24.1651470077568 3.43088631128181 0 0
-182.773634739431 41.732898467064 -5.08207275003141 0 0
-66.3770923846307 6.32375817702324 -9.30113833540609 0 0
-65.0627137643663 -4.47565639190042 6.54494169641613 0 0
-174.807976250497 6.2480638138519 23.2343341803879 0 0
-192.113613433146 -15.3465892495073 28.0013579008384 0 0
-101.983989687772 4.7820789683762 -1.14245966695735 0 0
-159.520934107072 -27.5355503056127 5.64408369493579 0 0
-145.554754802558 5.13596016982283 -8.39907758913809 0 0
-18.052553281971 -15.3447436427234 -1.96183050185613 0 0
-134.236945108229 -5.62916580673687 16.8270979152724 0 0
-199.862068045179 32.3854970200222 -30.3869624984418 0 0
-221.000406425015 -5.62871464374884 8.70791381127123 0 0
-179.346578433473 -10.6185120638281 -12.0620904169038 0 0
-213.308422985289 -12.3472677049807 24.4573046302454 0 0
-178.020813601948 -31.3611225093715 16.4682066557446 0 0
-200.930421128809 47.5057385161459 -3.56100537014729 0 0
-186.586492997326 45.2735591443499 -1.46661747786493 0 0
-82.3682198448826 5.12460523259143 -2.73928530744754 0 0
-177.249006300486 -33.5682973669716 3.53463789433608 0 0
-217.252950749956 -21.4603887426019 1.5493854641023 0 0
-173.563165132764 7.06519429674868 23.8065313094039 0 0
-151.766440006042 7.63138805332388 16.6231100150367 0 0
-118.365004603576 -1.10976836751081 -12.1096677044755 0 0
-74.4152973076399 -7.33982730311638 8.82909985690967 0 0
-136.452322250127 -21.063806043052 14.8396958224898 0 0
-153.002914780624 -24.5061703880549 14.8886621179199 0 0
-46.8597975615187 -12.6248106075045 5.17530403199927 0 0
-119.308423110707 2.67437087935616 7.63853627909095 0 0
-150.938417946144 4.26359145921208 21.1772868023068 0 0
-222.952335359289 40.3427140645698 -4.9681527210334 0 0
-149.593337797209 5.04883275677971 17.9603845020312 0 0
-66.0182403667502 4.82704100582285 -1.79801208523315 0 0
-167.473203398543 -28.1898876784111 15.4433734517024 0 0
-22.6404247428103 7.07605270591699 -3.18484657850472 0 0
-197.071868598776 37.6434774688676 13.9956178383245 0 0
-158.435189551091 -25.562617729826 15.439677217136 0 0
-46.2059385119447 -19.8818589867948 -4.98114393100741 0 0
-207.618416030763 -30.3431715549979 -1.19184235492357 0 0
-207.497847261341 18.813934604344 13.5158573215096 0 0
-26.7754763229713 -16.7275831172047 -2.64443291201923 0 0
-213.142063380398 28.7917451924675 14.0081590196964 0 0
-10.0240219641121 9.62056758864018 -15.6241114758975 0 0
-159.144439412953 1.08893714267487 -12.0901774089811 0 0
-79.9443914685081 -9.96275964339404 10.2814557388212 0 0
-76.8079292810613 -16.9801577362293 -15.6505367170435 0 0
-174.002971253868 -13.6563963659544 -9.43810187454059 0 0
-218.863094683964 -5.63965027590364 23.287198655801 0 0
-167.464725308172 14.0016458343038 9.87087912426434 0 0
-197.019977926535 -35.7176039327466 -4.45492387547422 0 0
-87.6185941609112 -12.0411412384096 11.9004722312036 0 0
-151.764249433315 7.89117543651864 -7.03562797638181 0 0
-165.703692203867 -20.7785654316933 -7.1519324921066 0 0
-221.598576332662 -9.25345086689745 18.9110461916516 0 0
-170.076640245484 -0.91871207189457 -12.6471362518675 0 0
-129.745038136405 -8.53095661619159 16.5922667856805 0 0
-201.120618992964 -24.3465272552401 -9.17850928696106 0 0
-26.1311602898077 -5.02215010612207 5.01406830900198 0 0
-152.744030705147 -20.5596709991275 19.6918637462408 0 0
-167.366133910852 -26.9455501574583 17.7767980528335 0 0
-204.824638012755 2.99336080867788 -0.19150689546673 0 0
-140.577659344923 -12.9773505176164 -9.96799442884793 0 0
-114.965112979488 4.38759581113676 1.23360247316047 0 0
-225.952019620927 26.7280650874811 -7.85420013795624 0 1
-201.569077576483 47.0248648029737 -6.9339502272404 0 0
-95.3072518743901 -21.1941154094636 -9.81445279840682 0 0
-206.464073169587 -10.843988064931 4.65194212304161 0 0
-214.601927495748 -20.7025580849447 20.2822304219003 0 0
-200.56589095276 26.9602993765169 16.3291377611025 0 0
-211.313888827051 50.0009855361764 -8.70112738190264 0 0
-125.268686007084 5.3239840048594 -1.74718021899559 0 0
-109.006798905259 -9.06539393530342 13.502983334655 0 0
-97.1751667958446 -5.37302722852815 -15.6381145258542 0 0
-160.74077900792 -4.46718488123197 24.5651281002 0 0
-65.4169358389478 5.18269713031602 -13.5236506093983 0 0
-124.020013737546 -15.5864495277557 15.9961614784174 0 0
-101.570302218753 -8.1731063917888 -15.3421105754661 0 0
-90.360576714606 -20.7628004675404 -10.7713192367364 0 0
-207.856755273291 -1.64960530491637 -3.57628686145583 0 0
-182.174310848572 6.04829646365242 13.4063438581012 0 0
-157.615371165399 -18.4559465077146 21.3996342682865 0 0
-193.34636671724 -4.86887538235101 -19.2931760595985 0 0
-1.32852675310236 5.17480147734576 -0.19147538092569 1 0
-50.3970918613657 -19.6600232534881 -13.1979244361596 0 0
-210.741764542025 -5.22175815469906 15.293879524221 0 0
-189.074230479882 -14.8484190031262 -13.2404938249637 0 0
-191.519455802497 -1.82831530264796 13.8941005884859 0 0
-150.768709798303 -13.6217126772181 20.5394999336232 0 0
-145.296476266754 -22.7397097778296 -4.614499407776 0 0
-221.304314845499 -12.5340709969957 0.547042591469648 0 0
-217.172780196295 42.3690426144021 -19.0444250944437 0 0
-144.188273348404 -1.25930105639183 18.3969931545314 0 0
-216.688499694598 43.2358466990257 4.03602544300593 0 0
-26.6389439924675 -18.9458362506559 -11.5493544513655 0 0
-223.382501080981 26.4454462151296 3.83177971841902 0 0
-209.851525430542 19.6096604145578 13.6453404559573 0 0
-189.918850974715 7.71353046013518 -19.1411840948903 0 0
-137.729122627956 3.03480600971548 11.929473898864 0 0
-196.963877523973 26.579307371113 -30.1212685612948 0 0
-199.470459009253 47.238798955686 -10.7689051351507 0 0
-191.523206745164 0.395844565432704 11.6381979061887 0 0
-219.568478120928 -19.0260203743461 0.829086068928546 0 0
-166.514304487264 11.7114322368047 4.29359509211057 0 0
-179.540651987921 -14.5675238467438 26.5478539076008 0 0
-180.488310026092 5.92971124761188 14.6720527200281 0 0
-212.621599073513 -10.4444501640365 -0.411546812328724 0 0
-187.483157458088 -31.4022374380034 18.7655021900127 0 0
-101.733923486487 -12.8212848629484 13.9588418128385 0 0
-206.042881374011 3.09852785967342 -15.1480161396759 0 0
-52.2965919899794 -19.6520099088713 -2.4350476305069 0 0
-171.139460007483 -12.9981725171951 -9.29393218670974 0 0
-185.477017750387 14.8623149859351 8.37161106284023 0 0
-208.576198951454 -9.74243000064009 -0.421801496322898 0 0
-74.9154338260914 -15.0523227256942 -16.8807877751388 0 0
-209.01765087171 11.9563940421533 0.108098590623558 0 0
-207.986296855539 5.71300429260381 -14.8397043200941 0 0
-165.435685487298 11.1421105482898 -6.17362061509188 0 0
-48.0547189686922 -18.7725017167197 -14.8816548633594 0 0
-109.8459019229 -9.92276668671443 -14.216062353046 0 0
-118.033003756861 5.32469558300783 -5.82719103157379 0 0
-168.664893074919 15.1248563870774 22.6045600566734 0 0
-184.921783848886 -26.9794390779879 22.2094892982588 0 0
-215.085170945186 43.1049122338215 5.91471856412633 0 0
-180.328924092899 -3.23759772232278 26.5447123826391 0 0
-114.591257407272 -11.4219198195954 -13.3161700489443 0 0
-180.861452455244 3.72082546075572 -14.980906326843 0 0
-86.0826693568351 -19.849810852967 -12.2725467996539 0 0
-163.881911919957 14.3498455635192 22.9730286670773 0 0
-134.264034569768 3.24083428515301 -8.60271489828657 0 0
-32.0190452034161 8.24691826718593 -7.04056790106945 0 0
-209.073579084253 -12.0254518549909 -15.1856633609586 0 0
-212.080885452117 -15.1463198810941 -12.8425795144479 0 0
-224.970881289455 28.3988188065904 -13.3937096190401 0 0
-215.353485299276 -12.4850663999062 -8.08437993417259 0 0
-37.4342738207536 -4.19854650194493 -22.1812171237526 0 0
-164.996971075152 11.5284788118284 6.21549156288503 0 0
-104.029674141688 4.34684945248381 0.413623937842915 0 0
-138.876723811107 -23.8126732387783 -1.92437081806344 0 0
-149.516377387742 -6.48731381290313 21.0029663825139 0 0
-80.8926242064211 4.12116594475315 -13.2018340256308 0 0
-207.356579380448 50.0250901509381 -14.6823155652894 0 0
-182.753602461448 -37.0364693768845 11.5213859060865 0 0
-50.0062617438317 -13.4669647336305 -19.6616568519499 0 0
-47.9430696417442 5.06329086482662 -1.85925549772346 0 0
-149.863780503737 4.43522621201338 19.3524499604095 0 0
-105.75384051616 -10.4283725535674 -14.6172364751119 0 0
-157.689390658819 -25.2842777298719 -1.81027639712562 0 0
-189.752418572737 -34.4971018095443 13.7144167006142 0 0
-191.038836006401 -0.949541779161513 12.8776205949314 0 0
-217.439514763242 32.4727413405824 10.7463226280859 0 0
-208.790042623012 49.2124124352899 -16.3045649979698 0 0
-154.375512334603 -17.5039437639962 -7.86876840120162 0 0
-162.864371655857 2.22939268499546 25.9825661279769 0 0
-185.139993751198 -5.92418199180728 28.7850201726494 0 0
-218.090721386855 43.3908262013629 1.97967275429471 0 0
-137.322265964463 -10.250929799929 -10.907215239358 0 0
-156.709428536022 11.4779281309661 14.5176001390285 0 0
-197.525177401288 -33.6443783736748 -6.32368097514805 0 0
-168.174841516725 -30.02925167415 8.7322894732306 0 0
-83.074059979597 5.72494879513119 -7.12633747575331 0 0
-207.139008599098 0.957524746164336 -3.55794805990216 0 0
-66.2300810068622 3.78807019143231 -15.5139178928857 0 0
-212.513083526568 -24.7413012054748 -7.40848813248662 0 0
-150.87697603852 6.33004975542384 17.4606835497806 0 0
-203.774380795103 47.070945858873 -21.1018189323406 0 0
-198.662198318127 -35.3858430082379 8.40504393286175 0 0
-124.959099331422 4.69519892159468 1.04364190936669 0 0
-186.920717599718 4.950603605508 -16.9189566187744 0 0
-60.3680718417869 -18.7566116186495 1.53408295832163 0 0
-181.570379525301 -0.492495388856028 -15.7892293007325 0 0
-209.322856397198 -4.98384446331607 17.2533184753902 0 0
-158.566956673084 12.2133156196585 23.5643660979977 0 0
-200.552661379943 -33.5308937622887 -3.18346079984593 0 0
-214.359608182897 23.5899888223638 -27.0757059410113 0 0
-187.465624511814 46.3267467979902 -3.7064432275412 0 0
-97.9185821834881 -23.1070992558943 -3.51067053913862 0 0
-105.761863767652 3.47960496238492 -11.1277052856959 0 0
-213.466445248115 -12.8618107685324 -12.3298923012176 0 0
-174.555906465084 10.2372416276539 19.3122644123939 0 0
-78.8579699906136 -2.17939594721455 -17.1676638609393 0 0
-218.838872970318 0.475364766159933 19.2132430250803 0 0
-47.3033381362917 6.43088285669319 -14.4599685221246 0 0
-81.2813080000663 -19.5314758279159 -13.0257449930206 0 0
-149.946578582525 3.04217593699463 20.4768444061629 0 0
-209.394213658475 -27.3101689029548 17.1356022738095 0 0
-64.3391813783796 2.33163218009664 1.73513318181796 0 0
-193.46053727736 -7.45606920751007 -20.8024206228337 0 0
-201.1236275894 -15.6556106408016 -16.6457405283416 0 0
-175.780238270148 -15.768957352586 -9.06715729849094 0 0
-217.170977622094 36.5816298037002 -23.5811141210295 0 0
-89.9979285884797 -19.0615548318094 8.99567353166889 0 0
-212.707611175941 12.7925904657102 -4.11181296024423 0 0
-208.373180103779 -27.8033980024419 -5.66578582778628 0 0
-218.4754414267 0.95540191929502 16.9834251192519 0 0
-184.16401125694 42.1284917581577 0.256374465693645 0 0
-194.848885959592 -26.9990503358961 21.618884811571 0 0
-198.359164229396 48.105173151082 5.22926748915727 0 0
-181.765671934644 3.17683550572012 17.4034422251867 0 0
-7.57645159784773 -7.25497814292671 -23.1231176681166 0 0
-217.313257084581 40.7400908764987 -20.6753554550367 0 0
-83.692052501993 -8.01331353985281 9.93576603960153 0 0
-159.293356916422 -25.0536264712399 -2.98215123818478 0 0
-183.970610513199 43.3265780256067 -4.42469350317218 0 0
-189.60569679286 5.52020385245463 10.5980632485641 0 0
-92.4779080340026 -22.8774783736546 -2.37773303653141 0 0
-188.440200053338 -27.3518148634266 21.9205613115741 0 0
-182.884512362611 1.46259481382949 -15.3072101716714 0 0
-167.946830103644 17.0363413545735 16.1608651113199 0 0
-158.738498378769 13.8993265060022 16.5102255820689 0 0
-200.472452527263 -27.9225277209751 19.6970906440617 0 0
-162.631965474137 -28.1094125605255 10.353906882295 0 0
-214.522082863976 -20.7448448877631 -8.84543241151375 0 0
-185.540563077969 33.4114146355425 2.08528860152067 0 0
-161.508265228053 -26.0207457967631 16.6258078508414 0 0
-210.427624011665 7.01373033605414 -18.3503453915781 0 0
-166.230812975158 12.8145555252731 7.85707537398106 0 0
-211.99488532187 14.7149634676355 -24.6992203336319 0 0
-77.5997298364021 5.80852733391832 -5.73170756860694 0 0
-217.757048496054 -7.36124889442292 23.695530981257 0 0
-201.556323549442 -4.12508377608055 3.03921685238185 0 0
-215.170528092446 20.9302601198531 11.4114482012028 0 0
-201.570448838105 -31.5128066530629 -5.3292851297809 0 0
-143.037187705865 -18.9076094282192 18.0464528616671 0 0
-211.899977514242 8.24710692213449 -11.4859466893118 0 0
-212.563234339657 21.3654155728888 13.140964523299 0 0
-177.913766016193 -33.1071117386318 -1.53437811923958 0 0
-209.035128259687 -9.96612952557445 5.04365500247736 0 0
-193.274200859703 -35.7742231533999 9.4307072586321 0 0
-193.633909648187 -4.83275286671632 12.6115902568021 0 0
-192.832174875572 -1.87398153308954 12.0486480188466 0 0
-199.170595274264 38.1580629813464 14.1944098694138 0 0
-193.52596817513 -14.3849120319861 -14.754626688161 0 0
-184.114453130475 19.0983772594171 -17.817666040033 0 0
-201.132586770828 -23.1728458053039 -10.191886982619 0 0
-151.197142786974 8.23901631870073 15.0576240348389 0 0
